ply
format ascii 1.0
element vertex 922
property float x
property float y
property float z
property float intensity
end_header
0.879000008106 -0.458999991417 0.0289999991655 1521.0
0.876999974251 -0.465000003576 0.0289999991655 1548.0
0.867999970913 -0.467000007629 0.0289999991655 951.0
0.862999975681 -0.470999985933 0.0289999991655 379.0
0.850000023842 -0.470999985933 0.0289999991655 315.0
1.0379999876 0.59500002861 0.0230000000447 226.0
1.06900000572 0.603999972343 0.0240000002086 211.0
1.02799999714 0.572000026703 0.0230000000447 216.0
0.967999994755 0.53100001812 0.0209999997169 211.0
0.973999977112 0.526000022888 0.0219999998808 208.0
1.00600004196 0.536000013351 0.0219999998808 246.0
0.98400002718 0.51599997282 0.0219999998808 229.0
1.02199995518 0.527999997139 0.0230000000447 286.0
0.964999973774 0.439999997616 0.0209999997169 238.0
0.949000000954 0.425999999046 0.0209999997169 224.0
0.976999998093 0.425000011921 0.0209999997169 203.0
0.958000004292 0.389999985695 0.0209999997169 191.0
0.971000015736 0.388000011444 0.0209999997169 181.0
0.911000013351 0.351000010967 0.0189999993891 145.0
0.888999998569 0.337000012398 0.0189999993891 144.0
0.874000012875 0.319999992847 0.0189999993891 157.0
0.885999977589 0.317999988794 0.0189999993891 152.0
0.828999996185 0.291999995708 0.0179999992251 138.0
0.606999993324 0.209999993443 0.0120000001043 93.0
0.340999990702 0.115000002086 0.00600000005215 78.0
0.528999984264 0.175999999046 0.0109999999404 88.0
0.372000008821 0.120999999344 0.00700000021607 71.0
0.400999993086 0.12800000608 0.00800000037998 69.0
0.305999994278 0.0939999967813 0.00499999988824 65.0
0.512000024319 0.153999999166 0.00999999977648 86.0
0.546000003815 0.159999996424 0.0109999999404 85.0
0.347999989986 0.097999997437 0.00600000005215 68.0
0.351999998093 0.097000002861 0.00600000005215 69.0
0.749000012875 0.201000005007 0.01600000076 118.0
0.312999993563 0.082000002265 0.00499999988824 70.0
0.637000024319 0.158999994397 0.0130000002682 97.0
0.615000009537 0.15000000596 0.0120000001043 88.0
0.643000006676 0.152999997139 0.0130000002682 86.0
0.340000003576 0.0790000036359 0.00600000005215 66.0
0.354000002146 0.0799999982119 0.00600000005215 64.0
0.368000000715 0.0810000002384 0.00700000021607 68.0
0.458000004292 0.097999997437 0.00899999961257 76.0
0.375 0.0780000016093 0.00700000021607 73.0
0.597000002861 0.119999997318 0.0120000001043 101.0
0.95300000906 0.180000007153 0.019999999553 183.0
1.01800000668 0.180000007153 0.0219999998808 185.0
1.01999998093 0.168999999762 0.0219999998808 186.0
1.0340000391 0.165000006557 0.0219999998808 190.0
1.01699995995 0.126000002027 0.0219999998808 231.0
1.01499998569 0.108000002801 0.0219999998808 243.0
0.991999983788 0.0939999967813 0.0209999997169 238.0
1.01800000668 0.0909999981523 0.0219999998808 243.0
1.01900005341 0.0790000036359 0.0219999998808 257.0
1.01999998093 0.0680000036955 0.0219999998808 262.0
1.01199996471 0.054999999702 0.0219999998808 269.0
1.02499997616 0.0500000007451 0.0219999998808 274.0
1.03900003433 0.0390000008047 0.0230000000447 279.0
1.03699994087 0.0329999998212 0.0230000000447 286.0
1.01100003719 -0.0649999976158 0.0230000000447 657.0
1.00699996948 -0.0710000023246 0.0230000000447 843.0
0.966000020504 -0.0729999989271 0.0219999998808 203.0
0.976999998093 -0.0799999982119 0.0219999998808 159.0
0.966000020504 -0.0850000008941 0.0219999998808 160.0
0.962000012398 -0.0900000035763 0.0219999998808 160.0
0.999000012875 -0.0989999994636 0.0230000000447 157.0
0.962999999523 -0.101000003517 0.0219999998808 165.0
0.972999989986 -0.108000002801 0.0219999998808 167.0
0.973999977112 -0.11400000006 0.0219999998808 168.0
0.949000000954 -0.115999996662 0.0209999997169 171.0
0.962000012398 -0.123000003397 0.0219999998808 167.0
0.949999988079 -0.127000004053 0.0219999998808 171.0
0.975000023842 -0.136000007391 0.0219999998808 174.0
0.962000012398 -0.140000000596 0.0219999998808 181.0
0.958999991417 -0.145999997854 0.0219999998808 276.0
0.980000019073 -0.155000001192 0.0230000000447 1128.0
0.981000006199 -0.159999996424 0.0230000000447 1333.0
0.980000019073 -0.165999993682 0.0230000000447 1349.0
0.976000010967 -0.171000003815 0.0230000000447 1348.0
0.975000023842 -0.177000001073 0.0230000000447 1354.0
0.96899998188 -0.181999996305 0.0219999998808 1373.0
0.97000002861 -0.187999993563 0.0230000000447 1384.0
0.966000020504 -0.192000001669 0.0219999998808 1393.0
0.966000020504 -0.197999998927 0.0230000000447 1390.0
0.961000025272 -0.202999994159 0.0219999998808 1407.0
0.967999994755 -0.209999993443 0.0230000000447 1418.0
0.962000012398 -0.215000003576 0.0230000000447 1431.0
0.957000017166 -0.219999998808 0.0230000000447 1433.0
0.958000004292 -0.225999996066 0.0230000000447 1438.0
0.954999983311 -0.231000006199 0.0230000000447 1005.0
0.953999996185 -0.236000001431 0.0230000000447 264.0
0.935000002384 -0.237000003457 0.0219999998808 214.0
0.921000003815 -0.239999994636 0.0219999998808 215.0
0.950999975204 -0.254000008106 0.0230000000447 215.0
0.943000018597 -0.256999999285 0.0230000000447 225.0
0.916000008583 -0.254999995232 0.0219999998808 228.0
0.921000003815 -0.263000011444 0.0219999998808 233.0
0.940999984741 -0.273999989033 0.0230000000447 239.0
0.933000028133 -0.277999997139 0.0230000000447 238.0
0.901000022888 -0.273999989033 0.0219999998808 251.0
0.903999984264 -0.280999988317 0.0219999998808 255.0
0.935000002384 -0.29699999094 0.0230000000447 266.0
0.939999997616 -0.305000007153 0.0230000000447 276.0
0.921000003815 -0.303999990225 0.0230000000447 289.0
0.920000016689 -0.310000002384 0.0230000000447 1046.0
0.925000011921 -0.317999988794 0.0230000000447 1446.0
0.924000024796 -0.324000000954 0.0230000000447 1454.0
0.917999982834 -0.32800000906 0.0230000000447 1464.0
0.924000024796 -0.33599999547 0.0230000000447 1474.0
0.916000008583 -0.338999986649 0.0230000000447 1465.0
0.920000016689 -0.347000002861 0.0230000000447 1455.0
0.915000021458 -0.351000010967 0.0230000000447 1450.0
0.908999979496 -0.354999989271 0.0230000000447 1448.0
0.903999984264 -0.358999997377 0.0230000000447 1444.0
0.907000005245 -0.36700001359 0.0230000000447 1422.0
0.90600001812 -0.372999995947 0.0230000000447 1395.0
0.903999984264 -0.377999991179 0.0230000000447 1392.0
0.902000010014 -0.384000003338 0.0230000000447 1373.0
0.893999993801 -0.386999994516 0.0230000000447 1045.0
0.901000022888 -0.395999997854 0.0230000000447 534.0
0.898000001907 -0.400999993086 0.0230000000447 505.0
0.896000027657 -0.407000005245 0.0230000000447 529.0
0.888000011444 -0.409999996424 0.0230000000447 552.0
0.885999977589 -0.416000008583 0.0230000000447 587.0
0.882000029087 -0.419999986887 0.0230000000447 623.0
0.885999977589 -0.428999990225 0.0230000000447 651.0
0.887000024319 -0.43599998951 0.0240000002086 696.0
0.874000012875 -0.43599998951 0.0230000000447 725.0
0.880999982357 -0.446000009775 0.0240000002086 766.0
0.875 -0.449999988079 0.0230000000447 792.0
0.870999991894 -0.455000013113 0.0230000000447 817.0
0.875 -0.463999986649 0.0240000002086 846.0
0.870000004768 -0.467999994755 0.0240000002086 901.0
0.870999991894 -0.476000010967 0.0240000002086 964.0
0.867999970913 -0.481000006199 0.0240000002086 960.0
2.11299991608 1.19400000572 0.035000000149 89.0
3.76200008392 1.45200002193 0.0630000010133 63.0
3.94899988174 1.49699997902 0.0659999996424 68.0
4.27199983597 1.47599995136 0.0719999969006 71.0
4.26000022888 1.44299995899 0.0710000023246 79.0
4.2610001564 1.41600000858 0.0710000023246 74.0
4.26700019836 1.38999998569 0.0719999969006 67.0
4.24499988556 1.35500001907 0.0710000023246 75.0
4.38899993896 1.37199997902 0.0740000009537 66.0
4.24399995804 1.29999995232 0.0710000023246 72.0
4.33300018311 1.2990000248 0.0729999989271 65.0
4.28399991989 1.25699996948 0.0719999969006 69.0
4.44299983978 1.27499997616 0.0750000029802 69.0
4.28700017929 1.20299994946 0.0719999969006 64.0
4.22200012207 1.15799999237 0.0710000023246 67.0
4.3220000267 1.1590000391 0.0729999989271 67.0
4.33500003815 1.13499999046 0.0729999989271 62.0
4.31199979782 1.10199999809 0.0729999989271 66.0
4.36100006104 1.08800005913 0.0729999989271 69.0
4.36899995804 1.06299996376 0.0740000009537 66.0
4.38500022888 1.03900003433 0.0740000009537 63.0
4.35500001907 1.00600004196 0.0729999989271 66.0
4.28999996185 0.963999986649 0.0719999969006 64.0
4.29699993134 0.939999997616 0.0719999969006 65.0
4.24100017548 0.902000010014 0.0719999969006 65.0
4.23000001907 0.874000012875 0.0710000023246 71.0
4.29400014877 0.861000001431 0.0729999989271 66.0
0.573000013828 0.108999997377 0.00800000037998 52.0
1.01600003242 -0.0659999996424 0.0170000009239 672.0
1.00499999523 -0.0710000023246 0.0170000009239 828.0
0.971000015736 -0.0740000009537 0.01600000076 191.0
0.971000015736 -0.0799999982119 0.01600000076 159.0
0.962999999523 -0.0839999988675 0.01600000076 158.0
0.96899998188 -0.0909999981523 0.01600000076 156.0
0.978999972343 -0.097000002861 0.01600000076 157.0
0.962999999523 -0.101000003517 0.01600000076 164.0
0.962000012398 -0.107000000775 0.01600000076 167.0
0.963999986649 -0.112000003457 0.01600000076 162.0
0.964999973774 -0.118000000715 0.01600000076 166.0
0.964999973774 -0.123999997973 0.01600000076 166.0
0.966000020504 -0.129999995232 0.01600000076 168.0
0.949000000954 -0.133000001311 0.01600000076 171.0
0.957000017166 -0.138999998569 0.01600000076 168.0
0.967999994755 -0.146999999881 0.0170000009239 280.0
0.976999998093 -0.153999999166 0.0170000009239 1151.0
0.978999972343 -0.159999996424 0.0170000009239 1342.0
0.981000006199 -0.165999993682 0.0170000009239 1358.0
0.976000010967 -0.171000003815 0.0170000009239 1348.0
0.973999977112 -0.177000001073 0.0170000009239 1350.0
0.972999989986 -0.181999996305 0.0170000009239 1385.0
0.972999989986 -0.187999993563 0.0170000009239 1384.0
0.972000002861 -0.194000005722 0.0170000009239 1389.0
0.96899998188 -0.199000000954 0.0170000009239 1413.0
0.966000020504 -0.203999996185 0.0170000009239 1420.0
0.967000007629 -0.209999993443 0.0170000009239 1422.0
0.962999999523 -0.215000003576 0.0170000009239 1442.0
0.955999970436 -0.218999996781 0.0170000009239 1442.0
0.955999970436 -0.22499999404 0.0170000009239 1456.0
0.947000026703 -0.229000002146 0.0170000009239 1007.0
0.931999981403 -0.231000006199 0.0170000009239 253.0
0.920000016689 -0.233999997377 0.01600000076 206.0
0.938000023365 -0.244000002742 0.0170000009239 200.0
0.92199999094 -0.246000006795 0.0170000009239 203.0
0.907999992371 -0.24699999392 0.01600000076 212.0
0.911000013351 -0.254000008106 0.01600000076 211.0
0.910000026226 -0.259999990463 0.01600000076 209.0
0.915000021458 -0.266999989748 0.0170000009239 207.0
0.899999976158 -0.268000006676 0.01600000076 208.0
0.902999997139 -0.27500000596 0.01600000076 206.0
0.898999989033 -0.279000014067 0.01600000076 224.0
0.911000013351 -0.28900000453 0.0170000009239 208.0
0.89099997282 -0.287999987602 0.01600000076 213.0
0.896000027657 -0.296000003815 0.0170000009239 227.0
0.931999981403 -0.31400001049 0.0170000009239 1069.0
0.929000020027 -0.319000005722 0.0170000009239 1541.0
0.924000024796 -0.323000013828 0.0170000009239 1564.0
0.927999973297 -0.331000000238 0.0170000009239 1579.0
0.922999978065 -0.335000008345 0.0170000009239 1594.0
0.922999978065 -0.342000007629 0.0170000009239 1598.0
0.920000016689 -0.347000002861 0.0170000009239 1599.0
0.910000026226 -0.349000006914 0.0170000009239 1598.0
0.912000000477 -0.356000006199 0.0170000009239 1619.0
0.912000000477 -0.361999988556 0.0170000009239 1606.0
0.907000005245 -0.36700001359 0.0170000009239 1606.0
0.907000005245 -0.372999995947 0.0179999992251 1615.0
0.910000026226 -0.381000012159 0.0179999992251 1621.0
0.902999997139 -0.384000003338 0.0179999992251 1637.0
0.898999989033 -0.388999998569 0.0179999992251 1191.0
0.89200001955 -0.391999989748 0.0170000009239 322.0
0.873000025749 -0.389999985695 0.0170000009239 238.0
0.85900002718 -0.389999985695 0.0170000009239 233.0
0.85799998045 -0.395999997854 0.0170000009239 233.0
0.848999977112 -0.398000001907 0.0170000009239 228.0
0.864000022411 -0.411000013351 0.0170000009239 234.0
0.85799998045 -0.414999991655 0.0170000009239 232.0
0.855000019073 -0.419999986887 0.0170000009239 233.0
0.856999993324 -0.426999986172 0.0170000009239 233.0
0.850000023842 -0.430000007153 0.0170000009239 236.0
0.870000004768 -0.446999996901 0.0179999992251 244.0
0.847000002861 -0.442000001669 0.0170000009239 245.0
0.851999998093 -0.451999992132 0.0179999992251 264.0
0.870999991894 -0.469000011683 0.0179999992251 879.0
0.874000012875 -0.476999998093 0.0179999992251 1547.0
0.869000017643 -0.481999993324 0.0179999992251 1630.0
2.1930000782 1.25800001621 0.0230000000447 108.0
2.21399998665 1.25100004673 0.0230000000447 137.0
2.21099996567 1.23199999332 0.0230000000447 89.0
3.8069999218 1.46899998188 0.0399999991059 76.0
3.95799994469 1.47300004959 0.0419999994338 69.0
4.31799983978 1.51999998093 0.0460000000894 59.0
4.21299982071 1.45500004292 0.0450000017881 80.0
4.16200017929 1.40999996662 0.0450000017881 83.0
4.22900009155 1.40499997139 0.0450000017881 82.0
4.242000103 1.38100004196 0.0460000000894 79.0
4.26700019836 1.36199998856 0.0460000000894 73.0
4.1970000267 1.31200003624 0.0450000017881 82.0
4.30100011826 1.31700003147 0.0460000000894 77.0
4.27299976349 1.28100001812 0.0460000000894 75.0
4.27500009537 1.2539999485 0.0460000000894 81.0
4.24700021744 1.21899998188 0.0460000000894 76.0
4.32700014114 1.21399998665 0.0469999983907 80.0
4.20499992371 1.15400004387 0.0460000000894 77.0
4.28499984741 1.14900004864 0.0469999983907 76.0
4.27799987793 1.12000000477 0.0469999983907 68.0
4.3189997673 1.10399997234 0.0469999983907 74.0
4.27500009537 1.06599998474 0.0469999983907 79.0
4.31199979782 1.0490000248 0.0469999983907 72.0
4.2610001564 1.00999999046 0.0469999983907 77.0
4.21700000763 0.973999977112 0.0460000000894 77.0
4.30399990082 0.967000007629 0.0469999983907 69.0
4.22900009155 0.925000011921 0.0460000000894 78.0
4.23099994659 0.898999989033 0.0469999983907 74.0
4.20300006866 0.867999970913 0.0460000000894 82.0
4.25500011444 0.852999985218 0.0469999983907 75.0
4.36299991608 0.847999989986 0.0480000004172 58.0
1.01400005817 -0.0659999996424 0.0109999999404 699.0
1.00600004196 -0.0710000023246 0.0109999999404 811.0
1.00699996948 -0.0769999995828 0.0109999999404 192.0
0.971000015736 -0.0799999982119 0.0109999999404 153.0
0.966000020504 -0.0850000008941 0.0109999999404 158.0
0.953999996185 -0.0890000015497 0.00999999977648 155.0
0.981999993324 -0.097999997437 0.0109999999404 158.0
0.964999973774 -0.101000003517 0.0109999999404 160.0
0.963999986649 -0.107000000775 0.0109999999404 162.0
0.976999998093 -0.11400000006 0.0109999999404 169.0
0.972999989986 -0.119000002742 0.0109999999404 169.0
0.963999986649 -0.123999997973 0.0109999999404 165.0
0.954999983311 -0.12800000608 0.0109999999404 173.0
0.952000021935 -0.133000001311 0.0109999999404 167.0
0.943000018597 -0.137999996543 0.0109999999404 173.0
0.977999985218 -0.148000001907 0.0109999999404 293.0
0.980000019073 -0.155000001192 0.0109999999404 1142.0
0.980000019073 -0.159999996424 0.0109999999404 1353.0
0.978999972343 -0.165999993682 0.0109999999404 1345.0
0.978999972343 -0.172000005841 0.0109999999404 1358.0
0.976000010967 -0.177000001073 0.0109999999404 1381.0
0.96899998188 -0.181999996305 0.0109999999404 1378.0
0.972999989986 -0.187999993563 0.0109999999404 1390.0
0.967000007629 -0.193000003695 0.0109999999404 1392.0
0.967000007629 -0.199000000954 0.0109999999404 1401.0
0.972000002861 -0.204999998212 0.0109999999404 1429.0
0.966000020504 -0.209999993443 0.0109999999404 1429.0
0.959999978542 -0.215000003576 0.0109999999404 1436.0
0.958999991417 -0.219999998808 0.0109999999404 1444.0
0.958999991417 -0.225999996066 0.0109999999404 1452.0
0.949999988079 -0.230000004172 0.0109999999404 979.0
0.947000026703 -0.234999999404 0.0109999999404 252.0
0.924000024796 -0.234999999404 0.0109999999404 203.0
0.935000002384 -0.243000000715 0.0109999999404 204.0
0.912000000477 -0.243000000715 0.0109999999404 202.0
0.925999999046 -0.252000004053 0.0109999999404 199.0
0.934000015259 -0.261000007391 0.0109999999404 195.0
0.916999995708 -0.261999994516 0.0109999999404 205.0
0.912000000477 -0.266000002623 0.0109999999404 204.0
0.90600001812 -0.270000010729 0.0109999999404 205.0
0.927999973297 -0.282000005245 0.0109999999404 206.0
0.911000013351 -0.282999992371 0.0109999999404 207.0
0.907000005245 -0.287999987602 0.0109999999404 209.0
0.925000011921 -0.300000011921 0.0120000001043 218.0
0.916000008583 -0.301999986172 0.0109999999404 225.0
0.925999999046 -0.312000006437 0.0120000001043 1070.0
0.935000002384 -0.321000009775 0.0120000001043 1550.0
0.920000016689 -0.321999996901 0.0120000001043 1573.0
0.922999978065 -0.328999996185 0.0120000001043 1577.0
0.924000024796 -0.33599999547 0.0120000001043 1597.0
0.916999995708 -0.340000003576 0.0120000001043 1589.0
0.920000016689 -0.347000002861 0.0120000001043 1597.0
0.912999987602 -0.34999999404 0.0120000001043 1606.0
0.915000021458 -0.358000010252 0.0120000001043 1609.0
0.911000013351 -0.361999988556 0.0120000001043 1613.0
0.910000026226 -0.368000000715 0.0120000001043 1617.0
0.912000000477 -0.375 0.0120000001043 1608.0
0.907999992371 -0.379999995232 0.0120000001043 1621.0
0.911000013351 -0.388000011444 0.0120000001043 1628.0
0.898999989033 -0.388999998569 0.0120000001043 1180.0
0.888000011444 -0.389999985695 0.0120000001043 314.0
0.884999990463 -0.395999997854 0.0120000001043 223.0
0.880999982357 -0.40000000596 0.0120000001043 225.0
0.866999983788 -0.40000000596 0.0120000001043 226.0
0.870999991894 -0.407999992371 0.0120000001043 224.0
0.866999983788 -0.412999987602 0.0120000001043 225.0
0.851000010967 -0.412000000477 0.0120000001043 231.0
0.842000007629 -0.41400000453 0.0120000001043 220.0
0.848999977112 -0.423000007868 0.0120000001043 221.0
0.837999999523 -0.423999994993 0.0120000001043 223.0
0.856999993324 -0.441000014544 0.0120000001043 217.0
0.861000001431 -0.449999988079 0.0120000001043 221.0
0.829999983311 -0.439999997616 0.0120000001043 218.0
0.866999983788 -0.465999990702 0.0120000001043 880.0
0.871999979019 -0.476000010967 0.0130000002682 1608.0
0.875999987125 -0.485000014305 0.0130000002682 1692.0
2.16599988937 1.24199998379 0.00800000037998 129.0
2.21399998665 1.25100004673 0.00800000037998 171.0
2.3900001049 1.33099997044 0.00899999961257 116.0
3.3900001049 1.42599999905 0.0149999996647 64.0
3.3789999485 1.39699995518 0.0149999996647 92.0
3.44400000572 1.39999997616 0.0149999996647 86.0
3.84699988365 1.48399996758 0.0170000009239 105.0
3.86299991608 1.46399998665 0.0179999992251 110.0
3.89199995995 1.44900000095 0.0179999992251 106.0
4.05800008774 1.48300004005 0.0189999993891 67.0
4.32899999619 1.5529999733 0.019999999553 71.0
4.24700021744 1.49500000477 0.019999999553 68.0
4.13500022888 1.4279999733 0.0189999993891 108.0
4.10599994659 1.39100003242 0.0189999993891 123.0
4.13500022888 1.37300002575 0.0189999993891 118.0
4.14499998093 1.34899997711 0.019999999553 114.0
4.20499992371 1.34200000763 0.019999999553 112.0
4.17000007629 1.3029999733 0.019999999553 107.0
4.14699983597 1.26900005341 0.019999999553 105.0
4.15799999237 1.2460000515 0.019999999553 111.0
4.18200016022 1.22699999809 0.019999999553 103.0
4.24499988556 1.21800005436 0.0209999997169 105.0
4.17100000381 1.17100000381 0.019999999553 104.0
4.19299983978 1.14999997616 0.0209999997169 112.0
4.19000005722 1.12300002575 0.0209999997169 110.0
4.22200012207 1.10500001907 0.0209999997169 103.0
4.18499994278 1.06900000572 0.0209999997169 99.0
4.1810002327 1.04200005531 0.0209999997169 104.0
4.25600004196 1.03499996662 0.0209999997169 104.0
4.23299980164 1.00300002098 0.0209999997169 103.0
4.21600008011 0.972999989986 0.0209999997169 105.0
4.20900011063 0.945999979973 0.0209999997169 102.0
4.17999982834 0.913999974728 0.0209999997169 111.0
4.22100019455 0.897000014782 0.0219999998808 113.0
4.17299985886 0.861999988556 0.0209999997169 118.0
4.20100021362 0.842000007629 0.0219999998808 112.0
4.1939997673 0.814999997616 0.0219999998808 89.0
1.00800001621 -0.0649999976158 0.00499999988824 713.0
1.00600004196 -0.0710000023246 0.00499999988824 801.0
0.972000002861 -0.0740000009537 0.00499999988824 183.0
0.990000009537 -0.0810000002384 0.00499999988824 157.0
0.97000002861 -0.0850000008941 0.00499999988824 155.0
0.975000023842 -0.0909999981523 0.00499999988824 152.0
0.955999970436 -0.0949999988079 0.00499999988824 161.0
0.950999975204 -0.10000000149 0.00499999988824 159.0
0.966000020504 -0.107000000775 0.00499999988824 163.0
0.967000007629 -0.112999998033 0.00499999988824 167.0
0.945999979973 -0.115999996662 0.00499999988824 159.0
0.963999986649 -0.123999997973 0.00499999988824 167.0
0.949000000954 -0.127000004053 0.00499999988824 165.0
0.958999991417 -0.134000003338 0.00499999988824 168.0
0.950999975204 -0.138999998569 0.00499999988824 184.0
0.953999996185 -0.144999995828 0.00499999988824 303.0
0.971000015736 -0.152999997139 0.00499999988824 1159.0
0.977999985218 -0.159999996424 0.00499999988824 1355.0
0.980000019073 -0.165999993682 0.00600000005215 1364.0
0.973999977112 -0.171000003815 0.00600000005215 1367.0
0.981999993324 -0.178000003099 0.00600000005215 1378.0
0.972000002861 -0.181999996305 0.00600000005215 1392.0
0.967000007629 -0.187000006437 0.00600000005215 1397.0
0.973999977112 -0.194000005722 0.00600000005215 1396.0
0.966000020504 -0.197999998927 0.00600000005215 1424.0
0.963999986649 -0.203999996185 0.00600000005215 1428.0
0.964999973774 -0.209999993443 0.00600000005215 1435.0
0.962000012398 -0.215000003576 0.00600000005215 1441.0
0.964999973774 -0.222000002861 0.00600000005215 1446.0
0.958000004292 -0.225999996066 0.00600000005215 1449.0
0.952000021935 -0.230000004172 0.00600000005215 964.0
0.944999992847 -0.233999997377 0.00600000005215 248.0
0.925000011921 -0.234999999404 0.00600000005215 195.0
0.939999997616 -0.245000004768 0.00600000005215 202.0
0.911000013351 -0.243000000715 0.00600000005215 201.0
0.910000026226 -0.247999995947 0.00600000005215 199.0
0.925999999046 -0.25799998641 0.00600000005215 199.0
0.912000000477 -0.259999990463 0.00600000005215 204.0
0.902000010014 -0.263000011444 0.00600000005215 204.0
0.927999973297 -0.275999993086 0.00600000005215 203.0
0.925000011921 -0.282000005245 0.00600000005215 209.0
0.921000003815 -0.286000013351 0.00600000005215 207.0
0.907999992371 -0.287999987602 0.00600000005215 209.0
0.894999980927 -0.289999991655 0.00600000005215 208.0
0.912000000477 -0.300999999046 0.00600000005215 230.0
0.930999994278 -0.31400001049 0.00600000005215 1084.0
0.930000007153 -0.319000005722 0.00600000005215 1562.0
0.925000011921 -0.324000000954 0.00600000005215 1573.0
0.920000016689 -0.32800000906 0.00600000005215 1597.0
0.922999978065 -0.33599999547 0.00600000005215 1587.0
0.92199999094 -0.340999990702 0.00600000005215 1594.0
0.919000029564 -0.345999985933 0.00600000005215 1602.0
0.916000008583 -0.351000010967 0.00600000005215 1604.0
0.915000021458 -0.356999993324 0.00600000005215 1611.0
0.912999987602 -0.363000005484 0.00600000005215 1616.0
0.908999979496 -0.368000000715 0.00600000005215 1603.0
0.90499997139 -0.372000008821 0.00600000005215 1633.0
0.908999979496 -0.379999995232 0.00600000005215 1640.0
0.90600001812 -0.384999990463 0.00600000005215 1629.0
0.90600001812 -0.391999989748 0.00700000021607 1161.0
0.878000020981 -0.386000007391 0.00600000005215 313.0
0.884000003338 -0.395000010729 0.00600000005215 226.0
0.865999996662 -0.393000006676 0.00600000005215 222.0
0.864000022411 -0.398999989033 0.00600000005215 223.0
0.866999983788 -0.405999988317 0.00600000005215 219.0
0.852999985218 -0.405999988317 0.00600000005215 225.0
0.852999985218 -0.412000000477 0.00600000005215 218.0
0.871999979019 -0.428999990225 0.00700000021607 218.0
0.842999994755 -0.421000003815 0.00600000005215 223.0
0.828999996185 -0.419999986887 0.00600000005215 224.0
0.852999985218 -0.43900001049 0.00700000021607 218.0
0.855000019073 -0.446999996901 0.00700000021607 225.0
0.838999986649 -0.444999992847 0.00700000021607 226.0
0.874000012875 -0.469999998808 0.00700000021607 878.0
0.871999979019 -0.476000010967 0.00700000021607 1602.0
0.875 -0.485000014305 0.00700000021607 1692.0
2.20199990273 1.26199996471 -0.00499999988824 220.0
2.24300003052 1.26699995995 -0.00499999988824 193.0
2.30100011826 1.28100001812 -0.00499999988824 125.0
3.3710000515 1.39400005341 -0.00499999988824 93.0
3.45000004768 1.40299999714 -0.00499999988824 95.0
3.71399998665 1.48399996758 -0.00499999988824 63.0
3.90799999237 1.5340000391 -0.00499999988824 78.0
3.82999992371 1.47699999809 -0.00499999988824 109.0
3.89899992943 1.47699999809 -0.00499999988824 116.0
3.88400006294 1.44500005245 -0.00499999988824 109.0
4.12099981308 1.50600004196 -0.00499999988824 70.0
4.24300003052 1.52199995518 -0.00499999988824 72.0
4.242000103 1.49300003052 -0.00499999988824 89.0
4.12599992752 1.42499995232 -0.00499999988824 131.0
4.14300012589 1.40299999714 -0.00499999988824 139.0
4.14900016785 1.37800002098 -0.00400000018999 132.0
4.16499996185 1.35599994659 -0.00400000018999 124.0
4.1890001297 1.33599996567 -0.00400000018999 123.0
4.14200019836 1.29499995708 -0.00400000018999 121.0
4.18200016022 1.27999997139 -0.00400000018999 116.0
4.15999984741 1.24699997902 -0.00400000018999 118.0
4.1970000267 1.23099994659 -0.00400000018999 118.0
4.19099998474 1.20299994946 -0.00400000018999 117.0
4.19500017166 1.17700004578 -0.00300000002608 116.0
4.20699977875 1.15400004387 -0.00300000002608 116.0
4.19000005722 1.12300002575 -0.00300000002608 121.0
4.20100021362 1.09899997711 -0.00300000002608 121.0
4.1810002327 1.06799995899 -0.00300000002608 119.0
4.18499994278 1.04299998283 -0.00300000002608 122.0
4.20499992371 1.02199995518 -0.00300000002608 119.0
4.1859998703 0.991999983788 -0.00300000002608 115.0
4.23000001907 0.976000010967 -0.00300000002608 121.0
4.23299980164 0.950999975204 -0.00200000009499 118.0
4.17700004578 0.912999987602 -0.00200000009499 127.0
4.15299987793 0.883000016212 -0.00200000009499 130.0
4.1779999733 0.862999975681 -0.00200000009499 131.0
4.18200016022 0.837999999523 -0.00200000009499 122.0
4.23400020599 0.823000013828 -0.00200000009499 83.0
0.212999999523 0.0410000011325 -0.0010000000475 55.0
0.282000005245 0.0520000010729 -0.0010000000475 51.0
1.01199996471 -0.0659999996424 0.0 730.0
1.0039999485 -0.0710000023246 0.0 783.0
0.981999993324 -0.0750000029802 0.0 175.0
0.959999978542 -0.0790000036359 0.0 156.0
0.96899998188 -0.0850000008941 0.0 152.0
0.980000019073 -0.0920000001788 0.0 156.0
0.955999970436 -0.0949999988079 0.0 155.0
0.97000002861 -0.101999998093 0.0 160.0
0.964999973774 -0.107000000775 0.0 157.0
0.953999996185 -0.111000001431 0.0 162.0
0.95300000906 -0.116999998689 0.0 162.0
0.954999983311 -0.122000001371 0.0 165.0
0.941999971867 -0.126000002027 0.0 171.0
0.95300000906 -0.133000001311 0.0 170.0
0.949999988079 -0.138999998569 0.0 177.0
0.976999998093 -0.148000001907 0.0 309.0
0.976000010967 -0.153999999166 0.0 1178.0
0.986000001431 -0.16099999845 0.0 1356.0
0.978999972343 -0.165999993682 0.0 1357.0
0.973999977112 -0.171000003815 0.0 1378.0
0.971000015736 -0.175999999046 0.0 1376.0
0.975000023842 -0.182999998331 0.0 1391.0
0.971000015736 -0.187999993563 0.0 1391.0
0.97000002861 -0.193000003695 0.0 1402.0
0.966000020504 -0.197999998927 0.0 1423.0
0.966000020504 -0.203999996185 0.0 1432.0
0.963999986649 -0.209999993443 0.0 1431.0
0.964999973774 -0.216000005603 0.0 1437.0
0.961000025272 -0.221000000834 0.0 1444.0
0.958999991417 -0.225999996066 0.0 1450.0
0.952000021935 -0.230000004172 0.0 955.0
0.926999986172 -0.230000004172 0.0 245.0
0.929000020027 -0.236000001431 0.0 202.0
0.93599998951 -0.244000002742 0.0 201.0
0.916000008583 -0.244000002742 0.0 202.0
0.921000003815 -0.250999987125 0.0 202.0
0.908999979496 -0.254000008106 0.0 195.0
0.926999986172 -0.264999985695 0.0 208.0
0.944000005722 -0.27500000596 0.0 208.0
0.902000010014 -0.268999993801 0.0 206.0
0.903999984264 -0.27500000596 0.0 206.0
0.916999995708 -0.284999996424 0.0 209.0
0.90499997139 -0.287000000477 0.0 213.0
0.92199999094 -0.298999994993 0.0 204.0
0.916999995708 -0.303000003099 0.0 234.0
0.921000003815 -0.310000002384 0.0010000000475 1112.0
0.926999986172 -0.317999988794 0.0010000000475 1549.0
0.926999986172 -0.324000000954 0.0010000000475 1579.0
0.921000003815 -0.328999996185 0.0010000000475 1583.0
0.921000003815 -0.335000008345 0.0010000000475 1601.0
0.92199999094 -0.340999990702 0.0010000000475 1597.0
0.915000021458 -0.344999998808 0.0010000000475 1595.0
0.915000021458 -0.351000010967 0.0010000000475 1609.0
0.913999974728 -0.356999993324 0.0010000000475 1617.0
0.903999984264 -0.358999997377 0.0010000000475 1631.0
0.908999979496 -0.368000000715 0.0010000000475 1618.0
0.907000005245 -0.372999995947 0.0010000000475 1626.0
0.910000026226 -0.381000012159 0.0010000000475 1645.0
0.90499997139 -0.384999990463 0.0010000000475 1631.0
0.897000014782 -0.388000011444 0.0010000000475 1174.0
0.879000008106 -0.386000007391 0.0010000000475 313.0
0.865000009537 -0.386000007391 0.0010000000475 225.0
0.833000004292 -0.377999991179 0.0010000000475 224.0
0.85900002718 -0.395999997854 0.0010000000475 226.0
0.870000004768 -0.407999992371 0.0010000000475 229.0
0.853999972343 -0.407000005245 0.0010000000475 226.0
0.853999972343 -0.412999987602 0.0010000000475 225.0
0.867999970913 -0.426999986172 0.0010000000475 222.0
0.848999977112 -0.423999994993 0.0010000000475 227.0
0.856999993324 -0.433999985456 0.0010000000475 220.0
0.861000001431 -0.442999988794 0.0010000000475 227.0
0.837000012398 -0.437000006437 0.0010000000475 222.0
0.842000007629 -0.446000009775 0.0010000000475 221.0
0.870999991894 -0.469000011683 0.0010000000475 892.0
0.873000025749 -0.476999998093 0.0010000000475 1604.0
0.874000012875 -0.483999997377 0.0010000000475 1680.0
2.22199988365 1.27300000191 -0.019999999553 320.0
2.25200009346 1.27199995518 -0.019999999553 214.0
2.26099991798 1.25899994373 -0.019999999553 110.0
3.31699991226 1.39499998093 -0.0250000003725 91.0
3.38899993896 1.40100002289 -0.0260000005364 95.0
3.47300004959 1.41199994087 -0.0260000005364 92.0
3.89800000191 1.52999997139 -0.0289999991655 86.0
3.85500001907 1.48699998856 -0.0289999991655 122.0
3.79999995232 1.44000005722 -0.0280000008643 119.0
3.92100000381 1.45899999142 -0.0289999991655 103.0
4.14400005341 1.51400005817 -0.0299999993294 86.0
4.20300006866 1.50699996948 -0.0299999993294 85.0
4.22300004959 1.48599994183 -0.0299999993294 103.0
4.13999986649 1.42900002003 -0.0299999993294 156.0
4.15700006485 1.40799999237 -0.0299999993294 155.0
4.15899991989 1.38100004196 -0.0289999991655 158.0
4.1970000267 1.36600005627 -0.0299999993294 132.0
4.17399978638 1.33200001717 -0.0289999991655 121.0
4.20300006866 1.31400001049 -0.0289999991655 124.0
4.20399999619 1.28699994087 -0.0289999991655 123.0
4.18400001526 1.2539999485 -0.0289999991655 126.0
4.17199993134 1.22300004959 -0.0289999991655 116.0
4.19799995422 1.20399999619 -0.0289999991655 122.0
4.16400003433 1.16799998283 -0.0280000008643 132.0
4.17199993134 1.14400005341 -0.0280000008643 120.0
4.1810002327 1.12000000477 -0.0280000008643 124.0
4.20499992371 1.10099995136 -0.0280000008643 123.0
4.23199987411 1.08099997044 -0.0280000008643 127.0
4.16099977493 1.03699994087 -0.0270000007004 123.0
4.21899986267 1.02600002289 -0.0280000008643 116.0
4.21299982071 0.998000025749 -0.0270000007004 119.0
4.21799993515 0.972999989986 -0.0270000007004 122.0
4.22800016403 0.949999988079 -0.0270000007004 122.0
4.12900018692 0.902000010014 -0.0260000005364 128.0
4.18400001526 0.888999998569 -0.0270000007004 129.0
4.15299987793 0.856999993324 -0.0260000005364 128.0
4.21400022507 0.84399998188 -0.0270000007004 122.0
4.34100008011 0.84399998188 -0.0270000007004 91.0
4.74800014496 0.837000012398 -0.0289999991655 56.0
1.15600001812 -0.0689999982715 -0.00600000005215 54.0
1.00899994373 -0.0649999976158 -0.00499999988824 756.0
1.00199997425 -0.0710000023246 -0.00499999988824 750.0
0.994000017643 -0.0759999975562 -0.00499999988824 178.0
0.986999988556 -0.0810000002384 -0.00499999988824 152.0
0.962000012398 -0.0839999988675 -0.00499999988824 152.0
0.963999986649 -0.0900000035763 -0.00499999988824 155.0
0.950999975204 -0.0939999967813 -0.00499999988824 157.0
0.962999999523 -0.101000003517 -0.00499999988824 153.0
0.96899998188 -0.107000000775 -0.00499999988824 157.0
0.93900001049 -0.109999999404 -0.00499999988824 165.0
0.949000000954 -0.115999996662 -0.00499999988824 160.0
0.962999999523 -0.123999997973 -0.00499999988824 164.0
0.958000004292 -0.128999993205 -0.00499999988824 170.0
0.964999973774 -0.135000005364 -0.00499999988824 172.0
0.948000013828 -0.137999996543 -0.00499999988824 176.0
0.962000012398 -0.145999997854 -0.00499999988824 324.0
0.975000023842 -0.153999999166 -0.00499999988824 1182.0
0.976000010967 -0.159999996424 -0.00499999988824 1361.0
0.972999989986 -0.165000006557 -0.00499999988824 1364.0
0.971000015736 -0.170000001788 -0.00499999988824 1378.0
0.972000002861 -0.175999999046 -0.00499999988824 1377.0
0.972000002861 -0.181999996305 -0.00499999988824 1383.0
0.971000015736 -0.187999993563 -0.00499999988824 1395.0
0.966000020504 -0.193000003695 -0.00499999988824 1397.0
0.963999986649 -0.197999998927 -0.00499999988824 1422.0
0.963999986649 -0.203999996185 -0.00499999988824 1421.0
0.962999999523 -0.209000006318 -0.00499999988824 1431.0
0.958000004292 -0.21400000155 -0.00499999988824 1440.0
0.959999978542 -0.219999998808 -0.00499999988824 1437.0
0.958000004292 -0.225999996066 -0.00499999988824 1449.0
0.949999988079 -0.230000004172 -0.00400000018999 929.0
0.941999971867 -0.233999997377 -0.00400000018999 240.0
0.930000007153 -0.236000001431 -0.00400000018999 204.0
0.938000023365 -0.244000002742 -0.00400000018999 204.0
0.933000028133 -0.248999997973 -0.00400000018999 200.0
0.920000016689 -0.250999987125 -0.00400000018999 201.0
0.930000007153 -0.259000003338 -0.00400000018999 205.0
0.922999978065 -0.263000011444 -0.00400000018999 206.0
0.89200001955 -0.259999990463 -0.00400000018999 205.0
0.921000003815 -0.273999989033 -0.00400000018999 200.0
0.917999982834 -0.279000014067 -0.00400000018999 209.0
0.89099997282 -0.277000010014 -0.00400000018999 208.0
0.908999979496 -0.28900000453 -0.00400000018999 216.0
0.894999980927 -0.289999991655 -0.00400000018999 216.0
0.910000026226 -0.300000011921 -0.00400000018999 237.0
0.927999973297 -0.312999993563 -0.00400000018999 1136.0
0.925000011921 -0.317999988794 -0.00400000018999 1558.0
0.924000024796 -0.324000000954 -0.00400000018999 1581.0
0.922999978065 -0.328999996185 -0.00400000018999 1602.0
0.922999978065 -0.335000008345 -0.00400000018999 1602.0
0.920000016689 -0.340999990702 -0.00400000018999 1607.0
0.915000021458 -0.344999998808 -0.00400000018999 1611.0
0.913999974728 -0.351000010967 -0.00400000018999 1604.0
0.916999995708 -0.358000010252 -0.00400000018999 1614.0
0.911000013351 -0.361999988556 -0.00400000018999 1631.0
0.912000000477 -0.368999987841 -0.00400000018999 1613.0
0.907000005245 -0.372999995947 -0.00400000018999 1629.0
0.903999984264 -0.377999991179 -0.00400000018999 1649.0
0.90499997139 -0.384999990463 -0.00400000018999 1638.0
0.901000022888 -0.389999985695 -0.00400000018999 1157.0
0.879000008106 -0.386999994516 -0.00400000018999 316.0
0.869000017643 -0.388000011444 -0.00400000018999 224.0
0.873000025749 -0.397000014782 -0.00400000018999 224.0
0.852999985218 -0.393999993801 -0.00300000002608 220.0
0.856999993324 -0.402000010014 -0.00300000002608 219.0
0.879999995232 -0.418999999762 -0.00300000002608 221.0
0.847000002861 -0.409999996424 -0.00300000002608 222.0
0.861999988556 -0.423999994993 -0.00300000002608 222.0
0.879000008106 -0.43900001049 -0.00300000002608 224.0
0.848999977112 -0.430000007153 -0.00300000002608 219.0
0.853999972343 -0.43900001049 -0.00300000002608 229.0
0.824999988079 -0.430999994278 -0.00300000002608 225.0
0.839999973774 -0.444999992847 -0.00300000002608 233.0
0.869000017643 -0.467999994755 -0.00300000002608 910.0
0.870999991894 -0.476000010967 -0.00300000002608 1609.0
0.873000025749 -0.483999997377 -0.00300000002608 1689.0
2.2009999752 1.26199996471 -0.0340000018477 324.0
2.2349998951 1.26300001144 -0.0340000018477 208.0
3.32299995422 1.39800000191 -0.0460000000894 94.0
3.39499998093 1.40400004387 -0.0469999983907 93.0
3.50500011444 1.42499995232 -0.0480000004172 92.0
3.74399995804 1.4960000515 -0.0509999990463 67.0
3.87199997902 1.51999998093 -0.0529999993742 80.0
3.82999992371 1.47699999809 -0.0520000010729 117.0
3.882999897 1.47099995613 -0.0520000010729 115.0
4.00899982452 1.49199998379 -0.0540000014007 98.0
4.07700014114 1.48899996281 -0.054999999702 99.0
4.13199996948 1.48199999332 -0.054999999702 100.0
4.1779999733 1.47000002861 -0.054999999702 113.0
4.11999988556 1.42200005054 -0.0540000014007 174.0
4.11600017548 1.39400005341 -0.0540000014007 182.0
4.10900020599 1.36399996281 -0.0540000014007 168.0
4.12599992752 1.34300005436 -0.0540000014007 139.0
4.19799995422 1.33899998665 -0.054999999702 131.0
4.17399978638 1.30499994755 -0.0540000014007 126.0
4.15100002289 1.26999998093 -0.0540000014007 131.0
4.18800020218 1.25499999523 -0.0540000014007 129.0
4.15500020981 1.21800005436 -0.0529999993742 139.0
4.17700004578 1.19799995422 -0.0529999993742 140.0
4.17899990082 1.17200005054 -0.0529999993742 140.0
4.17600011826 1.14499998093 -0.0529999993742 137.0
4.16699981689 1.11600005627 -0.0529999993742 131.0
4.18699979782 1.09599995613 -0.0529999993742 140.0
4.16900014877 1.06500005722 -0.0520000010729 139.0
4.22700023651 1.0529999733 -0.0529999993742 135.0
4.20699977875 1.02300000191 -0.0520000010729 133.0
4.18699979782 0.991999983788 -0.0520000010729 138.0
4.1779999733 0.963999986649 -0.0520000010729 132.0
4.18499994278 0.939999997616 -0.0520000010729 140.0
4.14900016785 0.907000005245 -0.0509999990463 141.0
4.1139998436 0.874000012875 -0.0500000007451 132.0
4.15299987793 0.856999993324 -0.0509999990463 138.0
4.19600009918 0.841000020504 -0.0509999990463 131.0
4.33699989319 0.842999994755 -0.0529999993742 86.0
4.60400009155 0.866999983788 -0.0560000017285 68.0
4.63000011444 0.84399998188 -0.0560000017285 61.0
4.58199977875 0.808000028133 -0.054999999702 69.0
4.68699979782 0.797999978065 -0.0560000017285 64.0
4.64799976349 0.763999998569 -0.054999999702 64.0
4.69500017166 0.744000017643 -0.0560000017285 61.0
4.65500020981 0.709999978542 -0.054999999702 60.0
4.68400001526 0.686999976635 -0.054999999702 65.0
4.76599979401 0.671000003815 -0.0560000017285 59.0
4.74800014496 0.639999985695 -0.0560000017285 58.0
4.61000013351 0.59500002861 -0.0540000014007 58.0
4.70200014114 0.578999996185 -0.054999999702 57.0
4.6890001297 0.550000011921 -0.054999999702 60.0
4.74300003052 0.528999984264 -0.054999999702 62.0
4.75899982452 0.503000020981 -0.054999999702 60.0
4.78000020981 0.476999998093 -0.054999999702 52.0
4.75600004196 0.446999996901 -0.054999999702 57.0
4.84299993515 0.426999986172 -0.0560000017285 59.0
4.85799980164 0.40000000596 -0.0560000017285 58.0
4.89300012589 0.375 -0.0560000017285 56.0
4.89599990845 0.347000002861 -0.0560000017285 52.0
4.78599977493 0.31099998951 -0.0540000014007 56.0
4.90399980545 0.289999991655 -0.054999999702 56.0
4.8140001297 0.256999999285 -0.0540000014007 57.0
4.97800016403 0.237000003457 -0.0560000017285 52.0
4.90199995041 0.204999998212 -0.054999999702 60.0
4.85500001907 0.175999999046 -0.0540000014007 56.0
4.96299982071 0.150999993086 -0.054999999702 55.0
1.00300002098 -0.0649999976158 -0.0109999999404 778.0
0.995000004768 -0.070000000298 -0.0109999999404 734.0
0.981999993324 -0.0750000029802 -0.0109999999404 172.0
0.962999999523 -0.0790000036359 -0.0109999999404 155.0
0.981000006199 -0.0860000029206 -0.0109999999404 156.0
0.971000015736 -0.0909999981523 -0.0109999999404 154.0
0.97000002861 -0.0960000008345 -0.0109999999404 159.0
0.953999996185 -0.10000000149 -0.0109999999404 162.0
0.985000014305 -0.108999997377 -0.0109999999404 155.0
0.963999986649 -0.112000003457 -0.0109999999404 162.0
0.933000028133 -0.11400000006 -0.00999999977648 168.0
0.943000018597 -0.120999999344 -0.00999999977648 163.0
0.964999973774 -0.129999995232 -0.0109999999404 164.0
0.945999979973 -0.133000001311 -0.00999999977648 171.0
0.949000000954 -0.138999998569 -0.00999999977648 178.0
0.958999991417 -0.145999997854 -0.00999999977648 343.0
0.972999989986 -0.153999999166 -0.0109999999404 1208.0
0.976999998093 -0.159999996424 -0.0109999999404 1347.0
0.978999972343 -0.165999993682 -0.0109999999404 1358.0
0.973999977112 -0.171000003815 -0.00999999977648 1366.0
0.971000015736 -0.175999999046 -0.00999999977648 1389.0
0.975000023842 -0.182999998331 -0.00999999977648 1388.0
0.972000002861 -0.187999993563 -0.00999999977648 1396.0
0.967000007629 -0.193000003695 -0.00999999977648 1397.0
0.966000020504 -0.199000000954 -0.00999999977648 1412.0
0.962999999523 -0.203999996185 -0.00999999977648 1431.0
0.962999999523 -0.209999993443 -0.00999999977648 1437.0
0.962999999523 -0.215000003576 -0.00999999977648 1446.0
0.953999996185 -0.218999996781 -0.00999999977648 1450.0
0.958000004292 -0.225999996066 -0.00999999977648 1460.0
0.944000005722 -0.228000000119 -0.00999999977648 908.0
0.938000023365 -0.232999995351 -0.00999999977648 240.0
0.940999984741 -0.238999992609 -0.00999999977648 199.0
0.911000013351 -0.237000003457 -0.00999999977648 196.0
0.934000015259 -0.248999997973 -0.00999999977648 203.0
0.917999982834 -0.25 -0.00999999977648 199.0
0.926999986172 -0.259000003338 -0.00999999977648 209.0
0.920000016689 -0.263000011444 -0.00999999977648 210.0
0.902999997139 -0.263000011444 -0.00899999961257 204.0
0.912999987602 -0.272000014782 -0.00999999977648 209.0
0.910000026226 -0.277000010014 -0.00999999977648 215.0
0.921000003815 -0.286000013351 -0.00999999977648 214.0
0.911000013351 -0.28900000453 -0.00899999961257 209.0
0.903999984264 -0.293000012636 -0.00899999961257 219.0
0.894999980927 -0.296000003815 -0.00899999961257 238.0
0.927999973297 -0.312999993563 -0.00999999977648 1151.0
0.927999973297 -0.319000005722 -0.00999999977648 1564.0
0.922999978065 -0.323000013828 -0.00999999977648 1571.0
0.922999978065 -0.328999996185 -0.00999999977648 1601.0
0.921000003815 -0.335000008345 -0.00999999977648 1607.0
0.917999982834 -0.340000003576 -0.00899999961257 1606.0
0.916000008583 -0.344999998808 -0.00899999961257 1603.0
0.915000021458 -0.351000010967 -0.00899999961257 1609.0
0.915000021458 -0.358000010252 -0.00899999961257 1623.0
0.910000026226 -0.361999988556 -0.00899999961257 1631.0
0.90499997139 -0.365999996662 -0.00899999961257 1627.0
0.902999997139 -0.370999991894 -0.00899999961257 1626.0
0.90499997139 -0.379000008106 -0.00899999961257 1641.0
0.901000022888 -0.384000003338 -0.00899999961257 1638.0
0.902999997139 -0.391000002623 -0.00899999961257 1149.0
0.882000029087 -0.388000011444 -0.00899999961257 313.0
0.879999995232 -0.393000006676 -0.00899999961257 230.0
0.875999987125 -0.398000001907 -0.00899999961257 232.0
0.855000019073 -0.395000010729 -0.00899999961257 223.0
0.866999983788 -0.407000005245 -0.00899999961257 222.0
0.850000023842 -0.405000001192 -0.00899999961257 222.0
0.865000009537 -0.418999999762 -0.00899999961257 227.0
0.856999993324 -0.421000003815 -0.00899999961257 218.0
0.871999979019 -0.435000002384 -0.00899999961257 220.0
0.851999998093 -0.432000011206 -0.00899999961257 218.0
0.853999972343 -0.43900001049 -0.00899999961257 226.0
0.848999977112 -0.444000005722 -0.00899999961257 224.0
0.85900002718 -0.455000013113 -0.00899999961257 228.0
0.874000012875 -0.469999998808 -0.00899999961257 914.0
0.871999979019 -0.476000010967 -0.00899999961257 1617.0
0.873000025749 -0.483999997377 -0.00899999961257 1675.0
2.21700000763 1.27100002766 -0.0480000004172 336.0
2.25099992752 1.27199995518 -0.0489999987185 206.0
2.33299994469 1.2990000248 -0.0500000007451 97.0
3.38800001144 1.42499995232 -0.0680000036955 107.0
3.35800004005 1.38900005817 -0.0670000016689 100.0
3.4509999752 1.40299999714 -0.0689999982715 91.0
3.69899988174 1.47800004482 -0.0729999989271 70.0
3.84999990463 1.51199996471 -0.0759999975562 85.0
3.8069999218 1.46800005436 -0.0750000029802 124.0
3.8029999733 1.44099998474 -0.0750000029802 119.0
3.95799994469 1.47200000286 -0.0769999995828 104.0
4.16400003433 1.52100002766 -0.0810000002384 94.0
4.17899990082 1.49800002575 -0.0810000002384 100.0
4.1890001297 1.47399997711 -0.0810000002384 108.0
4.11499977112 1.42100000381 -0.0790000036359 174.0
4.11299991608 1.39300000668 -0.0790000036359 179.0
4.14699983597 1.37699997425 -0.0790000036359 169.0
4.12400007248 1.34200000763 -0.0790000036359 141.0
4.14900016785 1.32299995422 -0.0790000036359 134.0
4.1970000267 1.31099998951 -0.0799999982119 126.0
4.19899988174 1.28499996662 -0.0790000036359 131.0
4.1939997673 1.25699996948 -0.0790000036359 135.0
4.17100000381 1.22300004959 -0.0780000016093 131.0
4.16400003433 1.19400000572 -0.0780000016093 135.0
4.18300008774 1.1740000248 -0.0780000016093 134.0
4.10300016403 1.125 -0.0759999975562 131.0
4.21700000763 1.12999999523 -0.0780000016093 135.0
4.16499996185 1.09000003338 -0.0769999995828 136.0
4.1890001297 1.07000005245 -0.0769999995828 137.0
4.19600009918 1.04600000381 -0.0769999995828 136.0
4.17999982834 1.01600003242 -0.0769999995828 134.0
4.16900014877 0.987999975681 -0.0759999975562 139.0
4.1970000267 0.967999994755 -0.0769999995828 144.0
4.1970000267 0.943000018597 -0.0759999975562 136.0
4.17399978638 0.912000000477 -0.0759999975562 143.0
4.13899993896 0.879000008106 -0.0750000029802 133.0
4.16900014877 0.860000014305 -0.0750000029802 140.0
4.17500019073 0.836000025272 -0.0750000029802 135.0
4.35699987411 0.846000015736 -0.0780000016093 83.0
4.60099983215 0.865999996662 -0.082000002265 72.0
4.61600017548 0.841000020504 -0.082999996841 76.0
4.61100006104 0.813000023365 -0.082000002265 74.0
4.66300010681 0.794000029564 -0.082999996841 80.0
4.65600013733 0.764999985695 -0.082999996841 76.0
4.63700008392 0.735000014305 -0.082000002265 76.0
4.65399980545 0.709999978542 -0.082000002265 75.0
4.72900009155 0.693000018597 -0.082999996841 68.0
4.64799976349 0.653999984264 -0.082000002265 69.0
4.73600006104 0.638999998569 -0.082999996841 71.0
4.75400018692 0.612999975681 -0.082999996841 68.0
4.70900011063 0.579999983311 -0.082000002265 71.0
4.74300003052 0.555999994278 -0.082999996841 69.0
4.71199989319 0.524999976158 -0.082000002265 68.0
4.77500009537 0.504000008106 -0.082999996841 63.0
4.8060002327 0.479000002146 -0.082999996841 69.0
4.72399997711 0.444000005722 -0.082000002265 71.0
4.86600017548 0.428999990225 -0.0839999988675 62.0
4.80200004578 0.395000010729 -0.082999996841 63.0
4.81799983978 0.368999987841 -0.082999996841 61.0
4.88800001144 0.345999985933 -0.0839999988675 61.0
4.86199998856 0.316000014544 -0.082999996841 65.0
4.89099979401 0.289999991655 -0.0839999988675 65.0
4.89099979401 0.261000007391 -0.082999996841 66.0
4.86199998856 0.231999993324 -0.082999996841 63.0
4.82999992371 0.202000007033 -0.082000002265 66.0
4.86000013351 0.175999999046 -0.082000002265 52.0
4.89900016785 0.149000003934 -0.082999996841 60.0
4.91099977493 0.120999999344 -0.082999996841 58.0
4.98000001907 0.0939999967813 -0.0839999988675 51.0
1.10500001907 -0.0659999996424 -0.0189999993891 58.0
1.00300002098 -0.0649999976158 -0.0170000009239 803.0
1.00499999523 -0.0710000023246 -0.0170000009239 726.0
0.977999985218 -0.0750000029802 -0.0170000009239 170.0
0.973999977112 -0.0799999982119 -0.01600000076 154.0
0.972999989986 -0.0850000008941 -0.01600000076 154.0
0.958000004292 -0.0900000035763 -0.01600000076 161.0
0.95300000906 -0.0949999988079 -0.01600000076 154.0
0.957000017166 -0.101000003517 -0.01600000076 156.0
0.947000026703 -0.104999996722 -0.01600000076 159.0
0.95300000906 -0.111000001431 -0.01600000076 166.0
0.950999975204 -0.116999998689 -0.01600000076 165.0
0.957000017166 -0.123000003397 -0.01600000076 162.0
0.955999970436 -0.12800000608 -0.01600000076 170.0
0.954999983311 -0.134000003338 -0.01600000076 178.0
0.939999997616 -0.136999994516 -0.01600000076 177.0
0.967999994755 -0.146999999881 -0.01600000076 352.0
0.978999972343 -0.155000001192 -0.01600000076 1207.0
0.978999972343 -0.159999996424 -0.01600000076 1354.0
0.977999985218 -0.165999993682 -0.01600000076 1363.0
0.975000023842 -0.171000003815 -0.01600000076 1370.0
