ply
format ascii 1.0
element vertex 912
property float x
property float y
property float z
property float intensity
end_header
0.962999999523 -0.182999998331 -0.145999997854 1380.0
0.966000020504 -0.188999995589 -0.146999999881 1393.0
0.964999973774 -0.194999992847 -0.146999999881 1392.0
0.959999978542 -0.20000000298 -0.145999997854 1395.0
0.953999996185 -0.203999996185 -0.144999995828 1416.0
0.954999983311 -0.209999993443 -0.145999997854 1419.0
0.949999988079 -0.215000003576 -0.144999995828 1421.0
0.958000004292 -0.223000004888 -0.145999997854 1431.0
0.950999975204 -0.226999998093 -0.145999997854 1112.0
0.935000002384 -0.229000002146 -0.143000006676 283.0
0.934000015259 -0.234999999404 -0.143000006676 223.0
0.90499997139 -0.232999995351 -0.138999998569 236.0
0.92199999094 -0.243000000715 -0.142000004649 235.0
0.929000020027 -0.250999987125 -0.143000006676 251.0
0.927999973297 -0.256999999285 -0.143000006676 254.0
0.915000021458 -0.259000003338 -0.141000002623 266.0
0.912999987602 -0.263999998569 -0.141000002623 277.0
0.927999973297 -0.273999989033 -0.143000006676 288.0
0.912000000477 -0.27500000596 -0.141000002623 293.0
0.920000016689 -0.284000009298 -0.143000006676 308.0
0.926999986172 -0.291999995708 -0.143999993801 324.0
0.911000013351 -0.293000012636 -0.142000004649 341.0
0.935000002384 -0.307000011206 -0.145999997854 364.0
0.916000008583 -0.305999994278 -0.143000006676 923.0
0.925000011921 -0.316000014544 -0.143999993801 1322.0
0.915000021458 -0.317999988794 -0.143000006676 1318.0
0.910000026226 -0.323000013828 -0.143000006676 1288.0
0.916000008583 -0.331000000238 -0.143999993801 1266.0
0.913999974728 -0.33599999547 -0.143999993801 1253.0
0.902999997139 -0.338999986649 -0.142000004649 1222.0
0.902999997139 -0.344999998808 -0.142000004649 1213.0
0.899999976158 -0.34999999404 -0.142000004649 1193.0
0.910000026226 -0.360000014305 -0.143999993801 1172.0
0.908999979496 -0.365999996662 -0.143999993801 1168.0
0.897000014782 -0.36700001359 -0.143000006676 1125.0
0.894999980927 -0.372999995947 -0.142000004649 1108.0
0.898999989033 -0.381000012159 -0.143000006676 1092.0
0.896000027657 -0.386000007391 -0.143000006676 971.0
0.89099997282 -0.391000002623 -0.143000006676 745.0
0.896000027657 -0.398999989033 -0.143999993801 727.0
0.885999977589 -0.400999993086 -0.143000006676 764.0
0.89099997282 -0.409999996424 -0.143999993801 769.0
0.888999998569 -0.416000008583 -0.143999993801 792.0
0.879999995232 -0.418000012636 -0.143000006676 817.0
0.879000008106 -0.423999994993 -0.143000006676 816.0
0.873000025749 -0.428000003099 -0.142000004649 829.0
0.876999974251 -0.437000006437 -0.143000006676 844.0
0.875 -0.442999988794 -0.143000006676 847.0
0.869000017643 -0.446000009775 -0.143000006676 847.0
0.874000012875 -0.456000000238 -0.143999993801 867.0
0.865000009537 -0.458000004292 -0.143000006676 872.0
0.866999983788 -0.465999990702 -0.143999993801 847.0
0.870999991894 -0.47499999404 -0.143999993801 960.0
0.861999988556 -0.476999998093 -0.143000006676 964.0
0.85900002718 -0.483000010252 -0.143000006676 964.0
0.954999983311 0.552999973297 -0.172000005841 885.0
0.958000004292 0.54699999094 -0.172000005841 908.0
0.957000017166 0.537999987602 -0.171000003815 918.0
0.958000004292 0.53100001812 -0.171000003815 919.0
0.958000004292 0.523000001907 -0.170000001788 910.0
0.966000020504 0.519999980927 -0.171000003815 907.0
0.958000004292 0.508000016212 -0.168999999762 872.0
0.955999970436 0.499000012875 -0.167999997735 842.0
0.962000012398 0.495000004768 -0.168999999762 829.0
0.967000007629 0.490000009537 -0.168999999762 794.0
0.953999996185 0.476000010967 -0.166999995708 754.0
0.958999991417 0.470999985933 -0.166999995708 722.0
0.966000020504 0.467000007629 -0.167999997735 691.0
0.971000015736 0.462000012398 -0.167999997735 651.0
0.958999991417 0.449000000954 -0.165999993682 600.0
0.967999994755 0.446000009775 -0.166999995708 549.0
0.963999986649 0.437000006437 -0.165999993682 500.0
0.963999986649 0.430000007153 -0.165000006557 451.0
0.967000007629 0.425000011921 -0.165000006557 390.0
0.958000004292 0.412999987602 -0.163000002503 349.0
0.939999997616 0.398999989033 -0.159999996424 297.0
0.981000006199 0.409000009298 -0.165999993682 418.0
0.97000002861 0.398000001907 -0.16400000453 349.0
0.949000000954 0.38299998641 -0.159999996424 305.0
0.971000015736 0.384999990463 -0.16400000453 254.0
0.902999997139 0.344999998808 -0.150999993086 157.0
0.800000011921 0.300000011921 -0.134000003338 111.0
0.73299998045 0.270000010729 -0.122000001371 101.0
0.472000002861 0.171000003815 -0.0790000036359 63.0
4.28399991989 0.943000018597 -0.68900001049 75.0
4.27899980545 0.915000021458 -0.686999976635 78.0
4.26200008392 0.884999990463 -0.684000015259 77.0
4.24399995804 0.856000006199 -0.680000007153 70.0
4.34899997711 0.850000023842 -0.695999979973 65.0
4.74900007248 0.870999991894 -0.759000003338 55.0
4.77400016785 0.847000002861 -0.762000024319 56.0
4.78399991989 0.819999992847 -0.763000011444 60.0
4.73799991608 0.782999992371 -0.754999995232 59.0
4.72900009155 0.753000020981 -0.751999974251 59.0
4.82999992371 0.740999996662 -0.768000006676 59.0
4.73799991608 0.698000013828 -0.751999974251 58.0
4.8109998703 0.680000007153 -0.763000011444 61.0
4.82000017166 0.652999997139 -0.763999998569 56.0
4.91699981689 0.637000024319 -0.778999984264 53.0
4.88399982452 0.546000003815 -0.772000014782 66.0
4.94500017166 0.523999989033 -0.78100001812 51.0
4.94299983978 0.493999987841 -0.77999997139 57.0
4.8639998436 0.458000004292 -0.76700001955 60.0
4.86999988556 0.430000007153 -0.768000006676 56.0
4.77899980545 0.393999993801 -0.753000020981 58.0
4.80900001526 0.368000000715 -0.757000029087 61.0
4.90299987793 0.347000002861 -0.772000014782 63.0
4.84700012207 0.314999997616 -0.762000024319 72.0
4.89099979401 0.28900000453 -0.768999993801 65.0
4.91499996185 0.261999994516 -0.772000014782 62.0
4.91499996185 0.232999995351 -0.772000014782 58.0
4.91900014877 0.204999998212 -0.772000014782 66.0
4.96600008011 0.178000003099 -0.778999984264 59.0
4.92100000381 0.146999999881 -0.772000014782 59.0
0.0879999995232 0.00400000018999 -0.0140000004321 57.0
0.995000004768 -0.0599999986589 -0.156000003219 464.0
0.995000004768 -0.0659999996424 -0.156000003219 973.0
0.989000022411 -0.0710000023246 -0.155000001192 246.0
0.954999983311 -0.0740000009537 -0.149000003934 157.0
0.953999996185 -0.0799999982119 -0.149000003934 160.0
0.949000000954 -0.0850000008941 -0.149000003934 153.0
0.972000002861 -0.0930000022054 -0.151999995112 156.0
0.943000018597 -0.0949999988079 -0.148000001907 158.0
0.949999988079 -0.101999998093 -0.149000003934 159.0
0.957000017166 -0.108000002801 -0.15000000596 159.0
0.950999975204 -0.112999998033 -0.149000003934 166.0
0.966000020504 -0.119999997318 -0.151999995112 175.0
0.926999986172 -0.120999999344 -0.145999997854 169.0
0.921000003815 -0.125 -0.144999995828 163.0
0.941999971867 -0.134000003338 -0.148000001907 175.0
0.959999978542 -0.142000004649 -0.150999993086 227.0
0.976000010967 -0.15000000596 -0.153999999166 1052.0
0.978999972343 -0.157000005245 -0.153999999166 1338.0
0.97000002861 -0.16099999845 -0.152999997139 1353.0
0.976000010967 -0.167999997735 -0.153999999166 1373.0
0.967000007629 -0.172000005841 -0.152999997139 1368.0
0.966000020504 -0.178000003099 -0.151999995112 1371.0
0.967000007629 -0.184000000358 -0.152999997139 1382.0
0.964999973774 -0.188999995589 -0.151999995112 1402.0
0.958000004292 -0.194000005722 -0.151999995112 1400.0
0.959999978542 -0.20000000298 -0.151999995112 1400.0
0.958999991417 -0.206000000238 -0.151999995112 1421.0
0.957000017166 -0.21099999547 -0.151999995112 1423.0
0.957000017166 -0.216999992728 -0.151999995112 1416.0
0.952000021935 -0.222000002861 -0.150999993086 1436.0
0.950999975204 -0.226999998093 -0.150999993086 1073.0
0.920000016689 -0.225999996066 -0.146999999881 260.0
0.898999989033 -0.225999996066 -0.143000006676 198.0
0.897000014782 -0.231000006199 -0.143000006676 195.0
0.913999974728 -0.240999996662 -0.145999997854 203.0
0.917999982834 -0.247999995947 -0.146999999881 203.0
0.912000000477 -0.252000004053 -0.145999997854 202.0
0.894999980927 -0.252999991179 -0.143999993801 203.0
0.926999986172 -0.268000006676 -0.149000003934 201.0
0.901000022888 -0.266000002623 -0.144999995828 207.0
0.878000020981 -0.264999985695 -0.141000002623 202.0
0.884999990463 -0.273000001907 -0.143000006676 207.0
0.916000008583 -0.28900000453 -0.148000001907 213.0
0.910000026226 -0.293000012636 -0.146999999881 212.0
0.875999987125 -0.287000000477 -0.142000004649 216.0
0.924000024796 -0.310000002384 -0.15000000596 1032.0
0.92199999094 -0.314999997616 -0.15000000596 1532.0
0.924000024796 -0.321999996901 -0.15000000596 1544.0
0.916999995708 -0.324999988079 -0.149000003934 1553.0
0.912999987602 -0.330000013113 -0.149000003934 1548.0
0.910000026226 -0.335000008345 -0.149000003934 1570.0
0.912999987602 -0.342999994755 -0.15000000596 1566.0
0.912999987602 -0.349000006914 -0.15000000596 1586.0
0.910000026226 -0.354000002146 -0.15000000596 1577.0
0.902000010014 -0.356999993324 -0.149000003934 1585.0
0.903999984264 -0.363999992609 -0.149000003934 1584.0
0.907000005245 -0.372000008821 -0.15000000596 1580.0
0.901000022888 -0.375999987125 -0.149000003934 1577.0
0.902999997139 -0.38299998641 -0.15000000596 1583.0
0.903999984264 -0.389999985695 -0.15000000596 1108.0
0.875 -0.384000003338 -0.145999997854 300.0
0.869000017643 -0.388000011444 -0.144999995828 226.0
0.838999986649 -0.379999995232 -0.140000000596 241.0
0.841000020504 -0.386999994516 -0.141000002623 235.0
0.85900002718 -0.402000010014 -0.143999993801 233.0
0.852999985218 -0.405000001192 -0.143999993801 236.0
0.847000002861 -0.409000009298 -0.143000006676 242.0
0.862999975681 -0.423000007868 -0.145999997854 248.0
0.850000023842 -0.423999994993 -0.143999993801 244.0
0.842999994755 -0.426999986172 -0.143999993801 252.0
0.84500002861 -0.433999985456 -0.143999993801 249.0
0.84500002861 -0.441000014544 -0.144999995828 249.0
0.855000019073 -0.45300000906 -0.146999999881 264.0
0.870000004768 -0.467999994755 -0.15000000596 1017.0
0.866999983788 -0.474000006914 -0.15000000596 1559.0
0.869000017643 -0.481999993324 -0.15000000596 1603.0
0.861000001431 -0.483999997377 -0.149000003934 1600.0
0.980000019073 0.568000018597 -0.182999998331 544.0
0.967000007629 0.551999986172 -0.180000007153 614.0
0.954999983311 0.537000000477 -0.177000001073 682.0
0.957000017166 0.53100001812 -0.177000001073 719.0
0.948000013828 0.518000006676 -0.17499999702 762.0
0.950999975204 0.512000024319 -0.17499999702 820.0
0.957000017166 0.508000016212 -0.17499999702 837.0
0.961000025272 0.501999974251 -0.175999999046 881.0
0.962000012398 0.495000004768 -0.17499999702 914.0
0.964999973774 0.488999992609 -0.17499999702 936.0
0.955999970436 0.476999998093 -0.172999992967 981.0
0.958999991417 0.470999985933 -0.172999992967 968.0
0.959999978542 0.463999986649 -0.172999992967 987.0
0.962000012398 0.458000004292 -0.172999992967 1011.0
0.961000025272 0.449999988079 -0.172000005841 1014.0
0.959999978542 0.442999988794 -0.171000003815 1017.0
0.958999991417 0.435000002384 -0.171000003815 1008.0
0.953999996185 0.425999999046 -0.170000001788 1008.0
0.96899998188 0.425000011921 -0.172000005841 992.0
0.962000012398 0.414999991655 -0.170000001788 982.0
0.964999973774 0.409999996424 -0.170000001788 947.0
0.972999989986 0.405999988317 -0.171000003815 931.0
0.96899998188 0.398000001907 -0.170000001788 910.0
0.976000010967 0.393999993801 -0.171000003815 887.0
0.967000007629 0.38299998641 -0.168999999762 864.0
0.971000015736 0.377999991179 -0.168999999762 828.0
0.96899998188 0.370999991894 -0.168999999762 792.0
0.964999973774 0.363000005484 -0.167999997735 750.0
0.963999986649 0.354999989271 -0.166999995708 699.0
0.96899998188 0.351000010967 -0.167999997735 642.0
0.952000021935 0.337999999523 -0.16400000453 602.0
0.963999986649 0.33599999547 -0.165999993682 555.0
0.958000004292 0.32800000906 -0.165000006557 495.0
0.958999991417 0.321999996901 -0.165000006557 451.0
0.957000017166 0.31400001049 -0.16400000453 402.0
0.947000026703 0.305000007153 -0.162000000477 361.0
0.963999986649 0.303999990225 -0.16400000453 312.0
0.940999984741 0.291000008583 -0.159999996424 268.0
0.952000021935 0.287999987602 -0.162000000477 290.0
0.972999989986 0.287999987602 -0.165000006557 354.0
0.958000004292 0.264999985695 -0.162000000477 201.0
0.910000026226 0.246000006795 -0.152999997139 169.0
0.893000006676 0.236000001431 -0.15000000596 115.0
0.875999987125 0.225999996066 -0.146999999881 93.0
0.646000027657 0.158999994397 -0.108000002801 67.0
4.36999988556 0.962000012398 -0.728999972343 66.0
4.41200017929 0.944000005722 -0.736000001431 66.0
4.32100009918 0.898000001907 -0.72000002861 76.0
4.44500017166 0.897000014782 -0.739000022411 66.0
4.50400018692 0.880999982357 -0.748000025749 55.0
4.79199981689 0.850000023842 -0.794000029564 58.0
4.79799985886 0.822000026703 -0.794000029564 57.0
4.77799987793 0.790000021458 -0.790000021458 53.0
4.8109998703 0.76700001955 -0.794000029564 59.0
4.90999984741 0.694999992847 -0.809000015259 53.0
1.0039999485 -0.0610000006855 -0.163000002503 486.0
0.998000025749 -0.0659999996424 -0.162000000477 955.0
0.992999970913 -0.0719999969006 -0.16099999845 230.0
0.962000012398 -0.0750000029802 -0.156000003219 156.0
0.959999978542 -0.0799999982119 -0.156000003219 156.0
0.952000021935 -0.0850000008941 -0.155000001192 155.0
0.929000020027 -0.0879999995232 -0.150999993086 159.0
0.950999975204 -0.0960000008345 -0.155000001192 160.0
0.930999994278 -0.10000000149 -0.150999993086 154.0
0.941999971867 -0.105999998748 -0.152999997139 167.0
0.957000017166 -0.11400000006 -0.156000003219 163.0
0.945999979973 -0.118000000715 -0.153999999166 169.0
0.931999981403 -0.122000001371 -0.151999995112 170.0
0.930999994278 -0.127000004053 -0.151999995112 170.0
0.922999978065 -0.130999997258 -0.15000000596 174.0
0.98400002718 -0.145999997854 -0.16099999845 234.0
0.96899998188 -0.15000000596 -0.158000007272 1083.0
0.977999985218 -0.157000005245 -0.159999996424 1335.0
0.967000007629 -0.16099999845 -0.158000007272 1364.0
0.973999977112 -0.167999997735 -0.158999994397 1370.0
0.967999994755 -0.172999992967 -0.158000007272 1374.0
0.966000020504 -0.178000003099 -0.158000007272 1382.0
0.962999999523 -0.182999998331 -0.158000007272 1391.0
0.961000025272 -0.188999995589 -0.158000007272 1400.0
0.958999991417 -0.194000005722 -0.158000007272 1399.0
0.962000012398 -0.201000005007 -0.158000007272 1412.0
0.959999978542 -0.206000000238 -0.158000007272 1417.0
0.950999975204 -0.209999993443 -0.157000005245 1432.0
0.954999983311 -0.216999992728 -0.157000005245 1431.0
0.955999970436 -0.223000004888 -0.158000007272 1435.0
0.944000005722 -0.225999996066 -0.156000003219 1021.0
0.916999995708 -0.22499999404 -0.151999995112 258.0
0.913999974728 -0.230000004172 -0.150999993086 189.0
0.894999980927 -0.231000006199 -0.148000001907 197.0
0.916000008583 -0.241999998689 -0.151999995112 189.0
0.908999979496 -0.246000006795 -0.150999993086 201.0
0.89099997282 -0.24699999392 -0.148000001907 197.0
0.901000022888 -0.254999995232 -0.15000000596 201.0
0.90499997139 -0.261999994516 -0.150999993086 203.0
0.89099997282 -0.263999998569 -0.149000003934 201.0
0.874000012875 -0.263999998569 -0.145999997854 206.0
0.876999974251 -0.270999997854 -0.146999999881 207.0
0.875 -0.275999993086 -0.146999999881 205.0
0.875 -0.282000005245 -0.146999999881 203.0
0.907000005245 -0.298000007868 -0.151999995112 225.0
0.922999978065 -0.308999985456 -0.155000001192 1097.0
0.925000011921 -0.316000014544 -0.156000003219 1544.0
0.921000003815 -0.321000009775 -0.156000003219 1548.0
0.921000003815 -0.326999992132 -0.156000003219 1549.0
0.910000026226 -0.328999996185 -0.153999999166 1557.0
0.915000021458 -0.337999999523 -0.155000001192 1572.0
0.911000013351 -0.342000007629 -0.155000001192 1572.0
0.912000000477 -0.349000006914 -0.155000001192 1581.0
0.907999992371 -0.354000002146 -0.155000001192 1576.0
0.90499997139 -0.358999997377 -0.155000001192 1584.0
0.90499997139 -0.365000009537 -0.155000001192 1593.0
0.90499997139 -0.372000008821 -0.155000001192 1590.0
0.902999997139 -0.377000004053 -0.155000001192 1594.0
0.901000022888 -0.38299998641 -0.155000001192 1601.0
0.89200001955 -0.384999990463 -0.153999999166 1031.0
0.880999982357 -0.386999994516 -0.151999995112 289.0
0.846000015736 -0.377999991179 -0.146999999881 222.0
0.851999998093 -0.386999994516 -0.148000001907 223.0
0.865000009537 -0.398999989033 -0.150999993086 223.0
0.839999973774 -0.393000006676 -0.146999999881 222.0
0.847999989986 -0.402999997139 -0.148000001907 219.0
0.861999988556 -0.416999995708 -0.150999993086 218.0
0.823000013828 -0.404000014067 -0.144999995828 217.0
0.848999977112 -0.423999994993 -0.15000000596 222.0
0.822000026703 -0.416000008583 -0.144999995828 224.0
0.861000001431 -0.442999988794 -0.152999997139 219.0
0.819000005722 -0.426999986172 -0.144999995828 218.0
0.838999986649 -0.444999992847 -0.15000000596 232.0
0.866999983788 -0.467000007629 -0.155000001192 1091.0
0.866999983788 -0.474000006914 -0.155000001192 1629.0
0.862999975681 -0.479000002146 -0.155000001192 1634.0
0.864000022411 -0.486000001431 -0.156000003219 1645.0
1.85800004005 1.07899999619 -0.360000014305 112.0
1.78199994564 1.01999998093 -0.344000011683 136.0
1.21399998665 0.684000015259 -0.233999997377 136.0
0.98400002718 0.546000003815 -0.188999995589 241.0
0.959999978542 0.524999976158 -0.182999998331 310.0
0.991999983788 0.535000026226 -0.188999995589 236.0
0.97000002861 0.514999985695 -0.184000000358 276.0
0.966000020504 0.504999995232 -0.182999998331 331.0
0.973999977112 0.501999974251 -0.184000000358 388.0
0.955999970436 0.485000014305 -0.180000007153 447.0
0.966000020504 0.481999993324 -0.180999994278 509.0
0.958999991417 0.472000002861 -0.180000007153 571.0
0.961000025272 0.465000003576 -0.179000005126 634.0
0.962999999523 0.458999991417 -0.179000005126 694.0
0.962000012398 0.451000005007 -0.179000005126 736.0
0.962999999523 0.444999992847 -0.178000003099 789.0
0.963999986649 0.437999993563 -0.178000003099 839.0
0.954999983311 0.426999986172 -0.175999999046 879.0
0.958999991417 0.42199999094 -0.175999999046 927.0
0.964999973774 0.416999995708 -0.177000001073 938.0
0.961000025272 0.407999992371 -0.175999999046 988.0
0.964999973774 0.402999997139 -0.175999999046 1008.0
0.958999991417 0.393999993801 -0.173999994993 1039.0
0.963999986649 0.388999998569 -0.17499999702 1064.0
0.954999983311 0.379000008106 -0.172999992967 1070.0
0.961000025272 0.374000012875 -0.173999994993 1104.0
0.967000007629 0.370000004768 -0.173999994993 1098.0
0.97000002861 0.365000009537 -0.17499999702 1114.0
0.961000025272 0.354999989271 -0.172999992967 1110.0
0.96899998188 0.351000010967 -0.173999994993 1125.0
0.971000015736 0.344999998808 -0.173999994993 1112.0
0.964999973774 0.337000012398 -0.172000005841 1099.0
0.96899998188 0.331999987364 -0.172999992967 1096.0
0.96899998188 0.324999988079 -0.172000005841 1108.0
0.971000015736 0.319000005722 -0.172000005841 1082.0
0.972999989986 0.31400001049 -0.172000005841 1080.0
0.975000023842 0.307999998331 -0.172000005841 1084.0
0.967000007629 0.298999994993 -0.171000003815 1064.0
0.97000002861 0.293999999762 -0.171000003815 1034.0
0.971000015736 0.287999987602 -0.171000003815 1006.0
0.972000002861 0.282000005245 -0.171000003815 968.0
0.976000010967 0.277000010014 -0.171000003815 949.0
0.97000002861 0.268999993801 -0.170000001788 909.0
0.964999973774 0.261000007391 -0.168999999762 864.0
0.97000002861 0.256000012159 -0.168999999762 833.0
0.97000002861 0.25 -0.168999999762 782.0
0.976000010967 0.246000006795 -0.170000001788 737.0
0.972999989986 0.238999992609 -0.168999999762 695.0
0.978999972343 0.233999997377 -0.170000001788 657.0
0.966000020504 0.22499999404 -0.166999995708 602.0
0.962000012398 0.217999994755 -0.165999993682 549.0
0.955999970436 0.21099999547 -0.165000006557 507.0
0.957000017166 0.206000000238 -0.165000006557 452.0
0.948000013828 0.197999998927 -0.16400000453 417.0
0.929000020027 0.187999993563 -0.159999996424 365.0
0.944000005722 0.185000002384 -0.162000000477 339.0
0.975000023842 0.185000002384 -0.166999995708 308.0
0.950999975204 0.17499999702 -0.163000002503 275.0
0.902999997139 0.16099999845 -0.155000001192 238.0
0.920000016689 0.158999994397 -0.158000007272 215.0
0.978999972343 0.163000002503 -0.166999995708 335.0
0.986999988556 0.158000007272 -0.168999999762 315.0
0.978999972343 0.150999993086 -0.166999995708 305.0
0.959999978542 0.142000004649 -0.16400000453 249.0
0.940999984741 0.134000003338 -0.159999996424 295.0
0.958999991417 0.130999997258 -0.163000002503 252.0
0.954999983311 0.125 -0.163000002503 191.0
0.922999978065 0.115000002086 -0.157000005245 137.0
0.865000009537 0.097999997437 -0.146999999881 81.0
0.929000020027 0.0989999994636 -0.158000007272 91.0
0.898999989033 0.0909999981523 -0.151999995112 75.0
0.837999999523 0.0799999982119 -0.142000004649 67.0
0.848999977112 0.0710000023246 -0.143999993801 51.0
4.94299983978 0.177000001073 -0.834999978542 50.0
1.00300002098 -0.0610000006855 -0.168999999762 518.0
0.996999979019 -0.0659999996424 -0.167999997735 934.0
0.976999998093 -0.070000000298 -0.165000006557 220.0
0.954999983311 -0.0740000009537 -0.16099999845 159.0
0.948000013828 -0.0790000036359 -0.159999996424 157.0
0.959999978542 -0.0860000029206 -0.162000000477 156.0
0.959999978542 -0.0920000001788 -0.162000000477 163.0
0.950999975204 -0.0960000008345 -0.159999996424 158.0
0.953999996185 -0.101999998093 -0.16099999845 163.0
0.957000017166 -0.108000002801 -0.16099999845 160.0
0.927999973297 -0.109999999404 -0.157000005245 165.0
0.95300000906 -0.119000002742 -0.16099999845 168.0
0.962000012398 -0.126000002027 -0.162000000477 167.0
0.93900001049 -0.12800000608 -0.158999994397 164.0
0.96899998188 -0.137999996543 -0.16400000453 175.0
0.955999970436 -0.142000004649 -0.162000000477 251.0
0.972999989986 -0.15000000596 -0.165000006557 1105.0
0.972999989986 -0.156000003219 -0.165000006557 1329.0
0.971000015736 -0.162000000477 -0.165000006557 1365.0
0.973999977112 -0.167999997735 -0.165000006557 1360.0
0.963999986649 -0.172000005841 -0.16400000453 1388.0
0.971000015736 -0.179000005126 -0.165000006557 1384.0
0.963999986649 -0.184000000358 -0.16400000453 1386.0
0.967999994755 -0.189999997616 -0.165000006557 1391.0
0.959999978542 -0.194000005722 -0.163000002503 1405.0
0.955999970436 -0.20000000298 -0.163000002503 1419.0
0.957000017166 -0.206000000238 -0.163000002503 1416.0
0.954999983311 -0.21099999547 -0.163000002503 1426.0
0.95300000906 -0.216000005603 -0.163000002503 1420.0
0.957000017166 -0.223000004888 -0.16400000453 1421.0
0.954999983311 -0.229000002146 -0.163000002503 964.0
0.908999979496 -0.223000004888 -0.156000003219 241.0
0.875 -0.219999998808 -0.15000000596 192.0
0.92199999094 -0.238000005484 -0.158000007272 194.0
0.897000014782 -0.237000003457 -0.153999999166 197.0
0.912000000477 -0.24699999392 -0.157000005245 199.0
0.885999977589 -0.245000004768 -0.152999997139 198.0
0.887000024319 -0.250999987125 -0.152999997139 201.0
0.901000022888 -0.261000007391 -0.156000003219 198.0
0.875999987125 -0.259000003338 -0.150999993086 197.0
0.894999980927 -0.270999997854 -0.155000001192 203.0
0.898000001907 -0.277999997139 -0.156000003219 199.0
0.861999988556 -0.272000014782 -0.15000000596 203.0
0.879000008106 -0.282999992371 -0.152999997139 205.0
0.899999976158 -0.296000003815 -0.157000005245 237.0
0.921000003815 -0.308999985456 -0.16099999845 1159.0
0.924000024796 -0.316000014544 -0.162000000477 1545.0
0.924000024796 -0.321999996901 -0.162000000477 1549.0
0.916999995708 -0.326000005007 -0.16099999845 1551.0
0.915000021458 -0.331999987364 -0.16099999845 1553.0
0.915000021458 -0.337999999523 -0.16099999845 1577.0
0.908999979496 -0.342000007629 -0.159999996424 1579.0
0.908999979496 -0.347999989986 -0.16099999845 1568.0
0.910000026226 -0.354999989271 -0.16099999845 1578.0
0.907000005245 -0.360000014305 -0.16099999845 1582.0
0.907999992371 -0.36700001359 -0.16099999845 1593.0
0.907999992371 -0.372999995947 -0.162000000477 1600.0
0.903999984264 -0.377999991179 -0.16099999845 1606.0
0.902000010014 -0.384000003338 -0.16099999845 1611.0
0.89200001955 -0.384999990463 -0.159999996424 935.0
0.875999987125 -0.384999990463 -0.157000005245 271.0
0.870999991894 -0.388999998569 -0.157000005245 222.0
0.838999986649 -0.381000012159 -0.150999993086 217.0
0.850000023842 -0.391999989748 -0.153999999166 218.0
0.824000000954 -0.386000007391 -0.149000003934 216.0
0.861999988556 -0.411000013351 -0.157000005245 218.0
0.839999973774 -0.407000005245 -0.152999997139 225.0
0.830999970436 -0.409000009298 -0.151999995112 213.0
0.836000025272 -0.418000012636 -0.152999997139 221.0
0.824000000954 -0.418000012636 -0.150999993086 212.0
0.824999988079 -0.425000011921 -0.151999995112 218.0
0.851000010967 -0.444999992847 -0.157000005245 210.0
0.830999970436 -0.441000014544 -0.153999999166 245.0
0.867999970913 -0.467999994755 -0.16099999845 1185.0
0.865999996662 -0.474000006914 -0.16099999845 1619.0
0.862999975681 -0.479000002146 -0.16099999845 1640.0
0.860000014305 -0.483999997377 -0.16099999845 1635.0
2.17700004578 1.26600003242 -0.437000006437 143.0
2.1970000267 1.25899994373 -0.43900001049 175.0
2.19899988174 1.24199998379 -0.437999993563 97.0
0.976999998093 0.465999990702 -0.187999993563 154.0
0.971000015736 0.449000000954 -0.186000004411 246.0
0.961000025272 0.437000006437 -0.184000000358 299.0
0.962000012398 0.430000007153 -0.182999998331 369.0
0.963999986649 0.423999994993 -0.182999998331 261.0
0.97000002861 0.419999986887 -0.184000000358 323.0
0.961000025272 0.409000009298 -0.181999996305 363.0
0.966000020504 0.404000014067 -0.181999996305 414.0
0.967999994755 0.398000001907 -0.181999996305 476.0
0.961000025272 0.388000011444 -0.180000007153 543.0
0.962999999523 0.381999999285 -0.180999994278 606.0
0.963999986649 0.375999987125 -0.180000007153 666.0
0.958000004292 0.36700001359 -0.179000005126 735.0
0.952000021935 0.358000010252 -0.177000001073 772.0
0.958999991417 0.354000002146 -0.178000003099 827.0
0.967999994755 0.351000010967 -0.179000005126 882.0
0.966000020504 0.344000011683 -0.179000005126 912.0
0.964999973774 0.337000012398 -0.178000003099 951.0
0.961000025272 0.328999996185 -0.177000001073 996.0
0.962000012398 0.323000013828 -0.177000001073 1032.0
0.966000020504 0.317999988794 -0.177000001073 1057.0
0.967000007629 0.312000006437 -0.177000001073 1084.0
0.964999973774 0.305000007153 -0.177000001073 1134.0
0.967000007629 0.298999994993 -0.177000001073 1167.0
0.97000002861 0.293999999762 -0.177000001073 1174.0
0.96899998188 0.287000000477 -0.175999999046 1192.0
0.96899998188 0.280999988317 -0.175999999046 1191.0
0.964999973774 0.273999989033 -0.17499999702 1204.0
0.975000023842 0.270000010729 -0.177000001073 1221.0
0.97000002861 0.263000011444 -0.175999999046 1228.0
0.972999989986 0.25799998641 -0.175999999046 1239.0
0.96899998188 0.25 -0.17499999702 1232.0
0.975000023842 0.246000006795 -0.175999999046 1239.0
0.973999977112 0.238999992609 -0.17499999702 1234.0
0.980000019073 0.234999999404 -0.175999999046 1219.0
0.975000023842 0.228000000119 -0.17499999702 1229.0
0.978999972343 0.222000002861 -0.17499999702 1212.0
0.975000023842 0.215000003576 -0.173999994993 1199.0
0.976000010967 0.209999993443 -0.173999994993 1166.0
0.977999985218 0.203999996185 -0.17499999702 1169.0
0.972999989986 0.196999996901 -0.172999992967 1142.0
0.980000019073 0.193000003695 -0.17499999702 1133.0
0.977999985218 0.186000004411 -0.173999994993 1105.0
0.981000006199 0.180999994278 -0.173999994993 1073.0
0.976000010967 0.173999994993 -0.172999992967 1045.0
0.981999993324 0.168999999762 -0.173999994993 1019.0
0.978999972343 0.163000002503 -0.172999992967 1007.0
0.977999985218 0.157000005245 -0.172999992967 980.0
0.981000006199 0.150999993086 -0.172999992967 989.0
0.980000019073 0.144999995828 -0.172999992967 1057.0
0.976999998093 0.138999998569 -0.172000005841 1033.0
0.977999985218 0.134000003338 -0.172000005841 1027.0
0.972999989986 0.127000004053 -0.171000003815 965.0
0.976000010967 0.122000001371 -0.172000005841 842.0
0.977999985218 0.115999996662 -0.172000005841 769.0
0.980000019073 0.111000001431 -0.172000005841 774.0
0.978999972343 0.104999996722 -0.172000005841 778.0
0.976999998093 0.0989999994636 -0.171000003815 730.0
0.980000019073 0.0930000022054 -0.172000005841 751.0
0.972000002861 0.0869999974966 -0.170000001788 759.0
0.981999993324 0.082000002265 -0.172000005841 680.0
0.978999972343 0.0759999975562 -0.171000003815 637.0
0.980000019073 0.0710000023246 -0.172000005841 593.0
0.990999996662 0.0649999976158 -0.172999992967 577.0
0.981999993324 0.0590000003576 -0.172000005841 548.0
0.980000019073 0.0529999993742 -0.171000003815 513.0
0.978999972343 0.0480000004172 -0.171000003815 488.0
0.962999999523 0.0410000011325 -0.167999997735 470.0
0.963999986649 0.0359999984503 -0.167999997735 457.0
0.975000023842 0.0299999993294 -0.170000001788 427.0
0.978999972343 0.0250000003725 -0.171000003815 387.0
0.96899998188 0.0189999993891 -0.168999999762 202.0
0.995999991894 -0.0599999986589 -0.173999994993 559.0
1.00199997425 -0.0670000016689 -0.17499999702 914.0
0.975000023842 -0.070000000298 -0.170000001788 212.0
0.961000025272 -0.0750000029802 -0.167999997735 164.0
0.962999999523 -0.0810000002384 -0.167999997735 158.0
0.945999979973 -0.0850000008941 -0.165000006557 154.0
0.947000026703 -0.0900000035763 -0.165000006557 162.0
0.963999986649 -0.097999997437 -0.167999997735 162.0
0.955999970436 -0.103000000119 -0.166999995708 159.0
0.925000011921 -0.104000002146 -0.162000000477 162.0
0.93900001049 -0.112000003457 -0.16400000453 164.0
0.967999994755 -0.120999999344 -0.168999999762 161.0
0.934000015259 -0.122000001371 -0.163000002503 166.0
0.957000017166 -0.130999997258 -0.166999995708 176.0
0.945999979973 -0.135000005364 -0.165999993682 168.0
0.944999992847 -0.140000000596 -0.165999993682 279.0
0.980000019073 -0.151999995112 -0.172000005841 1142.0
0.971000015736 -0.156000003219 -0.170000001788 1336.0
0.971000015736 -0.162000000477 -0.170000001788 1350.0
0.97000002861 -0.167999997735 -0.170000001788 1359.0
0.972999989986 -0.173999994993 -0.171000003815 1373.0
0.96899998188 -0.179000005126 -0.170000001788 1377.0
0.963999986649 -0.184000000358 -0.170000001788 1393.0
0.962000012398 -0.188999995589 -0.168999999762 1403.0
0.961000025272 -0.194999992847 -0.168999999762 1394.0
0.961000025272 -0.201000005007 -0.170000001788 1400.0
0.958999991417 -0.206000000238 -0.168999999762 1426.0
0.958000004292 -0.211999997497 -0.168999999762 1439.0
0.95300000906 -0.216999992728 -0.168999999762 1424.0
0.952000021935 -0.222000002861 -0.168999999762 1429.0
0.950999975204 -0.228000000119 -0.168999999762 907.0
0.907999992371 -0.223000004888 -0.16099999845 235.0
0.907000005245 -0.229000002146 -0.16099999845 193.0
0.901000022888 -0.232999995351 -0.159999996424 190.0
0.922999978065 -0.244000002742 -0.16400000453 201.0
0.897000014782 -0.243000000715 -0.159999996424 198.0
0.916000008583 -0.254000008106 -0.16400000453 198.0
0.888000011444 -0.252000004053 -0.158999994397 202.0
0.897000014782 -0.259999990463 -0.16099999845 199.0
0.875999987125 -0.259999990463 -0.157000005245 203.0
0.884999990463 -0.268000006676 -0.158999994397 200.0
0.867999970913 -0.268999993801 -0.156000003219 197.0
0.907000005245 -0.287000000477 -0.163000002503 206.0
0.908999979496 -0.293000012636 -0.16400000453 202.0
0.915000021458 -0.300999999046 -0.165000006557 253.0
0.919000029564 -0.308999985456 -0.165999993682 1217.0
0.925000011921 -0.317000001669 -0.166999995708 1551.0
0.919000029564 -0.321000009775 -0.166999995708 1552.0
0.912999987602 -0.324999988079 -0.165999993682 1554.0
0.921000003815 -0.333999991417 -0.167999997735 1557.0
0.915000021458 -0.337999999523 -0.166999995708 1564.0
0.915000021458 -0.344999998808 -0.166999995708 1551.0
0.907999992371 -0.347999989986 -0.165999993682 1577.0
0.907000005245 -0.354000002146 -0.165999993682 1575.0
0.907000005245 -0.360000014305 -0.166999995708 1591.0
0.901000022888 -0.363999992609 -0.165999993682 1586.0
0.898999989033 -0.370000004768 -0.165999993682 1588.0
0.894999980927 -0.375 -0.165000006557 1612.0
0.902000010014 -0.384000003338 -0.166999995708 1596.0
0.887000024319 -0.384000003338 -0.165000006557 860.0
0.871999979019 -0.384000003338 -0.162000000477 264.0
0.850000023842 -0.379999995232 -0.158000007272 219.0
0.853999972343 -0.388000011444 -0.159999996424 228.0
0.85900002718 -0.397000014782 -0.16099999845 218.0
0.84399998188 -0.395999997854 -0.158000007272 214.0
0.847000002861 -0.404000014067 -0.158999994397 210.0
0.833999991417 -0.404000014067 -0.157000005245 218.0
0.848999977112 -0.418000012636 -0.159999996424 213.0
0.837999999523 -0.418999999762 -0.158999994397 216.0
0.825999975204 -0.418999999762 -0.157000005245 218.0
0.823000013828 -0.423999994993 -0.157000005245 218.0
0.825999975204 -0.432000011206 -0.158000007272 224.0
0.84500002861 -0.449000000954 -0.162000000477 272.0
0.867999970913 -0.469000011683 -0.166999995708 1247.0
0.864000022411 -0.474000006914 -0.166999995708 1627.0
0.867999970913 -0.481999993324 -0.167999997735 1663.0
0.860000014305 -0.485000014305 -0.166999995708 1641.0
2.15599989891 1.25499999523 -0.446999996901 185.0
2.23699998856 1.28299999237 -0.462999999523 268.0
2.27200007439 1.28499996662 -0.467999994755 129.0
2.29600000381 1.27900004387 -0.472000002861 78.0
0.874000012875 0.335000008345 -0.168999999762 132.0
0.922999978065 0.335000008345 -0.177000001073 280.0
0.949000000954 0.337999999523 -0.181999996305 321.0
0.944000005722 0.330000013113 -0.180000007153 280.0
0.943000018597 0.323000013828 -0.180000007153 318.0
0.959999978542 0.323000013828 -0.182999998331 297.0
0.93900001049 0.308999985456 -0.178000003099 356.0
0.947000026703 0.305999994278 -0.180000007153 401.0
0.95300000906 0.300999999046 -0.180000007153 451.0
0.959999978542 0.29699999094 -0.180999994278 528.0
0.966000020504 0.293000012636 -0.181999996305 591.0
0.967999994755 0.287000000477 -0.181999996305 628.0
0.962000012398 0.279000014067 -0.180999994278 681.0
0.962999999523 0.273000001907 -0.180999994278 728.0
0.972999989986 0.270000010729 -0.181999996305 792.0
0.96899998188 0.263000011444 -0.180999994278 828.0
0.967999994755 0.256000012159 -0.180999994278 878.0
0.971000015736 0.250999987125 -0.180999994278 925.0
0.97000002861 0.245000004768 -0.180999994278 968.0
0.966000020504 0.238000005484 -0.180000007153 1012.0
0.973999977112 0.233999997377 -0.180999994278 1046.0
0.976000010967 0.228000000119 -0.180999994278 1057.0
0.971000015736 0.221000000834 -0.180000007153 1094.0
0.975000023842 0.216000005603 -0.180000007153 1096.0
0.967000007629 0.208000004292 -0.179000005126 1119.0
0.964999973774 0.202000007033 -0.178000003099 1159.0
0.972999989986 0.196999996901 -0.179000005126 1171.0
0.972999989986 0.190999999642 -0.179000005126 1179.0
0.978999972343 0.187000006437 -0.180000007153 1187.0
0.976999998093 0.180000007153 -0.179000005126 1200.0
0.972000002861 0.173999994993 -0.178000003099 1195.0
0.972999989986 0.167999997735 -0.178000003099 1195.0
0.972999989986 0.162000000477 -0.178000003099 1214.0
0.977999985218 0.157000005245 -0.179000005126 1232.0
0.973999977112 0.150999993086 -0.178000003099 1233.0
0.975000023842 0.144999995828 -0.178000003099 1267.0
0.976999998093 0.138999998569 -0.178000003099 1284.0
0.975000023842 0.133000001311 -0.178000003099 1357.0
0.978999972343 0.12800000608 -0.178000003099 1360.0
0.967999994755 0.120999999344 -0.175999999046 1313.0
0.977999985218 0.115999996662 -0.178000003099 1308.0
0.972000002861 0.109999999404 -0.177000001073 1386.0
0.976999998093 0.104999996722 -0.177000001073 1408.0
0.981999993324 0.0989999994636 -0.178000003099 1351.0
0.976999998093 0.0930000022054 -0.177000001073 1360.0
0.981999993324 0.0879999995232 -0.178000003099 1445.0
0.977999985218 0.082000002265 -0.177000001073 1437.0
0.978999972343 0.0759999975562 -0.177000001073 1464.0
0.981999993324 0.0710000023246 -0.178000003099 1445.0
0.981000006199 0.0649999976158 -0.178000003099 1446.0
0.981000006199 0.0590000003576 -0.178000003099 1414.0
0.976999998093 0.0529999993742 -0.177000001073 1381.0
0.981000006199 0.0480000004172 -0.177000001073 1412.0
0.973999977112 0.0419999994338 -0.175999999046 1449.0
0.98400002718 0.0359999984503 -0.178000003099 1419.0
0.98400002718 0.0309999994934 -0.178000003099 1353.0
0.98299998045 0.0250000003725 -0.177000001073 1240.0
0.975000023842 0.0189999993891 -0.175999999046 475.0
0.995999991894 -0.0599999986589 -0.180000007153 596.0
0.998000025749 -0.0659999996424 -0.180000007153 883.0
0.961000025272 -0.0689999982715 -0.172999992967 200.0
0.95300000906 -0.0740000009537 -0.172000005841 153.0
0.940999984741 -0.0790000036359 -0.170000001788 154.0
0.953999996185 -0.0860000029206 -0.172000005841 153.0
0.96899998188 -0.0930000022054 -0.17499999702 155.0
0.967000007629 -0.097999997437 -0.17499999702 162.0
0.967000007629 -0.104000002146 -0.17499999702 158.0
0.953999996185 -0.108000002801 -0.172000005841 160.0
0.934000015259 -0.111000001431 -0.168999999762 165.0
0.933000028133 -0.116999998689 -0.168999999762 168.0
0.943000018597 -0.123000003397 -0.171000003815 167.0
0.930999994278 -0.127000004053 -0.167999997735 170.0
0.915000021458 -0.130999997258 -0.165999993682 169.0
0.958000004292 -0.143000006676 -0.173999994993 299.0
0.967999994755 -0.15000000596 -0.175999999046 1154.0
0.977999985218 -0.157000005245 -0.177000001073 1339.0
0.967999994755 -0.162000000477 -0.175999999046 1362.0
0.971000015736 -0.167999997735 -0.175999999046 1370.0
0.964999973774 -0.172999992967 -0.17499999702 1373.0
0.967000007629 -0.179000005126 -0.175999999046 1386.0
0.964999973774 -0.184000000358 -0.175999999046 1395.0
0.971000015736 -0.190999999642 -0.177000001073 1401.0
0.955999970436 -0.194000005722 -0.173999994993 1391.0
0.957000017166 -0.20000000298 -0.17499999702 1405.0
0.955999970436 -0.206000000238 -0.17499999702 1425.0
0.958999991417 -0.211999997497 -0.17499999702 1423.0
0.949999988079 -0.216000005603 -0.173999994993 1417.0
0.955999970436 -0.224000006914 -0.17499999702 1437.0
0.950999975204 -0.228000000119 -0.173999994993 854.0
0.927999973297 -0.228000000119 -0.170000001788 223.0
0.901000022888 -0.226999998093 -0.165999993682 197.0
0.924000024796 -0.238999992609 -0.170000001788 199.0
0.916000008583 -0.243000000715 -0.168999999762 198.0
0.917999982834 -0.248999997973 -0.168999999762 197.0
0.901000022888 -0.25 -0.165999993682 203.0
0.907999992371 -0.25799998641 -0.167999997735 198.0
0.888999998569 -0.25799998641 -0.165000006557 199.0
0.901000022888 -0.266999989748 -0.166999995708 198.0
0.888999998569 -0.270000010729 -0.165000006557 200.0
0.874000012875 -0.270999997854 -0.163000002503 208.0
0.896000027657 -0.282999992371 -0.166999995708 205.0
0.879999995232 -0.284000009298 -0.16400000453 206.0
0.901000022888 -0.29699999094 -0.167999997735 288.0
0.919000029564 -0.308999985456 -0.172000005841 1264.0
0.921000003815 -0.316000014544 -0.172999992967 1544.0
0.916999995708 -0.321000009775 -0.172000005841 1556.0
0.915000021458 -0.326000005007 -0.172000005841 1537.0
0.912999987602 -0.331000000238 -0.172000005841 1555.0
0.913999974728 -0.337999999523 -0.172000005841 1552.0
0.912999987602 -0.344000011683 -0.172000005841 1572.0
0.902000010014 -0.345999985933 -0.171000003815 1573.0
0.907000005245 -0.354000002146 -0.172000005841 1571.0
0.903999984264 -0.360000014305 -0.172000005841 1597.0
0.90600001812 -0.36700001359 -0.172000005841 1600.0
0.90499997139 -0.372999995947 -0.172999992967 1597.0
0.902000010014 -0.377999991179 -0.172999992967 1598.0
0.898999989033 -0.38299998641 -0.172000005841 1592.0
0.888999998569 -0.384999990463 -0.171000003815 765.0
0.876999974251 -0.386000007391 -0.168999999762 244.0
0.842999994755 -0.377000004053 -0.163000002503 214.0
0.850000023842 -0.386999994516 -0.16400000453 207.0
0.819000005722 -0.379000008106 -0.158999994397 219.0
0.842999994755 -0.395999997854 -0.16400000453 214.0
0.855000019073 -0.407999992371 -0.165999993682 214.0
0.855000019073 -0.414999991655 -0.166999995708 214.0
0.822000026703 -0.405000001192 -0.16099999845 215.0
0.833999991417 -0.416999995708 -0.16400000453 213.0
0.827000021935 -0.419999986887 -0.163000002503 209.0
0.828999996185 -0.428000003099 -0.163000002503 220.0
0.825999975204 -0.432999998331 -0.163000002503 212.0
0.856999993324 -0.456000000238 -0.170000001788 312.0
0.870999991894 -0.469999998808 -0.172999992967 1310.0
0.861999988556 -0.472999989986 -0.172000005841 1644.0
0.865000009537 -0.481000006199 -0.172999992967 1654.0
0.865000009537 -0.488000005484 -0.172999992967 1654.0
2.20199990273 1.28299999237 -0.472000002861 199.0
2.22699999809 1.27900004387 -0.476000010967 292.0
2.26600003242 1.28299999237 -0.483000010252 169.0
2.28600001335 1.27499997616 -0.485000014305 109.0
3.28999996185 1.37999999523 -0.663999974728 76.0
3.59599995613 1.48300004005 -0.725000023842 71.0
0.852999985218 0.241999998689 -0.165000006557 76.0
0.82800000906 0.230000004172 -0.159999996424 96.0
0.939999997616 0.254999995232 -0.181999996305 139.0
0.961000025272 0.248999997973 -0.185000002384 221.0
0.961000025272 0.231000006199 -0.184000000358 389.0
0.962000012398 0.22499999404 -0.184000000358 312.0
0.912000000477 0.207000002265 -0.173999994993 273.0
0.912999987602 0.202000007033 -0.17499999702 301.0
0.919000029564 0.197999998927 -0.17499999702 345.0
0.93599998951 0.195999994874 -0.178000003099 395.0
0.939999997616 0.190999999642 -0.179000005126 439.0
0.962999999523 0.189999997616 -0.182999998331 488.0
0.972999989986 0.186000004411 -0.185000002384 536.0
0.972999989986 0.180000007153 -0.185000002384 576.0
0.976999998093 0.173999994993 -0.185000002384 611.0
0.972000002861 0.167999997735 -0.184000000358 636.0
0.967999994755 0.16099999845 -0.182999998331 680.0
0.977999985218 0.157000005245 -0.185000002384 723.0
0.976999998093 0.150999993086 -0.184000000358 748.0
0.976000010967 0.144999995828 -0.184000000358 778.0
0.978999972343 0.140000000596 -0.185000002384 822.0
0.973999977112 0.133000001311 -0.182999998331 886.0
0.977999985218 0.12800000608 -0.184000000358 947.0
0.980000019073 0.122000001371 -0.184000000358 998.0
0.976000010967 0.115999996662 -0.182999998331 1044.0
0.978999972343 0.111000001431 -0.184000000358 1101.0
0.973999977112 0.104000002146 -0.182999998331 1162.0
0.975000023842 0.0989999994636 -0.182999998331 1184.0
0.976000010967 0.0930000022054 -0.182999998331 1187.0
0.972000002861 0.0869999974966 -0.181999996305 1261.0
0.978999972343 0.082000002265 -0.182999998331 1300.0
0.976999998093 0.0759999975562 -0.182999998331 1330.0
0.973999977112 0.070000000298 -0.181999996305 1383.0
0.975000023842 0.0649999976158 -0.181999996305 1403.0
0.972999989986 0.0590000003576 -0.181999996305 1416.0
0.976000010967 0.0529999993742 -0.181999996305 1435.0
0.976000010967 0.0469999983907 -0.181999996305 1466.0
0.976000010967 0.0419999994338 -0.181999996305 1486.0
0.977999985218 0.0359999984503 -0.181999996305 1473.0
0.975000023842 0.0299999993294 -0.181999996305 1411.0
0.976000010967 0.0250000003725 -0.181999996305 1366.0
0.96899998188 0.0189999993891 -0.180999994278 531.0
0.999000012875 -0.0610000006855 -0.186000004411 624.0
1.00100004673 -0.0670000016689 -0.186000004411 865.0
0.964999973774 -0.070000000298 -0.180000007153 188.0
0.947000026703 -0.0740000009537 -0.177000001073 159.0
0.949999988079 -0.0799999982119 -0.177000001073 161.0
0.964999973774 -0.0869999974966 -0.180000007153 157.0
0.949000000954 -0.0909999981523 -0.177000001073 157.0
0.954999983311 -0.097000002861 -0.178000003099 162.0
0.940999984741 -0.101000003517 -0.175999999046 162.0
0.948000013828 -0.108000002801 -0.177000001073 157.0
0.912999987602 -0.108999997377 -0.171000003815 163.0
0.949999988079 -0.119000002742 -0.177000001073 166.0
0.90600001812 -0.119000002742 -0.168999999762 169.0
0.925000011921 -0.127000004053 -0.172999992967 168.0
0.916000008583 -0.130999997258 -0.171000003815 176.0
0.964999973774 -0.143999993801 -0.180999994278 327.0
0.972999989986 -0.150999993086 -0.181999996305 1178.0
0.971000015736 -0.156000003219 -0.181999996305 1328.0
0.96899998188 -0.162000000477 -0.181999996305 1356.0
0.964999973774 -0.166999995708 -0.180999994278 1365.0
0.96899998188 -0.172999992967 -0.181999996305 1376.0
0.97000002861 -0.180000007153 -0.181999996305 1381.0
0.961000025272 -0.184000000358 -0.180999994278 1395.0
0.963999986649 -0.189999997616 -0.181999996305 1407.0
0.962999999523 -0.195999994874 -0.181999996305 1387.0
0.961000025272 -0.201000005007 -0.180999994278 1407.0
0.958999991417 -0.207000002265 -0.180999994278 1424.0
0.958000004292 -0.211999997497 -0.180999994278 1412.0
0.954999983311 -0.217999994755 -0.180999994278 1418.0
0.949999988079 -0.222000002861 -0.180000007153 1421.0
0.939999997616 -0.225999996066 -0.178000003099 786.0
0.938000023365 -0.231000006199 -0.178000003099 225.0
0.889999985695 -0.22499999404 -0.168999999762 191.0
0.922999978065 -0.238999992609 -0.17499999702 196.0
0.896000027657 -0.237000003457 -0.171000003815 200.0
0.901000022888 -0.245000004768 -0.172000005841 202.0
0.907999992371 -0.252000004053 -0.172999992967 205.0
0.907999992371 -0.25799998641 -0.173999994993 197.0
0.880999982357 -0.256000012159 -0.168999999762 196.0
0.860000014305 -0.254999995232 -0.165000006557 198.0
0.875 -0.266000002623 -0.167999997735 196.0
0.893000006676 -0.277000010014 -0.172000005841 203.0
0.885999977589 -0.280999988317 -0.170000001788 208.0
0.888999998569 -0.287000000477 -0.171000003815 203.0
0.919000029564 -0.303000003099 -0.177000001073 328.0
0.922999978065 -0.31099998951 -0.178000003099 1305.0
0.925999999046 -0.317999988794 -0.179000005126 1542.0
0.917999982834 -0.321000009775 -0.178000003099 1565.0
0.920000016689 -0.32800000906 -0.179000005126 1550.0
0.911000013351 -0.331000000238 -0.177000001073 1553.0
0.913999974728 -0.338999986649 -0.178000003099 1555.0
0.910000026226 -0.342999994755 -0.178000003099 1574.0
0.912000000477 -0.34999999404 -0.178000003099 1577.0
0.912000000477 -0.356999993324 -0.179000005126 1581.0
0.90600001812 -0.361000001431 -0.178000003099 1594.0
0.902000010014 -0.365000009537 -0.177000001073 1597.0
0.902999997139 -0.372000008821 -0.178000003099 1591.0
0.898999989033 -0.377000004053 -0.178000003099 1599.0
0.898000001907 -0.38299998641 -0.178000003099 1580.0
0.894999980927 -0.388000011444 -0.178000003099 696.0
0.85799998045 -0.377999991179 -0.171000003815 246.0
0.861000001431 -0.386000007391 -0.172000005841 213.0
0.856000006199 -0.389999985695 -0.171000003815 216.0
0.825999975204 -0.381999999285 -0.165000006557 213.0
0.84500002861 -0.398000001907 -0.170000001788 208.0
0.838999986649 -0.400999993086 -0.168999999762 211.0
0.84399998188 -0.409999996424 -0.170000001788 215.0
0.847999989986 -0.418999999762 -0.172000005841 212.0
0.834999978542 -0.418000012636 -0.168999999762 217.0
0.829999983311 -0.42199999094 -0.168999999762 217.0
0.827000021935 -0.426999986172 -0.167999997735 216.0
0.811999976635 -0.425999999046 -0.165999993682 221.0
0.837000012398 -0.446000009775 -0.172000005841 363.0
0.866999983788 -0.469000011683 -0.178000003099 1365.0
0.862999975681 -0.474000006914 -0.178000003099 1634.0
0.860000014305 -0.479000002146 -0.178000003099 1635.0
0.862999975681 -0.488000005484 -0.179000005126 1652.0
2.23200011253 1.30200004578 -0.493999987841 189.0
2.21499991417 1.27400004864 -0.488999992609 305.0
2.22600007057 1.26100003719 -0.488999992609 177.0
2.30999994278 1.28999996185 -0.505999982357 121.0
2.51600003242 1.3029999733 -0.542999982834 78.0
3.31299996376 1.39100003242 -0.690999984741 104.0
3.39599990845 1.40199995041 -0.705999970436 90.0
4.19600009918 0.953999996185 -0.829999983311 77.0
4.20599985123 0.930000007153 -0.830999970436 78.0
4.242000103 0.911000013351 -0.837000012398 75.0
4.17600011826 0.870999991894 -0.823000013828 80.0
4.30399990082 0.871999979019 -0.847000002861 77.0
4.44799995422 0.874000012875 -0.875 58.0
0.615000009537 0.107000000775 -0.119999997318 57.0
0.92199999094 0.153999999166 -0.180000007153 72.0
0.944999992847 0.151999995112 -0.184000000358 91.0
0.967000007629 0.143999993801 -0.187999993563 123.0
0.96899998188 0.133000001311 -0.187999993563 184.0
0.950999975204 0.119000002742 -0.185000002384 285.0
0.972999989986 0.115999996662 -0.188999995589 340.0
0.986000001431 0.112000003457 -0.190999999642 379.0
