ply
format ascii 1.0
comment Author: CloudCompare (TELECOM PARISTECH/EDF R&D)
obj_info Generated by CloudCompare!
element vertex 1920
property float x
property float y
property float z
property float scalar_intensity
end_header
0.902 -0.287 0.082 1514 
0.908 -0.294 0.082 1531 
0.904 -0.299 0.082 1513 
0.902 -0.304 0.082 1533 
0.901 -0.31 0.082 1525 
0.905 -0.318 0.083 1522 
0.899 -0.321 0.082 1535 
0.901 -0.328 0.083 1537 
0.901 -0.334 0.083 1510 
0.898 -0.339 0.083 1519 
0.895 -0.344 0.083 1506 
0.898 -0.352 0.083 1534 
0.896 -0.357 0.083 1510 
0.894 -0.362 0.083 1499 
0.896 -0.369 0.084 1522 
0.894 -0.375 0.084 1503 
0.894 -0.381 0.084 1508 
0.892 -0.387 0.084 1484 
0.894 -0.394 0.084 1483 
0.886 -0.397 0.084 1482 
0.891 -0.406 0.084 1487 
0.889 -0.412 0.085 1453 
0.884 -0.416 0.084 1472 
0.891 -0.426 0.085 1502 
0.889 -0.431 0.085 1472 
0.885 -0.436 0.085 1476 
0.889 -0.445 0.086 1482 
0.891 -0.453 0.086 1478 
0.885 -0.457 0.086 1470 
0.888 -0.465 0.086 1477 
0.885 -0.471 0.086 1453 
0.887 -0.479 0.087 1458 
0.88 -0.482 0.087 1469 
0.883 -0.491 0.087 1469 
0.932 -0.022 0.074 1099 
0.924 -0.027 0.074 1474 
0.932 -0.033 0.074 1494 
0.923 -0.038 0.074 1469 
0.925 -0.043 0.074 1502 
0.93 -0.049 0.074 1503 
0.926 -0.054 0.074 1487 
0.92 -0.059 0.074 1484 
0.922 -0.065 0.074 1491 
0.925 -0.07 0.074 1472 
0.917 -0.075 0.073 1482 
0.922 -0.081 0.074 1459 
0.918 -0.086 0.074 1472 
0.926 -0.092 0.074 1484 
0.925 -0.097 0.074 1500 
0.919 -0.102 0.074 1518 
0.913 -0.106 0.073 1522 
0.917 -0.112 0.074 1507 
0.915 -0.117 0.074 1516 
0.919 -0.123 0.074 1518 
0.916 -0.128 0.074 1519 
0.919 -0.134 0.074 1522 
0.915 -0.139 0.074 1515 
0.916 -0.144 0.074 1503 
0.913 -0.149 0.074 1522 
0.911 -0.154 0.074 1507 
0.918 -0.161 0.075 1523 
0.916 -0.166 0.075 1521 
0.916 -0.172 0.075 1531 
0.911 -0.176 0.074 1530 
0.911 -0.182 0.075 1527 
0.913 -0.188 0.075 1527 
0.909 -0.192 0.075 1527 
0.91 -0.198 0.075 1541 
0.911 -0.204 0.075 1540 
0.907 -0.208 0.075 1544 
0.908 -0.214 0.075 1540 
0.908 -0.22 0.075 1525 
0.916 -0.227 0.076 1534 
0.907 -0.231 0.075 1529 
0.909 -0.237 0.075 1543 
0.902 -0.241 0.075 1542 
0.905 -0.247 0.075 1538 
0.902 -0.252 0.075 1533 
0.903 -0.258 0.075 1541 
0.904 -0.264 0.076 1530 
0.905 -0.27 0.076 1522 
0.901 -0.275 0.076 1516 
0.904 -0.282 0.076 1529 
0.901 -0.286 0.076 1520 
0.903 -0.293 0.076 1524 
0.904 -0.299 0.077 1546 
0.9 -0.304 0.076 1543 
0.899 -0.309 0.076 1544 
0.901 -0.316 0.077 1524 
0.897 -0.321 0.077 1533 
0.899 -0.327 0.077 1529 
0.899 -0.334 0.077 1523 
0.904 -0.341 0.078 1532 
0.892 -0.343 0.077 1521 
0.898 -0.351 0.078 1522 
0.895 -0.356 0.078 1523 
0.896 -0.363 0.078 1488 
0.896 -0.369 0.078 1513 
0.898 -0.376 0.078 1519 
0.893 -0.381 0.078 1499 
0.891 -0.386 0.078 1517 
0.891 -0.393 0.078 1488 
0.894 -0.401 0.079 1480 
0.891 -0.406 0.079 1462 
0.89 -0.412 0.079 1432 
0.891 -0.419 0.079 1466 
0.889 -0.425 0.079 1486 
0.885 -0.429 0.079 1486 
0.888 -0.437 0.08 1489 
0.886 -0.443 0.08 1463 
0.884 -0.449 0.08 1499 
0.889 -0.459 0.081 1488 
0.881 -0.461 0.08 1468 
0.878 -0.467 0.08 1468 
0.887 -0.479 0.081 1469 
0.883 -0.484 0.081 1473 
0.885 -0.492 0.082 1471 
0.931 -0.022 0.069 1122 
0.931 -0.028 0.069 1507 
0.924 -0.033 0.068 1517 
0.929 -0.038 0.069 1510 
0.927 -0.044 0.069 1513 
0.928 -0.049 0.069 1500 
0.918 -0.054 0.068 1489 
0.927 -0.06 0.069 1478 
0.921 -0.064 0.068 1494 
0.925 -0.07 0.069 1472 
0.924 -0.075 0.069 1480 
0.924 -0.081 0.069 1478 
0.918 -0.086 0.068 1477 
0.921 -0.091 0.069 1483 
0.921 -0.097 0.069 1503 
0.92 -0.102 0.069 1519 
0.914 -0.106 0.068 1525 
0.911 -0.111 0.068 1501 
0.914 -0.117 0.068 1516 
0.916 -0.123 0.069 1515 
0.915 -0.128 0.069 1528 
0.914 -0.133 0.069 1525 
0.915 -0.139 0.069 1516 
0.912 -0.144 0.069 1523 
0.911 -0.149 0.069 1541 
0.918 -0.156 0.069 1526 
0.915 -0.16 0.069 1538 
0.913 -0.165 0.069 1545 
0.91 -0.17 0.069 1550 
0.911 -0.176 0.069 1534 
0.914 -0.182 0.069 1533 
0.914 -0.188 0.069 1526 
0.91 -0.192 0.069 1550 
0.912 -0.198 0.07 1564 
0.911 -0.204 0.07 1551 
0.912 -0.209 0.07 1559 
0.91 -0.214 0.07 1563 
0.909 -0.22 0.07 1557 
0.911 -0.226 0.07 1553 
0.907 -0.231 0.07 1532 
0.903 -0.235 0.07 1547 
0.9 -0.24 0.069 1542 
0.899 -0.245 0.069 1543 
0.902 -0.252 0.07 1526 
0.905 -0.259 0.07 1542 
0.904 -0.264 0.07 1541 
0.907 -0.27 0.071 1547 
0.903 -0.275 0.07 1527 
0.902 -0.281 0.071 1533 
0.904 -0.287 0.071 1524 
0.905 -0.293 0.071 1543 
0.899 -0.297 0.071 1535 
0.898 -0.303 0.071 1548 
0.901 -0.31 0.071 1540 
0.901 -0.316 0.071 1535 
0.9 -0.321 0.071 1540 
0.897 -0.326 0.071 1546 
0.895 -0.332 0.071 1524 
0.895 -0.338 0.071 1536 
0.899 -0.346 0.072 1524 
0.892 -0.349 0.072 1539 
0.892 -0.355 0.072 1519 
0.893 -0.362 0.072 1483 
0.896 -0.369 0.072 1518 
0.897 -0.376 0.073 1530 
0.894 -0.381 0.073 1509 
0.897 -0.389 0.073 1521 
0.893 -0.393 0.073 1514 
0.897 -0.402 0.074 1505 
0.892 -0.406 0.073 1473 
0.89 -0.411 0.073 1431 
0.894 -0.42 0.074 1466 
0.891 -0.425 0.074 1482 
0.888 -0.431 0.074 1475 
0.887 -0.437 0.074 1482 
0.889 -0.445 0.074 1464 
0.886 -0.45 0.074 1502 
0.887 -0.458 0.075 1482 
0.885 -0.463 0.075 1476 
0.882 -0.469 0.075 1472 
0.884 -0.477 0.075 1475 
0.883 -0.483 0.075 1482 
0.884 -0.491 0.076 1482 
0.934 -0.022 0.064 1139 
0.926 -0.028 0.063 1518 
0.93 -0.033 0.063 1523 
0.928 -0.038 0.063 1504 
0.928 -0.044 0.063 1518 
0.926 -0.049 0.063 1510 
0.923 -0.054 0.063 1500 
0.923 -0.059 0.063 1502 
0.92 -0.064 0.063 1497 
0.924 -0.07 0.063 1479 
0.92 -0.075 0.063 1484 
0.922 -0.081 0.063 1481 
0.922 -0.086 0.063 1479 
0.917 -0.091 0.063 1471 
0.918 -0.096 0.063 1499 
0.923 -0.102 0.064 1509 
0.92 -0.107 0.063 1522 
0.921 -0.113 0.063 1502 
0.918 -0.118 0.063 1516 
0.917 -0.123 0.063 1512 
0.917 -0.128 0.063 1546 
0.916 -0.133 0.063 1528 
0.92 -0.14 0.064 1516 
0.915 -0.144 0.063 1520 
0.914 -0.149 0.063 1537 
0.915 -0.155 0.064 1536 
0.913 -0.16 0.064 1556 
0.913 -0.165 0.064 1557 
0.912 -0.171 0.064 1556 
0.914 -0.177 0.064 1538 
0.918 -0.183 0.064 1535 
0.912 -0.187 0.064 1544 
0.908 -0.192 0.064 1550 
0.915 -0.199 0.064 1566 
0.912 -0.204 0.064 1560 
0.912 -0.209 0.064 1549 
0.906 -0.214 0.064 1574 
0.907 -0.219 0.064 1561 
0.912 -0.226 0.065 1551 
0.91 -0.231 0.065 1555 
0.905 -0.236 0.064 1539 
0.905 -0.241 0.064 1526 
0.903 -0.246 0.064 1527 
0.907 -0.253 0.065 1519 
0.905 -0.258 0.065 1526 
0.909 -0.265 0.065 1522 
0.908 -0.271 0.065 1507 
0.902 -0.275 0.065 1528 
0.905 -0.282 0.065 1524 
0.901 -0.286 0.065 1513 
0.903 -0.293 0.065 1529 
0.902 -0.298 0.065 1536 
0.897 -0.302 0.065 1562 
0.899 -0.309 0.066 1560 
0.9 -0.315 0.066 1551 
0.9 -0.322 0.066 1548 
0.901 -0.328 0.066 1542 
0.897 -0.333 0.066 1541 
0.901 -0.34 0.066 1548 
0.898 -0.345 0.066 1534 
0.894 -0.35 0.066 1546 
0.893 -0.355 0.066 1540 
0.888 -0.36 0.066 1502 
0.89 -0.367 0.066 1545 
0.895 -0.375 0.067 1544 
0.89 -0.379 0.067 1534 
0.892 -0.387 0.067 1518 
0.89 -0.392 0.067 1520 
0.89 -0.399 0.067 1520 
0.888 -0.404 0.067 1487 
0.885 -0.409 0.067 1461 
0.888 -0.417 0.068 1488 
0.887 -0.423 0.068 1499 
0.886 -0.43 0.068 1474 
0.886 -0.436 0.068 1485 
0.886 -0.443 0.069 1471 
0.885 -0.449 0.069 1497 
0.884 -0.456 0.069 1486 
0.884 -0.462 0.069 1463 
0.881 -0.468 0.069 1474 
0.882 -0.476 0.069 1471 
0.878 -0.481 0.069 1464 
0.885 -0.491 0.07 1493 
0.933 -0.022 0.058 1170 
0.927 -0.028 0.058 1529 
0.927 -0.033 0.058 1541 
0.927 -0.038 0.058 1510 
0.921 -0.043 0.058 1528 
0.921 -0.049 0.058 1525 
0.925 -0.054 0.058 1496 
0.924 -0.059 0.058 1501 
0.924 -0.065 0.058 1502 
0.919 -0.07 0.058 1507 
0.916 -0.075 0.057 1492 
0.918 -0.08 0.058 1476 
0.921 -0.086 0.058 1481 
0.916 -0.091 0.058 1484 
0.917 -0.096 0.058 1503 
0.919 -0.102 0.058 1507 
0.921 -0.107 0.058 1506 
0.911 -0.111 0.058 1506 
0.918 -0.118 0.058 1506 
0.916 -0.123 0.058 1514 
0.915 -0.128 0.058 1544 
0.917 -0.134 0.058 1534 
0.916 -0.139 0.058 1523 
0.911 -0.143 0.058 1549 
0.914 -0.149 0.058 1574 
0.916 -0.155 0.058 1557 
0.911 -0.16 0.058 1565 
0.913 -0.165 0.058 1562 
0.908 -0.17 0.058 1565 
0.913 -0.176 0.058 1553 
0.911 -0.181 0.058 1550 
0.912 -0.187 0.059 1525 
0.908 -0.192 0.058 1544 
0.908 -0.197 0.059 1558 
0.912 -0.204 0.059 1550 
0.909 -0.209 0.059 1550 
0.905 -0.213 0.059 1565 
0.904 -0.219 0.059 1565 
0.903 -0.224 0.059 1546 
0.903 -0.229 0.059 1551 
0.903 -0.235 0.059 1555 
0.901 -0.24 0.059 1541 
0.902 -0.246 0.059 1542 
0.901 -0.251 0.059 1535 
0.906 -0.259 0.059 1538 
0.906 -0.264 0.06 1532 
0.908 -0.271 0.06 1518 
0.901 -0.274 0.059 1517 
0.903 -0.281 0.06 1532 
0.902 -0.286 0.06 1513 
0.899 -0.291 0.06 1517 
0.899 -0.297 0.06 1535 
0.899 -0.303 0.06 1541 
0.904 -0.311 0.06 1544 
0.899 -0.315 0.06 1550 
0.899 -0.321 0.06 1544 
0.9 -0.327 0.061 1563 
0.9 -0.333 0.061 1547 
0.892 -0.336 0.06 1540 
0.896 -0.344 0.061 1544 
0.894 -0.349 0.061 1553 
0.895 -0.356 0.061 1526 
0.894 -0.362 0.061 1501 
0.893 -0.368 0.061 1543 
0.896 -0.375 0.062 1542 
0.892 -0.38 0.061 1533 
0.89 -0.386 0.062 1530 
0.893 -0.393 0.062 1539 
0.894 -0.4 0.062 1513 
0.891 -0.405 0.062 1501 
0.892 -0.412 0.062 1470 
0.885 -0.416 0.062 1481 
0.887 -0.423 0.062 1508 
0.892 -0.432 0.063 1503 
0.887 -0.436 0.063 1488 
0.881 -0.44 0.063 1483 
0.886 -0.45 0.063 1473 
0.883 -0.455 0.063 1476 
0.888 -0.465 0.064 1462 
0.881 -0.468 0.063 1490 
0.883 -0.476 0.064 1489 
0.879 -0.481 0.064 1475 
0.883 -0.49 0.064 1506 
0.929 -0.022 0.053 1195 
0.927 -0.028 0.052 1532 
0.928 -0.033 0.053 1536 
0.927 -0.038 0.052 1530 
0.925 -0.044 0.052 1524 
0.925 -0.049 0.052 1533 
0.926 -0.054 0.053 1510 
0.926 -0.06 0.053 1505 
0.923 -0.065 0.052 1510 
0.919 -0.07 0.052 1514 
0.92 -0.075 0.052 1514 
0.918 -0.08 0.052 1488 
0.922 -0.086 0.053 1502 
0.918 -0.091 0.052 1508 
0.919 -0.096 0.052 1508 
0.919 -0.102 0.053 1527 
0.92 -0.107 0.053 1532 
0.92 -0.112 0.053 1521 
0.914 -0.117 0.052 1515 
0.916 -0.123 0.053 1518 
0.915 -0.128 0.053 1532 
0.918 -0.134 0.053 1524 
0.914 -0.138 0.053 1528 
0.913 -0.144 0.053 1536 
0.915 -0.149 0.053 1552 
0.911 -0.154 0.053 1556 
0.913 -0.16 0.053 1565 
0.913 -0.165 0.053 1559 
0.908 -0.17 0.053 1572 
0.912 -0.176 0.053 1566 
0.909 -0.181 0.053 1549 
0.912 -0.187 0.053 1566 
0.909 -0.192 0.053 1560 
0.908 -0.197 0.053 1571 
0.913 -0.204 0.054 1572 
0.904 -0.207 0.053 1565 
0.91 -0.214 0.054 1579 
0.909 -0.22 0.054 1573 
0.905 -0.224 0.053 1547 
0.909 -0.231 0.054 1559 
0.903 -0.235 0.053 1560 
0.9 -0.24 0.053 1560 
0.904 -0.247 0.054 1558 
0.905 -0.252 0.054 1547 
0.906 -0.259 0.054 1560 
0.901 -0.263 0.054 1528 
0.9 -0.268 0.054 1528 
0.907 -0.276 0.054 1539 
0.895 -0.278 0.054 1527 
0.904 -0.287 0.055 1521 
0.897 -0.29 0.054 1521 
0.897 -0.296 0.054 1507 
0.899 -0.303 0.055 1544 
0.896 -0.308 0.054 1537 
0.904 -0.317 0.055 1555 
0.896 -0.32 0.055 1553 
0.896 -0.326 0.055 1557 
0.895 -0.332 0.055 1546 
0.896 -0.338 0.055 1553 
0.896 -0.344 0.055 1550 
0.897 -0.351 0.055 1549 
0.889 -0.354 0.055 1541 
0.894 -0.362 0.056 1485 
0.896 -0.369 0.056 1543 
0.891 -0.373 0.056 1536 
0.897 -0.382 0.056 1539 
0.887 -0.384 0.056 1536 
0.896 -0.394 0.056 1529 
0.89 -0.398 0.056 1535 
0.887 -0.403 0.056 1513 
0.89 -0.411 0.057 1470 
0.891 -0.418 0.057 1477 
0.886 -0.423 0.057 1505 
0.887 -0.43 0.057 1503 
0.893 -0.44 0.058 1503 
0.882 -0.441 0.057 1496 
0.884 -0.449 0.057 1480 
0.887 -0.457 0.058 1485 
0.883 -0.462 0.058 1486 
0.88 -0.467 0.058 1492 
0.88 -0.474 0.058 1492 
0.88 -0.481 0.058 1489 
0.879 -0.488 0.058 1510 
0.925 -0.022 0.047 1224 
0.931 -0.028 0.047 1548 
0.925 -0.033 0.047 1572 
0.918 -0.038 0.047 1545 
0.921 -0.043 0.047 1537 
0.922 -0.049 0.047 1558 
0.923 -0.054 0.047 1521 
0.923 -0.059 0.047 1528 
0.918 -0.064 0.047 1544 
0.921 -0.07 0.047 1533 
0.92 -0.075 0.047 1541 
0.924 -0.081 0.047 1507 
0.924 -0.086 0.047 1516 
0.92 -0.091 0.047 1505 
0.917 -0.096 0.047 1501 
0.918 -0.102 0.047 1505 
0.918 -0.107 0.047 1532 
0.917 -0.112 0.047 1519 
0.918 -0.117 0.047 1535 
0.917 -0.123 0.047 1536 
0.917 -0.128 0.047 1550 
0.911 -0.133 0.047 1549 
0.912 -0.138 0.047 1544 
0.918 -0.144 0.048 1558 
0.916 -0.15 0.048 1580 
0.914 -0.155 0.048 1567 
0.912 -0.16 0.048 1575 
0.911 -0.165 0.048 1563 
0.912 -0.171 0.048 1584 
0.909 -0.175 0.048 1573 
0.905 -0.18 0.047 1554 
0.912 -0.187 0.048 1554 
0.91 -0.192 0.048 1568 
0.915 -0.199 0.048 1561 
0.908 -0.203 0.048 1567 
0.907 -0.208 0.048 1566 
0.905 -0.213 0.048 1571 
0.907 -0.219 0.048 1564 
0.906 -0.225 0.048 1573 
0.902 -0.229 0.048 1570 
0.904 -0.235 0.048 1580 
0.901 -0.24 0.048 1565 
0.905 -0.247 0.048 1551 
0.908 -0.253 0.049 1532 
0.904 -0.258 0.049 1552 
0.902 -0.263 0.049 1556 
0.903 -0.269 0.049 1533 
0.9 -0.274 0.049 1552 
0.9 -0.28 0.049 1552 
0.898 -0.285 0.049 1539 
0.901 -0.292 0.049 1523 
0.894 -0.295 0.049 1517 
0.898 -0.303 0.049 1525 
0.899 -0.309 0.049 1533 
0.904 -0.316 0.05 1548 
0.899 -0.321 0.049 1563 
0.894 -0.325 0.049 1577 
0.892 -0.33 0.049 1542 
0.898 -0.339 0.05 1558 
0.9 -0.345 0.05 1552 
0.894 -0.349 0.05 1565 
0.894 -0.355 0.05 1539 
0.892 -0.361 0.05 1484 
0.891 -0.367 0.05 1529 
0.89 -0.372 0.05 1532 
0.894 -0.381 0.051 1523 
0.895 -0.388 0.051 1527 
0.887 -0.39 0.05 1519 
0.892 -0.399 0.051 1523 
0.887 -0.403 0.051 1513 
0.884 -0.408 0.051 1477 
0.885 -0.416 0.051 1503 
0.888 -0.423 0.051 1517 
0.888 -0.43 0.051 1510 
0.881 -0.433 0.051 1501 
0.883 -0.441 0.051 1491 
0.877 -0.445 0.051 1504 
0.885 -0.456 0.052 1502 
0.886 -0.463 0.052 1479 
0.884 -0.469 0.052 1486 
0.887 -0.478 0.053 1521 
0.878 -0.48 0.052 1487 
0.882 -0.489 0.053 1496 
0.931 -0.022 0.042 1229 
0.924 -0.028 0.042 1554 
0.919 -0.033 0.041 1577 
0.925 -0.038 0.042 1544 
0.922 -0.043 0.042 1544 
0.924 -0.049 0.042 1568 
0.924 -0.054 0.042 1543 
0.917 -0.059 0.042 1563 
0.92 -0.064 0.042 1569 
0.922 -0.07 0.042 1526 
0.921 -0.075 0.042 1534 
0.918 -0.08 0.042 1528 
0.917 -0.085 0.042 1527 
0.92 -0.091 0.042 1531 
0.919 -0.096 0.042 1516 
0.919 -0.102 0.042 1523 
0.917 -0.107 0.042 1547 
0.919 -0.112 0.042 1541 
0.916 -0.117 0.042 1552 
0.918 -0.123 0.042 1553 
0.917 -0.128 0.042 1571 
0.913 -0.133 0.042 1562 
0.909 -0.138 0.042 1561 
0.911 -0.143 0.042 1551 
0.912 -0.149 0.042 1588 
0.908 -0.154 0.042 1577 
0.911 -0.16 0.042 1572 
0.91 -0.165 0.042 1579 
0.907 -0.17 0.042 1575 
0.905 -0.175 0.042 1573 
0.908 -0.181 0.042 1560 
0.906 -0.186 0.042 1543 
0.915 -0.193 0.043 1561 
0.906 -0.197 0.042 1549 
0.908 -0.203 0.043 1566 
0.908 -0.208 0.043 1565 
0.913 -0.215 0.043 1582 
0.909 -0.22 0.043 1568 
0.903 -0.224 0.043 1576 
0.909 -0.231 0.043 1586 
0.901 -0.234 0.043 1582 
0.903 -0.241 0.043 1562 
0.907 -0.247 0.043 1552 
0.904 -0.252 0.043 1559 
0.896 -0.255 0.043 1585 
0.904 -0.264 0.043 1571 
0.898 -0.267 0.043 1562 
0.896 -0.273 0.043 1557 
0.899 -0.279 0.043 1555 
0.899 -0.285 0.043 1562 
0.902 -0.292 0.044 1543 
0.897 -0.296 0.044 1524 
0.897 -0.302 0.044 1557 
0.897 -0.308 0.044 1563 
0.892 -0.312 0.044 1546 
0.897 -0.32 0.044 1559 
0.891 -0.324 0.044 1568 
0.893 -0.33 0.044 1557 
0.89 -0.335 0.044 1563 
0.894 -0.343 0.044 1552 
0.897 -0.35 0.044 1565 
0.887 -0.353 0.044 1545 
0.892 -0.361 0.045 1507 
0.891 -0.366 0.045 1535 
0.893 -0.374 0.045 1552 
0.889 -0.378 0.045 1549 
0.89 -0.385 0.045 1539 
0.895 -0.394 0.045 1528 
0.888 -0.397 0.045 1531 
0.886 -0.403 0.045 1527 
0.888 -0.41 0.045 1480 
0.887 -0.416 0.045 1514 
0.889 -0.424 0.046 1531 
0.884 -0.428 0.046 1522 
0.891 -0.438 0.046 1517 
0.881 -0.44 0.046 1507 
0.889 -0.451 0.046 1522 
0.885 -0.455 0.046 1519 
0.88 -0.46 0.046 1506 
0.88 -0.467 0.046 1517 
0.884 -0.476 0.047 1511 
0.88 -0.481 0.047 1507 
0.883 -0.49 0.047 1498 
0.951 -0.018 0.037 271 
0.921 -0.022 0.036 1278 
0.926 -0.028 0.036 1569 
0.928 -0.033 0.036 1576 
0.922 -0.038 0.036 1499 
0.921 -0.043 0.036 1530 
0.919 -0.049 0.036 1576 
0.923 -0.054 0.036 1561 
0.924 -0.059 0.036 1564 
0.921 -0.065 0.036 1565 
0.92 -0.07 0.036 1530 
0.914 -0.075 0.036 1537 
0.92 -0.08 0.036 1530 
0.923 -0.086 0.037 1533 
0.92 -0.091 0.037 1541 
0.923 -0.097 0.037 1533 
0.918 -0.102 0.037 1518 
0.926 -0.108 0.037 1532 
0.912 -0.111 0.036 1552 
0.91 -0.116 0.036 1563 
0.915 -0.122 0.037 1545 
0.914 -0.128 0.037 1592 
0.911 -0.133 0.037 1583 
0.917 -0.139 0.037 1568 
0.916 -0.144 0.037 1590 
0.913 -0.149 0.037 1589 
0.911 -0.154 0.037 1577 
0.912 -0.16 0.037 1567 
0.911 -0.165 0.037 1571 
0.914 -0.171 0.037 1576 
0.912 -0.176 0.037 1579 
0.911 -0.181 0.037 1545 
0.908 -0.186 0.037 1551 
0.909 -0.192 0.037 1552 
0.909 -0.197 0.037 1561 
0.905 -0.202 0.037 1568 
0.905 -0.207 0.037 1557 
0.906 -0.213 0.037 1565 
0.906 -0.219 0.037 1562 
0.902 -0.223 0.037 1571 
0.904 -0.23 0.037 1580 
0.908 -0.236 0.038 1579 
0.906 -0.241 0.038 1578 
0.905 -0.247 0.038 1576 
0.904 -0.252 0.038 1567 
0.904 -0.258 0.038 1578 
0.902 -0.263 0.038 1582 
0.906 -0.27 0.038 1567 
0.901 -0.274 0.038 1567 
0.897 -0.279 0.038 1565 
0.902 -0.286 0.038 1557 
0.894 -0.289 0.038 1552 
0.896 -0.296 0.038 1524 
0.899 -0.303 0.038 1548 
0.893 -0.307 0.038 1556 
0.902 -0.316 0.039 1555 
0.896 -0.32 0.038 1586 
0.897 -0.326 0.039 1591 
0.897 -0.332 0.039 1579 
0.896 -0.338 0.039 1576 
0.897 -0.344 0.039 1570 
0.893 -0.349 0.039 1572 
0.897 -0.357 0.039 1572 
0.893 -0.361 0.039 1504 
0.896 -0.369 0.039 1548 
0.89 -0.373 0.039 1555 
0.89 -0.379 0.039 1557 
0.89 -0.385 0.039 1546 
0.888 -0.391 0.039 1541 
0.893 -0.399 0.04 1555 
0.883 -0.401 0.039 1532 
0.889 -0.411 0.04 1485 
0.889 -0.417 0.04 1507 
0.886 -0.422 0.04 1529 
0.883 -0.428 0.04 1542 
0.885 -0.435 0.04 1516 
0.88 -0.439 0.04 1520 
0.882 -0.447 0.04 1517 
0.887 -0.457 0.041 1535 
0.885 -0.463 0.041 1526 
0.884 -0.469 0.041 1521 
0.883 -0.476 0.041 1527 
0.881 -0.481 0.041 1517 
0.882 -0.489 0.041 1501 
0.921 -0.022 0.031 1305 
0.93 -0.028 0.031 1605 
0.923 -0.033 0.031 1624 
0.923 -0.038 0.031 1547 
0.923 -0.043 0.031 1548 
0.923 -0.049 0.031 1588 
0.923 -0.054 0.031 1578 
0.924 -0.059 0.031 1567 
0.92 -0.065 0.031 1579 
0.923 -0.07 0.031 1563 
0.919 -0.075 0.031 1554 
0.917 -0.08 0.031 1544 
0.923 -0.086 0.031 1560 
0.914 -0.09 0.031 1547 
0.918 -0.096 0.031 1536 
0.92 -0.102 0.031 1534 
0.914 -0.106 0.031 1552 
0.915 -0.112 0.031 1553 
0.914 -0.117 0.031 1565 
0.918 -0.123 0.031 1580 
0.915 -0.128 0.031 1622 
0.914 -0.133 0.031 1616 
0.917 -0.139 0.032 1612 
0.914 -0.144 0.031 1627 
0.911 -0.149 0.031 1610 
0.914 -0.155 0.032 1594 
0.911 -0.16 0.032 1608 
0.91 -0.165 0.032 1591 
0.91 -0.17 0.032 1601 
0.911 -0.176 0.032 1606 
0.909 -0.181 0.032 1565 
0.906 -0.186 0.032 1579 
0.911 -0.192 0.032 1573 
0.904 -0.196 0.032 1566 
0.905 -0.202 0.032 1564 
0.906 -0.208 0.032 1563 
0.912 -0.215 0.032 1573 
0.905 -0.219 0.032 1568 
0.905 -0.224 0.032 1599 
0.903 -0.229 0.032 1609 
0.904 -0.235 0.032 1595 
0.903 -0.241 0.032 1594 
0.904 -0.246 0.032 1579 
0.903 -0.252 0.032 1563 
0.901 -0.257 0.032 1581 
0.899 -0.262 0.032 1578 
0.904 -0.269 0.033 1587 
0.9 -0.274 0.032 1596 
0.902 -0.28 0.033 1594 
0.901 -0.286 0.033 1576 
0.898 -0.291 0.033 1553 
0.902 -0.298 0.033 1550 
0.898 -0.302 0.033 1549 
0.895 -0.307 0.033 1543 
0.893 -0.313 0.033 1545 
0.89 -0.317 0.033 1602 
0.896 -0.325 0.033 1599 
0.89 -0.329 0.033 1607 
0.889 -0.335 0.033 1589 
0.896 -0.344 0.033 1585 
0.892 -0.349 0.033 1610 
0.89 -0.354 0.033 1571 
0.887 -0.359 0.033 1506 
0.884 -0.364 0.033 1560 
0.89 -0.373 0.034 1576 
0.887 -0.377 0.034 1585 
0.89 -0.385 0.034 1557 
0.886 -0.39 0.034 1543 
0.886 -0.396 0.034 1562 
0.889 -0.404 0.034 1536 
0.891 -0.411 0.034 1514 
0.887 -0.416 0.034 1521 
0.886 -0.422 0.034 1553 
0.888 -0.43 0.035 1525 
0.887 -0.436 0.035 1530 
0.886 -0.443 0.035 1538 
0.88 -0.446 0.035 1543 
0.882 -0.454 0.035 1544 
0.881 -0.46 0.035 1528 
0.876 -0.465 0.035 1530 
0.884 -0.476 0.035 1546 
0.877 -0.479 0.035 1527 
0.878 -0.487 0.035 1518 
0.927 -0.022 0.026 1315 
0.924 -0.028 0.026 1594 
0.929 -0.033 0.026 1623 
0.925 -0.038 0.026 1599 
0.921 -0.043 0.026 1619 
0.92 -0.049 0.026 1616 
0.923 -0.054 0.026 1589 
0.92 -0.059 0.026 1566 
0.919 -0.064 0.026 1599 
0.918 -0.07 0.026 1583 
0.918 -0.075 0.026 1548 
0.919 -0.08 0.026 1546 
0.916 -0.085 0.026 1556 
0.914 -0.09 0.026 1538 
0.916 -0.096 0.026 1531 
0.916 -0.101 0.026 1557 
0.916 -0.107 0.026 1564 
0.916 -0.112 0.026 1570 
0.911 -0.117 0.026 1580 
0.912 -0.122 0.026 1594 
0.913 -0.128 0.026 1621 
0.912 -0.133 0.026 1630 
0.916 -0.139 0.026 1638 
0.909 -0.143 0.026 1642 
0.915 -0.149 0.026 1644 
0.913 -0.155 0.026 1635 
0.913 -0.16 0.026 1629 
0.912 -0.165 0.026 1638 
0.911 -0.17 0.026 1635 
0.909 -0.176 0.026 1628 
0.908 -0.181 0.026 1600 
0.904 -0.185 0.026 1600 
0.905 -0.191 0.026 1592 
0.905 -0.196 0.026 1579 
0.908 -0.203 0.027 1573 
0.906 -0.208 0.027 1588 
0.906 -0.213 0.027 1594 
0.91 -0.22 0.027 1601 
0.905 -0.224 0.027 1598 
0.907 -0.23 0.027 1621 
0.905 -0.235 0.027 1632 
0.905 -0.241 0.027 1609 
0.904 -0.246 0.027 1614 
0.9 -0.251 0.027 1578 
0.897 -0.256 0.027 1598 
0.904 -0.264 0.027 1597 
0.898 -0.267 0.027 1591 
0.899 -0.274 0.027 1616 
0.894 -0.278 0.027 1605 
0.901 -0.286 0.027 1586 
0.898 -0.291 0.027 1566 
0.896 -0.296 0.027 1566 
0.895 -0.301 0.027 1558 
0.893 -0.307 0.027 1566 
0.898 -0.314 0.028 1546 
0.894 -0.319 0.028 1582 
0.894 -0.325 0.028 1586 
0.896 -0.331 0.028 1607 
0.894 -0.337 0.028 1604 
0.89 -0.341 0.028 1599 
0.893 -0.349 0.028 1616 
0.893 -0.355 0.028 1593 
0.886 -0.358 0.028 1523 
0.889 -0.366 0.028 1570 
0.891 -0.373 0.028 1611 
0.891 -0.379 0.028 1586 
0.889 -0.385 0.028 1572 
0.886 -0.39 0.028 1536 
0.889 -0.397 0.029 1551 
0.88 -0.4 0.028 1530 
0.887 -0.41 0.029 1518 
0.889 -0.417 0.029 1560 
0.886 -0.422 0.029 1567 
0.89 -0.431 0.029 1557 
0.888 -0.436 0.029 1566 
0.883 -0.441 0.029 1560 
0.882 -0.447 0.029 1573 
0.886 -0.456 0.029 1552 
0.884 -0.462 0.029 1538 
0.878 -0.465 0.029 1534 
0.879 -0.473 0.03 1551 
0.877 -0.479 0.03 1533 
0.88 -0.488 0.03 1533 
0.926 -0.022 0.02 1323 
0.92 -0.028 0.02 1616 
0.923 -0.033 0.02 1643 
0.924 -0.038 0.02 1596 
0.921 -0.043 0.02 1602 
0.924 -0.049 0.02 1613 
0.913 -0.054 0.02 1574 
0.921 -0.059 0.02 1557 
0.918 -0.064 0.02 1593 
0.916 -0.07 0.02 1565 
0.924 -0.075 0.021 1525 
0.915 -0.08 0.02 1520 
0.919 -0.086 0.021 1552 
0.914 -0.091 0.02 1511 
0.919 -0.096 0.021 1505 
0.915 -0.101 0.021 1535 
0.916 -0.107 0.021 1534 
0.914 -0.112 0.021 1545 
0.916 -0.117 0.021 1516 
0.915 -0.123 0.021 1561 
0.913 -0.128 0.021 1596 
0.911 -0.133 0.021 1624 
0.91 -0.138 0.021 1650 
0.911 -0.143 0.021 1640 
0.915 -0.149 0.021 1634 
0.91 -0.154 0.021 1631 
0.912 -0.16 0.021 1642 
0.914 -0.166 0.021 1635 
0.902 -0.169 0.021 1631 
0.911 -0.176 0.021 1643 
0.906 -0.18 0.021 1621 
0.907 -0.186 0.021 1611 
0.905 -0.191 0.021 1615 
0.906 -0.197 0.021 1601 
0.905 -0.202 0.021 1587 
0.902 -0.207 0.021 1581 
0.903 -0.212 0.021 1609 
0.906 -0.219 0.021 1618 
0.901 -0.223 0.021 1622 
0.91 -0.231 0.022 1625 
0.905 -0.236 0.021 1668 
0.9 -0.24 0.021 1653 
0.899 -0.245 0.021 1640 
0.901 -0.251 0.022 1609 
0.9 -0.257 0.022 1622 
0.901 -0.263 0.022 1607 
0.899 -0.268 0.022 1613 
0.895 -0.272 0.022 1624 
0.899 -0.279 0.022 1623 
0.896 -0.284 0.022 1620 
0.899 -0.291 0.022 1603 
0.895 -0.296 0.022 1596 
0.896 -0.302 0.022 1598 
0.901 -0.309 0.022 1587 
0.898 -0.314 0.022 1591 
0.894 -0.319 0.022 1589 
0.897 -0.326 0.022 1621 
0.893 -0.33 0.022 1609 
0.892 -0.336 0.022 1623 
0.894 -0.343 0.022 1623 
0.891 -0.348 0.022 1630 
0.888 -0.353 0.022 1615 
0.892 -0.361 0.023 1551 
0.89 -0.366 0.023 1595 
0.89 -0.372 0.023 1603 
0.888 -0.378 0.023 1596 
0.89 -0.385 0.023 1581 
0.884 -0.389 0.023 1577 
0.883 -0.395 0.023 1576 
0.887 -0.403 0.023 1563 
0.884 -0.408 0.023 1540 
0.883 -0.414 0.023 1579 
0.883 -0.421 0.023 1585 
0.881 -0.426 0.023 1567 
0.883 -0.434 0.023 1568 
0.881 -0.44 0.023 1576 
0.884 -0.448 0.024 1593 
0.884 -0.455 0.024 1573 
0.882 -0.461 0.024 1556 
0.877 -0.465 0.024 1562 
0.886 -0.477 0.024 1561 
0.88 -0.481 0.024 1548 
0.88 -0.488 0.024 1551 
0.922 -0.022 0.015 1368 
0.925 -0.028 0.015 1650 
0.928 -0.033 0.015 1658 
0.923 -0.038 0.015 1602 
0.919 -0.043 0.015 1595 
0.919 -0.049 0.015 1641 
0.92 -0.054 0.015 1582 
0.922 -0.059 0.015 1567 
0.922 -0.065 0.015 1590 
0.917 -0.07 0.015 1559 
0.914 -0.075 0.015 1530 
0.915 -0.08 0.015 1531 
0.917 -0.085 0.015 1548 
0.919 -0.091 0.015 1531 
0.916 -0.096 0.015 1510 
0.916 -0.101 0.015 1534 
0.915 -0.107 0.015 1538 
0.913 -0.112 0.015 1532 
0.914 -0.117 0.015 1507 
0.908 -0.122 0.015 1542 
0.911 -0.127 0.015 1614 
0.911 -0.133 0.015 1622 
0.91 -0.138 0.015 1640 
0.911 -0.143 0.016 1624 
0.911 -0.149 0.016 1626 
0.913 -0.154 0.016 1612 
0.912 -0.16 0.016 1621 
0.913 -0.165 0.016 1595 
0.905 -0.169 0.016 1600 
0.908 -0.175 0.016 1634 
0.908 -0.181 0.016 1630 
0.907 -0.186 0.016 1618 
0.91 -0.192 0.016 1644 
0.904 -0.196 0.016 1620 
0.909 -0.203 0.016 1604 
0.905 -0.208 0.016 1590 
0.907 -0.214 0.016 1593 
0.905 -0.219 0.016 1624 
0.9 -0.223 0.016 1629 
0.904 -0.23 0.016 1630 
0.907 -0.236 0.016 1652 
0.906 -0.241 0.016 1643 
0.9 -0.245 0.016 1651 
0.904 -0.252 0.016 1628 
0.897 -0.256 0.016 1644 
0.9 -0.262 0.016 1619 
0.897 -0.267 0.016 1645 
0.901 -0.274 0.016 1645 
0.897 -0.279 0.016 1639 
0.899 -0.285 0.016 1633 
0.897 -0.29 0.017 1615 
0.893 -0.295 0.016 1623 
0.897 -0.302 0.017 1609 
0.895 -0.307 0.017 1602 
0.89 -0.312 0.017 1587 
0.895 -0.319 0.017 1589 
0.893 -0.324 0.017 1622 
0.892 -0.33 0.017 1603 
0.893 -0.337 0.017 1617 
0.892 -0.342 0.017 1633 
0.887 -0.346 0.017 1646 
0.888 -0.353 0.017 1656 
0.888 -0.359 0.017 1563 
0.893 -0.367 0.017 1625 
0.891 -0.373 0.017 1613 
0.889 -0.378 0.017 1592 
0.89 -0.385 0.017 1575 
0.88 -0.387 0.017 1590 
0.887 -0.396 0.017 1581 
0.879 -0.399 0.017 1574 
0.882 -0.407 0.017 1560 
0.884 -0.414 0.018 1600 
0.883 -0.421 0.018 1607 
0.882 -0.427 0.018 1587 
0.885 -0.435 0.018 1593 
0.882 -0.44 0.018 1583 
0.886 -0.449 0.018 1609 
0.88 -0.453 0.018 1603 
0.883 -0.462 0.018 1585 
0.877 -0.465 0.018 1568 
0.88 -0.473 0.018 1587 
0.88 -0.481 0.018 1569 
0.88 -0.488 0.018 1586 
0.946 -0.018 0.01 383 
0.924 -0.022 0.01 1397 
0.921 -0.028 0.01 1694 
0.926 -0.033 0.01 1670 
0.92 -0.038 0.01 1611 
0.922 -0.043 0.01 1598 
0.923 -0.049 0.01 1665 
0.923 -0.054 0.01 1620 
0.918 -0.059 0.01 1596 
0.917 -0.064 0.01 1593 
0.915 -0.069 0.01 1566 
0.921 -0.075 0.01 1558 
0.917 -0.08 0.01 1555 
0.916 -0.085 0.01 1581 
0.913 -0.09 0.01 1557 
0.915 -0.096 0.01 1552 
0.914 -0.101 0.01 1573 
0.916 -0.107 0.01 1573 
0.912 -0.111 0.01 1567 
0.912 -0.117 0.01 1548 
0.91 -0.122 0.01 1543 
0.91 -0.127 0.01 1610 
0.91 -0.133 0.01 1647 
0.914 -0.139 0.01 1630 
0.91 -0.143 0.01 1620 
0.911 -0.149 0.01 1635 
0.915 -0.155 0.01 1651 
0.909 -0.159 0.01 1644 
0.915 -0.166 0.01 1632 
0.906 -0.169 0.01 1631 
0.907 -0.175 0.01 1605 
0.906 -0.18 0.01 1622 
0.907 -0.186 0.01 1613 
0.907 -0.192 0.011 1620 
0.91 -0.198 0.011 1631 
0.908 -0.203 0.011 1618 
0.902 -0.207 0.011 1599 
0.903 -0.213 0.011 1613 
0.905 -0.219 0.011 1618 
0.9 -0.223 0.011 1636 
0.902 -0.229 0.011 1643 
0.907 -0.236 0.011 1652 
0.902 -0.24 0.011 1661 
0.903 -0.246 0.011 1676 
0.903 -0.252 0.011 1669 
0.9 -0.257 0.011 1661 
0.9 -0.262 0.011 1658 
0.903 -0.269 0.011 1648 
0.903 -0.275 0.011 1660 
0.9 -0.28 0.011 1652 
0.899 -0.285 0.011 1643 
0.903 -0.292 0.011 1643 
0.895 -0.296 0.011 1632 
0.896 -0.302 0.011 1604 
0.891 -0.306 0.011 1609 
0.896 -0.314 0.011 1611 
0.898 -0.32 0.011 1593 
0.898 -0.326 0.011 1623 
0.89 -0.329 0.011 1609 
0.894 -0.337 0.011 1630 
0.888 -0.341 0.011 1643 
0.892 -0.348 0.012 1666 
0.89 -0.354 0.012 1648 
0.889 -0.36 0.012 1580 
0.892 -0.367 0.012 1619 
0.886 -0.37 0.012 1634 
0.889 -0.378 0.012 1590 
0.888 -0.384 0.012 1604 
0.885 -0.389 0.012 1615 
0.89 -0.398 0.012 1584 
0.89 -0.404 0.012 1582 
0.889 -0.411 0.012 1569 
0.889 -0.417 0.012 1609 
0.883 -0.421 0.012 1625 
0.885 -0.428 0.012 1624 
0.88 -0.432 0.012 1609 
0.884 -0.441 0.012 1606 
0.88 -0.446 0.012 1631 
0.879 -0.452 0.012 1619 
0.881 -0.46 0.012 1608 
0.876 -0.464 0.012 1590 
0.881 -0.474 0.013 1613 
0.877 -0.479 0.013 1583 
0.879 -0.487 0.013 1588 
0.92 -0.022 0.004 1437 
0.919 -0.028 0.004 1721 
0.921 -0.033 0.004 1703 
0.917 -0.038 0.004 1661 
0.919 -0.043 0.004 1594 
0.917 -0.049 0.004 1665 
0.917 -0.054 0.005 1664 
0.917 -0.059 0.005 1634 
0.918 -0.064 0.005 1623 
0.919 -0.07 0.005 1589 
0.919 -0.075 0.005 1576 
0.916 -0.08 0.005 1572 
0.913 -0.085 0.005 1584 
0.917 -0.091 0.005 1580 
0.916 -0.096 0.005 1567 
0.914 -0.101 0.005 1596 
0.914 -0.106 0.005 1582 
0.916 -0.112 0.005 1573 
0.912 -0.117 0.005 1577 
0.91 -0.122 0.005 1543 
0.908 -0.127 0.005 1616 
0.911 -0.133 0.005 1661 
0.909 -0.138 0.005 1646 
0.908 -0.143 0.005 1653 
0.909 -0.148 0.005 1646 
0.908 -0.154 0.005 1667 
0.912 -0.16 0.005 1655 
0.908 -0.164 0.005 1655 
0.913 -0.171 0.005 1659 
0.907 -0.175 0.005 1634 
0.911 -0.181 0.005 1627 
0.904 -0.185 0.005 1644 
0.905 -0.191 0.005 1627 
0.9 -0.195 0.005 1640 
0.906 -0.202 0.005 1613 
0.911 -0.209 0.005 1629 
0.902 -0.212 0.005 1629 
0.904 -0.218 0.005 1619 
0.9 -0.223 0.005 1668 
0.9 -0.229 0.005 1666 
0.904 -0.235 0.005 1669 
0.901 -0.24 0.005 1675 
0.901 -0.246 0.005 1708 
0.897 -0.25 0.006 1674 
0.903 -0.258 0.006 1698 
0.896 -0.261 0.006 1674 
0.902 -0.269 0.006 1674 
0.898 -0.273 0.006 1670 
0.896 -0.278 0.006 1671 
0.898 -0.285 0.006 1654 
0.896 -0.29 0.006 1662 
0.89 -0.294 0.006 1636 
0.899 -0.303 0.006 1653 
0.893 -0.307 0.006 1653 
0.895 -0.313 0.006 1639 
0.893 -0.318 0.006 1632 
0.893 -0.325 0.006 1639 
0.895 -0.331 0.006 1613 
0.893 -0.336 0.006 1621 
0.892 -0.342 0.006 1650 
0.893 -0.349 0.006 1673 
0.892 -0.354 0.006 1661 
0.893 -0.361 0.006 1597 
0.89 -0.366 0.006 1641 
0.889 -0.372 0.006 1610 
0.885 -0.376 0.006 1598 
0.886 -0.383 0.006 1643 
0.888 -0.39 0.006 1621 
0.888 -0.397 0.006 1613 
0.884 -0.402 0.006 1625 
0.885 -0.408 0.007 1613 
0.881 -0.413 0.007 1635 
0.879 -0.419 0.007 1642 
0.88 -0.426 0.007 1630 
0.876 -0.431 0.007 1598 
0.881 -0.439 0.007 1624 
0.881 -0.446 0.007 1640 
0.88 -0.453 0.007 1635 
0.875 -0.457 0.007 1619 
0.882 -0.468 0.007 1600 
0.877 -0.472 0.007 1649 
0.877 -0.479 0.007 1613 
0.879 -0.487 0.007 1616 
0.925 -0.022 0 1429 
0.917 -0.028 0 1677 
0.921 -0.033 0 1697 
0.922 -0.038 0 1692 
0.917 -0.043 0 1627 
0.921 -0.049 0 1704 
0.92 -0.054 0 1701 
0.92 -0.059 0 1662 
0.922 -0.065 0 1648 
0.922 -0.07 0 1601 
0.916 -0.075 0 1581 
0.912 -0.08 0 1585 
0.917 -0.086 0 1573 
0.913 -0.09 0 1588 
0.915 -0.096 0 1588 
0.912 -0.101 0 1615 
0.914 -0.107 0 1614 
0.913 -0.112 0 1621 
0.914 -0.117 0 1621 
0.913 -0.122 0 1587 
0.909 -0.127 0 1659 
0.912 -0.133 0 1670 
0.909 -0.138 0 1649 
0.912 -0.144 0 1686 
0.909 -0.149 0 1692 
0.908 -0.154 0 1689 
0.908 -0.159 0 1661 
0.907 -0.164 0 1664 
0.904 -0.169 0 1665 
0.906 -0.175 0 1653 
0.907 -0.181 0 1650 
0.904 -0.185 0 1644 
0.909 -0.192 0 1653 
0.902 -0.196 0 1653 
0.908 -0.203 0 1634 
0.902 -0.207 0 1607 
0.905 -0.213 0 1639 
0.901 -0.218 0 1637 
0.907 -0.225 0 1673 
0.903 -0.229 0 1666 
0.901 -0.234 0 1662 
0.895 -0.239 0 1662 
0.901 -0.246 0 1695 
0.897 -0.25 0 1696 
0.898 -0.256 0 1681 
0.9 -0.262 0 1685 
0.897 -0.267 0 1678 
0.903 -0.275 0 1684 
0.897 -0.279 0 1691 
0.898 -0.285 0 1674 
0.894 -0.289 0 1682 
0.895 -0.296 0 1655 
0.898 -0.302 0 1678 
0.897 -0.308 0 1684 
0.893 -0.312 0.001 1659 
0.891 -0.318 0.001 1638 
0.893 -0.324 0.001 1644 
0.891 -0.33 0.001 1622 
0.893 -0.337 0.001 1609 
0.89 -0.341 0.001 1619 
0.891 -0.348 0.001 1653 
0.89 -0.354 0.001 1621 
0.889 -0.359 0.001 1594 
0.887 -0.365 0.001 1623 
0.887 -0.371 0.001 1610 
0.883 -0.376 0.001 1638 
0.886 -0.383 0.001 1642 
0.88 -0.387 0.001 1621 
0.885 -0.395 0.001 1632 
0.884 -0.401 0.001 1635 
0.884 -0.408 0.001 1634 
0.878 -0.412 0.001 1651 
0.885 -0.421 0.001 1640 
0.885 -0.428 0.001 1647 
0.879 -0.432 0.001 1638 
0.875 -0.437 0.001 1649 
0.88 -0.446 0.001 1655 
0.88 -0.453 0.001 1664 
0.876 -0.458 0.001 1616 
0.882 -0.467 0.001 1631 
0.874 -0.47 0.001 1656 
0.875 -0.478 0.001 1635 
0.878 -0.487 0.001 1623 
0.923 -0.022 -0.005 1432 
0.923 -0.028 -0.005 1621 
0.917 -0.033 -0.005 1715 
0.921 -0.038 -0.005 1728 
0.921 -0.044 -0.005 1639 
0.921 -0.049 -0.005 1718 
0.919 -0.054 -0.005 1743 
0.919 -0.059 -0.005 1694 
0.919 -0.065 -0.005 1641 
0.918 -0.07 -0.005 1634 
0.92 -0.075 -0.005 1595 
0.914 -0.08 -0.005 1584 
0.917 -0.086 -0.005 1608 
0.912 -0.09 -0.005 1612 
0.912 -0.096 -0.005 1614 
0.917 -0.102 -0.005 1638 
0.917 -0.107 -0.005 1627 
0.914 -0.112 -0.005 1662 
0.91 -0.117 -0.005 1630 
0.912 -0.122 -0.005 1613 
0.911 -0.127 -0.005 1643 
0.912 -0.133 -0.005 1690 
0.907 -0.138 -0.005 1661 
0.905 -0.143 -0.005 1698 
0.908 -0.148 -0.005 1710 
0.909 -0.154 -0.005 1687 
0.906 -0.159 -0.005 1717 
0.912 -0.165 -0.005 1672 
0.909 -0.17 -0.004 1692 
0.912 -0.176 -0.004 1656 
0.907 -0.181 -0.004 1635 
0.909 -0.187 -0.004 1655 
0.903 -0.191 -0.004 1673 
0.905 -0.197 -0.004 1645 
0.907 -0.202 -0.004 1657 
0.902 -0.207 -0.004 1632 
0.897 -0.211 -0.004 1637 
0.904 -0.219 -0.004 1657 
0.905 -0.224 -0.004 1651 
0.899 -0.228 -0.004 1673 
0.896 -0.233 -0.004 1679 
0.901 -0.24 -0.004 1688 
0.899 -0.245 -0.004 1686 
0.901 -0.251 -0.004 1671 
0.897 -0.256 -0.004 1691 
0.902 -0.263 -0.004 1688 
0.896 -0.267 -0.004 1687 
0.895 -0.272 -0.004 1686 
0.9 -0.28 -0.004 1716 
0.894 -0.284 -0.004 1677 
0.896 -0.29 -0.004 1685 
0.896 -0.296 -0.004 1672 
0.896 -0.302 -0.004 1689 
0.897 -0.308 -0.004 1686 
0.892 -0.312 -0.004 1657 
0.898 -0.32 -0.004 1680 
0.889 -0.323 -0.004 1686 
0.89 -0.329 -0.004 1636 
0.89 -0.335 -0.004 1658 
0.887 -0.34 -0.004 1635 
0.888 -0.347 -0.004 1628 
0.891 -0.354 -0.004 1625 
0.888 -0.359 -0.004 1557 
0.888 -0.365 -0.004 1601 
0.891 -0.373 -0.004 1644 
0.887 -0.377 -0.004 1653 
0.889 -0.385 -0.004 1649 
0.883 -0.388 -0.004 1610 
0.883 -0.395 -0.004 1628 
0.885 -0.402 -0.004 1646 
0.882 -0.407 -0.004 1651 
0.882 -0.414 -0.004 1681 
0.886 -0.422 -0.003 1664 
0.877 -0.425 -0.003 1665 
0.879 -0.432 -0.003 1675 
0.879 -0.439 -0.003 1673 
0.881 -0.447 -0.003 1683 
0.879 -0.452 -0.003 1650 
0.881 -0.46 -0.003 1643 
0.876 -0.465 -0.003 1660 
0.876 -0.471 -0.003 1672 
0.869 -0.475 -0.003 1658 
0.879 -0.487 -0.003 1665 
0.946 -0.018 -0.011 361 
0.922 -0.022 -0.01 1441 
0.921 -0.028 -0.01 1669 
0.92 -0.033 -0.01 1725 
0.917 -0.038 -0.01 1736 
0.921 -0.044 -0.01 1662 
0.915 -0.049 -0.01 1703 
0.918 -0.054 -0.01 1771 
0.918 -0.059 -0.01 1689 
0.913 -0.064 -0.01 1690 
0.921 -0.07 -0.01 1671 
0.914 -0.075 -0.01 1626 
0.914 -0.08 -0.01 1589 
0.917 -0.086 -0.01 1646 
0.917 -0.091 -0.01 1644 
0.919 -0.096 -0.01 1617 
0.918 -0.102 -0.01 1632 
0.916 -0.107 -0.01 1625 
0.91 -0.111 -0.01 1649 
0.912 -0.117 -0.01 1643 
0.91 -0.122 -0.01 1632 
0.909 -0.127 -0.01 1645 
0.908 -0.132 -0.01 1707 
0.912 -0.138 -0.01 1718 
0.911 -0.143 -0.01 1703 
0.91 -0.149 -0.01 1716 
0.91 -0.154 -0.01 1706 
0.903 -0.158 -0.01 1707 
0.91 -0.165 -0.01 1694 
0.91 -0.17 -0.01 1694 
0.906 -0.175 -0.01 1676 
0.905 -0.18 -0.01 1673 
0.906 -0.186 -0.01 1673 
0.908 -0.192 -0.01 1690 
0.907 -0.197 -0.01 1660 
0.903 -0.202 -0.01 1693 
0.908 -0.208 -0.01 1669 
0.904 -0.213 -0.01 1677 
0.904 -0.219 -0.01 1683 
0.9 -0.223 -0.01 1656 
0.901 -0.229 -0.01 1668 
0.899 -0.234 -0.009 1696 
0.898 -0.239 -0.009 1695 
0.902 -0.246 -0.01 1701 
0.9 -0.251 -0.009 1673 
0.897 -0.256 -0.009 1708 
0.898 -0.262 -0.009 1695 
0.895 -0.267 -0.009 1692 
0.9 -0.274 -0.009 1714 
0.897 -0.279 -0.009 1723 
0.895 -0.284 -0.009 1702 
0.897 -0.29 -0.009 1720 
0.896 -0.296 -0.009 1729 
0.896 -0.302 -0.009 1727 
0.895 -0.307 -0.009 1715 
0.891 -0.312 -0.009 1691 
0.89 -0.318 -0.009 1666 
0.892 -0.324 -0.009 1706 
0.893 -0.331 -0.009 1659 
0.89 -0.335 -0.009 1655 
0.894 -0.343 -0.009 1668 
0.888 -0.347 -0.009 1653 
0.885 -0.352 -0.009 1632 
0.895 -0.362 -0.009 1581 
0.887 -0.365 -0.009 1623 
0.887 -0.371 -0.009 1673 
0.883 -0.376 -0.009 1661 
0.883 -0.382 -0.009 1653 
0.886 -0.39 -0.009 1633 
0.877 -0.392 -0.009 1662 
0.884 -0.402 -0.009 1673 
0.883 -0.408 -0.009 1685 
0.883 -0.414 -0.009 1698 
0.879 -0.419 -0.009 1671 
0.878 -0.425 -0.009 1695 
0.881 -0.433 -0.009 1718 
0.879 -0.439 -0.009 1716 
0.881 -0.446 -0.009 1717 
0.876 -0.451 -0.009 1664 
0.879 -0.459 -0.009 1651 
0.873 -0.463 -0.009 1686 
0.879 -0.473 -0.009 1689 
0.878 -0.48 -0.009 1684 
0.879 -0.487 -0.009 1705 
0.919 -0.022 -0.016 1481 
0.914 -0.028 -0.016 1679 
0.919 -0.033 -0.016 1700 
0.918 -0.038 -0.016 1721 
0.915 -0.043 -0.016 1700 
0.917 -0.049 -0.016 1723 
0.914 -0.054 -0.016 1767 
0.917 -0.059 -0.016 1723 
0.916 -0.064 -0.016 1748 
0.914 -0.07 -0.015 1691 
0.914 -0.075 -0.015 1647 
0.917 -0.08 -0.015 1640 
0.919 -0.086 -0.015 1662 
0.911 -0.09 -0.015 1650 
0.912 -0.096 -0.015 1624 
0.914 -0.101 -0.015 1613 
0.917 -0.107 -0.015 1651 
0.909 -0.111 -0.015 1690 
0.913 -0.117 -0.015 1651 
0.912 -0.122 -0.015 1602 
0.912 -0.128 -0.015 1660 
0.914 -0.133 -0.015 1712 
0.914 -0.139 -0.015 1765 
0.91 -0.143 -0.015 1722 
0.91 -0.149 -0.015 1757 
0.912 -0.154 -0.015 1753 
0.905 -0.159 -0.015 1737 
0.905 -0.164 -0.015 1746 
0.911 -0.171 -0.015 1722 
0.907 -0.175 -0.015 1733 
0.906 -0.18 -0.015 1750 
0.907 -0.186 -0.015 1758 
0.904 -0.191 -0.015 1726 
0.904 -0.196 -0.015 1697 
0.903 -0.202 -0.015 1723 
0.9 -0.206 -0.015 1695 
0.903 -0.213 -0.015 1712 
0.905 -0.219 -0.015 1683 
0.901 -0.223 -0.015 1674 
0.901 -0.229 -0.015 1665 
0.901 -0.235 -0.015 1721 
0.899 -0.24 -0.015 1726 
0.896 -0.244 -0.015 1710 
0.901 -0.251 -0.015 1686 
0.897 -0.256 -0.015 1683 
0.895 -0.261 -0.015 1684 
0.895 -0.267 -0.015 1703 
0.899 -0.274 -0.015 1706 
0.894 -0.278 -0.015 1743 
0.897 -0.285 -0.015 1737 
0.894 -0.29 -0.015 1730 
0.895 -0.296 -0.015 1731 
0.891 -0.3 -0.015 1761 
0.894 -0.307 -0.015 1768 
0.891 -0.312 -0.015 1736 
0.892 -0.318 -0.015 1662 
0.892 -0.324 -0.015 1678 
0.892 -0.33 -0.015 1644 
0.892 -0.336 -0.015 1639 
0.889 -0.341 -0.015 1685 
0.889 -0.347 -0.015 1691 
0.889 -0.353 -0.015 1651 
0.888 -0.359 -0.015 1588 
0.886 -0.365 -0.015 1639 
0.885 -0.37 -0.015 1652 
0.883 -0.376 -0.015 1660 
0.88 -0.381 -0.014 1651 
0.884 -0.389 -0.015 1643 
0.886 -0.396 -0.015 1686 
0.88 -0.4 -0.014 1704 
0.881 -0.407 -0.015 1709 
0.884 -0.415 -0.015 1712 
0.88 -0.419 -0.015 1666 
0.88 -0.426 -0.015 1688 
0.884 -0.435 -0.015 1723 
0.881 -0.44 -0.015 1722 
0.879 -0.445 -0.015 1700 
0.877 -0.451 -0.015 1677 
0.874 -0.457 -0.014 1690 
0.876 -0.465 -0.015 1709 
0.877 -0.472 -0.015 1701 
0.872 -0.476 -0.014 1667 
0.873 -0.484 -0.015 1690 
0.946 -0.018 -0.022 323 
0.922 -0.023 -0.021 1534 
0.917 -0.028 -0.021 1699 
0.918 -0.033 -0.021 1702 
0.914 -0.038 -0.021 1725 
0.918 -0.043 -0.021 1710 
0.922 -0.049 -0.021 1698 
0.918 -0.054 -0.021 1778 
0.917 -0.059 -0.021 1746 
0.915 -0.064 -0.021 1755 
0.914 -0.07 -0.021 1717 
0.915 -0.075 -0.021 1685 
0.92 -0.081 -0.021 1668 
0.913 -0.085 -0.021 1660 
0.915 -0.091 -0.021 1668 
0.908 -0.095 -0.021 1673 
0.912 -0.101 -0.021 1641 
0.911 -0.106 -0.021 1648 
0.914 -0.112 -0.021 1699 
0.909 -0.117 -0.02 1676 
0.914 -0.123 -0.021 1633 
0.91 -0.127 -0.02 1706 
0.908 -0.132 -0.02 1738 
0.907 -0.138 -0.02 1792 
0.915 -0.144 -0.021 1787 
0.908 -0.149 -0.02 1774 
0.909 -0.154 -0.02 1774 
0.907 -0.159 -0.02 1756 
0.907 -0.164 -0.02 1791 
0.907 -0.17 -0.02 1760 
0.906 -0.175 -0.02 1769 
0.903 -0.18 -0.02 1788 
0.906 -0.186 -0.02 1800 
0.909 -0.192 -0.02 1776 
0.904 -0.197 -0.02 1728 
0.905 -0.202 -0.02 1726 
0.898 -0.206 -0.02 1733 
0.899 -0.212 -0.02 1737 
0.904 -0.219 -0.02 1719 
0.899 -0.223 -0.02 1659 
0.902 -0.229 -0.02 1652 
0.897 -0.233 -0.02 1707 
0.902 -0.24 -0.02 1706 
0.903 -0.246 -0.02 1722 
0.898 -0.251 -0.02 1707 
0.897 -0.256 -0.02 1701 
0.901 -0.263 -0.02 1703 
0.899 -0.268 -0.02 1694 
0.89 -0.271 -0.02 1712 
0.892 -0.277 -0.02 1751 
0.897 -0.285 -0.02 1748 
0.895 -0.29 -0.02 1752 
0.891 -0.294 -0.02 1736 
0.896 -0.302 -0.02 1788 
0.89 -0.306 -0.02 1763 
0.896 -0.314 -0.02 1745 
0.889 -0.317 -0.02 1708 
0.886 -0.322 -0.02 1677 
0.891 -0.33 -0.02 1707 
0.887 -0.334 -0.02 1673 
0.885 -0.34 -0.02 1665 
0.889 -0.347 -0.02 1701 
0.888 -0.353 -0.02 1675 
0.888 -0.359 -0.02 1608 
0.887 -0.365 -0.02 1660 
0.887 -0.371 -0.02 1671 
0.882 -0.376 -0.02 1667 
0.885 -0.383 -0.02 1663 
0.891 -0.392 -0.02 1680 
0.885 -0.396 -0.02 1702 
0.883 -0.401 -0.02 1749 
0.883 -0.408 -0.02 1713 
0.881 -0.413 -0.02 1699 
0.88 -0.419 -0.02 1705 
0.884 -0.428 -0.02 1732 
0.878 -0.432 -0.02 1724 
0.878 -0.439 -0.02 1711 
0.875 -0.444 -0.02 1706 
0.876 -0.451 -0.02 1682 
0.878 -0.459 -0.02 1700 
0.876 -0.465 -0.02 1724 
0.877 -0.472 -0.02 1686 
0.871 -0.476 -0.02 1638 
0.873 -0.484 -0.02 1645 
0.942 -0.018 -0.027 366 
0.92 -0.023 -0.026 1584 
0.917 -0.028 -0.026 1723 
0.918 -0.033 -0.026 1702 
0.921 -0.038 -0.026 1750 
0.916 -0.043 -0.026 1733 
0.918 -0.049 -0.026 1704 
0.919 -0.054 -0.026 1775 
0.914 -0.059 -0.026 1746 
0.917 -0.065 -0.026 1781 
0.92 -0.07 -0.026 1738 
0.915 -0.075 -0.026 1686 
0.911 -0.08 -0.026 1689 
0.909 -0.085 -0.026 1656 
0.915 -0.091 -0.026 1675 
0.918 -0.096 -0.026 1639 
0.913 -0.101 -0.026 1632 
0.91 -0.106 -0.026 1621 
0.911 -0.112 -0.026 1645 
0.911 -0.117 -0.026 1664 
0.909 -0.122 -0.026 1630 
0.91 -0.127 -0.026 1706 
0.908 -0.132 -0.026 1728 
0.911 -0.138 -0.026 1799 
0.908 -0.143 -0.026 1831 
0.908 -0.149 -0.026 1790 
0.906 -0.154 -0.026 1792 
0.905 -0.159 -0.026 1789 
0.906 -0.164 -0.026 1820 
0.91 -0.17 -0.026 1813 
0.906 -0.175 -0.026 1766 
0.908 -0.181 -0.026 1794 
0.904 -0.186 -0.026 1803 
0.902 -0.191 -0.025 1798 
0.904 -0.197 -0.026 1744 
0.902 -0.202 -0.025 1739 
0.902 -0.207 -0.025 1753 
0.902 -0.213 -0.025 1769 
0.903 -0.218 -0.026 1777 
0.901 -0.223 -0.025 1739 
0.9 -0.229 -0.025 1674 
0.896 -0.233 -0.025 1691 
0.896 -0.239 -0.025 1683 
0.898 -0.245 -0.025 1709 
0.9 -0.251 -0.025 1721 
0.897 -0.256 -0.025 1721 
0.894 -0.261 -0.025 1693 
0.897 -0.268 -0.025 1689 
0.894 -0.272 -0.025 1720 
0.893 -0.278 -0.025 1740 
0.894 -0.284 -0.025 1763 
0.891 -0.289 -0.025 1758 
0.896 -0.296 -0.025 1784 
0.894 -0.301 -0.025 1823 
0.887 -0.305 -0.025 1788 
0.893 -0.313 -0.025 1806 
0.896 -0.32 -0.026 1786 
0.889 -0.323 -0.025 1741 
0.892 -0.33 -0.025 1748 
0.889 -0.335 -0.025 1757 
0.887 -0.34 -0.025 1705 
0.889 -0.348 -0.025 1680 
0.89 -0.354 -0.025 1690 
0.884 -0.357 -0.025 1641 
0.88 -0.362 -0.025 1655 
0.887 -0.371 -0.025 1698 
0.89 -0.379 -0.026 1696 
0.88 -0.381 -0.025 1672 
0.887 -0.39 -0.026 1705 
0.883 -0.395 -0.026 1709 
0.882 -0.401 -0.026 1771 
0.879 -0.406 -0.025 1740 
0.876 -0.411 -0.025 1725 
0.881 -0.42 -0.026 1741 
0.883 -0.428 -0.026 1728 
0.88 -0.433 -0.026 1726 
0.876 -0.438 -0.026 1725 
0.882 -0.447 -0.026 1712 
0.88 -0.453 -0.026 1684 
0.872 -0.456 -0.026 1695 
0.878 -0.466 -0.026 1705 
0.87 -0.468 -0.026 1682 
0.873 -0.477 -0.026 1610 
0.867 -0.481 -0.026 1609 
0.921 -0.023 -0.032 1607 
0.914 -0.028 -0.031 1731 
0.92 -0.033 -0.032 1710 
0.918 -0.038 -0.032 1765 
0.919 -0.044 -0.032 1709 
0.917 -0.049 -0.031 1684 
0.913 -0.054 -0.031 1800 
0.918 -0.059 -0.031 1741 
0.914 -0.064 -0.031 1741 
0.917 -0.07 -0.031 1737 
0.916 -0.075 -0.031 1692 
0.916 -0.08 -0.031 1687 
0.914 -0.086 -0.031 1638 
0.914 -0.091 -0.031 1649 
0.911 -0.096 -0.031 1649 
0.912 -0.101 -0.031 1614 
0.91 -0.106 -0.031 1627 
0.913 -0.112 -0.031 1617 
0.917 -0.118 -0.031 1641 
0.911 -0.122 -0.031 1635 
0.912 -0.128 -0.031 1680 
0.906 -0.132 -0.031 1691 
0.906 -0.137 -0.031 1758 
0.912 -0.144 -0.031 1831 
0.909 -0.149 -0.031 1794 
0.906 -0.154 -0.031 1790 
0.905 -0.159 -0.031 1796 
0.91 -0.165 -0.031 1817 
0.905 -0.17 -0.031 1832 
0.902 -0.175 -0.031 1793 
0.905 -0.18 -0.031 1771 
0.903 -0.186 -0.031 1817 
0.898 -0.19 -0.031 1844 
0.903 -0.196 -0.031 1789 
0.903 -0.202 -0.031 1760 
0.901 -0.207 -0.031 1738 
0.902 -0.213 -0.031 1752 
0.903 -0.219 -0.031 1761 
0.898 -0.223 -0.031 1745 
0.899 -0.229 -0.031 1719 
0.895 -0.233 -0.031 1673 
0.9 -0.24 -0.031 1671 
0.897 -0.245 -0.031 1698 
0.897 -0.251 -0.031 1683 
0.891 -0.254 -0.031 1696 
0.896 -0.261 -0.031 1675 
0.897 -0.268 -0.031 1662 
0.898 -0.273 -0.031 1705 
0.894 -0.278 -0.031 1747 
0.903 -0.287 -0.031 1751 
0.897 -0.291 -0.031 1759 
0.898 -0.297 -0.031 1803 
0.891 -0.3 -0.031 1816 
0.891 -0.306 -0.031 1828 
0.887 -0.311 -0.031 1833 
0.891 -0.318 -0.031 1787 
0.887 -0.322 -0.031 1776 
0.887 -0.329 -0.031 1800 
0.89 -0.336 -0.031 1782 
0.887 -0.341 -0.031 1738 
0.887 -0.347 -0.031 1712 
0.888 -0.353 -0.031 1754 
0.884 -0.358 -0.031 1697 
0.884 -0.364 -0.031 1693 
0.887 -0.371 -0.031 1720 
0.883 -0.376 -0.031 1700 
0.885 -0.383 -0.031 1706 
0.88 -0.388 -0.031 1739 
0.882 -0.395 -0.031 1755 
0.879 -0.4 -0.031 1756 
0.886 -0.409 -0.031 1724 
0.878 -0.412 -0.031 1716 
0.882 -0.421 -0.031 1742 
0.879 -0.426 -0.031 1742 
0.876 -0.431 -0.031 1734 
0.88 -0.44 -0.031 1739 
0.876 -0.444 -0.031 1731 
0.874 -0.45 -0.031 1704 
0.88 -0.46 -0.031 1718 
0.87 -0.462 -0.031 1713 
0.872 -0.47 -0.031 1649 
0.875 -0.478 -0.031 1600 
0.874 -0.485 -0.031 1605 
0.944 -0.018 -0.038 394 
0.919 -0.023 -0.037 1604 
0.92 -0.028 -0.037 1772 
0.917 -0.033 -0.037 1750 
0.92 -0.038 -0.037 1741 
0.915 -0.043 -0.037 1731 
0.917 -0.049 -0.037 1693 
0.919 -0.054 -0.037 1756 
0.913 -0.059 -0.037 1731 
0.913 -0.064 -0.036 1714 
0.915 -0.07 -0.037 1713 
0.915 -0.075 -0.037 1700 
0.916 -0.08 -0.037 1698 
0.918 -0.086 -0.037 1641 
0.913 -0.091 -0.036 1634 
0.913 -0.096 -0.036 1655 
0.916 -0.102 -0.037 1617 
0.912 -0.106 -0.036 1654 
0.914 -0.112 -0.036 1625 
0.911 -0.117 -0.036 1671 
0.91 -0.122 -0.036 1678 
0.91 -0.128 -0.036 1647 
0.911 -0.133 -0.036 1670 
0.909 -0.138 -0.036 1742 
0.908 -0.143 -0.036 1840 
0.902 -0.148 -0.036 1814 
0.91 -0.154 -0.036 1779 
0.907 -0.159 -0.036 1803 
0.909 -0.165 -0.036 1785 
0.9 -0.169 -0.036 1833 
0.904 -0.175 -0.036 1827 
0.903 -0.18 -0.036 1795 
0.91 -0.187 -0.036 1798 
0.904 -0.191 -0.036 1851 
0.904 -0.197 -0.036 1809 
0.904 -0.202 -0.036 1778 
0.901 -0.207 -0.036 1759 
0.901 -0.213 -0.036 1729 
0.9 -0.218 -0.036 1761 
0.901 -0.223 -0.036 1730 
0.896 -0.228 -0.036 1753 
0.899 -0.234 -0.036 1736 
0.9 -0.24 -0.036 1710 
0.899 -0.245 -0.036 1683 
0.895 -0.25 -0.036 1676 
0.896 -0.256 -0.036 1693 
0.893 -0.261 -0.036 1675 
0.894 -0.267 -0.036 1645 
0.894 -0.272 -0.036 1660 
0.893 -0.278 -0.036 1746 
0.897 -0.285 -0.036 1757 
0.893 -0.289 -0.036 1776 
0.892 -0.295 -0.036 1793 
0.891 -0.3 -0.036 1815 
0.893 -0.307 -0.036 1841 
0.89 -0.312 -0.036 1825 
0.891 -0.318 -0.036 1827 
0.89 -0.324 -0.036 1835 
0.888 -0.329 -0.036 1805 
0.889 -0.336 -0.036 1770 
0.884 -0.34 -0.036 1768 
0.887 -0.347 -0.036 1789 
0.885 -0.352 -0.036 1791 
0.886 -0.359 -0.036 1730 
0.886 -0.365 -0.036 1730 
0.888 -0.372 -0.036 1727 
0.878 -0.374 -0.036 1700 
0.884 -0.383 -0.036 1739 
0.881 -0.388 -0.036 1734 
0.885 -0.396 -0.037 1767 
0.883 -0.401 -0.037 1768 
0.885 -0.409 -0.037 1729 
0.88 -0.413 -0.037 1695 
0.873 -0.417 -0.036 1720 
0.876 -0.425 -0.037 1739 
0.874 -0.43 -0.037 1736 
0.875 -0.437 -0.037 1712 
0.876 -0.444 -0.037 1713 
0.87 -0.448 -0.037 1720 
0.875 -0.458 -0.037 1717 
0.873 -0.464 -0.037 1673 
0.876 -0.472 -0.037 1631 
0.87 -0.475 -0.037 1636 
0.871 -0.483 -0.037 1629 
0.941 -0.018 -0.043 409 
0.915 -0.022 -0.042 1637 
0.925 -0.028 -0.042 1750 
0.918 -0.033 -0.042 1833 
0.917 -0.038 -0.042 1755 
0.915 -0.043 -0.042 1741 
0.918 -0.049 -0.042 1672 
0.911 -0.054 -0.042 1688 
0.917 -0.059 -0.042 1740 
0.913 -0.064 -0.042 1732 
0.914 -0.07 -0.042 1728 
0.915 -0.075 -0.042 1722 
0.912 -0.08 -0.042 1715 
0.917 -0.086 -0.042 1705 
0.911 -0.091 -0.042 1681 
0.911 -0.096 -0.042 1675 
0.91 -0.101 -0.042 1706 
0.909 -0.106 -0.042 1700 
0.911 -0.112 -0.042 1675 
0.912 -0.117 -0.042 1718 
0.91 -0.122 -0.042 1722 
0.909 -0.127 -0.042 1645 
0.904 -0.132 -0.041 1636 
0.908 -0.138 -0.041 1698 
0.91 -0.144 -0.042 1835 
0.907 -0.149 -0.041 1845 
0.903 -0.153 -0.041 1784 
0.902 -0.158 -0.041 1817 
0.905 -0.164 -0.041 1794 
0.907 -0.17 -0.041 1753 
0.904 -0.175 -0.041 1803 
0.905 -0.181 -0.041 1833 
0.898 -0.184 -0.041 1761 
0.9 -0.19 -0.041 1836 
0.899 -0.196 -0.041 1793 
0.906 -0.203 -0.042 1762 
0.899 -0.207 -0.041 1773 
0.902 -0.213 -0.041 1745 
0.9 -0.218 -0.041 1757 
0.9 -0.223 -0.041 1740 
0.897 -0.228 -0.041 1785 
0.898 -0.234 -0.041 1753 
0.897 -0.239 -0.041 1728 
0.897 -0.245 -0.041 1694 
0.898 -0.251 -0.041 1690 
0.896 -0.256 -0.041 1698 
0.892 -0.261 -0.041 1673 
0.896 -0.267 -0.041 1638 
0.891 -0.272 -0.041 1658 
0.889 -0.277 -0.041 1734 
0.9 -0.286 -0.042 1766 
0.89 -0.289 -0.041 1780 
0.883 -0.292 -0.041 1826 
0.889 -0.3 -0.041 1847 
