ply
format ascii 1.0
element vertex 906
property float x
property float y
property float z
property float intensity
end_header
0.90600001812 -0.300999999046 -0.202999994159 614.0
0.916000008583 -0.310000002384 -0.206000000238 1450.0
0.919000029564 -0.317000001669 -0.207000002265 1544.0
0.915000021458 -0.321999996901 -0.207000002265 1545.0
0.916000008583 -0.328999996185 -0.207000002265 1533.0
0.911000013351 -0.333000004292 -0.207000002265 1546.0
0.912999987602 -0.340000003576 -0.207000002265 1547.0
0.912000000477 -0.345999985933 -0.207000002265 1559.0
0.910000026226 -0.351999998093 -0.207000002265 1564.0
0.902999997139 -0.354999989271 -0.206000000238 1563.0
0.90499997139 -0.363000005484 -0.207000002265 1577.0
0.90499997139 -0.368999987841 -0.207000002265 1563.0
0.893999993801 -0.370999991894 -0.204999998212 1580.0
0.898000001907 -0.379000008106 -0.207000002265 1571.0
0.89200001955 -0.38299998641 -0.206000000238 1349.0
0.876999974251 -0.38299998641 -0.202999994159 374.0
0.850000023842 -0.377000004053 -0.196999996901 222.0
0.866999983788 -0.391000002623 -0.201000005007 208.0
0.860000014305 -0.393999993801 -0.20000000298 210.0
0.848999977112 -0.395000010729 -0.197999998927 209.0
0.878000020981 -0.416000008583 -0.204999998212 216.0
0.847000002861 -0.407000005245 -0.199000000954 211.0
0.819000005722 -0.40000000596 -0.192000001669 217.0
0.846000015736 -0.419999986887 -0.199000000954 220.0
0.82800000906 -0.416999995708 -0.195999994874 211.0
0.814999997616 -0.416999995708 -0.193000003695 213.0
0.791999995708 -0.411000013351 -0.187999993563 215.0
0.842999994755 -0.444999992847 -0.201000005007 220.0
0.85900002718 -0.46099999547 -0.204999998212 808.0
0.866999983788 -0.472000002861 -0.208000004292 1542.0
0.861999988556 -0.476000010967 -0.207000002265 1629.0
0.861999988556 -0.483000010252 -0.208000004292 1629.0
0.864000022411 -0.49200001359 -0.209000006318 1641.0
2.23399996758 1.31099998951 -0.572000026703 141.0
2.20900011063 1.27799999714 -0.56400001049 290.0
2.19400000572 1.25100004673 -0.558000028133 210.0
2.27600002289 1.27799999714 -0.577000021935 116.0
3.28099989891 1.38499999046 -0.791000008583 108.0
3.39899992943 1.41100001335 -0.818000018597 98.0
3.4470000267 1.40600001812 -0.82800000906 86.0
3.95399999619 1.23300004005 -0.922999978065 66.0
3.92700004578 0.465999990702 -0.883000016212 60.0
3.98200011253 0.449000000954 -0.894999980927 59.0
4.05499982834 0.432999998331 -0.910000026226 61.0
4.06699991226 0.409999996424 -0.912000000477 66.0
4.11499977112 0.389999985695 -0.922999978065 64.0
1.01199996471 -0.0560000017285 -0.22499999404 80.0
1.00499999523 -0.0619999989867 -0.224000006914 840.0
0.998000025749 -0.0670000016689 -0.222000002861 892.0
0.990000009537 -0.0719999969006 -0.219999998808 557.0
0.986000001431 -0.0780000016093 -0.218999996781 488.0
0.990000009537 -0.0839999988675 -0.219999998808 424.0
0.992999970913 -0.0900000035763 -0.221000000834 372.0
0.977999985218 -0.0939999967813 -0.217999994755 329.0
0.967000007629 -0.0989999994636 -0.216000005603 288.0
0.966000020504 -0.104999996722 -0.215000003576 253.0
0.964999973774 -0.109999999404 -0.215000003576 226.0
0.954999983311 -0.115000002086 -0.212999999523 211.0
0.93900001049 -0.118000000715 -0.209999993443 193.0
0.954999983311 -0.126000002027 -0.21400000155 188.0
0.929000020027 -0.12800000608 -0.208000004292 182.0
0.926999986172 -0.133000001311 -0.207000002265 179.0
0.966000020504 -0.144999995828 -0.216000005603 548.0
0.967999994755 -0.150999993086 -0.216999992728 1264.0
0.97000002861 -0.157000005245 -0.216999992728 1331.0
0.975000023842 -0.16400000453 -0.218999996781 1342.0
0.962999999523 -0.167999997735 -0.216000005603 1348.0
0.962999999523 -0.173999994993 -0.216000005603 1372.0
0.966000020504 -0.180000007153 -0.216999992728 1366.0
0.958999991417 -0.185000002384 -0.216000005603 1382.0
0.961000025272 -0.190999999642 -0.216000005603 1381.0
0.954999983311 -0.195999994874 -0.215000003576 1389.0
0.955999970436 -0.202000007033 -0.216000005603 1398.0
0.950999975204 -0.207000002265 -0.215000003576 1414.0
0.949999988079 -0.211999997497 -0.215000003576 1411.0
0.949999988079 -0.217999994755 -0.215000003576 1415.0
0.949999988079 -0.224000006914 -0.215000003576 1364.0
0.945999979973 -0.229000002146 -0.215000003576 461.0
0.919000029564 -0.228000000119 -0.209000006318 195.0
0.898000001907 -0.228000000119 -0.203999996185 188.0
0.903999984264 -0.236000001431 -0.206000000238 199.0
0.90499997139 -0.241999998689 -0.206000000238 202.0
0.907999992371 -0.247999995947 -0.207000002265 192.0
0.885999977589 -0.247999995947 -0.202000007033 197.0
0.901000022888 -0.25799998641 -0.206000000238 198.0
0.902999997139 -0.263999998569 -0.207000002265 196.0
0.893000006676 -0.266999989748 -0.204999998212 200.0
0.901000022888 -0.27500000596 -0.207000002265 197.0
0.89099997282 -0.277999997139 -0.204999998212 202.0
0.879000008106 -0.280000001192 -0.202000007033 198.0
0.882000029087 -0.287000000477 -0.203999996185 204.0
0.908999979496 -0.301999986172 -0.209999993443 691.0
0.917999982834 -0.31099998951 -0.211999997497 1453.0
0.919000029564 -0.317999988794 -0.212999999523 1539.0
0.912000000477 -0.321999996901 -0.211999997497 1539.0
0.916999995708 -0.328999996185 -0.212999999523 1530.0
0.913999974728 -0.335000008345 -0.212999999523 1544.0
0.910000026226 -0.338999986649 -0.211999997497 1556.0
0.907999992371 -0.344999998808 -0.211999997497 1551.0
0.907999992371 -0.351000010967 -0.212999999523 1552.0
0.90600001812 -0.356999993324 -0.212999999523 1565.0
0.901000022888 -0.361999988556 -0.211999997497 1557.0
0.896000027657 -0.365999996662 -0.21099999547 1571.0
0.898999989033 -0.372999995947 -0.211999997497 1563.0
0.897000014782 -0.379000008106 -0.211999997497 1578.0
0.893000006676 -0.384000003338 -0.211999997497 1282.0
0.875999987125 -0.38299998641 -0.208000004292 343.0
0.832000017166 -0.370000004768 -0.197999998927 221.0
0.837000012398 -0.377999991179 -0.20000000298 211.0
0.84500002861 -0.388000011444 -0.202000007033 217.0
0.811999976635 -0.377999991179 -0.194999992847 209.0
0.829999983311 -0.393000006676 -0.20000000298 217.0
0.833999991417 -0.402000010014 -0.201000005007 211.0
0.829999983311 -0.405999988317 -0.201000005007 210.0
0.819999992847 -0.407000005245 -0.199000000954 225.0
0.819999992847 -0.41400000453 -0.199000000954 207.0
0.825999975204 -0.423000007868 -0.201000005007 219.0
0.818000018597 -0.425999999046 -0.20000000298 210.0
0.825999975204 -0.43599998951 -0.202000007033 223.0
0.85799998045 -0.46099999547 -0.21099999547 933.0
0.862999975681 -0.469999998808 -0.212999999523 1555.0
0.870000004768 -0.481000006199 -0.215000003576 1611.0
0.862999975681 -0.485000014305 -0.21400000155 1614.0
0.856999993324 -0.488999992609 -0.212999999523 1624.0
2.19499993324 1.28999996185 -0.57800000906 141.0
2.20499992371 1.27699995041 -0.57800000906 283.0
2.24300003052 1.27999997139 -0.586000025272 234.0
2.2650001049 1.27400004864 -0.589999973774 129.0
3.30399990082 1.39699995518 -0.819000005722 118.0
3.36199998856 1.39699995518 -0.830999970436 102.0
3.41499996185 1.39499998093 -0.842999994755 91.0
0.996999979019 -0.0610000006855 -0.228000000119 878.0
0.995999991894 -0.0670000016689 -0.228000000119 1182.0
0.995999991894 -0.0729999989271 -0.228000000119 1194.0
0.992999970913 -0.0780000016093 -0.226999998093 1186.0
0.989000022411 -0.0839999988675 -0.225999996066 1170.0
0.990999996662 -0.0900000035763 -0.226999998093 1171.0
0.989000022411 -0.0960000008345 -0.225999996066 1152.0
0.986999988556 -0.101000003517 -0.225999996066 1127.0
0.981999993324 -0.107000000775 -0.22499999404 1098.0
0.98400002718 -0.112999998033 -0.225999996066 1074.0
0.975000023842 -0.116999998689 -0.224000006914 1047.0
0.976000010967 -0.123000003397 -0.224000006914 986.0
0.972000002861 -0.128999993205 -0.223000004888 931.0
0.973999977112 -0.135000005364 -0.224000006914 874.0
0.97000002861 -0.140000000596 -0.223000004888 820.0
0.976999998093 -0.146999999881 -0.22499999404 729.0
0.972000002861 -0.151999995112 -0.224000006914 737.0
0.962000012398 -0.156000003219 -0.222000002861 802.0
0.962999999523 -0.162000000477 -0.222000002861 873.0
0.967000007629 -0.168999999762 -0.223000004888 955.0
0.95300000906 -0.172000005841 -0.219999998808 1000.0
0.961000025272 -0.179000005126 -0.222000002861 1056.0
0.958999991417 -0.185000002384 -0.222000002861 1117.0
0.953999996185 -0.189999997616 -0.221000000834 1162.0
0.958000004292 -0.195999994874 -0.222000002861 1193.0
0.957000017166 -0.202000007033 -0.222000002861 1228.0
0.950999975204 -0.207000002265 -0.221000000834 1276.0
0.95300000906 -0.212999999523 -0.221000000834 1299.0
0.950999975204 -0.218999996781 -0.221000000834 1339.0
0.949000000954 -0.224000006914 -0.221000000834 1259.0
0.944000005722 -0.229000002146 -0.219999998808 414.0
0.924000024796 -0.230000004172 -0.216000005603 237.0
0.934000015259 -0.238000005484 -0.217999994755 231.0
0.90499997139 -0.236000001431 -0.211999997497 221.0
0.90499997139 -0.241999998689 -0.211999997497 216.0
0.916999995708 -0.250999987125 -0.215000003576 212.0
0.896000027657 -0.250999987125 -0.209999993443 205.0
0.898000001907 -0.256999999285 -0.21099999547 211.0
0.907999992371 -0.266000002623 -0.21400000155 213.0
0.887000024319 -0.266000002623 -0.209000006318 215.0
0.894999980927 -0.273999989033 -0.21099999547 205.0
0.893999993801 -0.280000001192 -0.21099999547 206.0
0.856999993324 -0.273999989033 -0.202999994159 206.0
0.889999985695 -0.289999991655 -0.21099999547 205.0
0.912999987602 -0.303999990225 -0.216999992728 776.0
0.916000008583 -0.31099998951 -0.217999994755 1465.0
0.920000016689 -0.319000005722 -0.218999996781 1516.0
0.913999974728 -0.323000013828 -0.217999994755 1514.0
0.911000013351 -0.32800000906 -0.217999994755 1519.0
0.911000013351 -0.333999991417 -0.217999994755 1531.0
0.910000026226 -0.340000003576 -0.217999994755 1555.0
0.911000013351 -0.347000002861 -0.218999996781 1540.0
0.902000010014 -0.34999999404 -0.216999992728 1550.0
0.912999987602 -0.360000014305 -0.219999998808 1545.0
0.898000001907 -0.361000001431 -0.216999992728 1557.0
0.898999989033 -0.368000000715 -0.217999994755 1561.0
0.893999993801 -0.372000008821 -0.216999992728 1551.0
0.893999993801 -0.377999991179 -0.217999994755 1565.0
0.896000027657 -0.386000007391 -0.218999996781 1191.0
0.870999991894 -0.381000012159 -0.212999999523 312.0
0.856999993324 -0.381000012159 -0.209999993443 224.0
0.848999977112 -0.384000003338 -0.208000004292 216.0
0.851000010967 -0.391000002623 -0.209000006318 218.0
0.827000021935 -0.386000007391 -0.203999996185 219.0
0.861999988556 -0.409000009298 -0.212999999523 216.0
0.819000005722 -0.395000010729 -0.202999994159 215.0
0.838999986649 -0.411000013351 -0.208000004292 221.0
0.81400001049 -0.405000001192 -0.202999994159 223.0
0.836000025272 -0.423000007868 -0.209000006318 222.0
0.824000000954 -0.423000007868 -0.206000000238 214.0
0.823000013828 -0.428999990225 -0.207000002265 209.0
0.808000028133 -0.428000003099 -0.203999996185 230.0
0.85799998045 -0.46099999547 -0.216999992728 1034.0
0.862999975681 -0.470999985933 -0.218999996781 1568.0
0.867999970913 -0.481000006199 -0.219999998808 1618.0
0.861000001431 -0.483999997377 -0.218999996781 1612.0
0.851999998093 -0.486000001431 -0.217999994755 1622.0
2.14100003242 1.25999999046 -0.578999996185 127.0
2.22699999809 1.29200005531 -0.600000023842 263.0
2.22900009155 1.27400004864 -0.597999989986 254.0
2.34400010109 1.32000005245 -0.626999974251 123.0
3.27999997139 1.38800001144 -0.834999978542 108.0
3.32299995422 1.38300001621 -0.84399998188 101.0
3.41000008583 1.39400005341 -0.864000022411 86.0
0.991999983788 -0.0610000006855 -0.232999995351 899.0
0.999000012875 -0.0670000016689 -0.234999999404 1198.0
0.995999991894 -0.0729999989271 -0.233999997377 1214.0
0.995999991894 -0.0790000036359 -0.233999997377 1217.0
0.995999991894 -0.0850000008941 -0.233999997377 1221.0
0.987999975681 -0.0900000035763 -0.231999993324 1223.0
0.990000009537 -0.0960000008345 -0.232999995351 1250.0
0.990999996662 -0.101999998093 -0.232999995351 1250.0
0.987999975681 -0.107000000775 -0.232999995351 1238.0
0.985000014305 -0.112999998033 -0.231999993324 1252.0
0.980000019073 -0.118000000715 -0.231000006199 1261.0
0.98400002718 -0.125 -0.231999993324 1273.0
0.976999998093 -0.129999995232 -0.230000004172 1284.0
0.976000010967 -0.135000005364 -0.230000004172 1286.0
0.976000010967 -0.141000002623 -0.230000004172 1296.0
0.976000010967 -0.146999999881 -0.231000006199 801.0
0.916000008583 -0.143000006676 -0.216999992728 215.0
0.915000021458 -0.149000003934 -0.216000005603 191.0
0.939999997616 -0.158000007272 -0.223000004888 198.0
0.929000020027 -0.162000000477 -0.219999998808 200.0
0.940999984741 -0.170000001788 -0.223000004888 208.0
0.940999984741 -0.175999999046 -0.223000004888 222.0
0.950999975204 -0.182999998331 -0.225999996066 235.0
0.943000018597 -0.187999993563 -0.224000006914 248.0
0.933000028133 -0.190999999642 -0.222000002861 279.0
0.921000003815 -0.194999992847 -0.218999996781 306.0
0.945999979973 -0.206000000238 -0.22499999404 333.0
0.93900001049 -0.209999993443 -0.224000006914 369.0
0.943000018597 -0.216999992728 -0.22499999404 411.0
0.948000013828 -0.224000006914 -0.226999998093 511.0
0.940999984741 -0.228000000119 -0.22499999404 997.0
0.935000002384 -0.232999995351 -0.224000006914 1069.0
0.934000015259 -0.238000005484 -0.224000006914 1035.0
0.933000028133 -0.244000002742 -0.224000006914 997.0
0.93900001049 -0.252000004053 -0.225999996066 987.0
0.931999981403 -0.256000012159 -0.224000006914 932.0
0.933000028133 -0.261999994516 -0.22499999404 893.0
0.933000028133 -0.268000006676 -0.22499999404 845.0
0.922999978065 -0.270999997854 -0.223000004888 801.0
0.921000003815 -0.277000010014 -0.223000004888 776.0
0.919000029564 -0.282000005245 -0.223000004888 729.0
0.913999974728 -0.286000013351 -0.222000002861 701.0
0.916000008583 -0.293000012636 -0.223000004888 670.0
0.917999982834 -0.300000011921 -0.224000006914 646.0
0.922999978065 -0.307999998331 -0.22499999404 895.0
0.919000029564 -0.312000006437 -0.224000006914 1078.0
0.915000021458 -0.317000001669 -0.224000006914 1122.0
0.912000000477 -0.321999996901 -0.223000004888 1130.0
0.90600001812 -0.326999992132 -0.223000004888 1158.0
0.90499997139 -0.331999987364 -0.223000004888 1188.0
0.902999997139 -0.337999999523 -0.223000004888 1222.0
0.902999997139 -0.344000011683 -0.223000004888 1233.0
0.898999989033 -0.349000006914 -0.223000004888 1259.0
0.898000001907 -0.354999989271 -0.223000004888 1265.0
0.899999976158 -0.361999988556 -0.224000006914 1276.0
0.894999980927 -0.365999996662 -0.223000004888 1291.0
0.889999985695 -0.370999991894 -0.222000002861 1312.0
0.889999985695 -0.377000004053 -0.223000004888 1323.0
0.89099997282 -0.384000003338 -0.223000004888 942.0
0.885999977589 -0.388000011444 -0.222000002861 463.0
0.888999998569 -0.395999997854 -0.224000006914 414.0
0.870999991894 -0.395000010729 -0.219999998808 406.0
0.875 -0.402999997139 -0.221000000834 421.0
0.864000022411 -0.404000014067 -0.218999996781 416.0
0.856000006199 -0.407000005245 -0.216999992728 414.0
0.864000022411 -0.416999995708 -0.219999998808 422.0
0.861000001431 -0.423000007868 -0.219999998808 414.0
0.865999996662 -0.432000011206 -0.222000002861 425.0
0.870999991894 -0.441000014544 -0.223000004888 425.0
0.851999998093 -0.437999993563 -0.218999996781 431.0
0.870000004768 -0.455000013113 -0.22499999404 457.0
0.864000022411 -0.458000004292 -0.224000006914 480.0
0.864000022411 -0.465000003576 -0.224000006914 1100.0
0.862999975681 -0.472000002861 -0.224000006914 1275.0
0.864000022411 -0.479999989271 -0.225999996066 1314.0
0.860000014305 -0.483999997377 -0.22499999404 1291.0
0.855000019073 -0.488999992609 -0.22499999404 1278.0
2.08500003815 1.22899997234 -0.57800000906 108.0
2.20799994469 1.28199994564 -0.610000014305 208.0
2.2349998951 1.27900004387 -0.615999996662 260.0
2.27900004387 1.28600001335 -0.625999987125 132.0
3.33299994469 1.4129999876 -0.870999991894 82.0
3.36899995804 1.40299999714 -0.878000020981 79.0
0.999000012875 -0.0619999989867 -0.240999996662 937.0
0.995999991894 -0.0670000016689 -0.239999994636 1196.0
0.996999979019 -0.0729999989271 -0.239999994636 1201.0
0.998000025749 -0.0790000036359 -0.240999996662 1213.0
0.987999975681 -0.0839999988675 -0.238000005484 1220.0
0.991999983788 -0.0900000035763 -0.238999992609 1216.0
0.994000017643 -0.0960000008345 -0.239999994636 1235.0
0.986000001431 -0.101999998093 -0.238000005484 1255.0
0.986000001431 -0.107000000775 -0.238000005484 1249.0
0.98299998045 -0.112999998033 -0.238000005484 1255.0
0.98299998045 -0.119000002742 -0.238000005484 1274.0
0.98299998045 -0.125 -0.238000005484 1281.0
0.978999972343 -0.129999995232 -0.237000003457 1275.0
0.976000010967 -0.135000005364 -0.236000001431 1293.0
0.976999998093 -0.141000002623 -0.237000003457 1295.0
0.967999994755 -0.145999997854 -0.234999999404 758.0
0.954999983311 -0.15000000596 -0.231999993324 198.0
0.917999982834 -0.149000003934 -0.223000004888 176.0
0.902000010014 -0.151999995112 -0.218999996781 178.0
0.915000021458 -0.159999996424 -0.222000002861 175.0
0.936999976635 -0.168999999762 -0.228000000119 178.0
0.924000024796 -0.172999992967 -0.22499999404 179.0
0.944999992847 -0.182999998331 -0.230000004172 187.0
0.911000013351 -0.180999994278 -0.222000002861 185.0
0.930000007153 -0.190999999642 -0.226999998093 185.0
0.89099997282 -0.187999993563 -0.217999994755 187.0
0.903999984264 -0.196999996901 -0.221000000834 186.0
0.916999995708 -0.204999998212 -0.224000006914 189.0
0.896000027657 -0.206000000238 -0.219999998808 192.0
0.943000018597 -0.223000004888 -0.231000006199 357.0
0.947000026703 -0.230000004172 -0.231999993324 1273.0
0.947000026703 -0.236000001431 -0.232999995351 1434.0
0.93900001049 -0.239999994636 -0.231000006199 1444.0
0.944999992847 -0.247999995947 -0.232999995351 1454.0
0.93599998951 -0.250999987125 -0.231000006199 1454.0
0.931999981403 -0.256000012159 -0.230000004172 1451.0
0.933000028133 -0.261999994516 -0.231000006199 1455.0
0.930999994278 -0.268000006676 -0.231000006199 1448.0
0.926999986172 -0.273000001907 -0.230000004172 1475.0
0.930999994278 -0.280000001192 -0.231000006199 1462.0
0.926999986172 -0.284999996424 -0.231000006199 1461.0
0.926999986172 -0.291000008583 -0.231000006199 1465.0
0.916999995708 -0.293999999762 -0.229000002146 1478.0
0.920000016689 -0.300999999046 -0.230000004172 1450.0
0.911000013351 -0.303999990225 -0.228000000119 736.0
0.893000006676 -0.303999990225 -0.224000006914 286.0
0.887000024319 -0.307999998331 -0.223000004888 273.0
0.897000014782 -0.317999988794 -0.225999996066 283.0
0.901000022888 -0.324999988079 -0.226999998093 287.0
0.879999995232 -0.324000000954 -0.222000002861 303.0
0.887000024319 -0.331999987364 -0.224000006914 314.0
0.873000025749 -0.333000004292 -0.221000000834 324.0
0.880999982357 -0.342000007629 -0.224000006914 336.0
0.885999977589 -0.351000010967 -0.22499999404 341.0
0.870999991894 -0.34999999404 -0.222000002861 354.0
0.875 -0.358999997377 -0.224000006914 369.0
0.887000024319 -0.370000004768 -0.226999998093 373.0
0.879000008106 -0.372999995947 -0.225999996066 389.0
0.888000011444 -0.38299998641 -0.228000000119 789.0
0.889999985695 -0.391000002623 -0.229000002146 1303.0
0.884999990463 -0.395000010729 -0.229000002146 1348.0
0.879999995232 -0.398999989033 -0.228000000119 1348.0
0.882000029087 -0.407000005245 -0.229000002146 1344.0
0.883000016212 -0.41400000453 -0.230000004172 1346.0
0.878000020981 -0.418000012636 -0.229000002146 1324.0
0.876999974251 -0.425000011921 -0.229000002146 1339.0
0.870999991894 -0.428000003099 -0.228000000119 1341.0
0.871999979019 -0.435000002384 -0.229000002146 1332.0
0.873000025749 -0.442999988794 -0.230000004172 1339.0
0.865999996662 -0.446000009775 -0.229000002146 1342.0
0.866999983788 -0.453999996185 -0.230000004172 1336.0
0.865000009537 -0.458999991417 -0.230000004172 1274.0
0.861999988556 -0.465000003576 -0.230000004172 666.0
0.856000006199 -0.469000011683 -0.229000002146 446.0
0.85799998045 -0.476999998093 -0.230000004172 445.0
0.850000023842 -0.479000002146 -0.228000000119 430.0
0.834999978542 -0.477999985218 -0.22499999404 423.0
2.16100001335 1.27600002289 -0.615000009537 114.0
2.2009999752 1.28100001812 -0.624000012875 195.0
2.22600007057 1.27600002289 -0.629000008106 262.0
2.28399991989 1.28999996185 -0.643000006676 142.0
0.980000019073 -0.054999999702 -0.241999998689 184.0
0.995000004768 -0.0610000006855 -0.246000006795 976.0
0.999000012875 -0.0680000036955 -0.24699999392 1197.0
1.00199997425 -0.0740000009537 -0.247999995947 1203.0
0.992999970913 -0.0790000036359 -0.246000006795 1223.0
0.992999970913 -0.0850000008941 -0.246000006795 1225.0
0.989000022411 -0.0900000035763 -0.245000004768 1231.0
0.991999983788 -0.0960000008345 -0.245000004768 1239.0
0.991999983788 -0.101999998093 -0.246000006795 1254.0
0.981999993324 -0.107000000775 -0.243000000715 1254.0
0.978999972343 -0.112999998033 -0.243000000715 1265.0
0.981999993324 -0.119000002742 -0.244000002742 1261.0
0.98400002718 -0.125 -0.244000002742 1269.0
0.972999989986 -0.128999993205 -0.241999998689 1289.0
0.976999998093 -0.136000007391 -0.243000000715 1285.0
0.976999998093 -0.142000004649 -0.243000000715 1307.0
0.972000002861 -0.146999999881 -0.241999998689 703.0
0.921000003815 -0.143999993801 -0.229000002146 188.0
0.893000006676 -0.144999995828 -0.222000002861 173.0
0.929000020027 -0.157000005245 -0.231999993324 173.0
0.898000001907 -0.157000005245 -0.224000006914 171.0
0.910000026226 -0.165000006557 -0.226999998093 179.0
0.917999982834 -0.172000005841 -0.229000002146 185.0
0.931999981403 -0.180000007153 -0.232999995351 178.0
0.903999984264 -0.180000007153 -0.225999996066 182.0
0.92199999094 -0.189999997616 -0.231000006199 192.0
0.907999992371 -0.192000001669 -0.228000000119 182.0
0.911000013351 -0.199000000954 -0.229000002146 177.0
0.90600001812 -0.202999994159 -0.226999998093 193.0
0.885999977589 -0.203999996185 -0.223000004888 186.0
0.921000003815 -0.217999994755 -0.231999993324 402.0
0.944999992847 -0.230000004172 -0.238000005484 1316.0
0.943000018597 -0.234999999404 -0.238000005484 1439.0
0.943000018597 -0.240999996662 -0.238000005484 1436.0
0.938000023365 -0.246000006795 -0.237000003457 1454.0
0.938000023365 -0.252000004053 -0.237000003457 1464.0
0.938000023365 -0.25799998641 -0.238000005484 1461.0
0.935000002384 -0.263000011444 -0.237000003457 1472.0
0.933000028133 -0.268999993801 -0.237000003457 1466.0
0.926999986172 -0.273000001907 -0.236000001431 1475.0
0.929000020027 -0.280000001192 -0.237000003457 1472.0
0.926999986172 -0.284999996424 -0.237000003457 1484.0
0.926999986172 -0.291000008583 -0.237000003457 1498.0
0.922999978065 -0.296000003815 -0.236000001431 1508.0
0.917999982834 -0.300999999046 -0.234999999404 1497.0
0.913999974728 -0.305999994278 -0.234999999404 665.0
0.862999975681 -0.293999999762 -0.222000002861 220.0
0.856999993324 -0.298000007868 -0.221000000834 209.0
0.856999993324 -0.303000003099 -0.221000000834 207.0
0.867999970913 -0.312999993563 -0.224000006914 209.0
0.869000017643 -0.319999992847 -0.22499999404 208.0
0.848999977112 -0.317999988794 -0.219999998808 204.0
0.864000022411 -0.330000013113 -0.22499999404 214.0
0.853999972343 -0.331999987364 -0.222000002861 208.0
0.85799998045 -0.340000003576 -0.224000006914 211.0
0.847000002861 -0.340999990702 -0.222000002861 220.0
0.847999989986 -0.347999989986 -0.222000002861 205.0
0.85900002718 -0.358999997377 -0.225999996066 207.0
0.841000020504 -0.356999993324 -0.221000000834 219.0
0.880999982357 -0.381000012159 -0.232999995351 904.0
0.889999985695 -0.391000002623 -0.234999999404 1534.0
0.89099997282 -0.398000001907 -0.236000001431 1575.0
0.888000011444 -0.404000014067 -0.236000001431 1579.0
0.882000029087 -0.407999992371 -0.234999999404 1585.0
0.884999990463 -0.414999991655 -0.236000001431 1593.0
0.884000003338 -0.42199999094 -0.237000003457 1573.0
0.878000020981 -0.425999999046 -0.236000001431 1597.0
0.878000020981 -0.432000011206 -0.236000001431 1603.0
0.870999991894 -0.43599998951 -0.234999999404 1598.0
0.874000012875 -0.444000005722 -0.236000001431 1609.0
0.869000017643 -0.448000013828 -0.236000001431 1585.0
0.874000012875 -0.458000004292 -0.238000005484 1602.0
0.865999996662 -0.46099999547 -0.236000001431 1426.0
0.851999998093 -0.460000008345 -0.232999995351 475.0
0.809000015259 -0.444000005722 -0.222000002861 223.0
0.81099998951 -0.451000005007 -0.223000004888 219.0
0.815999984741 -0.46099999547 -0.22499999404 208.0
0.824999988079 -0.472999989986 -0.228000000119 211.0
2.17000007629 1.28299999237 -0.633000016212 117.0
2.21900010109 1.29299998283 -0.644999980927 220.0
2.22499990463 1.27799999714 -0.644999980927 281.0
2.25999999046 1.27900004387 -0.652999997139 161.0
0.959999978542 -0.0540000014007 -0.243000000715 215.0
0.995999991894 -0.0619999989867 -0.252000004053 985.0
0.999000012875 -0.0680000036955 -0.252999991179 1194.0
0.992999970913 -0.0729999989271 -0.252000004053 1213.0
0.995999991894 -0.0790000036359 -0.252999991179 1222.0
0.990000009537 -0.0850000008941 -0.250999987125 1226.0
0.992999970913 -0.0909999981523 -0.252000004053 1234.0
0.986999988556 -0.0960000008345 -0.25 1258.0
0.986999988556 -0.101999998093 -0.250999987125 1250.0
0.986000001431 -0.108000002801 -0.25 1255.0
0.985000014305 -0.112999998033 -0.25 1247.0
0.981999993324 -0.119000002742 -0.25 1272.0
0.977999985218 -0.123999997973 -0.248999997973 1266.0
0.973999977112 -0.129999995232 -0.247999995947 1285.0
0.975000023842 -0.136000007391 -0.247999995947 1285.0
0.977999985218 -0.142000004649 -0.248999997973 1296.0
0.967000007629 -0.145999997854 -0.24699999392 651.0
0.925999999046 -0.144999995828 -0.236000001431 185.0
0.93900001049 -0.152999997139 -0.239999994636 174.0
0.910000026226 -0.153999999166 -0.231999993324 175.0
0.912999987602 -0.159999996424 -0.232999995351 173.0
0.898999989033 -0.163000002503 -0.230000004172 188.0
0.915000021458 -0.172000005841 -0.233999997377 183.0
0.912000000477 -0.177000001073 -0.233999997377 187.0
0.936999976635 -0.187000006437 -0.239999994636 186.0
0.85900002718 -0.177000001073 -0.221000000834 181.0
0.907000005245 -0.192000001669 -0.232999995351 183.0
0.893999993801 -0.194999992847 -0.230000004172 189.0
0.884000003338 -0.197999998927 -0.226999998093 185.0
0.901000022888 -0.208000004292 -0.231999993324 196.0
0.936999976635 -0.222000002861 -0.241999998689 446.0
0.943000018597 -0.230000004172 -0.243000000715 1322.0
0.944000005722 -0.236000001431 -0.244000002742 1431.0
0.943000018597 -0.241999998689 -0.244000002742 1445.0
0.93900001049 -0.24699999392 -0.244000002742 1446.0
0.935000002384 -0.252000004053 -0.243000000715 1463.0
0.930999994278 -0.256000012159 -0.241999998689 1462.0
0.93599998951 -0.263999998569 -0.244000002742 1464.0
0.935000002384 -0.270000010729 -0.244000002742 1473.0
0.927999973297 -0.273999989033 -0.241999998689 1485.0
0.925000011921 -0.279000014067 -0.241999998689 1484.0
0.922999978065 -0.284000009298 -0.240999996662 1480.0
0.92199999094 -0.289999991655 -0.241999998689 1486.0
0.920000016689 -0.296000003815 -0.241999998689 1504.0
0.920000016689 -0.301999986172 -0.241999998689 1470.0
0.915000021458 -0.305999994278 -0.240999996662 580.0
0.874000012875 -0.298000007868 -0.231000006199 211.0
0.871999979019 -0.303000003099 -0.230000004172 205.0
0.867999970913 -0.307999998331 -0.230000004172 203.0
0.860000014305 -0.31099998951 -0.228000000119 205.0
0.84500002861 -0.31099998951 -0.224000006914 207.0
0.860000014305 -0.323000013828 -0.229000002146 209.0
0.847999989986 -0.324000000954 -0.225999996066 207.0
0.84399998188 -0.328999996185 -0.22499999404 209.0
0.84500002861 -0.335000008345 -0.225999996066 211.0
0.861999988556 -0.347999989986 -0.231000006199 210.0
0.84399998188 -0.347000002861 -0.226999998093 212.0
0.848999977112 -0.354999989271 -0.229000002146 210.0
0.852999985218 -0.363000005484 -0.230000004172 233.0
0.884000003338 -0.38299998641 -0.238999992609 1003.0
0.888999998569 -0.391000002623 -0.240999996662 1533.0
0.897000014782 -0.402000010014 -0.244000002742 1570.0
0.888999998569 -0.405000001192 -0.241999998689 1570.0
0.887000024319 -0.409999996424 -0.241999998689 1571.0
0.884999990463 -0.416000008583 -0.241999998689 1583.0
0.883000016212 -0.42199999094 -0.241999998689 1595.0
0.879999995232 -0.428000003099 -0.241999998689 1592.0
0.878000020981 -0.432999998331 -0.241999998689 1598.0
0.878000020981 -0.439999997616 -0.243000000715 1606.0
0.870000004768 -0.442999988794 -0.240999996662 1596.0
0.873000025749 -0.451000005007 -0.243000000715 1593.0
0.865999996662 -0.455000013113 -0.241999998689 1591.0
0.869000017643 -0.462999999523 -0.243000000715 1347.0
0.852999985218 -0.462000012398 -0.238999992609 397.0
0.818000018597 -0.449000000954 -0.230000004172 216.0
0.81099998951 -0.451999992132 -0.229000002146 209.0
0.800999999046 -0.45300000906 -0.226999998093 209.0
0.816999971867 -0.469000011683 -0.231999993324 211.0
2.14100003242 1.26800000668 -0.639999985695 122.0
2.20399999619 1.28600001335 -0.65600001812 214.0
2.22600007057 1.27999997139 -0.661000013351 303.0
2.2650001049 1.28299999237 -0.670000016689 174.0
2.25500011444 1.25899994373 -0.665000021458 91.0
1.0 -0.0619999989867 -0.259000003338 1015.0
0.994000017643 -0.0670000016689 -0.25799998641 1201.0
0.998000025749 -0.0740000009537 -0.259000003338 1214.0
0.996999979019 -0.0790000036359 -0.259000003338 1221.0
0.986999988556 -0.0839999988675 -0.256000012159 1227.0
0.987999975681 -0.0900000035763 -0.256999999285 1230.0
0.989000022411 -0.0960000008345 -0.256999999285 1249.0
0.986000001431 -0.101999998093 -0.256000012159 1254.0
0.981000006199 -0.107000000775 -0.254999995232 1257.0
0.978999972343 -0.112999998033 -0.254999995232 1265.0
0.981999993324 -0.119000002742 -0.256000012159 1275.0
0.975000023842 -0.123999997973 -0.254000008106 1270.0
0.975000023842 -0.129999995232 -0.254000008106 1275.0
0.977999985218 -0.136000007391 -0.254999995232 1276.0
0.975000023842 -0.142000004649 -0.254000008106 1291.0
0.964999973774 -0.145999997854 -0.252000004053 598.0
0.925000011921 -0.145999997854 -0.241999998689 180.0
0.910000026226 -0.149000003934 -0.238000005484 169.0
0.935000002384 -0.158000007272 -0.245000004768 173.0
0.931999981403 -0.16400000453 -0.244000002742 177.0
0.911000013351 -0.165000006557 -0.238999992609 176.0
0.898999989033 -0.168999999762 -0.236000001431 175.0
0.888000011444 -0.172000005841 -0.232999995351 181.0
0.929000020027 -0.186000004411 -0.244000002742 181.0
0.901000022888 -0.186000004411 -0.237000003457 184.0
0.902000010014 -0.192000001669 -0.237000003457 172.0
0.901000022888 -0.196999996901 -0.238000005484 180.0
0.907999992371 -0.203999996185 -0.239999994636 190.0
0.882000029087 -0.203999996185 -0.232999995351 187.0
0.922999978065 -0.218999996781 -0.244000002742 513.0
0.93900001049 -0.229000002146 -0.248999997973 1334.0
0.944000005722 -0.236000001431 -0.25 1441.0
0.93900001049 -0.240999996662 -0.248999997973 1433.0
0.938000023365 -0.24699999392 -0.248999997973 1440.0
0.935000002384 -0.252000004053 -0.248999997973 1460.0
0.940999984741 -0.259999990463 -0.250999987125 1452.0
0.930999994278 -0.263000011444 -0.247999995947 1463.0
0.935000002384 -0.270000010729 -0.25 1466.0
0.924000024796 -0.273000001907 -0.24699999392 1474.0
0.929000020027 -0.280999988317 -0.248999997973 1490.0
0.930000007153 -0.287000000477 -0.25 1463.0
0.924000024796 -0.291000008583 -0.247999995947 1486.0
0.924000024796 -0.29699999094 -0.248999997973 1515.0
0.919000029564 -0.301999986172 -0.247999995947 1429.0
0.920000016689 -0.307999998331 -0.247999995947 516.0
0.883000016212 -0.301999986172 -0.238999992609 201.0
0.875 -0.305000007153 -0.237000003457 203.0
0.853999972343 -0.303000003099 -0.231999993324 204.0
0.832000017166 -0.300999999046 -0.225999996066 201.0
0.847000002861 -0.312999993563 -0.231000006199 200.0
0.851999998093 -0.319999992847 -0.231999993324 199.0
0.861999988556 -0.330000013113 -0.236000001431 206.0
0.842999994755 -0.328999996185 -0.231000006199 204.0
0.84399998188 -0.335000008345 -0.231999993324 211.0
0.855000019073 -0.345999985933 -0.234999999404 204.0
0.839999973774 -0.345999985933 -0.231000006199 200.0
0.820999979973 -0.344000011683 -0.226999998093 209.0
0.836000025272 -0.356000006199 -0.231000006199 236.0
0.884000003338 -0.38299998641 -0.245000004768 1099.0
0.888999998569 -0.391999989748 -0.24699999392 1554.0
0.883000016212 -0.395999997854 -0.246000006795 1562.0
0.888999998569 -0.405000001192 -0.247999995947 1564.0
0.885999977589 -0.411000013351 -0.247999995947 1584.0
0.883000016212 -0.416000008583 -0.247999995947 1595.0
0.882000029087 -0.42199999094 -0.247999995947 1586.0
0.879999995232 -0.428000003099 -0.247999995947 1592.0
0.875 -0.432000011206 -0.24699999392 1584.0
0.867999970913 -0.43599998951 -0.246000006795 1596.0
0.867999970913 -0.442000001669 -0.24699999392 1604.0
0.870999991894 -0.451000005007 -0.247999995947 1589.0
0.867999970913 -0.456000000238 -0.247999995947 1595.0
0.862999975681 -0.46099999547 -0.24699999392 1257.0
0.848999977112 -0.460000008345 -0.244000002742 345.0
0.806999981403 -0.444000005722 -0.232999995351 210.0
0.800000011921 -0.446000009775 -0.231000006199 218.0
0.785000026226 -0.444999992847 -0.228000000119 206.0
0.818000018597 -0.470999985933 -0.238000005484 215.0
2.13700008392 1.26800000668 -0.653999984264 120.0
2.242000103 1.30999994278 -0.684000015259 196.0
2.23200011253 1.28499996662 -0.679000020027 311.0
2.23200011253 1.26600003242 -0.675999999046 178.0
2.28999996185 1.27999997139 -0.691999971867 89.0
0.98299998045 -0.054999999702 -0.261000007391 295.0
0.998000025749 -0.0619999989867 -0.264999985695 1046.0
0.998000025749 -0.0680000036955 -0.264999985695 1191.0
0.998000025749 -0.0740000009537 -0.264999985695 1211.0
0.999000012875 -0.0799999982119 -0.266000002623 1217.0
0.990999996662 -0.0850000008941 -0.263999998569 1225.0
0.986999988556 -0.0909999981523 -0.263000011444 1226.0
0.987999975681 -0.097000002861 -0.263000011444 1244.0
0.986000001431 -0.101999998093 -0.263000011444 1250.0
0.98400002718 -0.108000002801 -0.261999994516 1246.0
0.980000019073 -0.112999998033 -0.261000007391 1249.0
0.977999985218 -0.119000002742 -0.261000007391 1276.0
0.980000019073 -0.125 -0.261999994516 1273.0
0.977999985218 -0.130999997258 -0.261000007391 1276.0
0.978999972343 -0.136999994516 -0.261999994516 1293.0
0.973999977112 -0.142000004649 -0.259999990463 1293.0
0.961000025272 -0.145999997854 -0.256999999285 551.0
0.903999984264 -0.142000004649 -0.241999998689 180.0
0.903999984264 -0.148000001907 -0.241999998689 178.0
0.911000013351 -0.155000001192 -0.244000002742 172.0
0.897000014782 -0.158000007272 -0.240999996662 172.0
0.936999976635 -0.171000003815 -0.252000004053 178.0
0.907999992371 -0.171000003815 -0.244000002742 180.0
0.907999992371 -0.175999999046 -0.244000002742 177.0
0.915000021458 -0.182999998331 -0.246000006795 180.0
0.90499997139 -0.187000006437 -0.244000002742 170.0
0.912000000477 -0.194000005722 -0.246000006795 181.0
0.920000016689 -0.202000007033 -0.247999995947 188.0
0.902000010014 -0.202999994159 -0.244000002742 188.0
0.885999977589 -0.204999998212 -0.239999994636 192.0
0.93900001049 -0.223000004888 -0.254000008106 566.0
0.943000018597 -0.230000004172 -0.256000012159 1362.0
0.944999992847 -0.237000003457 -0.256000012159 1435.0
0.93599998951 -0.240999996662 -0.254000008106 1418.0
0.934000015259 -0.246000006795 -0.254000008106 1431.0
0.93599998951 -0.252999991179 -0.254999995232 1466.0
0.936999976635 -0.259000003338 -0.256000012159 1449.0
0.933000028133 -0.263999998569 -0.254999995232 1468.0
0.930999994278 -0.268999993801 -0.254999995232 1466.0
0.929000020027 -0.27500000596 -0.254000008106 1471.0
0.927999973297 -0.280999988317 -0.254999995232 1478.0
0.924000024796 -0.286000013351 -0.254000008106 1476.0
0.92199999094 -0.291000008583 -0.254000008106 1490.0
0.924000024796 -0.298000007868 -0.254999995232 1509.0
0.916000008583 -0.300999999046 -0.252999991179 1372.0
0.912999987602 -0.307000011206 -0.252000004053 446.0
0.882000029087 -0.301999986172 -0.244000002742 204.0
0.836000025272 -0.291999995708 -0.231999993324 199.0
0.874000012875 -0.31099998951 -0.243000000715 205.0
0.865999996662 -0.31400001049 -0.240999996662 207.0
0.848999977112 -0.31400001049 -0.237000003457 210.0
0.836000025272 -0.314999997616 -0.232999995351 209.0
0.860000014305 -0.330000013113 -0.240999996662 206.0
0.815999984741 -0.319000005722 -0.229000002146 202.0
0.842999994755 -0.335000008345 -0.237000003457 206.0
0.862999975681 -0.349000006914 -0.243000000715 203.0
0.837000012398 -0.344999998808 -0.236000001431 215.0
0.855000019073 -0.358999997377 -0.241999998689 211.0
0.852999985218 -0.363999992609 -0.241999998689 270.0
0.885999977589 -0.384999990463 -0.252000004053 1181.0
0.89200001955 -0.393999993801 -0.254000008106 1555.0
0.888999998569 -0.398999989033 -0.254000008106 1567.0
0.885999977589 -0.405000001192 -0.254000008106 1563.0
0.884999990463 -0.411000013351 -0.254000008106 1585.0
0.879000008106 -0.414999991655 -0.252999991179 1586.0
0.875999987125 -0.419999986887 -0.252999991179 1589.0
0.878000020981 -0.428000003099 -0.254000008106 1572.0
0.874000012875 -0.432999998331 -0.252999991179 1595.0
0.870999991894 -0.437999993563 -0.252999991179 1591.0
0.875 -0.446999996901 -0.254999995232 1585.0
0.870999991894 -0.451999992132 -0.254000008106 1595.0
0.869000017643 -0.458000004292 -0.254999995232 1584.0
0.85799998045 -0.458999991417 -0.252000004053 1135.0
0.838999986649 -0.455000013113 -0.24699999392 300.0
0.81400001049 -0.449000000954 -0.239999994636 213.0
0.802999973297 -0.449000000954 -0.238000005484 213.0
0.796000003815 -0.451999992132 -0.236000001431 213.0
0.800000011921 -0.46099999547 -0.238000005484 209.0
2.20600008965 1.31099998951 -0.690999984741 121.0
2.19199991226 1.28299999237 -0.685000002384 176.0
2.20700001717 1.27300000191 -0.686999976635 315.0
2.24699997902 1.27699995041 -0.697000026703 189.0
0.986000001431 -0.054999999702 -0.268000006676 322.0
0.998000025749 -0.0619999989867 -0.272000014782 1051.0
0.992999970913 -0.0680000036955 -0.270000010729 1196.0
1.00100004673 -0.0740000009537 -0.273000001907 1213.0
0.994000017643 -0.0790000036359 -0.270999997854 1214.0
0.987999975681 -0.0850000008941 -0.268999993801 1230.0
0.992999970913 -0.0909999981523 -0.270999997854 1238.0
0.985000014305 -0.0960000008345 -0.268999993801 1244.0
0.98400002718 -0.101999998093 -0.268000006676 1252.0
0.981000006199 -0.108000002801 -0.268000006676 1253.0
0.976999998093 -0.112999998033 -0.266999989748 1258.0
0.980000019073 -0.119000002742 -0.268000006676 1273.0
0.975000023842 -0.125 -0.266000002623 1271.0
0.976000010967 -0.129999995232 -0.266999989748 1288.0
0.976000010967 -0.136000007391 -0.266999989748 1288.0
0.972999989986 -0.142000004649 -0.266000002623 1271.0
0.964999973774 -0.146999999881 -0.263999998569 508.0
0.92199999094 -0.145999997854 -0.252999991179 177.0
0.907000005245 -0.149000003934 -0.248999997973 173.0
0.93599998951 -0.158999994397 -0.256999999285 174.0
0.939999997616 -0.165999993682 -0.25799998641 172.0
0.912999987602 -0.165999993682 -0.250999987125 175.0
0.929000020027 -0.17499999702 -0.254999995232 176.0
0.879000008106 -0.171000003815 -0.241999998689 179.0
0.908999979496 -0.181999996305 -0.25 179.0
0.916000008583 -0.188999995589 -0.252999991179 183.0
0.899999976158 -0.192000001669 -0.247999995947 186.0
0.902000010014 -0.197999998927 -0.248999997973 184.0
0.903999984264 -0.203999996185 -0.25 187.0
0.913999974728 -0.211999997497 -0.252999991179 186.0
0.940999984741 -0.224000006914 -0.261000007391 652.0
0.940999984741 -0.230000004172 -0.261000007391 1369.0
0.944000005722 -0.237000003457 -0.261999994516 1439.0
0.940999984741 -0.241999998689 -0.261999994516 1439.0
0.943000018597 -0.248999997973 -0.263000011444 1446.0
0.938000023365 -0.254000008106 -0.261999994516 1451.0
0.936999976635 -0.259000003338 -0.261999994516 1450.0
0.929000020027 -0.263000011444 -0.259999990463 1462.0
0.933000028133 -0.270000010729 -0.261000007391 1463.0
0.929000020027 -0.27500000596 -0.261000007391 1471.0
0.925999999046 -0.280999988317 -0.259999990463 1476.0
0.926999986172 -0.287000000477 -0.261000007391 1476.0
0.921000003815 -0.291000008583 -0.259999990463 1484.0
0.921000003815 -0.29699999094 -0.259999990463 1487.0
0.915000021458 -0.301999986172 -0.259000003338 1308.0
0.90499997139 -0.303999990225 -0.256000012159 386.0
0.864000022411 -0.296000003815 -0.245000004768 201.0
0.867999970913 -0.303000003099 -0.246000006795 202.0
0.860000014305 -0.307000011206 -0.245000004768 201.0
0.84500002861 -0.307000011206 -0.240999996662 200.0
0.842000007629 -0.312000006437 -0.239999994636 203.0
0.84399998188 -0.317999988794 -0.240999996662 201.0
0.834999978542 -0.321000009775 -0.238999992609 201.0
0.839999973774 -0.328999996185 -0.240999996662 194.0
0.850000023842 -0.338999986649 -0.245000004768 206.0
0.860000014305 -0.349000006914 -0.247999995947 203.0
0.851999998093 -0.351999998093 -0.246000006795 206.0
0.830999970436 -0.349000006914 -0.240999996662 202.0
0.867999970913 -0.370999991894 -0.252000004053 333.0
0.884000003338 -0.384999990463 -0.256999999285 1255.0
0.888999998569 -0.393000006676 -0.259000003338 1538.0
0.888000011444 -0.40000000596 -0.259999990463 1563.0
0.884000003338 -0.404000014067 -0.259000003338 1572.0
0.879000008106 -0.409000009298 -0.25799998641 1566.0
0.879000008106 -0.414999991655 -0.259000003338 1589.0
0.882000029087 -0.423999994993 -0.259999990463 1578.0
0.879999995232 -0.428999990225 -0.259999990463 1590.0
0.878000020981 -0.435000002384 -0.261000007391 1605.0
0.875 -0.441000014544 -0.259999990463 1580.0
0.870999991894 -0.446000009775 -0.259999990463 1580.0
0.871999979019 -0.45300000906 -0.261000007391 1576.0
0.867999970913 -0.458000004292 -0.259999990463 1578.0
0.861000001431 -0.46099999547 -0.259000003338 994.0
0.842000007629 -0.458000004292 -0.254000008106 272.0
0.797999978065 -0.439999997616 -0.240999996662 213.0
0.800999999046 -0.449000000954 -0.243000000715 210.0
0.796000003815 -0.451999992132 -0.241999998689 207.0
0.797999978065 -0.46099999547 -0.244000002742 203.0
2.13400006294 1.26999998093 -0.684000015259 116.0
2.22799992561 1.30700004101 -0.712000012398 171.0
2.19899988174 1.27100002766 -0.700999975204 304.0
2.25300002098 1.28299999237 -0.716000020504 201.0
2.28200006485 1.27999997139 -0.722000002861 134.0
0.994000017643 -0.0619999989867 -0.277000010014 1073.0
1.0 -0.0680000036955 -0.277999997139 1191.0
0.987999975681 -0.0729999989271 -0.27500000596 1214.0
0.995000004768 -0.0799999982119 -0.277000010014 1212.0
0.987999975681 -0.0850000008941 -0.27500000596 1219.0
0.990999996662 -0.0909999981523 -0.275999993086 1233.0
0.986000001431 -0.097000002861 -0.27500000596 1238.0
0.980000019073 -0.101999998093 -0.273000001907 1245.0
0.977999985218 -0.107000000775 -0.273000001907 1249.0
0.977999985218 -0.112999998033 -0.273000001907 1261.0
0.981000006199 -0.119999997318 -0.273999989033 1275.0
0.978999972343 -0.125 -0.273999989033 1276.0
0.980000019073 -0.130999997258 -0.273999989033 1279.0
0.976000010967 -0.136999994516 -0.273000001907 1289.0
0.96899998188 -0.142000004649 -0.270999997854 1257.0
0.953999996185 -0.144999995828 -0.266999989748 454.0
0.933000028133 -0.146999999881 -0.261000007391 176.0
0.912999987602 -0.15000000596 -0.256000012159 171.0
0.90499997139 -0.153999999166 -0.254000008106 176.0
0.920000016689 -0.162000000477 -0.259000003338 174.0
0.887000024319 -0.162000000477 -0.25 178.0
0.903999984264 -0.170000001788 -0.254000008106 179.0
0.911000013351 -0.177000001073 -0.256999999285 179.0
0.912000000477 -0.182999998331 -0.256999999285 182.0
0.899999976158 -0.186000004411 -0.254000008106 176.0
0.907000005245 -0.194000005722 -0.256000012159 182.0
0.878000020981 -0.193000003695 -0.247999995947 186.0
0.894999980927 -0.202000007033 -0.252999991179 184.0
0.902000010014 -0.209999993443 -0.256000012159 187.0
0.935000002384 -0.223000004888 -0.264999985695 724.0
0.938000023365 -0.230000004172 -0.266000002623 1383.0
0.940999984741 -0.237000003457 -0.268000006676 1426.0
0.941999971867 -0.243000000715 -0.268000006676 1419.0
0.938000023365 -0.247999995947 -0.266999989748 1442.0
0.93599998951 -0.254000008106 -0.266999989748 1450.0
0.931999981403 -0.25799998641 -0.266000002623 1455.0
0.935000002384 -0.264999985695 -0.268000006676 1457.0
0.927999973297 -0.268999993801 -0.266000002623 1464.0
0.926999986172 -0.27500000596 -0.266000002623 1484.0
0.924000024796 -0.280000001192 -0.266000002623 1488.0
0.922999978065 -0.286000013351 -0.266000002623 1474.0
0.925999999046 -0.293000012636 -0.266999989748 1487.0
0.920000016689 -0.298000007868 -0.266000002623 1492.0
0.919000029564 -0.303000003099 -0.266000002623 1241.0
0.89099997282 -0.300000011921 -0.25799998641 342.0
0.875 -0.300000011921 -0.254000008106 207.0
0.861999988556 -0.301999986172 -0.250999987125 201.0
0.822000026703 -0.293000012636 -0.238999992609 195.0
0.862999975681 -0.31400001049 -0.252000004053 204.0
0.867999970913 -0.321999996901 -0.254000008106 194.0
0.834999978542 -0.314999997616 -0.244000002742 205.0
0.842999994755 -0.324000000954 -0.24699999392 206.0
0.836000025272 -0.32800000906 -0.246000006795 207.0
0.828999996185 -0.331000000238 -0.244000002742 205.0
0.84399998188 -0.342999994755 -0.248999997973 204.0
0.830999970436 -0.342999994755 -0.246000006795 205.0
0.829999983311 -0.349000006914 -0.246000006795 215.0
0.865999996662 -0.370999991894 -0.256999999285 397.0
0.885999977589 -0.386000007391 -0.263999998569 1336.0
0.884999990463 -0.391999989748 -0.263999998569 1553.0
0.887000024319 -0.40000000596 -0.264999985695 1564.0
0.884000003338 -0.405000001192 -0.264999985695 1552.0
0.878000020981 -0.409000009298 -0.263999998569 1571.0
0.878000020981 -0.416000008583 -0.264999985695 1569.0
0.879000008106 -0.423000007868 -0.266000002623 1568.0
0.869000017643 -0.425000011921 -0.263000011444 1571.0
0.869000017643 -0.432000011206 -0.263999998569 1585.0
0.879000008106 -0.442999988794 -0.268000006676 1591.0
0.870999991894 -0.446999996901 -0.266000002623 1591.0
0.865000009537 -0.449999988079 -0.264999985695 1577.0
0.869000017643 -0.458999991417 -0.266999989748 1574.0
0.853999972343 -0.458000004292 -0.263000011444 831.0
0.822000026703 -0.448000013828 -0.254000008106 252.0
0.809000015259 -0.446999996901 -0.25 213.0
0.804000020027 -0.451000005007 -0.25 208.0
0.792999982834 -0.451999992132 -0.24699999392 210.0
0.805999994278 -0.465999990702 -0.252000004053 210.0
2.13700008392 1.27400004864 -0.700999975204 126.0
2.19099998474 1.28699994087 -0.716000020504 149.0
2.22300004959 1.28699994087 -0.725000023842 246.0
2.24799990654 1.28199994564 -0.730000019073 218.0
2.25999999046 1.26999998093 -0.731999993324 122.0
1.00300002098 -0.0570000000298 -0.284999996424 426.0
0.995000004768 -0.0619999989867 -0.282999992371 1095.0
0.996999979019 -0.0680000036955 -0.284000009298 1192.0
0.996999979019 -0.0740000009537 -0.284000009298 1207.0
0.995999991894 -0.0799999982119 -0.284000009298 1219.0
0.991999983788 -0.0860000029206 -0.282999992371 1229.0
0.987999975681 -0.0909999981523 -0.282000005245 1225.0
0.990999996662 -0.097000002861 -0.282999992371 1235.0
0.98299998045 -0.101999998093 -0.280999988317 1243.0
0.985000014305 -0.108000002801 -0.280999988317 1249.0
0.976999998093 -0.112999998033 -0.279000014067 1256.0
0.986999988556 -0.120999999344 -0.282000005245 1269.0
0.980000019073 -0.126000002027 -0.280000001192 1279.0
0.975000023842 -0.130999997258 -0.279000014067 1283.0
0.975000023842 -0.136999994516 -0.279000014067 1292.0
0.972999989986 -0.142000004649 -0.279000014067 1231.0
0.948000013828 -0.143999993801 -0.272000014782 406.0
0.917999982834 -0.144999995828 -0.263000011444 171.0
0.920000016689 -0.150999993086 -0.263999998569 170.0
0.896000027657 -0.152999997139 -0.256999999285 173.0
0.919000029564 -0.162000000477 -0.263999998569 177.0
0.901000022888 -0.165000006557 -0.259000003338 172.0
0.916000008583 -0.172999992967 -0.263999998569 180.0
0.912000000477 -0.178000003099 -0.263000011444 176.0
0.933000028133 -0.187999993563 -0.268999993801 177.0
0.894999980927 -0.186000004411 -0.25799998641 177.0
0.903999984264 -0.193000003695 -0.261000007391 180.0
0.916999995708 -0.202000007033 -0.264999985695 189.0
0.903999984264 -0.204999998212 -0.261999994516 188.0
0.898999989033 -0.209000006318 -0.259999990463 194.0
0.935000002384 -0.224000006914 -0.270999997854 798.0
0.940999984741 -0.231000006199 -0.273000001907 1394.0
0.93900001049 -0.236000001431 -0.273000001907 1424.0
