ply
format ascii 1.0
element vertex 932
property float x
property float y
property float z
property float intensity
end_header
0.925999999046 -0.316000014544 0.175999999046 1278.0
0.925999999046 -0.321999996901 0.175999999046 1497.0
0.930000007153 -0.330000013113 0.177000001073 1498.0
0.921000003815 -0.333000004292 0.175999999046 1500.0
0.920000016689 -0.338999986649 0.175999999046 1522.0
0.916999995708 -0.344000011683 0.175999999046 1513.0
0.924000024796 -0.352999985218 0.177000001073 1520.0
0.916000008583 -0.356000006199 0.175999999046 1522.0
0.916999995708 -0.363000005484 0.177000001073 1528.0
0.917999982834 -0.370000004768 0.177000001073 1546.0
0.915000021458 -0.375 0.177000001073 1529.0
0.911000013351 -0.379999995232 0.177000001073 1539.0
0.907999992371 -0.384999990463 0.177000001073 1544.0
0.902999997139 -0.388999998569 0.175999999046 1442.0
0.912999987602 -0.40000000596 0.179000005126 493.0
0.888000011444 -0.395999997854 0.173999994993 210.0
0.860000014305 -0.389999985695 0.168999999762 203.0
0.875 -0.402999997139 0.172000005841 204.0
0.873000025749 -0.409000009298 0.172999992967 201.0
0.887000024319 -0.42199999094 0.175999999046 200.0
0.847999989986 -0.409999996424 0.168999999762 207.0
0.84399998188 -0.41400000453 0.167999997735 202.0
0.842000007629 -0.419999986887 0.167999997735 196.0
0.834999978542 -0.423000007868 0.166999995708 200.0
0.866999983788 -0.446000009775 0.173999994993 201.0
0.84500002861 -0.441000014544 0.170000001788 202.0
0.838999986649 -0.444999992847 0.170000001788 209.0
0.879000008106 -0.472999989986 0.178000003099 705.0
0.875 -0.477999985218 0.178000003099 1464.0
0.875999987125 -0.486000001431 0.179000005126 1585.0
0.873000025749 -0.490999996662 0.179000005126 1583.0
2.18499994278 1.27600002289 0.428000003099 107.0
2.18400001526 1.25699996948 0.425999999046 152.0
2.21700000763 1.25699996948 0.430999994278 259.0
2.24900007248 1.25600004196 0.43599998951 150.0
2.33699989319 1.28699994087 0.451999992132 106.0
3.375 1.39600002766 0.625999987125 94.0
3.47399997711 1.41199994087 0.643000006676 78.0
3.60299992561 1.43900001049 0.666000008583 73.0
3.89400005341 1.50100004673 0.717000007629 110.0
3.882999897 1.47000002861 0.713999986649 109.0
3.9319999218 1.46099996567 0.721000015736 96.0
4.16400003433 1.51900005341 0.763000011444 65.0
4.15299987793 1.48699998856 0.759000003338 67.0
4.19799995422 1.44599997997 0.764999985695 105.0
4.16099977493 1.40600001812 0.757000029087 117.0
4.18699979782 1.38600003719 0.760999977589 116.0
4.14300012589 1.34399998188 0.750999987125 107.0
4.28000020981 1.36000001431 0.774999976158 79.0
4.20599985123 0.987999975681 0.75 92.0
4.21700000763 0.963999986649 0.750999987125 103.0
4.23299980164 0.940999984741 0.753000020981 110.0
4.15899991989 0.898999989033 0.739000022411 110.0
4.1810002327 0.878000020981 0.741999983788 104.0
4.17700004578 0.851999998093 0.740999996662 107.0
4.1859998703 0.82800000906 0.741999983788 101.0
4.16300010681 0.797999978065 0.736999988556 82.0
1.01499998569 -0.0659999996424 0.177000001073 437.0
1.00499999523 -0.0710000023246 0.17499999702 965.0
0.994000017643 -0.0759999975562 0.172999992967 339.0
0.950999975204 -0.0780000016093 0.165999993682 152.0
0.954999983311 -0.0839999988675 0.165999993682 150.0
0.985000014305 -0.0920000001788 0.172000005841 146.0
0.940999984741 -0.0939999967813 0.16400000453 155.0
0.967000007629 -0.101999998093 0.168999999762 152.0
0.963999986649 -0.107000000775 0.167999997735 149.0
0.992999970913 -0.115999996662 0.173999994993 152.0
0.972000002861 -0.119999997318 0.170000001788 153.0
0.957000017166 -0.123000003397 0.167999997735 157.0
0.95300000906 -0.128999993205 0.166999995708 157.0
0.95300000906 -0.134000003338 0.166999995708 167.0
0.926999986172 -0.136000007391 0.163000002503 159.0
0.95300000906 -0.145999997854 0.167999997735 198.0
0.981000006199 -0.156000003219 0.172999992967 952.0
0.98299998045 -0.162000000477 0.172999992967 1289.0
0.985000014305 -0.167999997735 0.173999994993 1307.0
0.976000010967 -0.172999992967 0.172000005841 1316.0
0.976999998093 -0.179000005126 0.172999992967 1323.0
0.975000023842 -0.184000000358 0.172999992967 1335.0
0.973999977112 -0.189999997616 0.172000005841 1342.0
0.975000023842 -0.195999994874 0.172999992967 1344.0
0.97000002861 -0.201000005007 0.172000005841 1351.0
0.97000002861 -0.207000002265 0.172999992967 1374.0
0.967999994755 -0.211999997497 0.172000005841 1371.0
0.963999986649 -0.217999994755 0.172000005841 1375.0
0.967000007629 -0.224000006914 0.172000005841 1387.0
0.953999996185 -0.226999998093 0.170000001788 1399.0
0.95300000906 -0.232999995351 0.171000003815 898.0
0.938000023365 -0.234999999404 0.167999997735 235.0
0.919000029564 -0.236000001431 0.165000006557 184.0
0.929000020027 -0.244000002742 0.166999995708 186.0
0.929000020027 -0.25 0.166999995708 187.0
0.915000021458 -0.252000004053 0.165000006557 186.0
0.921000003815 -0.259999990463 0.165999993682 186.0
0.927999973297 -0.268000006676 0.167999997735 187.0
0.92199999094 -0.272000014782 0.166999995708 192.0
0.917999982834 -0.277000010014 0.166999995708 196.0
0.925000011921 -0.284999996424 0.167999997735 188.0
0.903999984264 -0.284000009298 0.16400000453 190.0
0.926999986172 -0.29699999094 0.168999999762 190.0
0.896000027657 -0.293000012636 0.16400000453 194.0
0.930999994278 -0.31099998951 0.170000001788 336.0
0.930000007153 -0.317000001669 0.171000003815 1257.0
0.934000015259 -0.324999988079 0.172000005841 1489.0
0.930999994278 -0.330000013113 0.171000003815 1495.0
0.924000024796 -0.333999991417 0.171000003815 1514.0
0.929000020027 -0.342000007629 0.172000005841 1524.0
0.921000003815 -0.344999998808 0.171000003815 1539.0
0.919000029564 -0.351000010967 0.171000003815 1532.0
0.917999982834 -0.356999993324 0.171000003815 1530.0
0.919000029564 -0.363999992609 0.171000003815 1517.0
0.912999987602 -0.36700001359 0.171000003815 1532.0
0.916999995708 -0.375999987125 0.172000005841 1533.0
0.908999979496 -0.379000008106 0.171000003815 1544.0
0.907000005245 -0.384000003338 0.171000003815 1562.0
0.90499997139 -0.389999985695 0.171000003815 1467.0
0.899999976158 -0.393999993801 0.170000001788 527.0
0.874000012875 -0.388999998569 0.165999993682 218.0
0.864000022411 -0.391000002623 0.16400000453 202.0
0.860000014305 -0.395999997854 0.16400000453 201.0
0.853999972343 -0.398999989033 0.163000002503 195.0
0.866999983788 -0.412000000477 0.165999993682 208.0
0.865999996662 -0.418000012636 0.165999993682 193.0
0.847000002861 -0.414999991655 0.163000002503 210.0
0.856999993324 -0.426999986172 0.165999993682 206.0
0.851999998093 -0.430999994278 0.165000006557 200.0
0.838999986649 -0.430999994278 0.163000002503 209.0
0.846000015736 -0.441000014544 0.165000006557 210.0
0.842000007629 -0.446000009775 0.165000006557 206.0
0.870000004768 -0.467999994755 0.171000003815 632.0
0.876999974251 -0.479000002146 0.172999992967 1484.0
0.875 -0.485000014305 0.172999992967 1586.0
0.869000017643 -0.488999992609 0.172000005841 1604.0
2.17499995232 1.26800000668 0.411000013351 97.0
2.16700005531 1.24500000477 0.407999992371 161.0
2.20799994469 1.25 0.41400000453 254.0
2.25200009346 1.25699996948 0.42199999094 144.0
2.33200001717 1.28199994564 0.435000002384 84.0
3.36800003052 1.39100003242 0.602999985218 82.0
3.45000004768 1.40100002289 0.616999983788 75.0
3.48799991608 1.39199995995 0.621999979019 67.0
3.81699991226 1.47000002861 0.677999973297 116.0
3.84100008011 1.45200002193 0.680999994278 113.0
3.88000011444 1.44000005722 0.686999976635 88.0
4.19000005722 1.47000002861 0.737999975681 66.0
4.20900011063 1.44799995422 0.740999996662 105.0
4.17399978638 1.4090000391 0.73299998045 115.0
4.1890001297 1.38600003719 0.735000014305 112.0
4.1939997673 1.35899996758 0.73400002718 102.0
4.42399978638 1.40499997139 0.773999989033 63.0
4.13999986649 1.2879999876 0.722999989986 59.0
0.01600000076 0.00499999988824 0.0 61.0
4.20699977875 0.986999988556 0.723999977112 86.0
4.23099994659 0.966000020504 0.726999998093 97.0
4.26599979401 0.948000013828 0.73299998045 98.0
4.22800016403 0.912999987602 0.726000010967 98.0
4.26399993896 0.894999980927 0.731000006199 104.0
4.20800018311 0.856999993324 0.721000015736 92.0
4.28399991989 0.847000002861 0.73299998045 90.0
1.01900005341 -0.0659999996424 0.171000003815 447.0
1.00999999046 -0.0710000023246 0.170000001788 981.0
0.994000017643 -0.0759999975562 0.166999995708 331.0
0.96899998188 -0.0790000036359 0.163000002503 151.0
0.991999983788 -0.0869999974966 0.166999995708 149.0
0.962999999523 -0.0900000035763 0.162000000477 149.0
0.966000020504 -0.0960000008345 0.163000002503 149.0
0.972999989986 -0.103000000119 0.16400000453 149.0
0.939999997616 -0.104999996722 0.158999994397 148.0
0.964999973774 -0.112999998033 0.163000002503 152.0
0.953999996185 -0.116999998689 0.16099999845 152.0
0.986000001431 -0.127000004053 0.166999995708 153.0
0.953999996185 -0.128999993205 0.162000000477 159.0
0.977999985218 -0.137999996543 0.165999993682 159.0
0.940999984741 -0.137999996543 0.159999996424 159.0
0.961000025272 -0.146999999881 0.163000002503 200.0
0.986000001431 -0.157000005245 0.167999997735 950.0
0.985000014305 -0.162000000477 0.167999997735 1289.0
0.980000019073 -0.166999995708 0.166999995708 1311.0
0.978999972343 -0.172999992967 0.166999995708 1320.0
0.975000023842 -0.178000003099 0.165999993682 1317.0
0.973999977112 -0.184000000358 0.165999993682 1340.0
0.978999972343 -0.190999999642 0.167999997735 1345.0
0.972999989986 -0.195999994874 0.166999995708 1346.0
0.973999977112 -0.202000007033 0.166999995708 1348.0
0.967999994755 -0.206000000238 0.165999993682 1366.0
0.964999973774 -0.211999997497 0.165999993682 1385.0
0.962999999523 -0.216999992728 0.165999993682 1378.0
0.96899998188 -0.224000006914 0.166999995708 1384.0
0.958000004292 -0.228000000119 0.165000006557 1384.0
0.958999991417 -0.233999997377 0.165999993682 912.0
0.943000018597 -0.236000001431 0.163000002503 242.0
0.933000028133 -0.238999992609 0.162000000477 177.0
0.957000017166 -0.250999987125 0.165999993682 183.0
0.926999986172 -0.248999997973 0.16099999845 186.0
0.926999986172 -0.254999995232 0.16099999845 179.0
0.908999979496 -0.256000012159 0.158000007272 186.0
0.908999979496 -0.261999994516 0.158999994397 183.0
0.922999978065 -0.272000014782 0.16099999845 186.0
0.927999973297 -0.279000014067 0.163000002503 186.0
0.912000000477 -0.280000001192 0.159999996424 192.0
0.907000005245 -0.284999996424 0.158999994397 187.0
0.90600001812 -0.291000008583 0.159999996424 189.0
0.908999979496 -0.298000007868 0.159999996424 191.0
0.92199999094 -0.307999998331 0.163000002503 300.0
0.927999973297 -0.316000014544 0.16400000453 1247.0
0.929000020027 -0.323000013828 0.165000006557 1493.0
0.927999973297 -0.32800000906 0.165000006557 1516.0
0.925000011921 -0.333999991417 0.165000006557 1510.0
0.925999999046 -0.340999990702 0.165000006557 1516.0
0.922999978065 -0.345999985933 0.165000006557 1525.0
0.924000024796 -0.351999998093 0.165999993682 1515.0
0.920000016689 -0.356999993324 0.165000006557 1524.0
0.915000021458 -0.361999988556 0.165000006557 1524.0
0.915000021458 -0.368000000715 0.165000006557 1544.0
0.908999979496 -0.372000008821 0.165000006557 1545.0
0.907999992371 -0.377999991179 0.165000006557 1542.0
0.910000026226 -0.384999990463 0.165000006557 1547.0
0.907000005245 -0.389999985695 0.165000006557 1502.0
0.911000013351 -0.398999989033 0.166999995708 570.0
0.861000001431 -0.38299998641 0.158000007272 224.0
0.866999983788 -0.391999989748 0.158999994397 196.0
0.864000022411 -0.397000014782 0.158999994397 208.0
0.862999975681 -0.402999997139 0.158999994397 202.0
0.839999973774 -0.398000001907 0.155000001192 200.0
0.867999970913 -0.418999999762 0.16099999845 207.0
0.851000010967 -0.416999995708 0.158000007272 209.0
0.833999991417 -0.414999991655 0.156000003219 208.0
0.850000023842 -0.428999990225 0.158999994397 201.0
0.870000004768 -0.446999996901 0.163000002503 205.0
0.864000022411 -0.449999988079 0.163000002503 211.0
0.853999972343 -0.451999992132 0.16099999845 207.0
0.867999970913 -0.465999990702 0.165000006557 571.0
0.875999987125 -0.477999985218 0.166999995708 1478.0
0.874000012875 -0.483999997377 0.166999995708 1600.0
0.874000012875 -0.490999996662 0.166999995708 1592.0
2.13100004196 1.24100005627 0.388000011444 102.0
2.21900010109 1.27400004864 0.402999997139 172.0
2.22300004959 1.25800001621 0.402000010014 249.0
2.27600002289 1.26900005341 0.411000013351 133.0
2.25999999046 1.24199998379 0.407000005245 81.0
3.38700008392 1.39800000191 0.584999978542 75.0
3.41000008583 1.38300001621 0.587999999523 65.0
3.9960000515 1.56500005722 0.68599998951 84.0
3.82999992371 1.47300004959 0.65600001812 99.0
3.93300008774 1.48599994183 0.672999978065 93.0
3.98099994659 1.47599995136 0.680000007153 87.0
4.12200021744 1.50100004673 0.70300000906 65.0
4.2389998436 1.48599994183 0.721000015736 69.0
4.14099979401 1.4240000248 0.70300000906 82.0
4.23999977112 1.42900002003 0.717999994755 88.0
4.29799985886 1.41999995708 0.726999998093 84.0
4.23099994659 1.37000000477 0.714999973774 74.0
4.30399990082 1.00899994373 0.713999986649 67.0
4.38800001144 1.00100004673 0.727999985218 69.0
4.33400011063 0.962000012398 0.717999994755 69.0
4.35599994659 0.939999997616 0.721000015736 67.0
4.33099985123 0.907999992371 0.716000020504 66.0
4.34000015259 0.883000016212 0.717000007629 67.0
4.49300003052 0.887000024319 0.741999983788 58.0
1.00899994373 -0.0710000023246 0.16400000453 985.0
0.999000012875 -0.0759999975562 0.162000000477 329.0
0.976999998093 -0.0799999982119 0.158999994397 151.0
0.98299998045 -0.0860000029206 0.159999996424 145.0
0.971000015736 -0.0909999981523 0.158000007272 147.0
0.95300000906 -0.0949999988079 0.155000001192 149.0
0.945999979973 -0.10000000149 0.153999999166 156.0
0.97000002861 -0.108000002801 0.158000007272 150.0
0.963999986649 -0.112999998033 0.157000005245 153.0
0.972999989986 -0.119999997318 0.158999994397 153.0
0.944000005722 -0.122000001371 0.153999999166 158.0
0.967999994755 -0.130999997258 0.158000007272 153.0
0.97000002861 -0.136999994516 0.158999994397 163.0
0.976999998093 -0.143000006676 0.159999996424 164.0
0.972999989986 -0.149000003934 0.158999994397 205.0
0.980000019073 -0.156000003219 0.16099999845 952.0
0.980000019073 -0.16099999845 0.16099999845 1301.0
0.977999985218 -0.166999995708 0.16099999845 1307.0
0.976999998093 -0.172999992967 0.16099999845 1315.0
0.976999998093 -0.178000003099 0.16099999845 1329.0
0.976999998093 -0.184000000358 0.16099999845 1342.0
0.975000023842 -0.189999997616 0.16099999845 1348.0
0.96899998188 -0.194999992847 0.159999996424 1345.0
0.96899998188 -0.201000005007 0.159999996424 1356.0
0.96899998188 -0.206000000238 0.159999996424 1370.0
0.966000020504 -0.211999997497 0.159999996424 1374.0
0.967000007629 -0.217999994755 0.16099999845 1382.0
0.962000012398 -0.223000004888 0.159999996424 1393.0
0.962000012398 -0.229000002146 0.159999996424 1391.0
0.953999996185 -0.232999995351 0.158999994397 928.0
0.940999984741 -0.234999999404 0.157000005245 243.0
0.90600001812 -0.231999993324 0.150999993086 182.0
0.931999981403 -0.245000004768 0.156000003219 182.0
0.908999979496 -0.244000002742 0.151999995112 177.0
0.903999984264 -0.248999997973 0.151999995112 186.0
0.926999986172 -0.261000007391 0.156000003219 182.0
0.933000028133 -0.268999993801 0.157000005245 182.0
0.930000007153 -0.273999989033 0.157000005245 182.0
0.920000016689 -0.277000010014 0.155000001192 189.0
0.899999976158 -0.277000010014 0.151999995112 192.0
0.90600001812 -0.284000009298 0.153999999166 195.0
0.899999976158 -0.287999987602 0.152999997139 198.0
0.898999989033 -0.293999999762 0.152999997139 196.0
0.916000008583 -0.305999994278 0.156000003219 299.0
0.93599998951 -0.317999988794 0.159999996424 1233.0
0.925999999046 -0.321000009775 0.158999994397 1499.0
0.926999986172 -0.32800000906 0.158999994397 1498.0
0.929000020027 -0.335000008345 0.159999996424 1517.0
0.92199999094 -0.338999986649 0.158999994397 1526.0
0.924000024796 -0.345999985933 0.159999996424 1523.0
0.920000016689 -0.34999999404 0.158999994397 1524.0
0.919000029564 -0.356999993324 0.158999994397 1537.0
0.917999982834 -0.363000005484 0.159999996424 1544.0
0.907999992371 -0.365000009537 0.158000007272 1553.0
0.911000013351 -0.372000008821 0.158999994397 1543.0
0.911000013351 -0.379000008106 0.158999994397 1541.0
0.907000005245 -0.384000003338 0.158999994397 1568.0
0.907999992371 -0.391000002623 0.159999996424 1510.0
0.898999989033 -0.393000006676 0.158999994397 605.0
0.887000024319 -0.393999993801 0.157000005245 234.0
0.878000020981 -0.397000014782 0.156000003219 205.0
0.875 -0.402000010014 0.155000001192 211.0
0.856000006199 -0.398999989033 0.151999995112 210.0
0.847999989986 -0.402000010014 0.150999993086 203.0
0.861999988556 -0.414999991655 0.153999999166 204.0
0.846000015736 -0.41400000453 0.151999995112 212.0
0.864000022411 -0.430000007153 0.156000003219 209.0
0.842000007629 -0.425000011921 0.151999995112 206.0
0.833000004292 -0.426999986172 0.150999993086 206.0
0.851999998093 -0.444000005722 0.155000001192 202.0
0.853999972343 -0.451999992132 0.156000003219 203.0
0.879000008106 -0.472000002861 0.16099999845 512.0
0.870000004768 -0.474000006914 0.159999996424 1459.0
0.875999987125 -0.485000014305 0.16099999845 1577.0
0.874000012875 -0.490000009537 0.16099999845 1602.0
2.20799994469 1.28499996662 0.386999994516 110.0
2.23600006104 1.28199994564 0.391000002623 190.0
2.22000002861 1.25499999523 0.386999994516 230.0
2.27399992943 1.26600003242 0.395000010729 120.0
4.00699996948 1.56799995899 0.662999987602 64.0
3.94199991226 1.51499998569 0.651000022888 68.0
4.30200004578 1.47800004482 0.70300000906 65.0
4.29699993134 1.4470000267 0.700999975204 69.0
4.26800012589 1.4090000391 0.694999992847 66.0
4.37699985504 1.41600000858 0.712000012398 70.0
4.41200017929 1.05999994278 0.705999970436 56.0
4.4439997673 1.03999996185 0.711000025272 66.0
4.48400020599 0.994000017643 0.716000020504 63.0
4.33500003815 0.935000002384 0.690999984741 60.0
4.38899993896 0.919000029564 0.699000000954 59.0
4.40799999237 0.896000027657 0.702000021935 65.0
4.37699985504 0.862999975681 0.695999979973 58.0
1.00699996948 -0.0649999976158 0.157000005245 343.0
1.00999999046 -0.0710000023246 0.158000007272 982.0
1.00300002098 -0.0769999995828 0.157000005245 328.0
0.959999978542 -0.0790000036359 0.15000000596 154.0
0.949999988079 -0.082999996841 0.149000003934 148.0
0.985000014305 -0.0920000001788 0.153999999166 152.0
0.964999973774 -0.0960000008345 0.150999993086 153.0
0.958000004292 -0.101000003517 0.15000000596 145.0
0.954999983311 -0.105999998748 0.15000000596 152.0
0.964999973774 -0.112999998033 0.150999993086 151.0
0.945999979973 -0.115999996662 0.149000003934 160.0
0.93900001049 -0.120999999344 0.148000001907 155.0
0.972000002861 -0.130999997258 0.152999997139 159.0
0.976000010967 -0.136999994516 0.153999999166 160.0
0.949999988079 -0.138999998569 0.15000000596 167.0
0.976999998093 -0.149000003934 0.153999999166 206.0
0.977999985218 -0.155000001192 0.155000001192 960.0
0.98299998045 -0.162000000477 0.155000001192 1306.0
0.977999985218 -0.166999995708 0.155000001192 1312.0
0.975000023842 -0.172000005841 0.155000001192 1322.0
0.978999972343 -0.179000005126 0.155000001192 1318.0
0.973999977112 -0.184000000358 0.155000001192 1355.0
0.976000010967 -0.189999997616 0.155000001192 1341.0
0.976000010967 -0.195999994874 0.155000001192 1351.0
0.972000002861 -0.201000005007 0.155000001192 1359.0
0.97000002861 -0.207000002265 0.155000001192 1388.0
0.967000007629 -0.211999997497 0.155000001192 1377.0
0.966000020504 -0.217999994755 0.155000001192 1382.0
0.964999973774 -0.223000004888 0.155000001192 1385.0
0.964999973774 -0.229000002146 0.155000001192 1393.0
0.958000004292 -0.233999997377 0.153999999166 948.0
0.943000018597 -0.236000001431 0.151999995112 251.0
0.930999994278 -0.238000005484 0.15000000596 187.0
0.93599998951 -0.246000006795 0.150999993086 183.0
0.92199999094 -0.247999995947 0.149000003934 180.0
0.933000028133 -0.256000012159 0.150999993086 181.0
0.919000029564 -0.259000003338 0.149000003934 187.0
0.930999994278 -0.268000006676 0.150999993086 193.0
0.927999973297 -0.273000001907 0.150999993086 191.0
0.910000026226 -0.273999989033 0.148000001907 194.0
0.912999987602 -0.280000001192 0.149000003934 188.0
0.917999982834 -0.287999987602 0.15000000596 192.0
0.92199999094 -0.294999986887 0.150999993086 199.0
0.911000013351 -0.29699999094 0.149000003934 199.0
0.922999978065 -0.307999998331 0.151999995112 283.0
0.921000003815 -0.312999993563 0.151999995112 1207.0
0.926999986172 -0.321000009775 0.152999997139 1507.0
0.930999994278 -0.328999996185 0.153999999166 1495.0
0.930999994278 -0.335000008345 0.153999999166 1521.0
0.925999999046 -0.340000003576 0.153999999166 1541.0
0.921000003815 -0.344000011683 0.152999997139 1534.0
0.919000029564 -0.34999999404 0.152999997139 1533.0
0.912000000477 -0.352999985218 0.151999995112 1521.0
0.917999982834 -0.361999988556 0.153999999166 1546.0
0.910000026226 -0.365000009537 0.152999997139 1547.0
0.912999987602 -0.372999995947 0.153999999166 1554.0
0.911000013351 -0.379000008106 0.153999999166 1553.0
0.908999979496 -0.384000003338 0.153999999166 1574.0
0.90499997139 -0.388999998569 0.152999997139 1537.0
0.902999997139 -0.395000010729 0.152999997139 648.0
0.884000003338 -0.393000006676 0.150999993086 246.0
0.870000004768 -0.393000006676 0.149000003934 202.0
0.866999983788 -0.398000001907 0.148000001907 206.0
0.861999988556 -0.402000010014 0.148000001907 203.0
0.865999996662 -0.411000013351 0.149000003934 204.0
0.856000006199 -0.412000000477 0.148000001907 209.0
0.851999998093 -0.416999995708 0.146999999881 203.0
0.851999998093 -0.423000007868 0.148000001907 205.0
0.861999988556 -0.435000002384 0.15000000596 205.0
0.841000020504 -0.430999994278 0.146999999881 200.0
0.842000007629 -0.437999993563 0.146999999881 213.0
0.841000020504 -0.444000005722 0.148000001907 208.0
0.861000001431 -0.46099999547 0.151999995112 458.0
0.875 -0.476000010967 0.155000001192 1413.0
0.879999995232 -0.486000001431 0.156000003219 1608.0
0.875 -0.490999996662 0.156000003219 1588.0
2.13599991798 1.24100005627 0.360000014305 95.0
2.23099994659 1.27799999714 0.375 172.0
2.22000002861 1.25300002098 0.372000008821 178.0
2.24300003052 1.24800002575 0.375 97.0
4.39699983597 1.50899994373 0.690999984741 74.0
4.64400005341 1.56200003624 0.728999972343 61.0
0.307000011206 0.101000003517 0.0460000000894 69.0
0.347999989986 0.112000003457 0.0520000010729 76.0
0.841000020504 0.261000007391 0.128999993205 96.0
0.800999999046 0.243000000715 0.123000003397 114.0
0.967999994755 0.280999988317 0.148000001907 130.0
0.910000026226 0.259000003338 0.138999998569 148.0
0.912000000477 0.254000008106 0.138999998569 160.0
0.944000005722 0.256000012159 0.143999993801 156.0
0.927999973297 0.246000006795 0.142000004649 174.0
0.910000026226 0.236000001431 0.138999998569 191.0
0.874000012875 0.221000000834 0.133000001311 162.0
0.819000005722 0.196999996901 0.123999997973 150.0
0.885999977589 0.208000004292 0.134000003338 217.0
0.744000017643 0.170000001788 0.112000003457 137.0
0.911000013351 0.196999996901 0.137999996543 250.0
0.869000017643 0.181999996305 0.130999997258 180.0
0.815999984741 0.165999993682 0.123000003397 157.0
0.81099998951 0.159999996424 0.122000001371 165.0
0.953999996185 0.182999998331 0.143999993801 223.0
0.980000019073 0.181999996305 0.148000001907 190.0
0.973999977112 0.17499999702 0.146999999881 192.0
0.964999973774 0.167999997735 0.144999995828 196.0
0.964999973774 0.162000000477 0.144999995828 193.0
0.976999998093 0.158000007272 0.146999999881 199.0
1.00199997425 0.156000003219 0.150999993086 210.0
1.0039999485 0.15000000596 0.150999993086 208.0
0.98299998045 0.141000002623 0.148000001907 218.0
0.972999989986 0.134000003338 0.145999997854 213.0
0.97000002861 0.12800000608 0.145999997854 217.0
0.971000015736 0.122000001371 0.145999997854 217.0
0.975000023842 0.116999998689 0.145999997854 223.0
0.971000015736 0.111000001431 0.145999997854 222.0
0.976999998093 0.105999998748 0.145999997854 228.0
0.966000020504 0.0989999994636 0.144999995828 228.0
0.98400002718 0.0949999988079 0.146999999881 221.0
0.958999991417 0.0869999974966 0.143999993801 242.0
0.985000014305 0.0839999988675 0.146999999881 249.0
0.990000009537 0.0780000016093 0.148000001907 258.0
0.973999977112 0.0710000023246 0.145999997854 263.0
0.981999993324 0.0659999996424 0.146999999881 259.0
0.985000014305 0.0610000006855 0.146999999881 261.0
0.973999977112 0.054999999702 0.145999997854 257.0
0.977999985218 0.0489999987185 0.145999997854 250.0
0.990000009537 0.0439999997616 0.148000001907 254.0
0.981000006199 0.0379999987781 0.146999999881 251.0
0.994000017643 0.0329999998212 0.149000003934 246.0
0.998000025749 0.0270000007004 0.149000003934 215.0
1.03499996662 0.0219999998808 0.155000001192 136.0
1.01400005817 -0.0659999996424 0.151999995112 282.0
1.00899994373 -0.0710000023246 0.151999995112 975.0
0.995000004768 -0.0759999975562 0.15000000596 317.0
0.995999991894 -0.082000002265 0.15000000596 147.0
0.959999978542 -0.0839999988675 0.144999995828 153.0
0.967999994755 -0.0909999981523 0.145999997854 150.0
0.976000010967 -0.097000002861 0.146999999881 156.0
0.973999977112 -0.103000000119 0.146999999881 150.0
0.976000010967 -0.108999997377 0.146999999881 150.0
0.957000017166 -0.112000003457 0.144999995828 161.0
0.957000017166 -0.118000000715 0.144999995828 157.0
0.952000021935 -0.123000003397 0.143999993801 157.0
0.944000005722 -0.127000004053 0.143000006676 159.0
0.978999972343 -0.137999996543 0.148000001907 163.0
0.971000015736 -0.142000004649 0.146999999881 169.0
0.966000020504 -0.146999999881 0.146999999881 197.0
0.986000001431 -0.156000003219 0.15000000596 956.0
0.981999993324 -0.162000000477 0.15000000596 1302.0
0.985000014305 -0.167999997735 0.15000000596 1305.0
0.978999972343 -0.172999992967 0.149000003934 1313.0
0.98400002718 -0.180000007153 0.15000000596 1321.0
0.975000023842 -0.184000000358 0.149000003934 1344.0
0.972999989986 -0.188999995589 0.149000003934 1352.0
0.973999977112 -0.194999992847 0.149000003934 1353.0
0.96899998188 -0.20000000298 0.149000003934 1370.0
0.96899998188 -0.206000000238 0.149000003934 1385.0
0.97000002861 -0.211999997497 0.149000003934 1378.0
0.967999994755 -0.217999994755 0.149000003934 1387.0
0.964999973774 -0.223000004888 0.149000003934 1399.0
0.962999999523 -0.229000002146 0.149000003934 1400.0
0.954999983311 -0.232999995351 0.148000001907 954.0
0.95300000906 -0.238000005484 0.146999999881 242.0
0.927999973297 -0.237000003457 0.143999993801 182.0
0.93599998951 -0.246000006795 0.144999995828 188.0
0.933000028133 -0.25 0.144999995828 182.0
0.934000015259 -0.256999999285 0.144999995828 180.0
0.902000010014 -0.254000008106 0.141000002623 185.0
0.903999984264 -0.259999990463 0.141000002623 185.0
0.927999973297 -0.273000001907 0.144999995828 191.0
0.912000000477 -0.273999989033 0.143000006676 188.0
0.899999976158 -0.275999993086 0.141000002623 192.0
0.899999976158 -0.282000005245 0.141000002623 191.0
0.90499997139 -0.28900000453 0.142000004649 193.0
0.896000027657 -0.293000012636 0.141000002623 196.0
0.915000021458 -0.305000007153 0.144999995828 264.0
0.931999981403 -0.317000001669 0.148000001907 1196.0
0.927999973297 -0.321000009775 0.146999999881 1511.0
0.929000020027 -0.32800000906 0.148000001907 1494.0
0.929000020027 -0.333999991417 0.148000001907 1520.0
0.92199999094 -0.337999999523 0.146999999881 1537.0
0.925000011921 -0.345999985933 0.148000001907 1525.0
0.922999978065 -0.351000010967 0.148000001907 1515.0
0.921000003815 -0.356999993324 0.148000001907 1542.0
0.919000029564 -0.361999988556 0.148000001907 1553.0
0.916999995708 -0.368000000715 0.148000001907 1543.0
0.907999992371 -0.370000004768 0.146999999881 1542.0
0.910000026226 -0.377999991179 0.148000001907 1544.0
0.911000013351 -0.384999990463 0.148000001907 1575.0
0.903999984264 -0.388000011444 0.146999999881 1561.0
0.908999979496 -0.397000014782 0.149000003934 689.0
0.878000020981 -0.389999985695 0.143999993801 248.0
0.884000003338 -0.398999989033 0.144999995828 201.0
0.850000023842 -0.389999985695 0.140000000596 202.0
0.874000012875 -0.407000005245 0.143999993801 201.0
0.853999972343 -0.404000014067 0.141000002623 203.0
0.847000002861 -0.407999992371 0.141000002623 203.0
0.84500002861 -0.412999987602 0.141000002623 214.0
0.862999975681 -0.428000003099 0.143999993801 205.0
0.852999985218 -0.430000007153 0.143000006676 201.0
0.84500002861 -0.432000011206 0.142000004649 204.0
0.853999972343 -0.444000005722 0.143999993801 202.0
0.819999992847 -0.432999998331 0.138999998569 200.0
0.855000019073 -0.458000004292 0.144999995828 421.0
0.873000025749 -0.47499999404 0.149000003934 1415.0
0.870999991894 -0.481000006199 0.149000003934 1604.0
0.873000025749 -0.488999992609 0.149000003934 1615.0
2.25099992752 1.28900003433 0.363000005484 121.0
2.26200008392 1.27600002289 0.363999992609 123.0
0.883000016212 0.433999985456 0.136999994516 78.0
0.930999994278 0.423000007868 0.143000006676 162.0
0.922999978065 0.405999988317 0.141000002623 189.0
0.948000013828 0.402999997139 0.143999993801 246.0
0.920000016689 0.384999990463 0.140000000596 207.0
0.953999996185 0.391999989748 0.144999995828 278.0
0.936999976635 0.379000008106 0.142000004649 187.0
0.925000011921 0.36700001359 0.140000000596 212.0
0.910000026226 0.354999989271 0.136999994516 229.0
0.884999990463 0.338999986649 0.133000001311 230.0
0.893999993801 0.337000012398 0.134000003338 257.0
0.939999997616 0.347000002861 0.141000002623 285.0
0.931999981403 0.337999999523 0.140000000596 305.0
0.92199999094 0.328999996185 0.137999996543 325.0
0.941999971867 0.328999996185 0.141000002623 346.0
0.941999971867 0.323000013828 0.140000000596 365.0
0.931999981403 0.312999993563 0.138999998569 389.0
0.944000005722 0.31099998951 0.140000000596 411.0
0.949000000954 0.307000011206 0.141000002623 429.0
0.945999979973 0.298999994993 0.140000000596 440.0
0.947000026703 0.293000012636 0.140000000596 471.0
0.957000017166 0.289999991655 0.141000002623 494.0
0.964999973774 0.287000000477 0.142000004649 509.0
0.948000013828 0.275999993086 0.140000000596 519.0
0.964999973774 0.273999989033 0.142000004649 522.0
0.953999996185 0.264999985695 0.140000000596 550.0
0.955999970436 0.259999990463 0.140000000596 545.0
0.949999988079 0.252000004053 0.138999998569 579.0
0.954999983311 0.24699999392 0.140000000596 596.0
0.95300000906 0.240999996662 0.138999998569 612.0
0.959999978542 0.237000003457 0.140000000596 618.0
0.961000025272 0.231000006199 0.140000000596 626.0
0.961000025272 0.22499999404 0.140000000596 622.0
0.95300000906 0.216999992728 0.138999998569 642.0
0.963999986649 0.21400000155 0.140000000596 648.0
0.96899998188 0.209000006318 0.141000002623 648.0
0.961000025272 0.201000005007 0.140000000596 660.0
0.962000012398 0.195999994874 0.140000000596 678.0
0.964999973774 0.190999999642 0.140000000596 680.0
0.964999973774 0.185000002384 0.140000000596 674.0
0.966000020504 0.179000005126 0.140000000596 692.0
0.966000020504 0.172999992967 0.140000000596 673.0
0.967999994755 0.167999997735 0.140000000596 682.0
0.964999973774 0.162000000477 0.138999998569 693.0
0.962000012398 0.155000001192 0.138999998569 695.0
0.971000015736 0.150999993086 0.140000000596 700.0
0.959999978542 0.143999993801 0.138999998569 711.0
0.967999994755 0.138999998569 0.140000000596 709.0
0.964999973774 0.133000001311 0.138999998569 720.0
0.962999999523 0.127000004053 0.138999998569 731.0
0.964999973774 0.122000001371 0.138999998569 741.0
0.967999994755 0.115999996662 0.138999998569 751.0
0.961000025272 0.109999999404 0.137999996543 770.0
0.973999977112 0.104999996722 0.140000000596 779.0
0.972999989986 0.10000000149 0.140000000596 774.0
0.972999989986 0.0939999967813 0.140000000596 774.0
0.967000007629 0.0879999995232 0.138999998569 791.0
0.962999999523 0.082000002265 0.137999996543 814.0
0.97000002861 0.0769999995828 0.138999998569 819.0
0.972999989986 0.0710000023246 0.140000000596 821.0
0.971000015736 0.0659999996424 0.138999998569 822.0
0.972999989986 0.0599999986589 0.140000000596 819.0
0.971000015736 0.0540000014007 0.138999998569 828.0
0.972999989986 0.0489999987185 0.140000000596 815.0
0.977999985218 0.0430000014603 0.141000002623 818.0
0.962999999523 0.0370000004768 0.137999996543 807.0
0.976999998093 0.0320000015199 0.140000000596 806.0
0.97000002861 0.0260000005364 0.138999998569 735.0
0.986000001431 0.0209999997169 0.142000004649 219.0
1.01499998569 -0.0659999996424 0.146999999881 295.0
1.01100003719 -0.0710000023246 0.145999997854 981.0
1.00300002098 -0.0759999975562 0.144999995828 307.0
0.994000017643 -0.0810000002384 0.143999993801 147.0
0.990999996662 -0.0869999974966 0.143000006676 150.0
0.994000017643 -0.0930000022054 0.143999993801 148.0
0.952000021935 -0.0949999988079 0.137999996543 153.0
0.991999983788 -0.104000002146 0.143999993801 153.0
0.949000000954 -0.104999996722 0.137999996543 158.0
0.936999976635 -0.108999997377 0.136000007391 151.0
0.959999978542 -0.118000000715 0.138999998569 155.0
0.962000012398 -0.123999997973 0.140000000596 160.0
0.933000028133 -0.126000002027 0.136000007391 163.0
0.962999999523 -0.135000005364 0.140000000596 163.0
0.958000004292 -0.140000000596 0.140000000596 160.0
0.976000010967 -0.149000003934 0.142000004649 205.0
0.978999972343 -0.155000001192 0.143000006676 964.0
0.976999998093 -0.16099999845 0.143000006676 1300.0
0.980000019073 -0.166999995708 0.143000006676 1315.0
0.981000006199 -0.172999992967 0.143999993801 1317.0
0.975000023842 -0.178000003099 0.143000006676 1323.0
0.973999977112 -0.182999998331 0.143000006676 1348.0
0.973999977112 -0.188999995589 0.143000006676 1340.0
0.97000002861 -0.194999992847 0.143000006676 1357.0
0.963999986649 -0.199000000954 0.142000004649 1373.0
0.963999986649 -0.204999998212 0.142000004649 1379.0
0.967999994755 -0.211999997497 0.143000006676 1377.0
0.964999973774 -0.216999992728 0.143000006676 1387.0
0.958999991417 -0.222000002861 0.142000004649 1397.0
0.958999991417 -0.228000000119 0.142000004649 1405.0
0.959999978542 -0.233999997377 0.142000004649 974.0
0.941999971867 -0.234999999404 0.140000000596 254.0
0.944000005722 -0.241999998689 0.141000002623 191.0
0.92199999094 -0.240999996662 0.136999994516 194.0
0.933000028133 -0.25 0.138999998569 190.0
0.912000000477 -0.25 0.136000007391 180.0
0.927999973297 -0.261000007391 0.138999998569 192.0
0.93900001049 -0.270000010729 0.141000002623 192.0
0.902000010014 -0.264999985695 0.135000005364 190.0
0.929000020027 -0.279000014067 0.140000000596 190.0
0.930000007153 -0.284999996424 0.140000000596 191.0
0.911000013351 -0.284999996424 0.137999996543 194.0
0.920000016689 -0.293999999762 0.138999998569 188.0
0.912000000477 -0.298000007868 0.137999996543 195.0
0.907999992371 -0.301999986172 0.137999996543 252.0
0.931999981403 -0.316000014544 0.142000004649 1173.0
0.929000020027 -0.321999996901 0.142000004649 1500.0
0.930000007153 -0.32800000906 0.142000004649 1508.0
0.927999973297 -0.333999991417 0.142000004649 1527.0
0.926999986172 -0.338999986649 0.142000004649 1537.0
0.921000003815 -0.344000011683 0.142000004649 1527.0
0.922999978065 -0.351000010967 0.142000004649 1539.0
0.916999995708 -0.354999989271 0.142000004649 1541.0
0.912000000477 -0.358999997377 0.141000002623 1551.0
0.916999995708 -0.36700001359 0.142000004649 1553.0
0.912000000477 -0.372000008821 0.142000004649 1561.0
0.907000005245 -0.375999987125 0.141000002623 1555.0
0.908999979496 -0.384000003338 0.142000004649 1572.0
0.912999987602 -0.391999989748 0.143000006676 1547.0
0.898999989033 -0.391999989748 0.141000002623 737.0
0.882000029087 -0.391000002623 0.138999998569 247.0
0.855000019073 -0.384999990463 0.135000005364 212.0
0.879999995232 -0.402999997139 0.138999998569 213.0
0.864000022411 -0.402000010014 0.136999994516 208.0
0.833000004292 -0.393999993801 0.131999999285 208.0
0.861999988556 -0.41400000453 0.137999996543 209.0
0.851000010967 -0.416000008583 0.136000007391 209.0
0.84399998188 -0.418000012636 0.135000005364 207.0
0.85900002718 -0.432000011206 0.137999996543 197.0
0.847999989986 -0.433999985456 0.136999994516 205.0
0.871999979019 -0.45300000906 0.141000002623 205.0
0.867999970913 -0.456999987364 0.141000002623 208.0
0.871999979019 -0.467000007629 0.142000004649 381.0
0.879999995232 -0.477999985218 0.143999993801 1387.0
0.875999987125 -0.483000010252 0.143999993801 1600.0
0.873000025749 -0.488000005484 0.143999993801 1611.0
1.02400004864 0.592999994755 0.157000005245 152.0
1.29200005531 0.737999975681 0.199000000954 137.0
1.1590000391 0.652000010014 0.177000001073 152.0
0.96899998188 0.537000000477 0.148000001907 229.0
0.973999977112 0.532000005245 0.148000001907 184.0
0.921000003815 0.495999991894 0.138999998569 221.0
0.944000005722 0.500999987125 0.143000006676 250.0
0.943000018597 0.493000000715 0.142000004649 281.0
0.98400002718 0.505999982357 0.148000001907 290.0
0.945999979973 0.479000002146 0.142000004649 321.0
0.949999988079 0.474000006914 0.142000004649 349.0
0.934000015259 0.458999991417 0.138999998569 377.0
0.947000026703 0.458000004292 0.141000002623 397.0
0.954999983311 0.455000013113 0.142000004649 438.0
0.95300000906 0.446999996901 0.141000002623 451.0
0.933000028133 0.430999994278 0.137999996543 480.0
0.943000018597 0.428000003099 0.138999998569 499.0
0.947000026703 0.423000007868 0.138999998569 509.0
0.952000021935 0.418000012636 0.140000000596 523.0
0.947000026703 0.409000009298 0.138999998569 548.0
0.955999970436 0.405999988317 0.140000000596 579.0
0.955999970436 0.40000000596 0.138999998569 597.0
0.953999996185 0.391999989748 0.138999998569 620.0
0.940999984741 0.379999995232 0.136999994516 632.0
0.954999983311 0.379000008106 0.137999996543 639.0
0.945999979973 0.368999987841 0.136999994516 657.0
0.952000021935 0.365000009537 0.136999994516 684.0
0.953999996185 0.358999997377 0.136999994516 686.0
0.955999970436 0.352999985218 0.136999994516 711.0
0.958999991417 0.347999989986 0.137999996543 720.0
0.953999996185 0.340000003576 0.136999994516 734.0
0.955999970436 0.333999991417 0.136999994516 754.0
0.949000000954 0.324999988079 0.135000005364 776.0
0.958999991417 0.321999996901 0.136999994516 797.0
0.954999983311 0.314999997616 0.136000007391 801.0
0.954999983311 0.307999998331 0.136000007391 799.0
0.959999978542 0.303999990225 0.136000007391 823.0
0.954999983311 0.296000003815 0.135000005364 833.0
0.955999970436 0.289999991655 0.135000005364 835.0
0.957000017166 0.284000009298 0.135000005364 843.0
0.958999991417 0.279000014067 0.136000007391 857.0
0.952000021935 0.270000010729 0.134000003338 883.0
0.95300000906 0.264999985695 0.134000003338 896.0
0.953999996185 0.259000003338 0.134000003338 910.0
0.958000004292 0.254000008106 0.135000005364 917.0
0.953999996185 0.24699999392 0.134000003338 957.0
0.952000021935 0.240999996662 0.134000003338 968.0
0.959999978542 0.237000003457 0.135000005364 961.0
0.953999996185 0.229000002146 0.134000003338 975.0
0.952000021935 0.223000004888 0.133000001311 981.0
0.958999991417 0.217999994755 0.134000003338 974.0
0.962999999523 0.212999999523 0.134000003338 966.0
0.955999970436 0.206000000238 0.133000001311 986.0
0.962000012398 0.201000005007 0.134000003338 983.0
0.962999999523 0.195999994874 0.134000003338 992.0
0.961000025272 0.189999997616 0.134000003338 991.0
0.955999970436 0.182999998331 0.133000001311 992.0
0.957000017166 0.177000001073 0.133000001311 1005.0
0.958000004292 0.172000005841 0.133000001311 1014.0
0.967999994755 0.167999997735 0.134000003338 1004.0
0.957000017166 0.159999996424 0.133000001311 1018.0
0.955999970436 0.153999999166 0.131999999285 1018.0
0.95300000906 0.148000001907 0.131999999285 1022.0
0.964999973774 0.143999993801 0.133000001311 1018.0
0.958999991417 0.137999996543 0.133000001311 1019.0
0.967000007629 0.133000001311 0.134000003338 1055.0
0.962000012398 0.127000004053 0.133000001311 1043.0
0.966000020504 0.122000001371 0.133000001311 1058.0
0.967999994755 0.115999996662 0.134000003338 1075.0
0.967999994755 0.109999999404 0.134000003338 1094.0
0.962000012398 0.104000002146 0.133000001311 1086.0
0.967000007629 0.0989999994636 0.133000001311 1099.0
0.967000007629 0.0930000022054 0.133000001311 1099.0
0.967999994755 0.0879999995232 0.133000001311 1103.0
0.966000020504 0.082000002265 0.133000001311 1120.0
0.971000015736 0.0769999995828 0.134000003338 1123.0
0.967000007629 0.0710000023246 0.133000001311 1138.0
0.967000007629 0.0649999976158 0.133000001311 1147.0
0.972999989986 0.0599999986589 0.134000003338 1160.0
0.966000020504 0.0540000014007 0.133000001311 1196.0
0.96899998188 0.0489999987185 0.134000003338 1201.0
0.96899998188 0.0430000014603 0.133000001311 1206.0
0.97000002861 0.0370000004768 0.134000003338 1201.0
0.97000002861 0.0320000015199 0.134000003338 1215.0
0.97000002861 0.0260000005364 0.134000003338 1122.0
0.976999998093 0.0209999997169 0.135000005364 288.0
1.01999998093 -0.0659999996424 0.141000002623 301.0
1.00499999523 -0.0710000023246 0.138999998569 981.0
0.991999983788 -0.0750000029802 0.136999994516 300.0
0.976000010967 -0.0799999982119 0.135000005364 150.0
0.964999973774 -0.0850000008941 0.134000003338 148.0
0.989000022411 -0.0930000022054 0.136999994516 152.0
0.966000020504 -0.0960000008345 0.134000003338 154.0
0.976000010967 -0.103000000119 0.136000007391 154.0
0.964999973774 -0.107000000775 0.134000003338 157.0
0.96899998188 -0.112999998033 0.135000005364 157.0
0.955999970436 -0.116999998689 0.133000001311 157.0
0.973999977112 -0.125 0.136000007391 161.0
0.93599998951 -0.126000002027 0.130999997258 161.0
0.98299998045 -0.137999996543 0.136999994516 161.0
0.981999993324 -0.143999993801 0.136999994516 166.0
0.964999973774 -0.146999999881 0.135000005364 208.0
0.986999988556 -0.156000003219 0.137999996543 964.0
0.98400002718 -0.162000000477 0.137999996543 1326.0
0.987999975681 -0.167999997735 0.138999998569 1316.0
0.981000006199 -0.172999992967 0.137999996543 1319.0
0.978999972343 -0.179000005126 0.137999996543 1332.0
0.977999985218 -0.184000000358 0.137999996543 1358.0
0.97000002861 -0.187999993563 0.136999994516 1362.0
0.97000002861 -0.194000005722 0.136999994516 1356.0
0.967999994755 -0.20000000298 0.136999994516 1351.0
0.966000020504 -0.204999998212 0.136999994516 1374.0
0.971000015736 -0.211999997497 0.137999996543 1377.0
0.963999986649 -0.216999992728 0.136999994516 1387.0
0.963999986649 -0.223000004888 0.136999994516 1392.0
0.958999991417 -0.226999998093 0.136000007391 1403.0
0.955999970436 -0.232999995351 0.136000007391 995.0
0.941999971867 -0.234999999404 0.134000003338 258.0
0.925000011921 -0.236000001431 0.131999999285 185.0
0.934000015259 -0.245000004768 0.134000003338 185.0
0.917999982834 -0.246000006795 0.130999997258 191.0
0.933000028133 -0.256000012159 0.134000003338 187.0
0.921000003815 -0.259000003338 0.131999999285 188.0
0.902999997139 -0.259000003338 0.129999995232 194.0
0.910000026226 -0.266999989748 0.130999997258 191.0
0.910000026226 -0.273000001907 0.130999997258 187.0
0.90499997139 -0.277000010014 0.130999997258 196.0
0.922999978065 -0.28900000453 0.134000003338 191.0
0.933000028133 -0.298000007868 0.136000007391 190.0
0.925000011921 -0.300999999046 0.135000005364 194.0
0.907000005245 -0.301999986172 0.131999999285 245.0
0.930000007153 -0.314999997616 0.136000007391 1165.0
0.930000007153 -0.321999996901 0.136000007391 1507.0
0.925000011921 -0.326000005007 0.136000007391 1515.0
0.924000024796 -0.331999987364 0.136000007391 1534.0
0.922999978065 -0.337999999523 0.136000007391 1550.0
0.924000024796 -0.344999998808 0.136000007391 1546.0
0.922999978065 -0.351000010967 0.136999994516 1540.0
0.915000021458 -0.354000002146 0.136000007391 1538.0
0.919000029564 -0.361999988556 0.136000007391 1553.0
0.915000021458 -0.36700001359 0.136000007391 1555.0
0.915000021458 -0.372999995947 0.136999994516 1565.0
0.916000008583 -0.379999995232 0.136999994516 1564.0
0.912000000477 -0.384999990463 0.136999994516 1577.0
0.910000026226 -0.389999985695 0.136999994516 1569.0
0.907000005245 -0.395000010729 0.136999994516 784.0
0.89200001955 -0.395000010729 0.135000005364 243.0
0.879999995232 -0.395999997854 0.133000001311 202.0
0.876999974251 -0.402000010014 0.133000001311 205.0
0.85799998045 -0.398999989033 0.130999997258 204.0
0.85799998045 -0.405000001192 0.130999997258 207.0
0.883000016212 -0.423999994993 0.135000005364 207.0
0.867999970913 -0.423999994993 0.133000001311 211.0
0.882000029087 -0.437000006437 0.136000007391 201.0
0.851999998093 -0.428999990225 0.131999999285 209.0
0.85799998045 -0.437999993563 0.133000001311 206.0
0.842999994755 -0.437999993563 0.130999997258 211.0
0.853999972343 -0.449999988079 0.133000001311 214.0
0.867999970913 -0.463999986649 0.136000007391 332.0
0.874000012875 -0.47499999404 0.136999994516 1371.0
0.879000008106 -0.483999997377 0.137999996543 1605.0
0.870999991894 -0.486999988556 0.137999996543 1620.0
0.943000018597 0.546000003815 0.138999998569 485.0
0.949000000954 0.541000008583 0.138999998569 516.0
0.935000002384 0.526000022888 0.136000007391 559.0
0.93900001049 0.521000027657 0.136999994516 566.0
0.943000018597 0.514999985695 0.136999994516 611.0
0.93900001049 0.504999995232 0.136000007391 637.0
0.938000023365 0.497000008821 0.135000005364 655.0
0.943000018597 0.49200001359 0.136000007391 663.0
0.938000023365 0.481999993324 0.135000005364 682.0
0.940999984741 0.476999998093 0.135000005364 691.0
0.948000013828 0.472999989986 0.135000005364 711.0
0.940999984741 0.462000012398 0.134000003338 718.0
0.939999997616 0.453999996185 0.134000003338 745.0
0.943000018597 0.449000000954 0.134000003338 765.0
0.945999979973 0.442999988794 0.134000003338 765.0
0.949999988079 0.437999993563 0.134000003338 769.0
0.948000013828 0.430000007153 0.134000003338 791.0
0.958000004292 0.428000003099 0.135000005364 794.0
0.947000026703 0.416000008583 0.133000001311 809.0
0.936999976635 0.405000001192 0.130999997258 834.0
0.949000000954 0.402999997139 0.133000001311 838.0
0.95300000906 0.398000001907 0.133000001311 853.0
0.947000026703 0.388999998569 0.131999999285 864.0
0.93900001049 0.379000008106 0.129999995232 869.0
0.943000018597 0.374000012875 0.130999997258 890.0
0.947000026703 0.368999987841 0.130999997258 909.0
0.947000026703 0.361999988556 0.130999997258 918.0
0.945999979973 0.356000006199 0.129999995232 921.0
0.949999988079 0.351000010967 0.130999997258 931.0
0.958999991417 0.347000002861 0.131999999285 946.0
0.952000021935 0.337999999523 0.129999995232 948.0
0.949000000954 0.331000000238 0.129999995232 965.0
0.953999996185 0.326000005007 0.129999995232 991.0
0.947000026703 0.317999988794 0.128999993205 1011.0
0.943000018597 0.310000002384 0.12800000608 1019.0
0.950999975204 0.307000011206 0.128999993205 1016.0
0.949999988079 0.300000011921 0.128999993205 1038.0
0.949999988079 0.293999999762 0.128999993205 1053.0
0.952000021935 0.287999987602 0.128999993205 1045.0
0.945999979973 0.280000001192 0.12800000608 1074.0
0.957000017166 0.277999997139 0.128999993205 1093.0
0.957000017166 0.272000014782 0.128999993205 1128.0
0.953999996185 0.264999985695 0.128999993205 1146.0
0.949999988079 0.25799998641 0.12800000608 1162.0
0.959999978542 0.254000008106 0.128999993205 1171.0
0.95300000906 0.24699999392 0.12800000608 1176.0
0.958000004292 0.241999998689 0.128999993205 1171.0
0.955999970436 0.234999999404 0.12800000608 1172.0
0.955999970436 0.229000002146 0.12800000608 1177.0
0.948000013828 0.222000002861 0.127000004053 1176.0
0.955999970436 0.217999994755 0.12800000608 1175.0
0.958000004292 0.211999997497 0.12800000608 1164.0
0.958999991417 0.207000002265 0.12800000608 1189.0
0.955999970436 0.20000000298 0.127000004053 1196.0
0.955999970436 0.194000005722 0.127000004053 1190.0
0.955999970436 0.187999993563 0.127000004053 1181.0
0.967999994755 0.185000002384 0.128999993205 1173.0
0.961000025272 0.178000003099 0.12800000608 1194.0
0.959999978542 0.172000005841 0.127000004053 1185.0
0.962999999523 0.166999995708 0.12800000608 1178.0
0.961000025272 0.16099999845 0.12800000608 1194.0
0.958999991417 0.155000001192 0.127000004053 1187.0
0.959999978542 0.149000003934 0.127000004053 1193.0
0.961000025272 0.143999993801 0.127000004053 1203.0
0.964999973774 0.137999996543 0.12800000608 1216.0
0.964999973774 0.133000001311 0.12800000608 1250.0
