ply
format ascii 1.0
element vertex 900
property float x
property float y
property float z
property float intensity
end_header
0.921000003815 -0.323000013828 -0.0540000014007 1367.0
0.92199999094 -0.330000013113 -0.0540000014007 1399.0
0.919000029564 -0.335000008345 -0.0540000014007 1425.0
0.916000008583 -0.340000003576 -0.0540000014007 1422.0
0.915000021458 -0.345999985933 -0.0540000014007 1423.0
0.912999987602 -0.351000010967 -0.0540000014007 1437.0
0.916000008583 -0.358999997377 -0.0540000014007 1456.0
0.912000000477 -0.363999992609 -0.0540000014007 1464.0
0.911000013351 -0.368999987841 -0.0540000014007 1469.0
0.902000010014 -0.372000008821 -0.0540000014007 1486.0
0.902000010014 -0.377999991179 -0.0540000014007 1493.0
0.899999976158 -0.384000003338 -0.0540000014007 1506.0
0.90600001812 -0.393000006676 -0.0540000014007 865.0
0.882000029087 -0.388999998569 -0.0529999993742 368.0
0.89200001955 -0.40000000596 -0.0540000014007 331.0
0.889999985695 -0.405000001192 -0.0529999993742 332.0
0.888000011444 -0.411000013351 -0.0529999993742 331.0
0.89099997282 -0.418999999762 -0.0540000014007 321.0
0.89200001955 -0.425999999046 -0.0540000014007 322.0
0.865000009537 -0.418999999762 -0.0520000010729 325.0
0.861999988556 -0.423999994993 -0.0520000010729 324.0
0.851999998093 -0.425999999046 -0.0520000010729 322.0
0.853999972343 -0.432999998331 -0.0520000010729 323.0
0.851999998093 -0.43900001049 -0.0520000010729 309.0
0.847999989986 -0.444000005722 -0.0520000010729 308.0
0.856999993324 -0.456000000238 -0.0529999993742 322.0
0.866999983788 -0.467999994755 -0.0529999993742 1145.0
0.875999987125 -0.479999989271 -0.0540000014007 1554.0
0.866999983788 -0.481999993324 -0.0540000014007 1603.0
0.995999991894 0.570999979973 -0.0740000009537 482.0
0.989000022411 0.559000015259 -0.0729999989271 452.0
0.986000001431 0.549000024796 -0.0729999989271 411.0
0.972000002861 0.532999992371 -0.0710000023246 371.0
0.961000025272 0.518999993801 -0.070000000298 340.0
0.957000017166 0.509999990463 -0.070000000298 307.0
0.950999975204 0.499000012875 -0.0689999982715 272.0
0.975000023842 0.504000008106 -0.0710000023246 243.0
0.952000021935 0.485000014305 -0.0689999982715 217.0
0.957000017166 0.479999989271 -0.0689999982715 250.0
0.995000004768 0.49200001359 -0.0710000023246 296.0
0.953999996185 0.456999987364 -0.0680000036955 232.0
0.949999988079 0.448000013828 -0.0680000036955 179.0
0.931999981403 0.425999999046 -0.0659999996424 126.0
4.15299987793 1.60399997234 -0.284999996424 74.0
3.98399996758 1.51100003719 -0.273000001907 72.0
4.07999992371 1.51999998093 -0.279000014067 63.0
4.22499990463 1.54499995708 -0.287999987602 88.0
4.21099996567 1.51199996471 -0.286000013351 74.0
4.26300001144 1.50199997425 -0.28900000453 71.0
4.27600002289 1.47800004482 -0.289999991655 88.0
4.27799987793 1.45000004768 -0.28900000453 83.0
4.28499984741 1.4240000248 -0.28900000453 83.0
4.28700017929 1.39699995518 -0.287999987602 78.0
4.30100011826 1.37300002575 -0.28900000453 74.0
4.34999990463 1.36000001431 -0.291000008583 78.0
4.35400009155 1.33399999142 -0.291000008583 74.0
4.30000019073 1.28900003433 -0.287000000477 77.0
4.34200000763 1.27400004864 -0.28900000453 76.0
4.28100013733 1.22899997234 -0.284999996424 78.0
4.29199981689 1.20500004292 -0.284999996424 75.0
4.25699996948 1.16799998283 -0.282000005245 77.0
4.27500009537 1.14600002766 -0.282999992371 75.0
4.34000015259 1.10899996758 -0.286000013351 83.0
4.28100013733 1.06799995899 -0.282000005245 81.0
4.31199979782 1.0490000248 -0.282999992371 76.0
4.35500001907 1.03199994564 -0.286000013351 80.0
4.31300020218 0.995999991894 -0.282000005245 85.0
4.29699993134 0.966000020504 -0.280999988317 83.0
4.26399993896 0.931999981403 -0.277999997139 78.0
4.26300001144 0.90600001812 -0.277999997139 85.0
4.33699989319 0.894999980927 -0.282000005245 83.0
4.24599981308 0.851000010967 -0.275999993086 74.0
4.19799995422 0.815999984741 -0.273000001907 66.0
4.78100013733 0.899999976158 -0.310000002384 58.0
4.76700019836 0.869000017643 -0.308999985456 57.0
4.73400020599 0.834999978542 -0.305999994278 57.0
4.70900011063 0.801999986172 -0.303999990225 59.0
4.74800014496 0.77999997139 -0.305999994278 61.0
4.75 0.753000020981 -0.305999994278 61.0
4.68499994278 0.714999973774 -0.300999999046 64.0
4.76599979401 0.699000000954 -0.305999994278 55.0
4.80000019073 0.675000011921 -0.307999998331 63.0
4.78200006485 0.644999980927 -0.307000011206 57.0
4.74900007248 0.583999991417 -0.303999990225 60.0
4.76200008392 0.558000028133 -0.303999990225 60.0
4.82700014114 0.537000000477 -0.307999998331 59.0
4.78399991989 0.504999995232 -0.305000007153 60.0
4.80000019073 0.477999985218 -0.305999994278 64.0
4.86600017548 0.456999987364 -0.310000002384 60.0
4.87699985504 0.428999990225 -0.310000002384 58.0
4.88100004196 0.400999993086 -0.310000002384 61.0
4.81500005722 0.368000000715 -0.305999994278 64.0
4.89099979401 0.344999998808 -0.310000002384 60.0
4.882999897 0.317000001669 -0.310000002384 63.0
4.85699987411 0.287000000477 -0.307999998331 59.0
4.92000007629 0.261999994516 -0.312000006437 56.0
4.81699991226 0.229000002146 -0.305000007153 63.0
4.93200016022 0.206000000238 -0.312000006437 61.0
4.94099998474 0.178000003099 -0.312000006437 54.0
4.90600013733 0.148000001907 -0.310000002384 58.0
4.95399999619 0.120999999344 -0.312999993563 56.0
1.03699994087 -0.0619999989867 -0.0649999976158 214.0
1.00600004196 -0.0659999996424 -0.0630000010133 1012.0
1.00600004196 -0.0710000023246 -0.0630000010133 1216.0
1.00600004196 -0.0769999995828 -0.0630000010133 1221.0
1.00100004673 -0.082999996841 -0.0630000010133 1231.0
1.0039999485 -0.0890000015497 -0.0630000010133 1236.0
1.00199997425 -0.0939999967813 -0.0630000010133 1250.0
0.995999991894 -0.0989999994636 -0.0630000010133 1252.0
0.999000012875 -0.105999998748 -0.0630000010133 1261.0
0.994000017643 -0.111000001431 -0.0630000010133 1272.0
0.990999996662 -0.115999996662 -0.0619999989867 1275.0
0.990000009537 -0.122000001371 -0.0619999989867 1283.0
0.987999975681 -0.127000004053 -0.0619999989867 1283.0
0.986999988556 -0.133000001311 -0.0619999989867 1299.0
0.981000006199 -0.137999996543 -0.0619999989867 1315.0
0.986000001431 -0.143999993801 -0.0619999989867 1329.0
0.978999972343 -0.149000003934 -0.0619999989867 954.0
0.963999986649 -0.152999997139 -0.0610000006855 232.0
0.944999992847 -0.155000001192 -0.0599999986589 190.0
0.945999979973 -0.16099999845 -0.0599999986589 188.0
0.931999981403 -0.16400000453 -0.0590000003576 189.0
0.945999979973 -0.172000005841 -0.0599999986589 185.0
0.930000007153 -0.17499999702 -0.0590000003576 192.0
0.930999994278 -0.180000007153 -0.0590000003576 191.0
0.961000025272 -0.192000001669 -0.0610000006855 194.0
0.93599998951 -0.193000003695 -0.0590000003576 196.0
0.934000015259 -0.197999998927 -0.0590000003576 203.0
0.944000005722 -0.206000000238 -0.0599999986589 206.0
0.944000005722 -0.211999997497 -0.0599999986589 217.0
0.927999973297 -0.21400000155 -0.0590000003576 215.0
0.949999988079 -0.22499999404 -0.0599999986589 225.0
0.949999988079 -0.230000004172 -0.0599999986589 961.0
0.950999975204 -0.237000003457 -0.0610000006855 1426.0
0.948000013828 -0.241999998689 -0.0599999986589 1441.0
0.948000013828 -0.247999995947 -0.0599999986589 1460.0
0.944000005722 -0.252000004053 -0.0599999986589 1447.0
0.947000026703 -0.259000003338 -0.0599999986589 1455.0
0.940999984741 -0.263000011444 -0.0599999986589 1431.0
0.938000023365 -0.268000006676 -0.0599999986589 1448.0
0.936999976635 -0.273999989033 -0.0599999986589 1431.0
0.938000023365 -0.280000001192 -0.0599999986589 1429.0
0.931999981403 -0.284999996424 -0.0599999986589 1436.0
0.930999994278 -0.289999991655 -0.0599999986589 1441.0
0.931999981403 -0.29699999094 -0.0599999986589 1419.0
0.925000011921 -0.300000011921 -0.0599999986589 1413.0
0.925000011921 -0.307000011206 -0.0599999986589 1310.0
0.922999978065 -0.312000006437 -0.0599999986589 495.0
0.915000021458 -0.314999997616 -0.0590000003576 367.0
0.910000026226 -0.319000005722 -0.0590000003576 382.0
0.922999978065 -0.330000013113 -0.0599999986589 408.0
0.902999997139 -0.328999996185 -0.0590000003576 429.0
0.916999995708 -0.340000003576 -0.0599999986589 444.0
0.902999997139 -0.340999990702 -0.0590000003576 456.0
0.919000029564 -0.354000002146 -0.0599999986589 482.0
0.908999979496 -0.356000006199 -0.0590000003576 498.0
0.912000000477 -0.363000005484 -0.0599999986589 525.0
0.894999980927 -0.363000005484 -0.0590000003576 555.0
0.898999989033 -0.370999991894 -0.0590000003576 575.0
0.902999997139 -0.379000008106 -0.0590000003576 603.0
0.893999993801 -0.381000012159 -0.0590000003576 637.0
0.898000001907 -0.389999985695 -0.0590000003576 898.0
0.889999985695 -0.393000006676 -0.0590000003576 1099.0
0.896000027657 -0.402000010014 -0.0590000003576 1114.0
0.898000001907 -0.409000009298 -0.0599999986589 1094.0
0.889999985695 -0.412000000477 -0.0590000003576 1071.0
0.883000016212 -0.414999991655 -0.0590000003576 1048.0
0.885999977589 -0.423000007868 -0.0590000003576 1045.0
0.888000011444 -0.430999994278 -0.0590000003576 1022.0
0.882000029087 -0.435000002384 -0.0590000003576 1011.0
0.876999974251 -0.43900001049 -0.0590000003576 988.0
0.884999990463 -0.449999988079 -0.0599999986589 976.0
0.876999974251 -0.451999992132 -0.0590000003576 963.0
0.870999991894 -0.456000000238 -0.0590000003576 968.0
0.874000012875 -0.465000003576 -0.0590000003576 943.0
0.870000004768 -0.469000011683 -0.0590000003576 941.0
0.866999983788 -0.47499999404 -0.0590000003576 935.0
0.873000025749 -0.485000014305 -0.0599999986589 950.0
0.954999983311 0.547999978065 -0.0769999995828 855.0
0.955999970436 0.541000008583 -0.0769999995828 864.0
0.949000000954 0.528999984264 -0.0759999975562 858.0
0.958999991417 0.526000022888 -0.0769999995828 841.0
0.955999970436 0.51700001955 -0.0759999975562 834.0
0.959999978542 0.512000024319 -0.0759999975562 831.0
0.962999999523 0.505999982357 -0.0759999975562 802.0
0.958000004292 0.495999991894 -0.0759999975562 777.0
0.958000004292 0.488000005484 -0.0750000029802 742.0
0.959999978542 0.481999993324 -0.0750000029802 738.0
0.966000020504 0.476999998093 -0.0750000029802 731.0
0.967000007629 0.470999985933 -0.0750000029802 723.0
0.962999999523 0.462000012398 -0.0750000029802 673.0
0.966000020504 0.455000013113 -0.0750000029802 684.0
0.964999973774 0.448000013828 -0.0750000029802 668.0
0.964999973774 0.441000014544 -0.0740000009537 612.0
0.967999994755 0.435000002384 -0.0740000009537 597.0
0.966000020504 0.426999986172 -0.0740000009537 575.0
0.967000007629 0.421000003815 -0.0740000009537 526.0
0.981999993324 0.419999986887 -0.0750000029802 471.0
0.962999999523 0.405000001192 -0.0729999989271 423.0
0.958000004292 0.395999997854 -0.0729999989271 385.0
0.961000025272 0.391000002623 -0.0729999989271 355.0
0.949999988079 0.379999995232 -0.0719999969006 328.0
0.957000017166 0.375999987125 -0.0719999969006 303.0
0.927999973297 0.358000010252 -0.070000000298 250.0
0.972000002861 0.368999987841 -0.0729999989271 383.0
0.871999979019 0.319000005722 -0.0649999976158 195.0
0.839999973774 0.301999986172 -0.0619999989867 166.0
0.674000024796 0.238000005484 -0.0500000007451 120.0
0.509000003338 0.175999999046 -0.0379999987781 97.0
0.40000000596 0.136000007391 -0.0299999993294 82.0
0.189999997616 0.0630000010133 -0.0140000004321 76.0
0.0299999993294 0.00999999977648 -0.00200000009499 74.0
0.0359999984503 0.0120000001043 -0.00300000002608 65.0
4.77799987793 1.49500000477 -0.349000006914 66.0
4.69999980927 1.44000005722 -0.342999994755 65.0
4.62699985504 1.38800001144 -0.337000012398 70.0
4.51200008392 1.32400000095 -0.32800000906 64.0
4.46000003815 1.28100001812 -0.323000013828 67.0
4.41099977493 1.23899996281 -0.319000005722 70.0
4.42000007629 1.21300005913 -0.319000005722 76.0
4.38899993896 1.17700004578 -0.317000001669 66.0
4.35200023651 1.13999998569 -0.312999993563 71.0
4.38999986649 1.12199997902 -0.314999997616 76.0
4.29600000381 1.07099997997 -0.307999998331 70.0
4.36800003052 1.06200003624 -0.312999993563 73.0
4.29899978638 1.01900005341 -0.307000011206 71.0
4.39499998093 1.01499998569 -0.31400001049 71.0
4.40399980545 0.990000009537 -0.31400001049 79.0
4.38399982452 0.958000004292 -0.312000006437 73.0
4.33199977875 0.921000003815 -0.307999998331 68.0
4.3860001564 0.90600001812 -0.31099998951 75.0
4.43300008774 0.888000011444 -0.31400001049 65.0
4.40000009537 0.855000019073 -0.312000006437 56.0
4.78100013733 0.871999979019 -0.337999999523 52.0
4.78299999237 0.842999994755 -0.337000012398 58.0
4.867000103 0.828999996185 -0.342999994755 54.0
4.82399988174 0.792999982834 -0.338999986649 53.0
4.85599994659 0.769999980927 -0.340999990702 54.0
4.86000013351 0.740999996662 -0.340999990702 53.0
4.85699987411 0.712000012398 -0.340999990702 54.0
4.89900016785 0.68900001049 -0.342999994755 55.0
4.85200023651 0.653999984264 -0.338999986649 52.0
4.78700017929 0.616999983788 -0.335000008345 50.0
4.76900005341 0.587000012398 -0.333000004292 55.0
4.867000103 0.541999995708 -0.338999986649 56.0
4.9439997673 0.522000014782 -0.344000011683 51.0
4.87200021744 0.486000001431 -0.338999986649 53.0
4.95800018311 0.465000003576 -0.344999998808 48.0
4.82299995422 0.425000011921 -0.335000008345 50.0
4.98600006104 0.381000012159 -0.345999985933 52.0
4.87200021744 0.316000014544 -0.337000012398 53.0
4.89099979401 0.28900000453 -0.337999999523 47.0
5.03000020981 0.268000006676 -0.347999989986 49.0
4.91599988937 0.232999995351 -0.340000003576 51.0
4.9889998436 0.208000004292 -0.344999998808 50.0
5.04600000381 0.180999994278 -0.347999989986 57.0
4.93400001526 0.149000003934 -0.340000003576 59.0
1.00600004196 -0.0659999996424 -0.0689999982715 1016.0
1.00499999523 -0.0710000023246 -0.0689999982715 1222.0
1.00600004196 -0.0769999995828 -0.0689999982715 1224.0
0.996999979019 -0.082000002265 -0.0689999982715 1230.0
1.00199997425 -0.0890000015497 -0.0689999982715 1230.0
0.995999991894 -0.0939999967813 -0.0689999982715 1248.0
0.992999970913 -0.0989999994636 -0.0680000036955 1260.0
0.994000017643 -0.104999996722 -0.0680000036955 1254.0
0.995999991894 -0.111000001431 -0.0689999982715 1268.0
0.990999996662 -0.115999996662 -0.0680000036955 1280.0
0.98400002718 -0.120999999344 -0.0680000036955 1290.0
0.990999996662 -0.12800000608 -0.0680000036955 1289.0
0.986000001431 -0.133000001311 -0.0680000036955 1300.0
0.98400002718 -0.138999998569 -0.0680000036955 1317.0
0.986999988556 -0.144999995828 -0.0680000036955 1313.0
0.977999985218 -0.149000003934 -0.0670000016689 922.0
0.963999986649 -0.152999997139 -0.0659999996424 228.0
0.929000020027 -0.151999995112 -0.0640000030398 185.0
0.952000021935 -0.162000000477 -0.0659999996424 181.0
0.961000025272 -0.168999999762 -0.0659999996424 187.0
0.931999981403 -0.170000001788 -0.0640000030398 183.0
0.940999984741 -0.177000001073 -0.0649999976158 185.0
0.954999983311 -0.185000002384 -0.0659999996424 185.0
0.922999978065 -0.185000002384 -0.0640000030398 186.0
0.941999971867 -0.194000005722 -0.0649999976158 187.0
0.939999997616 -0.199000000954 -0.0649999976158 194.0
0.936999976635 -0.204999998212 -0.0649999976158 195.0
0.941999971867 -0.21099999547 -0.0649999976158 203.0
0.920000016689 -0.211999997497 -0.0640000030398 200.0
0.935000002384 -0.221000000834 -0.0649999976158 220.0
0.953999996185 -0.231999993324 -0.0659999996424 997.0
0.949999988079 -0.236000001431 -0.0659999996424 1448.0
0.949000000954 -0.241999998689 -0.0659999996424 1478.0
0.949999988079 -0.247999995947 -0.0659999996424 1495.0
0.95300000906 -0.254999995232 -0.0659999996424 1494.0
0.940999984741 -0.25799998641 -0.0659999996424 1500.0
0.944999992847 -0.264999985695 -0.0659999996424 1501.0
0.945999979973 -0.270999997854 -0.0659999996424 1516.0
0.93900001049 -0.27500000596 -0.0659999996424 1521.0
0.93900001049 -0.280999988317 -0.0659999996424 1519.0
0.93900001049 -0.287000000477 -0.0659999996424 1534.0
0.93599998951 -0.291999995708 -0.0659999996424 1543.0
0.935000002384 -0.298000007868 -0.0659999996424 1539.0
0.931999981403 -0.303000003099 -0.0659999996424 1543.0
0.924000024796 -0.305999994278 -0.0649999976158 1411.0
0.915000021458 -0.308999985456 -0.0649999976158 398.0
0.903999984264 -0.31099998951 -0.0640000030398 226.0
0.889999985695 -0.312999993563 -0.0630000010133 229.0
0.887000024319 -0.317000001669 -0.0630000010133 226.0
0.902999997139 -0.328999996185 -0.0640000030398 228.0
0.878000020981 -0.326000005007 -0.0619999989867 228.0
0.883000016212 -0.333999991417 -0.0630000010133 224.0
0.888000011444 -0.342000007629 -0.0630000010133 227.0
0.884000003338 -0.345999985933 -0.0630000010133 228.0
0.893999993801 -0.356999993324 -0.0640000030398 223.0
0.89200001955 -0.361999988556 -0.0640000030398 230.0
0.903999984264 -0.372999995947 -0.0649999976158 228.0
0.884000003338 -0.370999991894 -0.0640000030398 240.0
0.878000020981 -0.374000012875 -0.0630000010133 241.0
0.898999989033 -0.389999985695 -0.0649999976158 981.0
0.898000001907 -0.395999997854 -0.0649999976158 1579.0
0.893999993801 -0.400999993086 -0.0649999976158 1629.0
0.893000006676 -0.407000005245 -0.0649999976158 1635.0
0.893999993801 -0.41400000453 -0.0649999976158 1638.0
0.89099997282 -0.418999999762 -0.0649999976158 1640.0
0.885999977589 -0.423999994993 -0.0649999976158 1653.0
0.888000011444 -0.430999994278 -0.0649999976158 1644.0
0.887000024319 -0.437999993563 -0.0649999976158 1640.0
0.884999990463 -0.442999988794 -0.0649999976158 1631.0
0.884000003338 -0.449000000954 -0.0649999976158 1643.0
0.878000020981 -0.45300000906 -0.0649999976158 1629.0
0.879999995232 -0.46099999547 -0.0649999976158 1609.0
0.875999987125 -0.465999990702 -0.0649999976158 1581.0
0.865999996662 -0.467999994755 -0.0640000030398 649.0
0.837999999523 -0.458999991417 -0.0630000010133 303.0
0.864000022411 -0.479999989271 -0.0649999976158 304.0
0.955999970436 0.547999978065 -0.082999996841 866.0
0.949000000954 0.536000013351 -0.082000002265 889.0
0.958000004292 0.533999979496 -0.082999996841 905.0
0.950999975204 0.522000014782 -0.082000002265 906.0
0.958999991417 0.518999993801 -0.082999996841 925.0
0.962000012398 0.513000011444 -0.082000002265 941.0
0.959999978542 0.504000008106 -0.082000002265 948.0
0.95300000906 0.493000000715 -0.0810000002384 960.0
0.958999991417 0.488999992609 -0.0810000002384 952.0
0.962000012398 0.483000010252 -0.0810000002384 958.0
0.961000025272 0.47499999404 -0.0810000002384 984.0
0.95300000906 0.463999986649 -0.0799999982119 984.0
0.961000025272 0.460000008345 -0.0810000002384 984.0
0.955999970436 0.451000005007 -0.0799999982119 996.0
0.966000020504 0.449000000954 -0.0810000002384 981.0
0.953999996185 0.43599998951 -0.0790000036359 965.0
0.958999991417 0.430999994278 -0.0799999982119 962.0
0.964999973774 0.426999986172 -0.0799999982119 969.0
0.963999986649 0.419999986887 -0.0799999982119 955.0
0.971000015736 0.416000008583 -0.0799999982119 934.0
0.962999999523 0.405999988317 -0.0790000036359 936.0
0.962000012398 0.398000001907 -0.0790000036359 934.0
0.967000007629 0.393999993801 -0.0790000036359 936.0
0.967999994755 0.386999994516 -0.0790000036359 919.0
0.964999973774 0.379000008106 -0.0790000036359 905.0
0.972000002861 0.375 -0.0790000036359 887.0
0.966000020504 0.365999996662 -0.0780000016093 864.0
0.967000007629 0.360000014305 -0.0780000016093 832.0
0.972000002861 0.356000006199 -0.0780000016093 834.0
0.97000002861 0.347999989986 -0.0780000016093 813.0
0.976000010967 0.344000011683 -0.0780000016093 776.0
0.973999977112 0.337000012398 -0.0780000016093 769.0
0.976999998093 0.331000000238 -0.0780000016093 716.0
0.972999989986 0.323000013828 -0.0780000016093 680.0
0.963999986649 0.31400001049 -0.0769999995828 658.0
0.97000002861 0.310000002384 -0.0769999995828 650.0
0.967000007629 0.303000003099 -0.0769999995828 618.0
0.976999998093 0.300000011921 -0.0769999995828 581.0
0.967000007629 0.289999991655 -0.0759999975562 563.0
0.958999991417 0.282000005245 -0.0759999975562 519.0
0.967999994755 0.277999997139 -0.0759999975562 477.0
0.948000013828 0.266999989748 -0.0740000009537 448.0
0.952000021935 0.261999994516 -0.0750000029802 406.0
0.933000028133 0.250999987125 -0.0729999989271 367.0
0.945999979973 0.247999995947 -0.0740000009537 341.0
0.92199999094 0.236000001431 -0.0719999969006 302.0
0.915000021458 0.229000002146 -0.0710000023246 274.0
0.89200001955 0.216999992728 -0.0689999982715 238.0
0.856999993324 0.203999996185 -0.0670000016689 218.0
0.832000017166 0.193000003695 -0.0649999976158 192.0
0.755999982357 0.171000003815 -0.0590000003576 164.0
0.731000006199 0.159999996424 -0.0570000000298 137.0
0.703999996185 0.15000000596 -0.0540000014007 121.0
0.625999987125 0.129999995232 -0.0480000004172 103.0
0.503000020981 0.101000003517 -0.0390000008047 82.0
0.754999995232 0.146999999881 -0.0579999983311 97.0
0.888000011444 0.167999997735 -0.0680000036955 136.0
0.637000024319 0.116999998689 -0.0489999987185 87.0
0.549000024796 0.097000002861 -0.0419999994338 77.0
0.294999986887 0.0509999990463 -0.0230000000447 60.0
0.342000007629 0.0570000000298 -0.0260000005364 71.0
0.194000005722 0.0320000015199 -0.0149999996647 58.0
0.082000002265 0.0130000002682 -0.00600000005215 54.0
0.238999992609 0.0359999984503 -0.0179999992251 54.0
0.0689999982715 0.0109999999404 -0.00499999988824 55.0
4.96700000763 0.670000016689 -0.377000004053 52.0
4.96799993515 0.64099997282 -0.375999987125 50.0
0.00600000005215 0.00200000009499 -0.0010000000475 50.0
4.90199995041 0.574999988079 -0.370999991894 48.0
5.02899980545 0.560000002384 -0.379999995232 50.0
5.01800012589 0.528999984264 -0.379000008106 53.0
4.98500013351 0.497000008821 -0.375999987125 47.0
5.02099990845 0.470999985933 -0.377999991179 54.0
4.98999977112 0.351999998093 -0.375 52.0
5.0529999733 0.326999992132 -0.379000008106 51.0
5.02799987793 0.238999992609 -0.377000004053 48.0
4.98799991608 0.208000004292 -0.372999995947 49.0
1.00300002098 -0.0659999996424 -0.0750000029802 1029.0
1.0039999485 -0.0710000023246 -0.0750000029802 1217.0
1.00199997425 -0.0769999995828 -0.0750000029802 1221.0
1.00199997425 -0.082999996841 -0.0750000029802 1235.0
0.999000012875 -0.0879999995232 -0.0750000029802 1227.0
1.00199997425 -0.0939999967813 -0.0750000029802 1251.0
0.995000004768 -0.0989999994636 -0.0740000009537 1260.0
0.995000004768 -0.104999996722 -0.0740000009537 1261.0
0.995000004768 -0.111000001431 -0.0740000009537 1274.0
0.987999975681 -0.115999996662 -0.0740000009537 1273.0
0.986999988556 -0.122000001371 -0.0740000009537 1289.0
0.986000001431 -0.127000004053 -0.0740000009537 1296.0
0.986999988556 -0.133000001311 -0.0740000009537 1294.0
0.98400002718 -0.138999998569 -0.0729999989271 1319.0
0.981999993324 -0.143999993801 -0.0729999989271 1319.0
0.976999998093 -0.149000003934 -0.0729999989271 898.0
0.962999999523 -0.152999997139 -0.0719999969006 221.0
0.941999971867 -0.155000001192 -0.0710000023246 182.0
0.930999994278 -0.158000007272 -0.070000000298 183.0
0.936999976635 -0.165000006557 -0.070000000298 189.0
0.944999992847 -0.172000005841 -0.0710000023246 184.0
0.948000013828 -0.178000003099 -0.0710000023246 181.0
0.95300000906 -0.185000002384 -0.0710000023246 184.0
0.939999997616 -0.187999993563 -0.0710000023246 178.0
0.933000028133 -0.192000001669 -0.070000000298 187.0
0.924000024796 -0.195999994874 -0.0689999982715 193.0
0.925000011921 -0.202000007033 -0.070000000298 192.0
0.934000015259 -0.209999993443 -0.070000000298 201.0
0.93599998951 -0.216000005603 -0.0710000023246 199.0
0.927999973297 -0.219999998808 -0.070000000298 218.0
0.949999988079 -0.231000006199 -0.0719999969006 1035.0
0.957000017166 -0.238000005484 -0.0719999969006 1456.0
0.945999979973 -0.240999996662 -0.0710000023246 1483.0
0.944999992847 -0.24699999392 -0.0710000023246 1496.0
0.944999992847 -0.252999991179 -0.0719999969006 1494.0
0.944000005722 -0.259000003338 -0.0719999969006 1506.0
0.944999992847 -0.264999985695 -0.0719999969006 1498.0
0.940999984741 -0.270000010729 -0.0710000023246 1519.0
0.93900001049 -0.27500000596 -0.0710000023246 1536.0
0.935000002384 -0.280000001192 -0.0710000023246 1525.0
0.930999994278 -0.284999996424 -0.0710000023246 1536.0
0.938000023365 -0.293000012636 -0.0719999969006 1547.0
0.93599998951 -0.298000007868 -0.0710000023246 1550.0
0.934000015259 -0.303000003099 -0.0710000023246 1541.0
0.927999973297 -0.307999998331 -0.0710000023246 1388.0
0.908999979496 -0.307000011206 -0.070000000298 372.0
0.887000024319 -0.305999994278 -0.0680000036955 225.0
0.885999977589 -0.31099998951 -0.0680000036955 219.0
0.870000004768 -0.31099998951 -0.0670000016689 221.0
0.878000020981 -0.319999992847 -0.0680000036955 225.0
0.885999977589 -0.328999996185 -0.0680000036955 225.0
0.893999993801 -0.337999999523 -0.0689999982715 220.0
0.875999987125 -0.337000012398 -0.0680000036955 223.0
0.867999970913 -0.340000003576 -0.0670000016689 220.0
0.888999998569 -0.354999989271 -0.0689999982715 227.0
0.901000022888 -0.365999996662 -0.070000000298 222.0
0.874000012875 -0.361000001431 -0.0680000036955 227.0
0.882000029087 -0.370000004768 -0.0689999982715 229.0
0.875 -0.372999995947 -0.0680000036955 232.0
0.893999993801 -0.388000011444 -0.070000000298 1042.0
0.898000001907 -0.395999997854 -0.0710000023246 1604.0
0.898999989033 -0.404000014067 -0.0710000023246 1635.0
0.893000006676 -0.407000005245 -0.070000000298 1641.0
0.896000027657 -0.414999991655 -0.0710000023246 1656.0
0.89099997282 -0.418999999762 -0.0710000023246 1663.0
0.888999998569 -0.425000011921 -0.0710000023246 1666.0
0.888000011444 -0.430999994278 -0.0710000023246 1673.0
0.883000016212 -0.43599998951 -0.070000000298 1678.0
0.883000016212 -0.442999988794 -0.0710000023246 1663.0
0.884000003338 -0.449999988079 -0.0710000023246 1676.0
0.875999987125 -0.451999992132 -0.070000000298 1662.0
0.874000012875 -0.458000004292 -0.070000000298 1682.0
0.879999995232 -0.467999994755 -0.0710000023246 1624.0
0.870999991894 -0.469999998808 -0.070000000298 594.0
0.836000025272 -0.458000004292 -0.0680000036955 242.0
0.810000002384 -0.449999988079 -0.0659999996424 222.0
0.967000007629 0.555000007153 -0.0909999981523 552.0
0.967999994755 0.547999978065 -0.0900000035763 606.0
0.963999986649 0.537999987602 -0.0900000035763 634.0
0.967000007629 0.53100001812 -0.0900000035763 674.0
0.958999991417 0.518999993801 -0.0890000015497 702.0
0.958999991417 0.512000024319 -0.0879999995232 739.0
0.958999991417 0.504000008106 -0.0879999995232 751.0
0.958999991417 0.497000008821 -0.0879999995232 788.0
0.961000025272 0.490000009537 -0.0879999995232 823.0
0.953999996185 0.479000002146 -0.0869999974966 844.0
0.958999991417 0.474000006914 -0.0869999974966 869.0
0.963999986649 0.469000011683 -0.0869999974966 893.0
0.957000017166 0.458999991417 -0.0860000029206 924.0
0.961000025272 0.453999996185 -0.0869999974966 944.0
0.958999991417 0.444999992847 -0.0860000029206 962.0
0.959999978542 0.43900001049 -0.0860000029206 990.0
0.957000017166 0.430000007153 -0.0850000008941 1007.0
0.964999973774 0.426999986172 -0.0860000029206 1015.0
0.957000017166 0.416999995708 -0.0850000008941 1038.0
0.961000025272 0.412000000477 -0.0850000008941 1020.0
0.959999978542 0.404000014067 -0.0850000008941 1023.0
0.967000007629 0.40000000596 -0.0850000008941 1051.0
0.962999999523 0.391999989748 -0.0850000008941 1056.0
0.962999999523 0.384999990463 -0.0839999988675 1065.0
0.967000007629 0.379999995232 -0.0850000008941 1066.0
0.959999978542 0.370999991894 -0.0839999988675 1064.0
0.963999986649 0.365999996662 -0.0839999988675 1068.0
0.967999994755 0.361000001431 -0.0839999988675 1055.0
0.96899998188 0.354999989271 -0.0839999988675 1084.0
0.97000002861 0.347999989986 -0.0839999988675 1106.0
0.964999973774 0.340000003576 -0.082999996841 1097.0
0.976000010967 0.337999999523 -0.0839999988675 1097.0
0.96899998188 0.328999996185 -0.082999996841 1095.0
0.973999977112 0.324000000954 -0.0839999988675 1090.0
0.96899998188 0.316000014544 -0.082999996841 1107.0
0.964999973774 0.307999998331 -0.082000002265 1114.0
0.973999977112 0.305000007153 -0.082999996841 1110.0
0.972000002861 0.298000007868 -0.082999996841 1082.0
0.972999989986 0.291999995708 -0.082999996841 1071.0
0.972000002861 0.284999996424 -0.082000002265 1073.0
0.971000015736 0.279000014067 -0.082000002265 1048.0
0.973999977112 0.273999989033 -0.082000002265 1037.0
0.977999985218 0.268999993801 -0.082999996841 1024.0
0.972999989986 0.261000007391 -0.082000002265 1015.0
0.973999977112 0.256000012159 -0.082000002265 1020.0
0.973999977112 0.248999997973 -0.082000002265 1020.0
0.977999985218 0.245000004768 -0.082000002265 993.0
0.975000023842 0.238000005484 -0.082000002265 965.0
0.975000023842 0.231999993324 -0.0810000002384 946.0
0.977999985218 0.225999996066 -0.082000002265 942.0
0.985000014305 0.222000002861 -0.082000002265 932.0
0.976000010967 0.21400000155 -0.0810000002384 915.0
0.986000001431 0.209999993443 -0.082000002265 897.0
0.98400002718 0.203999996185 -0.082000002265 864.0
0.98400002718 0.197999998927 -0.082000002265 832.0
0.977999985218 0.190999999642 -0.0810000002384 798.0
0.981000006199 0.185000002384 -0.0810000002384 736.0
0.976999998093 0.179000005126 -0.0810000002384 726.0
0.980000019073 0.173999994993 -0.0810000002384 704.0
0.978999972343 0.167999997735 -0.0810000002384 657.0
0.976999998093 0.16099999845 -0.0799999982119 627.0
0.985000014305 0.157000005245 -0.0810000002384 598.0
0.978999972343 0.15000000596 -0.0799999982119 577.0
0.976000010967 0.143999993801 -0.0799999982119 530.0
0.972999989986 0.137999996543 -0.0799999982119 500.0
0.967000007629 0.130999997258 -0.0790000036359 478.0
0.967999994755 0.126000002027 -0.0790000036359 449.0
0.964999973774 0.119999997318 -0.0790000036359 410.0
0.958000004292 0.112999998033 -0.0780000016093 382.0
0.957000017166 0.107000000775 -0.0780000016093 351.0
0.959999978542 0.101999998093 -0.0780000016093 330.0
0.944999992847 0.0949999988079 -0.0769999995828 302.0
0.938000023365 0.0890000015497 -0.0759999975562 265.0
0.940999984741 0.0839999988675 -0.0759999975562 247.0
0.922999978065 0.0769999995828 -0.0750000029802 227.0
0.90499997139 0.070000000298 -0.0729999989271 204.0
0.897000014782 0.0640000030398 -0.0729999989271 185.0
0.876999974251 0.0579999983311 -0.0710000023246 167.0
0.847999989986 0.0509999990463 -0.0689999982715 144.0
0.81400001049 0.0450000017881 -0.0659999996424 128.0
0.847999989986 0.0410000011325 -0.0689999982715 145.0
0.867999970913 0.0370000004768 -0.070000000298 170.0
0.818000018597 0.0309999994934 -0.0659999996424 126.0
0.838999986649 0.0270000007004 -0.0680000036955 110.0
0.824000000954 0.0209999997169 -0.0670000016689 119.0
1.02100002766 -0.0610000006855 -0.082000002265 296.0
0.999000012875 -0.0649999976158 -0.0799999982119 1055.0
1.0039999485 -0.0710000023246 -0.0810000002384 1217.0
1.00300002098 -0.0769999995828 -0.0810000002384 1225.0
1.00499999523 -0.082999996841 -0.0810000002384 1233.0
1.00300002098 -0.0890000015497 -0.0810000002384 1242.0
0.996999979019 -0.0939999967813 -0.0799999982119 1246.0
0.998000025749 -0.10000000149 -0.0799999982119 1253.0
0.996999979019 -0.105999998748 -0.0799999982119 1266.0
0.990999996662 -0.111000001431 -0.0799999982119 1269.0
0.996999979019 -0.116999998689 -0.0799999982119 1284.0
0.989000022411 -0.122000001371 -0.0799999982119 1286.0
0.986000001431 -0.127000004053 -0.0790000036359 1284.0
0.98400002718 -0.133000001311 -0.0790000036359 1304.0
0.977999985218 -0.137999996543 -0.0790000036359 1318.0
0.981000006199 -0.143999993801 -0.0790000036359 1318.0
0.975000023842 -0.149000003934 -0.0790000036359 868.0
0.959999978542 -0.151999995112 -0.0769999995828 210.0
0.953999996185 -0.157000005245 -0.0769999995828 182.0
0.936999976635 -0.159999996424 -0.0759999975562 181.0
0.944000005722 -0.165999993682 -0.0759999975562 184.0
0.933000028133 -0.170000001788 -0.0750000029802 187.0
0.927999973297 -0.17499999702 -0.0750000029802 184.0
0.938000023365 -0.181999996305 -0.0759999975562 187.0
0.926999986172 -0.186000004411 -0.0750000029802 188.0
0.910000026226 -0.187999993563 -0.0740000009537 184.0
0.935000002384 -0.199000000954 -0.0759999975562 194.0
0.930999994278 -0.202999994159 -0.0750000029802 197.0
0.939999997616 -0.21099999547 -0.0759999975562 196.0
0.945999979973 -0.217999994755 -0.0769999995828 197.0
0.936999976635 -0.222000002861 -0.0759999975562 222.0
0.944999992847 -0.230000004172 -0.0769999995828 1067.0
0.958999991417 -0.238999992609 -0.0780000016093 1465.0
0.950999975204 -0.243000000715 -0.0769999995828 1483.0
0.952000021935 -0.248999997973 -0.0780000016093 1492.0
0.940999984741 -0.252000004053 -0.0769999995828 1496.0
0.944000005722 -0.259000003338 -0.0769999995828 1509.0
0.945999979973 -0.264999985695 -0.0769999995828 1511.0
0.936999976635 -0.268999993801 -0.0769999995828 1502.0
0.938000023365 -0.27500000596 -0.0769999995828 1527.0
0.93900001049 -0.280999988317 -0.0769999995828 1514.0
0.933000028133 -0.284999996424 -0.0769999995828 1527.0
0.93599998951 -0.291999995708 -0.0769999995828 1547.0
0.931999981403 -0.29699999094 -0.0769999995828 1543.0
0.935000002384 -0.303999990225 -0.0769999995828 1548.0
0.929000020027 -0.307999998331 -0.0769999995828 1362.0
0.911000013351 -0.307999998331 -0.0750000029802 361.0
0.907999992371 -0.312999993563 -0.0750000029802 219.0
0.866999983788 -0.305000007153 -0.0719999969006 217.0
0.899999976158 -0.321999996901 -0.0750000029802 214.0
0.896000027657 -0.326999992132 -0.0750000029802 215.0
0.871999979019 -0.324000000954 -0.0729999989271 215.0
0.889999985695 -0.337000012398 -0.0740000009537 215.0
0.878000020981 -0.337999999523 -0.0729999989271 222.0
0.89099997282 -0.349000006914 -0.0750000029802 223.0
0.878000020981 -0.34999999404 -0.0740000009537 229.0
0.879999995232 -0.356999993324 -0.0740000009537 221.0
0.893999993801 -0.368999987841 -0.0750000029802 227.0
0.884000003338 -0.370999991894 -0.0750000029802 221.0
0.870000004768 -0.372000008821 -0.0729999989271 232.0
0.903999984264 -0.393000006676 -0.0769999995828 1084.0
0.899999976158 -0.398000001907 -0.0759999975562 1593.0
0.89200001955 -0.40000000596 -0.0759999975562 1662.0
0.898999989033 -0.409999996424 -0.0769999995828 1657.0
0.893999993801 -0.41400000453 -0.0759999975562 1655.0
0.888999998569 -0.418999999762 -0.0759999975562 1659.0
0.889999985695 -0.425999999046 -0.0759999975562 1668.0
0.887000024319 -0.430999994278 -0.0759999975562 1663.0
0.884000003338 -0.43599998951 -0.0759999975562 1670.0
0.885999977589 -0.444000005722 -0.0759999975562 1660.0
0.883000016212 -0.449000000954 -0.0759999975562 1674.0
0.879999995232 -0.455000013113 -0.0759999975562 1668.0
0.879000008106 -0.46099999547 -0.0759999975562 1674.0
0.869000017643 -0.462999999523 -0.0759999975562 1606.0
0.864000022411 -0.467000007629 -0.0750000029802 551.0
0.853999972343 -0.467999994755 -0.0750000029802 243.0
0.837999999523 -0.465999990702 -0.0740000009537 221.0
1.84399998188 1.05999994278 -0.185000002384 141.0
1.47300004959 0.833999991417 -0.146999999881 119.0
1.04700005054 0.583999991417 -0.104000002146 204.0
0.964999973774 0.523000001907 -0.0960000008345 302.0
0.986000001431 0.526000022888 -0.097000002861 222.0
0.967999994755 0.509000003338 -0.0949999988079 244.0
0.995000004768 0.514999985695 -0.097999997437 277.0
0.964999973774 0.49200001359 -0.0939999967813 320.0
0.97000002861 0.486999988556 -0.0949999988079 361.0
0.972999989986 0.481000006199 -0.0949999988079 405.0
0.958999991417 0.467000007629 -0.0930000022054 461.0
0.966000020504 0.462999999523 -0.0930000022054 494.0
0.963999986649 0.455000013113 -0.0930000022054 550.0
0.967999994755 0.449999988079 -0.0930000022054 597.0
0.952000021935 0.43599998951 -0.0909999981523 621.0
0.967000007629 0.435000002384 -0.0920000001788 652.0
0.964999973774 0.426999986172 -0.0920000001788 705.0
0.959999978542 0.418000012636 -0.0909999981523 731.0
0.959999978542 0.411000013351 -0.0909999981523 755.0
0.959999978542 0.404000014067 -0.0909999981523 768.0
0.967999994755 0.400999993086 -0.0909999981523 804.0
0.964999973774 0.393000006676 -0.0909999981523 844.0
0.971000015736 0.388999998569 -0.0909999981523 869.0
0.966000020504 0.379999995232 -0.0900000035763 873.0
0.962000012398 0.372000008821 -0.0900000035763 910.0
0.971000015736 0.368000000715 -0.0900000035763 938.0
0.962000012398 0.358000010252 -0.0890000015497 954.0
0.971000015736 0.354999989271 -0.0900000035763 987.0
0.966000020504 0.347000002861 -0.0890000015497 1018.0
0.971000015736 0.342000007629 -0.0900000035763 1048.0
0.96899998188 0.335000008345 -0.0890000015497 1053.0
0.971000015736 0.330000013113 -0.0890000015497 1068.0
0.963999986649 0.321000009775 -0.0890000015497 1078.0
0.972000002861 0.317000001669 -0.0890000015497 1100.0
0.972000002861 0.31099998951 -0.0890000015497 1138.0
0.967000007629 0.303000003099 -0.0879999995232 1142.0
0.96899998188 0.29699999094 -0.0879999995232 1147.0
0.972000002861 0.291999995708 -0.0879999995232 1165.0
0.967000007629 0.284000009298 -0.0879999995232 1168.0
0.967999994755 0.277999997139 -0.0879999995232 1181.0
0.97000002861 0.273000001907 -0.0879999995232 1199.0
0.975000023842 0.268000006676 -0.0879999995232 1211.0
0.967999994755 0.259999990463 -0.0869999974966 1237.0
0.972000002861 0.254999995232 -0.0869999974966 1237.0
0.966000020504 0.24699999392 -0.0869999974966 1254.0
0.972999989986 0.243000000715 -0.0869999974966 1259.0
0.976000010967 0.238000005484 -0.0869999974966 1268.0
0.976000010967 0.231999993324 -0.0869999974966 1282.0
0.975000023842 0.225999996066 -0.0869999974966 1294.0
0.98299998045 0.221000000834 -0.0879999995232 1295.0
0.978999972343 0.215000003576 -0.0869999974966 1268.0
0.972999989986 0.208000004292 -0.0869999974966 1312.0
0.976999998093 0.202000007033 -0.0869999974966 1321.0
0.975000023842 0.195999994874 -0.0869999974966 1308.0
0.976000010967 0.189999997616 -0.0869999974966 1296.0
0.976999998093 0.185000002384 -0.0869999974966 1290.0
0.976999998093 0.179000005126 -0.0860000029206 1293.0
0.977999985218 0.172999992967 -0.0860000029206 1293.0
0.981999993324 0.167999997735 -0.0869999974966 1268.0
0.978999972343 0.162000000477 -0.0860000029206 1277.0
0.976000010967 0.155000001192 -0.0860000029206 1277.0
0.98299998045 0.150999993086 -0.0860000029206 1256.0
0.981000006199 0.144999995828 -0.0860000029206 1245.0
0.986000001431 0.140000000596 -0.0860000029206 1257.0
0.986999988556 0.134000003338 -0.0869999974966 1246.0
0.986000001431 0.12800000608 -0.0860000029206 1251.0
0.990000009537 0.123000003397 -0.0869999974966 1235.0
0.986000001431 0.115999996662 -0.0860000029206 1229.0
0.990000009537 0.111000001431 -0.0860000029206 1207.0
0.985000014305 0.104999996722 -0.0860000029206 1195.0
0.98400002718 0.0989999994636 -0.0860000029206 1183.0
0.98400002718 0.0930000022054 -0.0860000029206 1153.0
0.987999975681 0.0879999995232 -0.0860000029206 1150.0
0.986000001431 0.082000002265 -0.0860000029206 1138.0
0.989000022411 0.0769999995828 -0.0860000029206 1089.0
0.990999996662 0.0710000023246 -0.0860000029206 1080.0
0.990000009537 0.0649999976158 -0.0860000029206 1043.0
0.989000022411 0.0590000003576 -0.0860000029206 1016.0
0.987999975681 0.0540000014007 -0.0860000029206 972.0
0.996999979019 0.0480000004172 -0.0860000029206 938.0
0.987999975681 0.0419999994338 -0.0860000029206 897.0
0.990000009537 0.0370000004768 -0.0860000029206 867.0
0.987999975681 0.0309999994934 -0.0860000029206 820.0
0.98400002718 0.0250000003725 -0.0850000008941 784.0
0.991999983788 0.019999999553 -0.0860000029206 745.0
0.999000012875 0.0140000004321 -0.0860000029206 669.0
1.04100000858 0.00899999961257 -0.0900000035763 199.0
1.0039999485 -0.0659999996424 -0.0869999974966 1063.0
1.00800001621 -0.0719999969006 -0.0869999974966 1225.0
1.00199997425 -0.0769999995828 -0.0860000029206 1223.0
0.998000025749 -0.082999996841 -0.0860000029206 1227.0
0.996999979019 -0.0879999995232 -0.0860000029206 1238.0
0.995999991894 -0.0939999967813 -0.0860000029206 1248.0
0.992999970913 -0.0989999994636 -0.0860000029206 1256.0
0.994000017643 -0.104999996722 -0.0860000029206 1258.0
0.994000017643 -0.111000001431 -0.0860000029206 1262.0
0.990999996662 -0.115999996662 -0.0850000008941 1285.0
0.985000014305 -0.122000001371 -0.0850000008941 1282.0
0.981999993324 -0.127000004053 -0.0850000008941 1298.0
0.98400002718 -0.133000001311 -0.0850000008941 1290.0
0.986999988556 -0.138999998569 -0.0850000008941 1308.0
0.985000014305 -0.144999995828 -0.0850000008941 1318.0
0.978999972343 -0.15000000596 -0.0850000008941 834.0
0.944000005722 -0.15000000596 -0.082000002265 208.0
0.924000024796 -0.151999995112 -0.0799999982119 184.0
0.955999970436 -0.163000002503 -0.082999996841 181.0
0.93599998951 -0.165000006557 -0.0810000002384 181.0
0.939999997616 -0.171000003815 -0.0810000002384 181.0
0.936999976635 -0.175999999046 -0.0810000002384 184.0
0.917999982834 -0.178000003099 -0.0799999982119 193.0
0.93900001049 -0.187999993563 -0.082000002265 188.0
0.949000000954 -0.195999994874 -0.082000002265 187.0
0.929000020027 -0.196999996901 -0.0810000002384 192.0
0.908999979496 -0.199000000954 -0.0790000036359 191.0
0.938000023365 -0.21099999547 -0.082000002265 200.0
0.925999999046 -0.21400000155 -0.0810000002384 195.0
0.933000028133 -0.221000000834 -0.0810000002384 228.0
0.959999978542 -0.232999995351 -0.0839999988675 1102.0
0.955999970436 -0.238000005484 -0.082999996841 1461.0
0.949999988079 -0.243000000715 -0.082999996841 1479.0
0.947000026703 -0.247999995947 -0.082999996841 1493.0
0.944999992847 -0.252999991179 -0.082999996841 1489.0
0.944999992847 -0.259000003338 -0.082999996841 1500.0
0.941999971867 -0.263999998569 -0.082999996841 1505.0
0.940999984741 -0.270000010729 -0.082999996841 1511.0
0.93599998951 -0.273999989033 -0.082000002265 1515.0
0.938000023365 -0.280999988317 -0.082999996841 1514.0
0.935000002384 -0.286000013351 -0.082000002265 1528.0
0.931999981403 -0.291000008583 -0.082000002265 1540.0
0.931999981403 -0.29699999094 -0.082000002265 1552.0
0.929000020027 -0.301999986172 -0.082000002265 1552.0
0.929000020027 -0.308999985456 -0.082000002265 1326.0
0.916000008583 -0.310000002384 -0.0810000002384 342.0
0.910000026226 -0.31400001049 -0.0810000002384 218.0
0.888999998569 -0.312999993563 -0.0790000036359 217.0
0.90499997139 -0.324000000954 -0.0810000002384 217.0
0.889999985695 -0.324999988079 -0.0790000036359 220.0
0.885999977589 -0.328999996185 -0.0790000036359 217.0
0.885999977589 -0.335000008345 -0.0790000036359 219.0
0.879000008106 -0.338999986649 -0.0790000036359 220.0
0.880999982357 -0.345999985933 -0.0790000036359 222.0
0.884999990463 -0.352999985218 -0.0799999982119 227.0
0.870999991894 -0.354000002146 -0.0790000036359 224.0
0.873000025749 -0.361000001431 -0.0790000036359 229.0
0.875 -0.368000000715 -0.0790000036359 220.0
0.879999995232 -0.375999987125 -0.0799999982119 236.0
0.89099997282 -0.386999994516 -0.0810000002384 1134.0
0.897000014782 -0.395999997854 -0.082000002265 1603.0
0.893999993801 -0.402000010014 -0.082000002265 1644.0
0.893000006676 -0.407999992371 -0.082000002265 1648.0
0.887000024319 -0.411000013351 -0.0810000002384 1650.0
0.89099997282 -0.419999986887 -0.082000002265 1648.0
0.888999998569 -0.425000011921 -0.082000002265 1657.0
0.89099997282 -0.432999998331 -0.082000002265 1658.0
0.883000016212 -0.43599998951 -0.082000002265 1667.0
0.885999977589 -0.444000005722 -0.082000002265 1672.0
0.883000016212 -0.449999988079 -0.082000002265 1678.0
0.882000029087 -0.456000000238 -0.082000002265 1672.0
0.879999995232 -0.462000012398 -0.082000002265 1674.0
0.875999987125 -0.467000007629 -0.082000002265 1579.0
0.871999979019 -0.470999985933 -0.082000002265 521.0
0.851999998093 -0.467000007629 -0.0799999982119 243.0
0.833999991417 -0.463999986649 -0.0790000036359 230.0
2.18400001526 1.25600004196 -0.232999995351 185.0
2.2009999752 1.24800002575 -0.233999997377 118.0
1.03600001335 0.481999993324 -0.105999998748 85.0
0.977999985218 0.405000001192 -0.097999997437 386.0
0.957000017166 0.389999985695 -0.0960000008345 320.0
0.949999988079 0.379999995232 -0.0949999988079 295.0
0.96899998188 0.381000012159 -0.097000002861 337.0
0.954999983311 0.368999987841 -0.0949999988079 363.0
0.944999992847 0.358999997377 -0.0939999967813 403.0
0.954999983311 0.356000006199 -0.0949999988079 461.0
0.962999999523 0.352999985218 -0.0949999988079 499.0
0.955999970436 0.344000011683 -0.0939999967813 547.0
0.964999973774 0.340000003576 -0.0949999988079 605.0
0.962000012398 0.333000004292 -0.0949999988079 631.0
0.973999977112 0.331000000238 -0.0960000008345 667.0
0.972000002861 0.324000000954 -0.0949999988079 705.0
0.96899998188 0.316000014544 -0.0949999988079 735.0
0.963999986649 0.307999998331 -0.0939999967813 789.0
0.972000002861 0.305000007153 -0.0949999988079 821.0
0.972999989986 0.298000007868 -0.0949999988079 847.0
0.973999977112 0.293000012636 -0.0939999967813 881.0
0.96899998188 0.284999996424 -0.0939999967813 903.0
0.967999994755 0.277999997139 -0.0939999967813 943.0
0.966000020504 0.272000014782 -0.0930000022054 970.0
0.975000023842 0.268000006676 -0.0939999967813 996.0
0.973999977112 0.261999994516 -0.0939999967813 1023.0
0.972999989986 0.254999995232 -0.0930000022054 1032.0
0.972999989986 0.248999997973 -0.0930000022054 1073.0
0.973999977112 0.244000002742 -0.0930000022054 1096.0
0.967999994755 0.236000001431 -0.0930000022054 1138.0
0.973999977112 0.231000006199 -0.0930000022054 1166.0
0.972000002861 0.22499999404 -0.0930000022054 1186.0
0.978999972343 0.221000000834 -0.0930000022054 1194.0
0.975000023842 0.21400000155 -0.0930000022054 1226.0
0.972999989986 0.207000002265 -0.0920000001788 1271.0
0.973999977112 0.202000007033 -0.0920000001788 1288.0
0.972999989986 0.195999994874 -0.0920000001788 1298.0
0.975000023842 0.189999997616 -0.0920000001788 1311.0
0.980000019073 0.185000002384 -0.0920000001788 1324.0
0.975000023842 0.178000003099 -0.0920000001788 1337.0
0.975000023842 0.172999992967 -0.0920000001788 1375.0
0.976000010967 0.166999995708 -0.0920000001788 1385.0
0.975000023842 0.16099999845 -0.0920000001788 1399.0
0.980000019073 0.156000003219 -0.0920000001788 1438.0
0.981000006199 0.15000000596 -0.0920000001788 1469.0
0.977999985218 0.143999993801 -0.0920000001788 1477.0
0.981999993324 0.138999998569 -0.0920000001788 1536.0
0.980000019073 0.133000001311 -0.0920000001788 1561.0
0.981999993324 0.12800000608 -0.0920000001788 1589.0
0.978999972343 0.120999999344 -0.0909999981523 1614.0
0.981000006199 0.115999996662 -0.0920000001788 1607.0
0.978999972343 0.109999999404 -0.0909999981523 1653.0
0.980000019073 0.104000002146 -0.0909999981523 1626.0
0.980000019073 0.0989999994636 -0.0909999981523 1650.0
0.98299998045 0.0930000022054 -0.0909999981523 1648.0
0.980000019073 0.0869999974966 -0.0909999981523 1678.0
0.986999988556 0.082000002265 -0.0920000001788 1689.0
0.980000019073 0.0759999975562 -0.0909999981523 1701.0
0.98400002718 0.0710000023246 -0.0909999981523 1715.0
0.985000014305 0.0649999976158 -0.0909999981523 1754.0
0.986999988556 0.0590000003576 -0.0909999981523 1752.0
0.98400002718 0.0540000014007 -0.0909999981523 1775.0
0.986000001431 0.0480000004172 -0.0909999981523 1734.0
0.981999993324 0.0419999994338 -0.0909999981523 1692.0
0.987999975681 0.0370000004768 -0.0909999981523 1650.0
0.98400002718 0.0309999994934 -0.0909999981523 1640.0
0.98299998045 0.0250000003725 -0.0909999981523 1644.0
0.985000014305 0.019999999553 -0.0909999981523 1608.0
0.987999975681 0.0140000004321 -0.0909999981523 1426.0
1.00699996948 0.00800000037998 -0.0930000022054 403.0
1.00999999046 -0.0599999986589 -0.0930000022054 353.0
1.0039999485 -0.0659999996424 -0.0920000001788 1070.0
1.00100004673 -0.0710000023246 -0.0920000001788 1218.0
1.00499999523 -0.0769999995828 -0.0920000001788 1224.0
1.0039999485 -0.082999996841 -0.0920000001788 1227.0
0.995999991894 -0.0879999995232 -0.0920000001788 1234.0
0.995999991894 -0.0939999967813 -0.0920000001788 1250.0
0.990999996662 -0.0989999994636 -0.0909999981523 1259.0
0.995000004768 -0.104999996722 -0.0920000001788 1267.0
0.991999983788 -0.111000001431 -0.0909999981523 1262.0
0.986000001431 -0.115999996662 -0.0909999981523 1284.0
0.987999975681 -0.122000001371 -0.0909999981523 1286.0
0.990999996662 -0.12800000608 -0.0909999981523 1283.0
0.98299998045 -0.133000001311 -0.0909999981523 1296.0
0.98299998045 -0.138999998569 -0.0909999981523 1322.0
0.981999993324 -0.143999993801 -0.0909999981523 1325.0
0.978999972343 -0.15000000596 -0.0900000035763 808.0
0.961000025272 -0.152999997139 -0.0890000015497 196.0
0.922999978065 -0.151999995112 -0.0850000008941 178.0
