ply
format ascii 1.0
element vertex 931
property float x
property float y
property float z
property float intensity
end_header
0.875 -0.483000010252 0.155000001192 1597.0
0.875 -0.490999996662 0.156000003219 1607.0
2.17600011826 1.26499998569 0.36700001359 94.0
2.242000103 1.2840000391 0.377000004053 161.0
2.22000002861 1.25300002098 0.372000008821 185.0
2.28200006485 1.26999998093 0.381000012159 101.0
4.58699989319 1.57400000095 0.721000015736 61.0
0.0630000010133 0.0209999997169 0.00800000037998 51.0
0.0869999974966 0.0289999991655 0.0109999999404 55.0
0.414999991655 0.134000003338 0.0630000010133 76.0
0.823000013828 0.254999995232 0.127000004053 98.0
0.790000021458 0.239999994636 0.120999999344 116.0
0.882000029087 0.261999994516 0.135000005364 125.0
0.879999995232 0.256000012159 0.135000005364 140.0
0.887000024319 0.252000004053 0.136000007391 154.0
0.911000013351 0.252999991179 0.138999998569 167.0
0.924000024796 0.250999987125 0.141000002623 174.0
0.931999981403 0.247999995947 0.142000004649 176.0
0.93599998951 0.243000000715 0.143000006676 190.0
0.933000028133 0.236000001431 0.142000004649 194.0
0.919000029564 0.226999998093 0.140000000596 202.0
0.912999987602 0.219999998808 0.138999998569 204.0
0.745999991894 0.17499999702 0.112999998033 133.0
0.85799998045 0.195999994874 0.129999995232 172.0
0.791999995708 0.175999999046 0.119999997318 147.0
0.791999995708 0.171000003815 0.119999997318 149.0
0.816999971867 0.171000003815 0.123000003397 149.0
0.813000023365 0.165999993682 0.123000003397 159.0
0.846000015736 0.166999995708 0.127000004053 163.0
0.934000015259 0.179000005126 0.141000002623 180.0
0.985000014305 0.182999998331 0.149000003934 194.0
0.977999985218 0.175999999046 0.148000001907 192.0
0.972999989986 0.168999999762 0.146999999881 204.0
0.986999988556 0.165000006557 0.149000003934 204.0
0.980000019073 0.158000007272 0.148000001907 213.0
0.991999983788 0.153999999166 0.149000003934 210.0
0.966000020504 0.144999995828 0.144999995828 215.0
0.976000010967 0.140000000596 0.146999999881 214.0
0.972999989986 0.134000003338 0.145999997854 211.0
0.957000017166 0.126000002027 0.143999993801 210.0
0.986999988556 0.123999997973 0.148000001907 222.0
0.976000010967 0.116999998689 0.145999997854 225.0
0.986999988556 0.112999998033 0.148000001907 225.0
0.995999991894 0.108000002801 0.149000003934 237.0
0.962999999523 0.0989999994636 0.143999993801 237.0
0.978999972343 0.0949999988079 0.146999999881 232.0
0.986000001431 0.0900000035763 0.148000001907 241.0
0.98400002718 0.0839999988675 0.146999999881 257.0
0.958999991417 0.0759999975562 0.143999993801 268.0
0.98400002718 0.0719999969006 0.146999999881 263.0
0.978999972343 0.0659999996424 0.145999997854 260.0
0.971000015736 0.0599999986589 0.144999995828 265.0
0.980000019073 0.054999999702 0.146999999881 258.0
0.975000023842 0.0489999987185 0.145999997854 249.0
0.986999988556 0.0439999997616 0.148000001907 254.0
0.978999972343 0.0379999987781 0.146999999881 252.0
1.0 0.0329999998212 0.15000000596 251.0
0.981999993324 0.0270000007004 0.146999999881 223.0
1.01600003242 -0.0659999996424 0.152999997139 497.0
1.00999999046 -0.0710000023246 0.151999995112 986.0
1.00600004196 -0.0769999995828 0.150999993086 326.0
0.972000002861 -0.0799999982119 0.145999997854 151.0
0.949000000954 -0.082999996841 0.143000006676 149.0
0.958000004292 -0.0900000035763 0.143999993801 147.0
0.953999996185 -0.0949999988079 0.143999993801 149.0
0.95300000906 -0.10000000149 0.143999993801 154.0
0.976999998093 -0.108999997377 0.148000001907 157.0
0.945999979973 -0.111000001431 0.143000006676 153.0
0.957000017166 -0.118000000715 0.144999995828 156.0
0.964999973774 -0.123999997973 0.145999997854 160.0
0.944000005722 -0.127000004053 0.143000006676 158.0
0.95300000906 -0.134000003338 0.143999993801 163.0
0.949999988079 -0.138999998569 0.143999993801 164.0
0.964999973774 -0.146999999881 0.146999999881 201.0
0.977999985218 -0.155000001192 0.149000003934 952.0
0.98299998045 -0.162000000477 0.15000000596 1303.0
0.978999972343 -0.166999995708 0.149000003934 1300.0
0.980000019073 -0.172999992967 0.149000003934 1316.0
0.972000002861 -0.177000001073 0.148000001907 1336.0
0.96899998188 -0.182999998331 0.148000001907 1340.0
0.972000002861 -0.188999995589 0.149000003934 1345.0
0.972000002861 -0.194999992847 0.149000003934 1355.0
0.973999977112 -0.201000005007 0.149000003934 1370.0
0.966000020504 -0.204999998212 0.148000001907 1385.0
0.96899998188 -0.211999997497 0.149000003934 1371.0
0.964999973774 -0.216999992728 0.148000001907 1381.0
0.966000020504 -0.223000004888 0.149000003934 1385.0
0.958999991417 -0.228000000119 0.148000001907 1400.0
0.962000012398 -0.233999997377 0.149000003934 972.0
0.944999992847 -0.236000001431 0.145999997854 243.0
0.931999981403 -0.238000005484 0.143999993801 186.0
0.944999992847 -0.247999995947 0.146999999881 189.0
0.921000003815 -0.24699999392 0.143000006676 184.0
0.919000029564 -0.252000004053 0.143000006676 188.0
0.912999987602 -0.256999999285 0.142000004649 187.0
0.893000006676 -0.256000012159 0.138999998569 192.0
0.920000016689 -0.270000010729 0.143999993801 189.0
0.930000007153 -0.279000014067 0.145999997854 189.0
0.926999986172 -0.284000009298 0.145999997854 196.0
0.896000027657 -0.280999988317 0.141000002623 192.0
0.903999984264 -0.28900000453 0.142000004649 188.0
0.907999992371 -0.296000003815 0.143000006676 197.0
0.938000023365 -0.312000006437 0.148000001907 253.0
0.922999978065 -0.312999993563 0.145999997854 1189.0
0.933000028133 -0.323000013828 0.148000001907 1497.0
0.935000002384 -0.330000013113 0.149000003934 1507.0
0.929000020027 -0.333999991417 0.148000001907 1522.0
0.92199999094 -0.337999999523 0.146999999881 1539.0
0.924000024796 -0.344999998808 0.148000001907 1526.0
0.922999978065 -0.351000010967 0.148000001907 1532.0
0.917999982834 -0.354999989271 0.148000001907 1549.0
0.921000003815 -0.363000005484 0.148000001907 1546.0
0.913999974728 -0.36700001359 0.148000001907 1560.0
0.912999987602 -0.372999995947 0.148000001907 1557.0
0.910000026226 -0.377999991179 0.148000001907 1550.0
0.907000005245 -0.38299998641 0.148000001907 1570.0
0.908999979496 -0.389999985695 0.148000001907 1557.0
0.908999979496 -0.397000014782 0.149000003934 693.0
0.873000025749 -0.386999994516 0.143000006676 243.0
0.871999979019 -0.393000006676 0.143000006676 209.0
0.867999970913 -0.398000001907 0.143000006676 208.0
0.855000019073 -0.398999989033 0.141000002623 199.0
0.837999999523 -0.397000014782 0.138999998569 204.0
0.84399998188 -0.405999988317 0.140000000596 214.0
0.853999972343 -0.416999995708 0.142000004649 214.0
0.851999998093 -0.423000007868 0.142000004649 201.0
0.851000010967 -0.428999990225 0.142000004649 205.0
0.836000025272 -0.428000003099 0.140000000596 204.0
0.862999975681 -0.448000013828 0.144999995828 209.0
0.847000002861 -0.446999996901 0.143000006676 214.0
0.85900002718 -0.460000008345 0.145999997854 412.0
0.870999991894 -0.474000006914 0.148000001907 1385.0
0.879999995232 -0.486000001431 0.15000000596 1601.0
0.869000017643 -0.486999988556 0.149000003934 1609.0
2.10500001907 1.22200000286 0.340000003576 80.0
2.20799994469 1.26400005817 0.356000006199 108.0
2.24099993706 1.26400005817 0.360000014305 126.0
0.911000013351 0.426999986172 0.141000002623 118.0
0.929000020027 0.42199999094 0.143000006676 150.0
0.925999999046 0.41400000453 0.142000004649 186.0
0.924000024796 0.405999988317 0.141000002623 215.0
0.943000018597 0.407999992371 0.143999993801 173.0
0.920000016689 0.391000002623 0.140000000596 161.0
0.927999973297 0.388000011444 0.141000002623 203.0
0.920000016689 0.377999991179 0.138999998569 213.0
0.922999978065 0.372999995947 0.140000000596 235.0
0.934000015259 0.370999991894 0.141000002623 220.0
0.903999984264 0.352999985218 0.136000007391 234.0
0.911000013351 0.349000006914 0.136999994516 235.0
0.922999978065 0.347000002861 0.138999998569 260.0
0.93599998951 0.345999985933 0.140000000596 286.0
0.93599998951 0.340000003576 0.140000000596 313.0
0.939999997616 0.335000008345 0.141000002623 334.0
0.940999984741 0.328999996185 0.140000000596 344.0
0.926999986172 0.317999988794 0.137999996543 366.0
0.943000018597 0.317000001669 0.140000000596 394.0
0.947000026703 0.312000006437 0.141000002623 407.0
0.939999997616 0.303999990225 0.138999998569 434.0
0.941999971867 0.298000007868 0.138999998569 453.0
0.954999983311 0.296000003815 0.141000002623 485.0
0.953999996185 0.28900000453 0.141000002623 509.0
0.955999970436 0.284000009298 0.141000002623 517.0
0.95300000906 0.277000010014 0.140000000596 520.0
0.953999996185 0.270999997854 0.140000000596 540.0
0.952000021935 0.264999985695 0.140000000596 551.0
0.958000004292 0.259999990463 0.141000002623 564.0
0.959999978542 0.254999995232 0.141000002623 566.0
0.959999978542 0.248999997973 0.141000002623 601.0
0.955999970436 0.241999998689 0.140000000596 611.0
0.959999978542 0.237000003457 0.140000000596 619.0
0.962999999523 0.231000006199 0.141000002623 621.0
0.958000004292 0.224000006914 0.140000000596 634.0
0.967000007629 0.219999998808 0.141000002623 644.0
0.955999970436 0.211999997497 0.138999998569 648.0
0.958000004292 0.207000002265 0.138999998569 657.0
0.959999978542 0.201000005007 0.140000000596 666.0
0.964999973774 0.195999994874 0.140000000596 679.0
0.962999999523 0.189999997616 0.140000000596 679.0
0.955999970436 0.182999998331 0.138999998569 675.0
0.964999973774 0.179000005126 0.140000000596 688.0
0.963999986649 0.172999992967 0.140000000596 688.0
0.963999986649 0.166999995708 0.138999998569 683.0
0.955999970436 0.159999996424 0.137999996543 701.0
0.957000017166 0.153999999166 0.137999996543 713.0
0.962000012398 0.15000000596 0.138999998569 702.0
0.963999986649 0.143999993801 0.138999998569 713.0
0.963999986649 0.137999996543 0.138999998569 711.0
0.962999999523 0.133000001311 0.138999998569 729.0
0.962999999523 0.127000004053 0.138999998569 739.0
0.958999991417 0.120999999344 0.137999996543 744.0
0.966000020504 0.115999996662 0.138999998569 756.0
0.972000002861 0.111000001431 0.140000000596 776.0
0.972000002861 0.104999996722 0.140000000596 774.0
0.963999986649 0.0989999994636 0.138999998569 772.0
0.971000015736 0.0939999967813 0.140000000596 770.0
0.963999986649 0.0879999995232 0.138999998569 798.0
0.967999994755 0.082000002265 0.138999998569 820.0
0.96899998188 0.0769999995828 0.138999998569 815.0
0.966000020504 0.0710000023246 0.138999998569 825.0
0.967999994755 0.0649999976158 0.138999998569 830.0
0.971000015736 0.0599999986589 0.138999998569 826.0
0.967999994755 0.0540000014007 0.138999998569 822.0
0.972000002861 0.0489999987185 0.140000000596 818.0
0.98400002718 0.0439999997616 0.141000002623 807.0
0.975000023842 0.0379999987781 0.140000000596 815.0
0.967000007629 0.0320000015199 0.138999998569 812.0
0.967000007629 0.0260000005364 0.138999998569 733.0
0.97000002861 0.0209999997169 0.138999998569 229.0
1.03299999237 -0.0670000016689 0.149000003934 291.0
1.00800001621 -0.0710000023246 0.145999997854 996.0
1.00999999046 -0.0769999995828 0.145999997854 321.0
0.981000006199 -0.0799999982119 0.142000004649 150.0
0.967000007629 -0.0850000008941 0.140000000596 150.0
0.954999983311 -0.0890000015497 0.137999996543 150.0
0.97000002861 -0.0960000008345 0.141000002623 149.0
0.973999977112 -0.103000000119 0.141000002623 150.0
0.98400002718 -0.108999997377 0.143000006676 153.0
0.975000023842 -0.11400000006 0.142000004649 154.0
0.955999970436 -0.116999998689 0.138999998569 157.0
0.941999971867 -0.120999999344 0.136999994516 157.0
0.952000021935 -0.12800000608 0.138999998569 162.0
0.941999971867 -0.131999999285 0.136999994516 159.0
0.95300000906 -0.140000000596 0.138999998569 164.0
0.990000009537 -0.150999993086 0.144999995828 202.0
0.978999972343 -0.155000001192 0.143000006676 960.0
0.98400002718 -0.162000000477 0.143999993801 1308.0
0.98299998045 -0.166999995708 0.143999993801 1327.0
0.976000010967 -0.172000005841 0.143000006676 1319.0
0.976999998093 -0.178000003099 0.143000006676 1320.0
0.972999989986 -0.182999998331 0.143000006676 1353.0
0.966000020504 -0.187999993563 0.142000004649 1346.0
0.972000002861 -0.194999992847 0.143000006676 1342.0
0.967999994755 -0.20000000298 0.143000006676 1356.0
0.96899998188 -0.206000000238 0.143000006676 1381.0
0.97000002861 -0.211999997497 0.143000006676 1383.0
0.967000007629 -0.216999992728 0.143000006676 1385.0
0.962999999523 -0.222000002861 0.143000006676 1396.0
0.958999991417 -0.226999998093 0.142000004649 1403.0
0.962000012398 -0.233999997377 0.143000006676 1000.0
0.941999971867 -0.234999999404 0.140000000596 257.0
0.935000002384 -0.238999992609 0.138999998569 190.0
0.919000029564 -0.240999996662 0.136999994516 188.0
0.934000015259 -0.250999987125 0.138999998569 187.0
0.929000020027 -0.254999995232 0.138999998569 187.0
0.917999982834 -0.25799998641 0.136999994516 189.0
0.916999995708 -0.263000011444 0.137999996543 190.0
0.885999977589 -0.259999990463 0.133000001311 188.0
0.936999976635 -0.280999988317 0.141000002623 191.0
0.926999986172 -0.284000009298 0.140000000596 188.0
0.908999979496 -0.284999996424 0.136999994516 200.0
0.92199999094 -0.294999986887 0.140000000596 201.0
0.908999979496 -0.296000003815 0.137999996543 197.0
0.912000000477 -0.303000003099 0.138999998569 254.0
0.926999986172 -0.314999997616 0.141000002623 1164.0
0.935000002384 -0.324000000954 0.143000006676 1496.0
0.927999973297 -0.326999992132 0.142000004649 1520.0
0.929000020027 -0.333999991417 0.142000004649 1522.0
0.925000011921 -0.338999986649 0.142000004649 1535.0
0.924000024796 -0.344999998808 0.142000004649 1527.0
0.919000029564 -0.349000006914 0.142000004649 1530.0
0.919000029564 -0.356000006199 0.142000004649 1548.0
0.915000021458 -0.360000014305 0.142000004649 1550.0
0.916999995708 -0.36700001359 0.142000004649 1562.0
0.916999995708 -0.374000012875 0.143000006676 1556.0
0.910000026226 -0.377999991179 0.142000004649 1549.0
0.910000026226 -0.384000003338 0.142000004649 1581.0
0.911000013351 -0.391000002623 0.143000006676 1550.0
0.902999997139 -0.393999993801 0.142000004649 742.0
0.871999979019 -0.386999994516 0.136999994516 242.0
0.876999974251 -0.395999997854 0.137999996543 206.0
0.893999993801 -0.409999996424 0.142000004649 211.0
0.870000004768 -0.405000001192 0.137999996543 203.0
0.85799998045 -0.405999988317 0.136000007391 201.0
0.876999974251 -0.421000003815 0.140000000596 209.0
0.848999977112 -0.41400000453 0.136000007391 217.0
0.851000010967 -0.42199999094 0.136999994516 214.0
0.880999982357 -0.444000005722 0.142000004649 201.0
0.84399998188 -0.432000011206 0.136000007391 209.0
0.84399998188 -0.437999993563 0.136999994516 211.0
0.860000014305 -0.45300000906 0.140000000596 209.0
0.870000004768 -0.465999990702 0.142000004649 375.0
0.874000012875 -0.47499999404 0.143000006676 1376.0
0.875999987125 -0.483000010252 0.143999993801 1607.0
0.873000025749 -0.488999992609 0.143999993801 1622.0
1.0529999733 0.610000014305 0.162000000477 157.0
1.21099996567 0.691999971867 0.186000004411 122.0
1.2120000124 0.683000028133 0.186000004411 135.0
1.00999999046 0.560000002384 0.153999999166 239.0
0.948000013828 0.518000006676 0.143999993801 183.0
0.927999973297 0.5 0.140000000596 217.0
0.955999970436 0.507000029087 0.143999993801 257.0
0.939999997616 0.490999996662 0.142000004649 278.0
0.943000018597 0.485000014305 0.142000004649 300.0
0.93900001049 0.476000010967 0.141000002623 326.0
0.950999975204 0.47499999404 0.142000004649 358.0
0.926999986172 0.456000000238 0.137999996543 379.0
0.944999992847 0.458000004292 0.141000002623 400.0
0.945999979973 0.449999988079 0.140000000596 436.0
0.949999988079 0.444999992847 0.141000002623 457.0
0.944000005722 0.43599998951 0.138999998569 475.0
0.938000023365 0.425999999046 0.137999996543 492.0
0.940999984741 0.421000003815 0.137999996543 513.0
0.949999988079 0.416999995708 0.138999998569 528.0
0.941999971867 0.407000005245 0.137999996543 558.0
0.948000013828 0.402999997139 0.137999996543 569.0
0.945999979973 0.395000010729 0.137999996543 590.0
0.949999988079 0.389999985695 0.137999996543 611.0
0.947000026703 0.381999999285 0.136999994516 632.0
0.948000013828 0.375999987125 0.136999994516 642.0
0.959999978542 0.374000012875 0.138999998569 664.0
0.944000005722 0.361000001431 0.136000007391 681.0
0.949000000954 0.356999993324 0.136999994516 694.0
0.952000021935 0.351999998093 0.136999994516 696.0
0.944999992847 0.342999994755 0.136000007391 726.0
0.948000013828 0.337000012398 0.136000007391 738.0
0.953999996185 0.333000004292 0.136999994516 753.0
0.957000017166 0.32800000906 0.136999994516 775.0
0.944999992847 0.317999988794 0.135000005364 784.0
0.949000000954 0.312000006437 0.135000005364 800.0
0.949999988079 0.307000011206 0.135000005364 815.0
0.953999996185 0.300999999046 0.135000005364 817.0
0.962000012398 0.298000007868 0.136000007391 842.0
0.953999996185 0.28900000453 0.135000005364 835.0
0.949999988079 0.282000005245 0.134000003338 853.0
0.952000021935 0.277000010014 0.134000003338 867.0
0.957000017166 0.272000014782 0.135000005364 878.0
0.961000025272 0.266999989748 0.135000005364 901.0
0.95300000906 0.25799998641 0.134000003338 916.0
0.954999983311 0.252999991179 0.134000003338 931.0
0.955999970436 0.24699999392 0.134000003338 968.0
0.957000017166 0.241999998689 0.134000003338 971.0
0.958000004292 0.236000001431 0.134000003338 970.0
0.954999983311 0.229000002146 0.134000003338 960.0
0.954999983311 0.223000004888 0.134000003338 976.0
0.957000017166 0.217999994755 0.134000003338 972.0
0.957000017166 0.211999997497 0.134000003338 976.0
0.958999991417 0.207000002265 0.134000003338 979.0
0.950999975204 0.199000000954 0.131999999285 990.0
0.954999983311 0.194000005722 0.133000001311 995.0
0.959999978542 0.188999995589 0.134000003338 995.0
0.959999978542 0.184000000358 0.134000003338 994.0
0.958999991417 0.178000003099 0.133000001311 1009.0
0.955999970436 0.171000003815 0.133000001311 1013.0
0.955999970436 0.165999993682 0.133000001311 1016.0
0.957000017166 0.159999996424 0.133000001311 1013.0
0.95300000906 0.153999999166 0.131999999285 1025.0
0.959999978542 0.149000003934 0.133000001311 1025.0
0.958999991417 0.143000006676 0.133000001311 1028.0
0.958999991417 0.137999996543 0.133000001311 1030.0
0.959999978542 0.131999999285 0.133000001311 1045.0
0.964999973774 0.127000004053 0.133000001311 1056.0
0.961000025272 0.120999999344 0.133000001311 1061.0
0.962999999523 0.115999996662 0.133000001311 1082.0
0.964999973774 0.109999999404 0.133000001311 1084.0
0.964999973774 0.104000002146 0.133000001311 1089.0
0.961000025272 0.097999997437 0.133000001311 1102.0
0.955999970436 0.0920000001788 0.131999999285 1097.0
0.963999986649 0.0869999974966 0.133000001311 1115.0
0.962000012398 0.082000002265 0.133000001311 1133.0
0.967999994755 0.0769999995828 0.133000001311 1128.0
0.971000015736 0.0710000023246 0.134000003338 1131.0
0.96899998188 0.0649999976158 0.133000001311 1151.0
0.97000002861 0.0599999986589 0.134000003338 1157.0
0.967000007629 0.0540000014007 0.133000001311 1193.0
0.967000007629 0.0480000004172 0.133000001311 1221.0
0.967999994755 0.0430000014603 0.133000001311 1211.0
0.973999977112 0.0370000004768 0.134000003338 1206.0
0.967999994755 0.0320000015199 0.133000001311 1218.0
0.964999973774 0.0260000005364 0.133000001311 1138.0
0.98299998045 0.0209999997169 0.136000007391 297.0
1.01699995995 -0.0659999996424 0.141000002623 295.0
1.00699996948 -0.0710000023246 0.140000000596 984.0
0.994000017643 -0.0759999975562 0.137999996543 311.0
0.955999970436 -0.0780000016093 0.133000001311 146.0
0.980000019073 -0.0860000029206 0.136000007391 153.0
0.964999973774 -0.0900000035763 0.134000003338 148.0
0.958000004292 -0.0949999988079 0.133000001311 152.0
0.978999972343 -0.103000000119 0.136000007391 156.0
0.972000002861 -0.108000002801 0.135000005364 158.0
0.953999996185 -0.111000001431 0.133000001311 155.0
0.95300000906 -0.116999998689 0.133000001311 155.0
0.941999971867 -0.120999999344 0.130999997258 156.0
0.962000012398 -0.128999993205 0.134000003338 156.0
0.963999986649 -0.135000005364 0.135000005364 165.0
0.962999999523 -0.141000002623 0.135000005364 165.0
0.986999988556 -0.15000000596 0.137999996543 201.0
0.980000019073 -0.155000001192 0.136999994516 961.0
0.986000001431 -0.162000000477 0.137999996543 1293.0
0.985000014305 -0.167999997735 0.137999996543 1324.0
0.98299998045 -0.172999992967 0.137999996543 1330.0
0.976000010967 -0.178000003099 0.136999994516 1318.0
0.976999998093 -0.184000000358 0.137999996543 1351.0
0.976999998093 -0.189999997616 0.137999996543 1349.0
0.971000015736 -0.194999992847 0.136999994516 1360.0
0.967000007629 -0.20000000298 0.136999994516 1366.0
0.972000002861 -0.207000002265 0.137999996543 1374.0
0.966000020504 -0.21099999547 0.136999994516 1387.0
0.963999986649 -0.216999992728 0.136999994516 1396.0
0.967999994755 -0.224000006914 0.137999996543 1403.0
0.95300000906 -0.225999996066 0.136000007391 1407.0
0.961000025272 -0.233999997377 0.136999994516 1003.0
0.944000005722 -0.236000001431 0.135000005364 253.0
0.922999978065 -0.236000001431 0.131999999285 189.0
0.926999986172 -0.243000000715 0.133000001311 187.0
0.910000026226 -0.244000002742 0.129999995232 189.0
0.917999982834 -0.252000004053 0.131999999285 185.0
0.93900001049 -0.263999998569 0.135000005364 188.0
0.912999987602 -0.261999994516 0.130999997258 186.0
0.897000014782 -0.263000011444 0.128999993205 193.0
0.929000020027 -0.279000014067 0.134000003338 192.0
0.915000021458 -0.280000001192 0.131999999285 194.0
0.907999992371 -0.284000009298 0.131999999285 197.0
0.897000014782 -0.286000013351 0.129999995232 197.0
0.903999984264 -0.294999986887 0.130999997258 192.0
0.92199999094 -0.307000011206 0.134000003338 239.0
0.931999981403 -0.316000014544 0.136000007391 1149.0
0.924000024796 -0.319999992847 0.135000005364 1513.0
0.929000020027 -0.32800000906 0.136000007391 1509.0
0.925999999046 -0.333000004292 0.136000007391 1534.0
0.919000029564 -0.337000012398 0.135000005364 1540.0
0.919000029564 -0.342999994755 0.136000007391 1545.0
0.921000003815 -0.34999999404 0.136000007391 1530.0
0.912999987602 -0.352999985218 0.135000005364 1539.0
0.915000021458 -0.360000014305 0.136000007391 1557.0
0.916999995708 -0.36700001359 0.136999994516 1551.0
0.910000026226 -0.370999991894 0.136000007391 1557.0
0.911000013351 -0.377999991179 0.136000007391 1568.0
0.907000005245 -0.38299998641 0.136000007391 1577.0
0.901000022888 -0.386999994516 0.136000007391 1574.0
0.90499997139 -0.395000010729 0.136000007391 777.0
0.885999977589 -0.393000006676 0.134000003338 252.0
0.871999979019 -0.393000006676 0.131999999285 209.0
0.856999993324 -0.391999989748 0.129999995232 206.0
0.865999996662 -0.402999997139 0.131999999285 205.0
0.870000004768 -0.411000013351 0.133000001311 208.0
0.865000009537 -0.414999991655 0.131999999285 211.0
0.848999977112 -0.41400000453 0.129999995232 210.0
0.825999975204 -0.409000009298 0.127000004053 205.0
0.832000017166 -0.418000012636 0.12800000608 204.0
0.851000010967 -0.435000002384 0.131999999285 201.0
0.852999985218 -0.442000001669 0.131999999285 208.0
0.85900002718 -0.45300000906 0.134000003338 210.0
0.862999975681 -0.46099999547 0.135000005364 336.0
0.878000020981 -0.476999998093 0.137999996543 1343.0
0.875 -0.481999993324 0.137999996543 1605.0
0.870999991894 -0.486999988556 0.137999996543 1634.0
0.93599998951 0.541999995708 0.137999996543 475.0
0.949000000954 0.541000008583 0.138999998569 522.0
0.940999984741 0.528999984264 0.136999994516 554.0
0.939999997616 0.521000027657 0.136999994516 567.0
0.952000021935 0.519999980927 0.137999996543 607.0
0.947000026703 0.509000003338 0.136999994516 631.0
0.941999971867 0.499000012875 0.136000007391 643.0
0.944999992847 0.493999987841 0.136000007391 669.0
0.936999976635 0.481999993324 0.135000005364 684.0
0.940999984741 0.476000010967 0.135000005364 701.0
0.949999988079 0.474000006914 0.136000007391 719.0
0.947000026703 0.465000003576 0.135000005364 727.0
0.939999997616 0.453999996185 0.134000003338 742.0
0.940999984741 0.448000013828 0.133000001311 766.0
0.944000005722 0.442000001669 0.134000003338 767.0
0.943000018597 0.435000002384 0.133000001311 779.0
0.952000021935 0.432000011206 0.134000003338 781.0
0.945999979973 0.42199999094 0.133000001311 809.0
0.944000005722 0.414999991655 0.131999999285 820.0
0.947000026703 0.409000009298 0.133000001311 833.0
0.949999988079 0.402999997139 0.133000001311 848.0
0.945999979973 0.395000010729 0.131999999285 856.0
0.943000018597 0.386999994516 0.130999997258 851.0
0.945999979973 0.381999999285 0.130999997258 880.0
0.945999979973 0.375 0.130999997258 898.0
0.941999971867 0.36700001359 0.129999995232 904.0
0.949999988079 0.363999992609 0.130999997258 903.0
0.952000021935 0.358000010252 0.130999997258 923.0
0.944000005722 0.347999989986 0.129999995232 931.0
0.954999983311 0.345999985933 0.130999997258 962.0
0.944999992847 0.33599999547 0.129999995232 956.0
0.944000005722 0.328999996185 0.128999993205 969.0
0.944000005722 0.323000013828 0.128999993205 997.0
0.944999992847 0.317000001669 0.128999993205 999.0
0.949000000954 0.312000006437 0.128999993205 1030.0
0.95300000906 0.307000011206 0.129999995232 1022.0
0.948000013828 0.298999994993 0.128999993205 1033.0
0.95300000906 0.294999986887 0.128999993205 1053.0
0.944000005722 0.286000013351 0.12800000608 1044.0
0.954999983311 0.282999992371 0.128999993205 1073.0
0.952000021935 0.275999993086 0.128999993205 1101.0
0.955999970436 0.270999997854 0.128999993205 1125.0
0.953999996185 0.264999985695 0.128999993205 1159.0
0.954999983311 0.259000003338 0.128999993205 1159.0
0.959999978542 0.254000008106 0.128999993205 1160.0
0.952000021935 0.246000006795 0.12800000608 1192.0
0.954999983311 0.240999996662 0.12800000608 1183.0
0.952000021935 0.233999997377 0.12800000608 1177.0
0.949999988079 0.228000000119 0.127000004053 1174.0
0.957000017166 0.224000006914 0.12800000608 1179.0
0.959999978542 0.217999994755 0.12800000608 1176.0
0.95300000906 0.21099999547 0.127000004053 1180.0
0.95300000906 0.204999998212 0.127000004053 1183.0
0.954999983311 0.20000000298 0.127000004053 1195.0
0.963999986649 0.195999994874 0.12800000608 1192.0
0.949999988079 0.187000006437 0.126000002027 1186.0
0.957000017166 0.182999998331 0.127000004053 1174.0
0.953999996185 0.177000001073 0.127000004053 1191.0
0.962000012398 0.172000005841 0.12800000608 1191.0
0.959999978542 0.165999993682 0.127000004053 1185.0
0.961000025272 0.16099999845 0.12800000608 1204.0
0.961000025272 0.155000001192 0.127000004053 1195.0
0.962999999523 0.15000000596 0.12800000608 1200.0
0.963999986649 0.143999993801 0.12800000608 1200.0
0.962999999523 0.137999996543 0.127000004053 1214.0
0.961000025272 0.131999999285 0.127000004053 1251.0
0.963999986649 0.127000004053 0.12800000608 1290.0
0.963999986649 0.120999999344 0.127000004053 1296.0
0.962999999523 0.115000002086 0.127000004053 1310.0
0.962000012398 0.109999999404 0.127000004053 1335.0
0.966000020504 0.104000002146 0.12800000608 1343.0
0.958000004292 0.097999997437 0.127000004053 1334.0
0.966000020504 0.0930000022054 0.127000004053 1333.0
0.962000012398 0.0869999974966 0.127000004053 1348.0
0.963999986649 0.082000002265 0.127000004053 1390.0
0.962999999523 0.0759999975562 0.127000004053 1391.0
0.967000007629 0.0710000023246 0.12800000608 1406.0
0.967999994755 0.0649999976158 0.12800000608 1406.0
0.964999973774 0.0590000003576 0.127000004053 1454.0
0.962999999523 0.0540000014007 0.127000004053 1532.0
0.964999973774 0.0480000004172 0.127000004053 1536.0
0.961000025272 0.0430000014603 0.127000004053 1560.0
0.967000007629 0.0370000004768 0.12800000608 1621.0
0.96899998188 0.0320000015199 0.12800000608 1629.0
0.962999999523 0.0260000005364 0.127000004053 1454.0
0.990000009537 0.0209999997169 0.130999997258 309.0
1.01800000668 -0.0659999996424 0.135000005364 304.0
1.01100003719 -0.0710000023246 0.134000003338 983.0
1.01300001144 -0.0769999995828 0.135000005364 300.0
0.978999972343 -0.0799999982119 0.129999995232 147.0
0.986000001431 -0.0869999974966 0.130999997258 152.0
1.0 -0.0939999967813 0.133000001311 156.0
0.981999993324 -0.097999997437 0.130999997258 157.0
0.97000002861 -0.101999998093 0.128999993205 154.0
0.949000000954 -0.104999996722 0.126000002027 150.0
0.958000004292 -0.112000003457 0.12800000608 154.0
0.966000020504 -0.119000002742 0.128999993205 155.0
0.992999970913 -0.12800000608 0.133000001311 157.0
0.959999978542 -0.128999993205 0.12800000608 157.0
0.933000028133 -0.130999997258 0.125 160.0
0.947000026703 -0.138999998569 0.127000004053 167.0
0.978999972343 -0.149000003934 0.130999997258 200.0
0.980000019073 -0.155000001192 0.130999997258 954.0
0.986000001431 -0.162000000477 0.131999999285 1311.0
0.981000006199 -0.166999995708 0.131999999285 1309.0
0.976999998093 -0.172000005841 0.131999999285 1327.0
0.981000006199 -0.179000005126 0.131999999285 1328.0
0.972000002861 -0.182999998331 0.130999997258 1346.0
0.976999998093 -0.189999997616 0.131999999285 1348.0
0.967000007629 -0.194000005722 0.130999997258 1357.0
0.966000020504 -0.199000000954 0.130999997258 1371.0
0.97000002861 -0.206000000238 0.131999999285 1378.0
0.966000020504 -0.21099999547 0.130999997258 1383.0
0.967999994755 -0.217999994755 0.131999999285 1391.0
0.962999999523 -0.222000002861 0.130999997258 1386.0
0.959999978542 -0.226999998093 0.130999997258 1402.0
0.954999983311 -0.231999993324 0.129999995232 1017.0
0.940999984741 -0.234999999404 0.128999993205 263.0
0.922999978065 -0.236000001431 0.126000002027 188.0
0.92199999094 -0.240999996662 0.126000002027 191.0
0.930000007153 -0.248999997973 0.12800000608 187.0
0.919000029564 -0.252000004053 0.126000002027 190.0
0.920000016689 -0.25799998641 0.127000004053 194.0
0.931999981403 -0.266999989748 0.12800000608 191.0
0.897000014782 -0.263000011444 0.123999997973 194.0
0.927999973297 -0.277999997139 0.12800000608 189.0
0.924000024796 -0.282999992371 0.12800000608 197.0
0.930999994278 -0.291000008583 0.128999993205 197.0
0.907000005245 -0.28900000453 0.126000002027 200.0
0.901000022888 -0.293999999762 0.126000002027 204.0
0.924000024796 -0.307000011206 0.128999993205 227.0
0.925999999046 -0.31400001049 0.129999995232 1127.0
0.929000020027 -0.321000009775 0.129999995232 1500.0
0.925000011921 -0.326000005007 0.129999995232 1518.0
0.92199999094 -0.331000000238 0.129999995232 1544.0
0.92199999094 -0.337000012398 0.129999995232 1533.0
0.917999982834 -0.342000007629 0.129999995232 1545.0
0.913999974728 -0.347000002861 0.129999995232 1542.0
0.916000008583 -0.354000002146 0.129999995232 1554.0
0.917999982834 -0.361000001431 0.130999997258 1562.0
0.916999995708 -0.36700001359 0.130999997258 1568.0
0.916999995708 -0.372999995947 0.130999997258 1566.0
0.911000013351 -0.377000004053 0.130999997258 1572.0
0.907999992371 -0.38299998641 0.130999997258 1581.0
0.908999979496 -0.389999985695 0.130999997258 1573.0
0.911000013351 -0.397000014782 0.131999999285 824.0
0.894999980927 -0.395999997854 0.129999995232 259.0
0.855000019073 -0.384999990463 0.123999997973 204.0
0.878000020981 -0.402000010014 0.12800000608 206.0
0.887000024319 -0.412000000477 0.128999993205 205.0
0.856000006199 -0.404000014067 0.125 212.0
0.85900002718 -0.412000000477 0.126000002027 204.0
0.848999977112 -0.41400000453 0.125 207.0
0.856999993324 -0.423999994993 0.126000002027 209.0
0.865999996662 -0.43599998951 0.12800000608 204.0
0.851999998093 -0.435000002384 0.126000002027 208.0
0.861999988556 -0.446999996901 0.12800000608 215.0
0.85799998045 -0.451999992132 0.12800000608 212.0
0.850000023842 -0.453999996185 0.127000004053 298.0
0.873000025749 -0.474000006914 0.130999997258 1308.0
0.873000025749 -0.481000006199 0.131999999285 1612.0
0.873000025749 -0.488000005484 0.131999999285 1620.0
0.939999997616 0.544000029564 0.131999999285 801.0
0.936999976635 0.533999979496 0.130999997258 827.0
0.934000015259 0.524999976158 0.129999995232 838.0
0.93900001049 0.519999980927 0.129999995232 842.0
0.936999976635 0.510999977589 0.129999995232 851.0
0.93599998951 0.503000020981 0.128999993205 855.0
0.950999975204 0.503000020981 0.130999997258 880.0
0.939999997616 0.490999996662 0.128999993205 884.0
0.945999979973 0.486000001431 0.129999995232 894.0
0.93900001049 0.47499999404 0.12800000608 912.0
0.947000026703 0.472000002861 0.128999993205 917.0
0.938000023365 0.460000008345 0.12800000608 918.0
0.949000000954 0.458000004292 0.128999993205 937.0
0.939999997616 0.446999996901 0.127000004053 951.0
0.949000000954 0.444000005722 0.12800000608 952.0
0.944000005722 0.435000002384 0.127000004053 959.0
0.949000000954 0.430000007153 0.12800000608 959.0
0.944000005722 0.421000003815 0.127000004053 989.0
0.945999979973 0.414999991655 0.127000004053 983.0
0.949999988079 0.409999996424 0.127000004053 997.0
0.941999971867 0.40000000596 0.126000002027 1012.0
0.949999988079 0.395999997854 0.126000002027 1028.0
0.93900001049 0.384999990463 0.125 1032.0
0.941999971867 0.379999995232 0.125 1041.0
0.944999992847 0.375 0.125 1045.0
0.952000021935 0.370999991894 0.126000002027 1053.0
0.949000000954 0.363000005484 0.125 1073.0
0.945999979973 0.354999989271 0.123999997973 1068.0
0.945999979973 0.349000006914 0.123999997973 1085.0
0.948000013828 0.342999994755 0.123999997973 1103.0
0.949999988079 0.337000012398 0.123999997973 1102.0
0.949000000954 0.331000000238 0.123999997973 1113.0
0.949000000954 0.324999988079 0.123999997973 1130.0
0.949999988079 0.319000005722 0.123999997973 1139.0
0.948000013828 0.312000006437 0.123000003397 1138.0
0.949000000954 0.305999994278 0.123000003397 1140.0
0.947000026703 0.298999994993 0.123000003397 1143.0
0.950999975204 0.293999999762 0.123000003397 1181.0
0.950999975204 0.287999987602 0.123000003397 1181.0
0.948000013828 0.280999988317 0.123000003397 1189.0
0.950999975204 0.275999993086 0.123000003397 1214.0
0.955999970436 0.270999997854 0.123000003397 1234.0
0.957000017166 0.264999985695 0.123000003397 1255.0
0.957000017166 0.259000003338 0.123000003397 1241.0
0.950999975204 0.252000004053 0.122000001371 1238.0
0.95300000906 0.246000006795 0.122000001371 1251.0
0.955999970436 0.240999996662 0.123000003397 1240.0
0.95300000906 0.233999997377 0.122000001371 1228.0
0.954999983311 0.229000002146 0.122000001371 1233.0
0.950999975204 0.222000002861 0.120999999344 1251.0
0.957000017166 0.217999994755 0.122000001371 1267.0
0.959999978542 0.211999997497 0.123000003397 1264.0
0.958000004292 0.206000000238 0.122000001371 1266.0
0.955999970436 0.20000000298 0.122000001371 1271.0
0.958999991417 0.194999992847 0.122000001371 1286.0
0.958999991417 0.188999995589 0.122000001371 1294.0
0.954999983311 0.181999996305 0.120999999344 1315.0
0.957000017166 0.177000001073 0.122000001371 1347.0
0.953999996185 0.171000003815 0.120999999344 1388.0
0.959999978542 0.165999993682 0.122000001371 1386.0
0.962999999523 0.16099999845 0.122000001371 1357.0
0.953999996185 0.153999999166 0.120999999344 1362.0
0.961000025272 0.149000003934 0.122000001371 1379.0
0.962000012398 0.143000006676 0.122000001371 1401.0
0.962999999523 0.137999996543 0.122000001371 1407.0
0.958999991417 0.131999999285 0.120999999344 1462.0
0.958999991417 0.126000002027 0.120999999344 1479.0
0.963999986649 0.120999999344 0.122000001371 1481.0
0.961000025272 0.115000002086 0.120999999344 1509.0
0.967000007629 0.109999999404 0.122000001371 1530.0
0.963999986649 0.104000002146 0.122000001371 1533.0
0.961000025272 0.097999997437 0.120999999344 1550.0
0.962000012398 0.0930000022054 0.120999999344 1566.0
0.963999986649 0.0869999974966 0.122000001371 1590.0
0.962000012398 0.0810000002384 0.120999999344 1574.0
0.967000007629 0.0759999975562 0.122000001371 1583.0
0.962000012398 0.070000000298 0.120999999344 1612.0
0.971000015736 0.0649999976158 0.122000001371 1647.0
0.967999994755 0.0599999986589 0.122000001371 1735.0
0.963999986649 0.0540000014007 0.120999999344 1811.0
0.96899998188 0.0480000004172 0.122000001371 1819.0
0.967000007629 0.0430000014603 0.122000001371 1806.0
0.966000020504 0.0370000004768 0.122000001371 1819.0
0.96899998188 0.0320000015199 0.122000001371 1838.0
0.962999999523 0.0260000005364 0.120999999344 1549.0
0.996999979019 0.0209999997169 0.126000002027 278.0
1.02799999714 -0.0659999996424 0.129999995232 325.0
1.00800001621 -0.0710000023246 0.12800000608 983.0
1.0 -0.0759999975562 0.127000004053 297.0
0.967999994755 -0.0790000036359 0.123000003397 150.0
0.962999999523 -0.0839999988675 0.122000001371 152.0
0.981999993324 -0.0920000001788 0.125 151.0
0.967000007629 -0.0960000008345 0.123000003397 153.0
0.972000002861 -0.101999998093 0.123999997973 150.0
0.958000004292 -0.105999998748 0.122000001371 157.0
0.944999992847 -0.109999999404 0.119999997318 161.0
0.966000020504 -0.118000000715 0.123000003397 162.0
0.964999973774 -0.123999997973 0.123000003397 154.0
0.955999970436 -0.12800000608 0.122000001371 158.0
0.941999971867 -0.131999999285 0.119999997318 166.0
0.959999978542 -0.140000000596 0.123000003397 163.0
0.972999989986 -0.148000001907 0.125 202.0
0.98299998045 -0.156000003219 0.126000002027 954.0
0.978999972343 -0.16099999845 0.126000002027 1310.0
0.98400002718 -0.166999995708 0.127000004053 1321.0
0.977999985218 -0.172000005841 0.126000002027 1332.0
0.976999998093 -0.178000003099 0.126000002027 1337.0
0.972999989986 -0.182999998331 0.125 1339.0
0.97000002861 -0.187999993563 0.125 1353.0
0.96899998188 -0.194000005722 0.125 1359.0
0.972000002861 -0.20000000298 0.126000002027 1374.0
0.967000007629 -0.204999998212 0.125 1382.0
0.967000007629 -0.21099999547 0.125 1377.0
0.962999999523 -0.216000005603 0.125 1398.0
0.962999999523 -0.222000002861 0.125 1395.0
0.959999978542 -0.226999998093 0.125 1415.0
0.958000004292 -0.232999995351 0.125 1033.0
0.944999992847 -0.234999999404 0.123000003397 258.0
0.910000026226 -0.231999993324 0.119000002742 184.0
0.925000011921 -0.241999998689 0.120999999344 194.0
0.93599998951 -0.250999987125 0.123000003397 194.0
0.916999995708 -0.250999987125 0.119999997318 190.0
0.907000005245 -0.254000008106 0.119000002742 191.0
0.935000002384 -0.268000006676 0.123000003397 197.0
0.919000029564 -0.268999993801 0.120999999344 192.0
0.924000024796 -0.277000010014 0.122000001371 196.0
0.903999984264 -0.277000010014 0.119999997318 191.0
0.898999989033 -0.280999988317 0.119000002742 198.0
0.90600001812 -0.28900000453 0.119999997318 203.0
0.90600001812 -0.294999986887 0.120999999344 193.0
0.924000024796 -0.307000011206 0.123000003397 231.0
0.925000011921 -0.312999993563 0.123999997973 1108.0
0.926999986172 -0.319999992847 0.123999997973 1518.0
0.929000020027 -0.326999992132 0.125 1521.0
0.926999986172 -0.333000004292 0.125 1542.0
0.924000024796 -0.337999999523 0.125 1535.0
0.925000011921 -0.344999998808 0.125 1529.0
0.920000016689 -0.349000006914 0.125 1545.0
0.917999982834 -0.354999989271 0.125 1553.0
0.916999995708 -0.360000014305 0.125 1554.0
0.912999987602 -0.365000009537 0.123999997973 1566.0
0.911000013351 -0.370999991894 0.125 1571.0
0.910000026226 -0.377000004053 0.125 1579.0
0.912999987602 -0.384999990463 0.125 1584.0
0.907999992371 -0.388999998569 0.125 1587.0
0.903999984264 -0.393999993801 0.125 867.0
0.875999987125 -0.388000011444 0.120999999344 264.0
0.879999995232 -0.395999997854 0.122000001371 208.0
0.866999983788 -0.397000014782 0.120999999344 214.0
0.848999977112 -0.393999993801 0.118000000715 207.0
0.867999970913 -0.409999996424 0.120999999344 212.0
0.862999975681 -0.41400000453 0.120999999344 211.0
0.851000010967 -0.41400000453 0.119999997318 212.0
0.875999987125 -0.432999998331 0.123999997973 202.0
0.869000017643 -0.437000006437 0.123000003397 207.0
0.873000025749 -0.446000009775 0.123999997973 209.0
0.846000015736 -0.437999993563 0.119999997318 214.0
0.847999989986 -0.446000009775 0.120999999344 203.0
0.848999977112 -0.45300000906 0.122000001371 276.0
0.880999982357 -0.477999985218 0.127000004053 1269.0
0.870000004768 -0.477999985218 0.125 1616.0
0.875 -0.488999992609 0.127000004053 1628.0
0.945999979973 0.546000003815 0.126000002027 975.0
0.944000005722 0.537999987602 0.126000002027 966.0
0.938000023365 0.526000022888 0.125 980.0
0.936999976635 0.518000006676 0.123999997973 991.0
0.941999971867 0.513999998569 0.123999997973 1011.0
0.938000023365 0.504000008106 0.123999997973 1008.0
0.943000018597 0.499000012875 0.123999997973 1013.0
0.947000026703 0.493999987841 0.123999997973 1033.0
0.93900001049 0.481999993324 0.123000003397 1041.0
0.939999997616 0.47499999404 0.122000001371 1046.0
0.943000018597 0.469999998808 0.123000003397 1040.0
0.938000023365 0.460000008345 0.122000001371 1048.0
0.947000026703 0.456999987364 0.122000001371 1065.0
0.939999997616 0.446000009775 0.120999999344 1061.0
0.939999997616 0.439999997616 0.120999999344 1071.0
0.943000018597 0.433999985456 0.120999999344 1077.0
0.947000026703 0.428999990225 0.120999999344 1068.0
0.935000002384 0.416999995708 0.119999997318 1077.0
0.939999997616 0.412000000477 0.119999997318 1082.0
0.93900001049 0.405000001192 0.119999997318 1092.0
0.944000005722 0.40000000596 0.119999997318 1094.0
0.948000013828 0.395000010729 0.119999997318 1108.0
0.945999979973 0.388000011444 0.119999997318 1119.0
0.949000000954 0.38299998641 0.119999997318 1117.0
0.949000000954 0.375999987125 0.119999997318 1135.0
0.948000013828 0.368999987841 0.119000002742 1140.0
0.949999988079 0.363000005484 0.119000002742 1148.0
0.949999988079 0.356000006199 0.119000002742 1154.0
0.950999975204 0.34999999404 0.119000002742 1156.0
0.948000013828 0.342999994755 0.119000002742 1163.0
0.950999975204 0.337999999523 0.119000002742 1162.0
0.950999975204 0.331000000238 0.118000000715 1172.0
0.957000017166 0.326999992132 0.119000002742 1179.0
0.95300000906 0.319000005722 0.118000000715 1174.0
0.950999975204 0.312000006437 0.118000000715 1168.0
0.953999996185 0.307000011206 0.118000000715 1165.0
0.95300000906 0.300999999046 0.118000000715 1151.0
0.950999975204 0.293999999762 0.116999998689 1160.0
0.949000000954 0.287000000477 0.116999998689 1177.0
0.954999983311 0.282999992371 0.118000000715 1178.0
0.955999970436 0.277000010014 0.118000000715 1174.0
0.949999988079 0.268999993801 0.116999998689 1202.0
0.954999983311 0.264999985695 0.116999998689 1214.0
0.955999970436 0.259000003338 0.116999998689 1227.0
0.957000017166 0.252999991179 0.116999998689 1254.0
0.953999996185 0.246000006795 0.116999998689 1246.0
0.955999970436 0.240999996662 0.116999998689 1241.0
0.961000025272 0.236000001431 0.116999998689 1262.0
0.958999991417 0.230000004172 0.116999998689 1285.0
0.954999983311 0.223000004888 0.115999996662 1324.0
0.957000017166 0.216999992728 0.115999996662 1337.0
0.959999978542 0.211999997497 0.116999998689 1331.0
0.958000004292 0.206000000238 0.115999996662 1369.0
0.957000017166 0.20000000298 0.115999996662 1390.0
0.955999970436 0.194000005722 0.115999996662 1411.0
0.959999978542 0.188999995589 0.115999996662 1428.0
0.959999978542 0.182999998331 0.115999996662 1413.0
0.962000012398 0.178000003099 0.115999996662 1432.0
0.962999999523 0.172000005841 0.116999998689 1515.0
0.959999978542 0.165999993682 0.115999996662 1481.0
0.962000012398 0.159999996424 0.115999996662 1416.0
0.961000025272 0.155000001192 0.115999996662 1421.0
0.964999973774 0.15000000596 0.115999996662 1422.0
0.962000012398 0.143000006676 0.115999996662 1436.0
0.963999986649 0.137999996543 0.115999996662 1454.0
0.962999999523 0.131999999285 0.115999996662 1496.0
0.963999986649 0.127000004053 0.115999996662 1512.0
0.962999999523 0.120999999344 0.115999996662 1530.0
0.964999973774 0.115000002086 0.115999996662 1559.0
0.963999986649 0.109999999404 0.115999996662 1598.0
0.958999991417 0.104000002146 0.115000002086 1617.0
0.963999986649 0.097999997437 0.115999996662 1615.0
0.961000025272 0.0930000022054 0.115999996662 1628.0
0.959999978542 0.0869999974966 0.115000002086 1670.0
0.967000007629 0.082000002265 0.115999996662 1677.0
0.967000007629 0.0759999975562 0.115999996662 1663.0
0.964999973774 0.070000000298 0.115999996662 1683.0
0.966000020504 0.0649999976158 0.115999996662 1722.0
0.966000020504 0.0590000003576 0.115999996662 1757.0
0.972000002861 0.0540000014007 0.116999998689 1813.0
0.967000007629 0.0480000004172 0.115999996662 1838.0
0.97000002861 0.0430000014603 0.116999998689 1842.0
0.967000007629 0.0370000004768 0.115999996662 1845.0
0.97000002861 0.0320000015199 0.116999998689 1829.0
0.967999994755 0.0260000005364 0.115999996662 1615.0
0.981999993324 0.0209999997169 0.118000000715 317.0
1.01699995995 -0.0659999996424 0.123000003397 332.0
1.00999999046 -0.0710000023246 0.122000001371 982.0
0.992999970913 -0.0759999975562 0.119999997318 294.0
0.97000002861 -0.0790000036359 0.116999998689 154.0
0.999000012875 -0.0879999995232 0.120999999344 152.0
0.985000014305 -0.0920000001788 0.119000002742 160.0
0.991999983788 -0.0989999994636 0.119999997318 158.0
0.977999985218 -0.103000000119 0.119000002742 159.0
0.962000012398 -0.107000000775 0.116999998689 165.0
0.976000010967 -0.11400000006 0.119000002742 161.0
0.959999978542 -0.118000000715 0.116999998689 167.0
0.992999970913 -0.12800000608 0.120999999344 170.0
0.972999989986 -0.130999997258 0.119000002742 166.0
0.981000006199 -0.137999996543 0.119999997318 177.0
0.95300000906 -0.138999998569 0.115999996662 174.0
0.964999973774 -0.146999999881 0.118000000715 210.0
0.980000019073 -0.155000001192 0.119999997318 953.0
0.981999993324 -0.16099999845 0.119999997318 1294.0
0.980000019073 -0.166999995708 0.119999997318 1310.0
0.976000010967 -0.172000005841 0.119999997318 1318.0
0.972999989986 -0.177000001073 0.119999997318 1327.0
0.976000010967 -0.182999998331 0.119999997318 1332.0
0.967999994755 -0.187999993563 0.119000002742 1338.0
0.967999994755 -0.194000005722 0.119000002742 1339.0
0.971000015736 -0.20000000298 0.119999997318 1351.0
0.967999994755 -0.204999998212 0.119999997318 1368.0
0.964999973774 -0.21099999547 0.119000002742 1367.0
0.962999999523 -0.216000005603 0.119000002742 1367.0
0.963999986649 -0.222000002861 0.119999997318 1370.0
0.959999978542 -0.226999998093 0.119000002742 1384.0
0.959999978542 -0.232999995351 0.119000002742 1028.0
0.943000018597 -0.234999999404 0.118000000715 274.0
0.913999974728 -0.232999995351 0.11400000006 209.0
0.931999981403 -0.244000002742 0.115999996662 208.0
0.933000028133 -0.25 0.116999998689 208.0
0.935000002384 -0.256000012159 0.116999998689 210.0
0.949000000954 -0.266000002623 0.119000002742 211.0
0.916000008583 -0.261999994516 0.115000002086 220.0
0.925000011921 -0.270999997854 0.116999998689 220.0
0.913999974728 -0.273999989033 0.115000002086 220.0
0.929000020027 -0.284000009298 0.116999998689 208.0
0.901000022888 -0.280999988317 0.11400000006 215.0
0.90600001812 -0.28900000453 0.115000002086 226.0
0.925999999046 -0.300999999046 0.118000000715 215.0
0.913999974728 -0.303000003099 0.115999996662 240.0
0.925999999046 -0.312999993563 0.118000000715 1098.0
0.930000007153 -0.321000009775 0.119000002742 1509.0
0.922999978065 -0.324999988079 0.118000000715 1508.0
0.925000011921 -0.331999987364 0.119000002742 1518.0
0.925000011921 -0.337999999523 0.119000002742 1542.0
0.917999982834 -0.342000007629 0.118000000715 1521.0
0.922999978065 -0.34999999404 0.119000002742 1534.0
0.917999982834 -0.354000002146 0.119000002742 1541.0
0.916000008583 -0.360000014305 0.119000002742 1561.0
0.912999987602 -0.365000009537 0.119000002742 1557.0
0.916000008583 -0.372999995947 0.119999997318 1561.0
0.907000005245 -0.375 0.119000002742 1566.0
0.911000013351 -0.38299998641 0.119000002742 1581.0
0.90600001812 -0.388000011444 0.119000002742 1571.0
0.907999992371 -0.395000010729 0.119999997318 891.0
0.896000027657 -0.395999997854 0.118000000715 271.0
0.874000012875 -0.393000006676 0.115999996662 223.0
0.879000008106 -0.402000010014 0.116999998689 211.0
0.870000004768 -0.404000014067 0.115999996662 217.0
0.861999988556 -0.407000005245 0.115000002086 207.0
0.850000023842 -0.407000005245 0.11400000006 211.0
0.865000009537 -0.421000003815 0.115999996662 199.0
0.865999996662 -0.428000003099 0.115999996662 206.0
0.855000019073 -0.428999990225 0.115000002086 214.0
0.841000020504 -0.428999990225 0.11400000006 215.0
0.848999977112 -0.439999997616 0.115000002086 219.0
0.837000012398 -0.439999997616 0.11400000006 213.0
0.867999970913 -0.462999999523 0.119000002742 251.0
0.878000020981 -0.476000010967 0.119999997318 1248.0
0.874000012875 -0.481000006199 0.119999997318 1598.0
