ply
format ascii 1.0
element vertex 917
property float x
property float y
property float z
property float intensity
end_header
0.882000029087 -0.344999998808 0.082000002265 216.0
0.894999980927 -0.356000006199 0.082999996841 213.0
0.894999980927 -0.363000005484 0.082999996841 213.0
0.899999976158 -0.370999991894 0.0839999988675 214.0
0.896000027657 -0.375999987125 0.0839999988675 213.0
0.876999974251 -0.374000012875 0.082000002265 217.0
0.888000011444 -0.384999990463 0.082999996841 710.0
0.90600001812 -0.398999989033 0.0850000008941 1510.0
0.903999984264 -0.405000001192 0.0860000029206 1615.0
0.90499997139 -0.412000000477 0.0860000029206 1622.0
0.896000027657 -0.414999991655 0.0850000008941 1622.0
0.894999980927 -0.421000003815 0.0850000008941 1639.0
0.894999980927 -0.426999986172 0.0860000029206 1637.0
0.884000003338 -0.428999990225 0.0850000008941 1634.0
0.89099997282 -0.43900001049 0.0860000029206 1654.0
0.888999998569 -0.444999992847 0.0860000029206 1629.0
0.884999990463 -0.449999988079 0.0860000029206 1654.0
0.882000029087 -0.455000013113 0.0860000029206 1646.0
0.880999982357 -0.462000012398 0.0860000029206 1647.0
0.878000020981 -0.467000007629 0.0860000029206 1635.0
0.870000004768 -0.469999998808 0.0850000008941 785.0
0.855000019073 -0.467999994755 0.0839999988675 267.0
0.85799998045 -0.476999998093 0.0850000008941 209.0
2.16599988937 1.24699997902 0.192000001669 128.0
2.22499990463 1.26300001144 0.196999996901 174.0
2.24099993706 1.25300002098 0.197999998927 98.0
2.25 1.24000000954 0.197999998927 79.0
3.35899996758 1.39499998093 0.284999996424 84.0
3.47900009155 1.42100000381 0.293999999762 69.0
3.86800003052 1.49899995327 0.326000005007 86.0
3.91499996185 1.49000000954 0.328999996185 92.0
3.87800002098 1.44900000095 0.326000005007 70.0
4.27099990845 1.53900003433 0.358000010252 61.0
4.19299983978 1.45399999619 0.34999999404 80.0
4.17100000381 1.41900002956 0.347999989986 91.0
4.18300008774 1.39499998093 0.347999989986 91.0
4.19899988174 1.37300002575 0.349000006914 94.0
4.22599983215 1.35399997234 0.351000010967 82.0
4.28800010681 1.34599995613 0.356000006199 93.0
4.22100019455 1.29799997807 0.34999999404 98.0
4.28200006485 1.28900003433 0.354000002146 89.0
4.21600008011 1.24199998379 0.349000006914 86.0
4.21299982071 1.21399998665 0.347999989986 90.0
4.23699998856 1.19400000572 0.349000006914 95.0
4.27400016785 1.1779999733 0.351999998093 92.0
4.26800012589 1.14900004864 0.351000010967 86.0
4.21500015259 1.10800004005 0.347000002861 96.0
4.25099992752 1.0909999609 0.349000006914 91.0
4.25899982452 1.06700003147 0.34999999404 97.0
4.23799991608 1.03499996662 0.347000002861 88.0
4.24399995804 1.00999999046 0.347999989986 88.0
4.26800012589 0.990000009537 0.349000006914 92.0
4.2389998436 0.957000017166 0.347000002861 96.0
4.21500015259 0.925999999046 0.344999998808 96.0
4.22399997711 0.902000010014 0.344999998808 97.0
4.17899990082 0.866999983788 0.340999990702 93.0
4.1859998703 0.842999994755 0.340999990702 97.0
4.21799993515 0.824000000954 0.344000011683 74.0
1.01300001144 -0.0649999976158 0.0810000002384 469.0
1.00600004196 -0.0710000023246 0.0810000002384 1153.0
1.00600004196 -0.0769999995828 0.0810000002384 1189.0
1.00800001621 -0.082999996841 0.0810000002384 1205.0
1.00600004196 -0.0879999995232 0.0810000002384 1192.0
1.00499999523 -0.0939999967813 0.0810000002384 1220.0
1.00199997425 -0.0989999994636 0.0810000002384 1231.0
0.996999979019 -0.104999996722 0.0799999982119 1224.0
0.999000012875 -0.111000001431 0.0810000002384 1237.0
0.998000025749 -0.115999996662 0.0810000002384 1257.0
0.987999975681 -0.120999999344 0.0799999982119 1252.0
0.990000009537 -0.127000004053 0.0799999982119 1268.0
0.990999996662 -0.133000001311 0.0799999982119 1277.0
0.994000017643 -0.138999998569 0.0799999982119 1296.0
0.986000001431 -0.143999993801 0.0799999982119 1306.0
0.989000022411 -0.15000000596 0.0799999982119 1239.0
0.985000014305 -0.155000001192 0.0799999982119 434.0
0.943000018597 -0.153999999166 0.0769999995828 182.0
0.96899998188 -0.16400000453 0.0790000036359 175.0
0.948000013828 -0.165999993682 0.0769999995828 179.0
0.967000007629 -0.17499999702 0.0790000036359 180.0
0.953999996185 -0.179000005126 0.0780000016093 177.0
0.943000018597 -0.181999996305 0.0769999995828 181.0
0.944000005722 -0.187999993563 0.0769999995828 183.0
0.93599998951 -0.192000001669 0.0769999995828 178.0
0.925000011921 -0.195999994874 0.0759999975562 185.0
0.940999984741 -0.204999998212 0.0769999995828 188.0
0.930000007153 -0.208000004292 0.0759999975562 192.0
0.93599998951 -0.215000003576 0.0769999995828 182.0
0.922999978065 -0.217999994755 0.0759999975562 192.0
0.948000013828 -0.229000002146 0.0780000016093 530.0
0.953999996185 -0.237000003457 0.0790000036359 1359.0
0.954999983311 -0.243000000715 0.0790000036359 1455.0
0.954999983311 -0.248999997973 0.0790000036359 1469.0
0.953999996185 -0.254999995232 0.0790000036359 1474.0
0.949999988079 -0.259999990463 0.0790000036359 1487.0
0.950999975204 -0.266000002623 0.0790000036359 1504.0
0.947000026703 -0.270999997854 0.0790000036359 1491.0
0.944999992847 -0.275999993086 0.0790000036359 1505.0
0.944999992847 -0.282000005245 0.0790000036359 1508.0
0.943000018597 -0.287999987602 0.0790000036359 1528.0
0.93900001049 -0.293000012636 0.0790000036359 1521.0
0.939999997616 -0.298999994993 0.0790000036359 1537.0
0.930999994278 -0.301999986172 0.0790000036359 1528.0
0.936999976635 -0.310000002384 0.0790000036359 1523.0
0.930000007153 -0.31400001049 0.0790000036359 687.0
0.901000022888 -0.310000002384 0.0769999995828 232.0
0.902999997139 -0.317000001669 0.0769999995828 209.0
0.926999986172 -0.331000000238 0.0790000036359 209.0
0.897000014782 -0.326999992132 0.0769999995828 208.0
0.882000029087 -0.326999992132 0.0759999975562 216.0
0.907999992371 -0.342999994755 0.0780000016093 214.0
0.898000001907 -0.344999998808 0.0769999995828 207.0
0.885999977589 -0.347000002861 0.0769999995828 210.0
0.897000014782 -0.356999993324 0.0780000016093 209.0
0.889999985695 -0.361000001431 0.0769999995828 219.0
0.89099997282 -0.36700001359 0.0780000016093 220.0
0.888000011444 -0.372000008821 0.0769999995828 215.0
0.885999977589 -0.377999991179 0.0780000016093 223.0
0.89200001955 -0.386999994516 0.0780000016093 688.0
0.901000022888 -0.397000014782 0.0790000036359 1521.0
0.903999984264 -0.405000001192 0.0799999982119 1620.0
0.898999989033 -0.409999996424 0.0799999982119 1629.0
0.898999989033 -0.416000008583 0.0799999982119 1629.0
0.896000027657 -0.421000003815 0.0799999982119 1624.0
0.894999980927 -0.426999986172 0.0799999982119 1633.0
0.884999990463 -0.428999990225 0.0790000036359 1646.0
0.889999985695 -0.43900001049 0.0799999982119 1648.0
0.889999985695 -0.444999992847 0.0799999982119 1649.0
0.893000006676 -0.453999996185 0.0810000002384 1654.0
0.880999982357 -0.455000013113 0.0799999982119 1656.0
0.882000029087 -0.462000012398 0.0799999982119 1648.0
0.875999987125 -0.465999990702 0.0799999982119 1654.0
0.874000012875 -0.472000002861 0.0799999982119 813.0
0.869000017643 -0.476000010967 0.0799999982119 271.0
0.847000002861 -0.470999985933 0.0780000016093 218.0
2.22799992561 1.28199994564 0.182999998331 193.0
2.23099994659 1.26600003242 0.182999998331 240.0
2.25099992752 1.25800001621 0.184000000358 133.0
2.28399991989 1.25800001621 0.186000004411 101.0
2.52099990845 1.30900001526 0.203999996185 79.0
3.28800010681 1.36500000954 0.25799998641 92.0
3.47199988365 1.41700005531 0.272000014782 74.0
3.62700009346 1.45500004292 0.284000009298 70.0
3.92199993134 1.54600000381 0.307000011206 62.0
3.79600000381 1.47000002861 0.296000003815 95.0
3.91100001335 1.48800003529 0.305000007153 99.0
3.89199995995 1.45399999619 0.303000003099 88.0
4.22200012207 1.5490000248 0.32800000906 62.0
4.18300008774 1.45000004768 0.324000000954 90.0
4.17899990082 1.42100000381 0.323000013828 104.0
4.21299982071 1.40499997139 0.324999988079 104.0
4.26599979401 1.39400005341 0.328999996185 103.0
4.20699977875 1.34700000286 0.324000000954 100.0
4.17700004578 1.30999994278 0.321000009775 94.0
4.24599981308 1.30499994755 0.326000005007 100.0
4.19899988174 1.26300001144 0.321999996901 101.0
4.19799995422 1.23599994183 0.321999996901 96.0
4.19199991226 1.20700001717 0.321000009775 97.0
4.28800010681 1.20799994469 0.32800000906 91.0
4.23600006104 1.16700005531 0.324000000954 96.0
4.24700021744 1.14300000668 0.324000000954 99.0
4.28499984741 1.12600004673 0.326999992132 94.0
4.27600002289 1.09700000286 0.326000005007 103.0
4.25600004196 1.06500005722 0.324000000954 97.0
4.27899980545 1.04499995708 0.324999988079 103.0
4.21099996567 1.00199997425 0.319999992847 94.0
4.24399995804 0.98400002718 0.321999996901 95.0
4.23999977112 0.957000017166 0.321999996901 95.0
4.25699996948 0.935000002384 0.323000013828 99.0
4.23199987411 0.902999997139 0.321000009775 102.0
4.24599981308 0.879999995232 0.321000009775 99.0
4.21500015259 0.847999989986 0.319000005722 94.0
4.27699995041 0.834999978542 0.323000013828 75.0
1.02300000191 -0.0659999996424 0.0759999975562 489.0
1.00800001621 -0.0710000023246 0.0750000029802 1162.0
1.01300001144 -0.0769999995828 0.0750000029802 1199.0
1.00800001621 -0.082000002265 0.0750000029802 1201.0
1.0039999485 -0.0879999995232 0.0750000029802 1200.0
1.0039999485 -0.0939999967813 0.0750000029802 1224.0
1.0039999485 -0.10000000149 0.0750000029802 1231.0
0.995999991894 -0.104999996722 0.0740000009537 1243.0
0.996999979019 -0.111000001431 0.0750000029802 1235.0
0.994000017643 -0.115999996662 0.0740000009537 1261.0
0.995000004768 -0.122000001371 0.0750000029802 1269.0
0.991999983788 -0.127000004053 0.0740000009537 1267.0
0.991999983788 -0.133000001311 0.0740000009537 1288.0
0.989000022411 -0.138999998569 0.0740000009537 1305.0
0.986000001431 -0.143999993801 0.0740000009537 1306.0
0.98400002718 -0.149000003934 0.0740000009537 1236.0
0.990000009537 -0.156000003219 0.0750000029802 430.0
0.944999992847 -0.155000001192 0.0710000023246 178.0
0.943000018597 -0.159999996424 0.0710000023246 178.0
0.947000026703 -0.165999993682 0.0719999969006 182.0
0.954999983311 -0.172999992967 0.0719999969006 178.0
0.964999973774 -0.180999994278 0.0729999989271 182.0
0.957000017166 -0.185000002384 0.0729999989271 186.0
0.941999971867 -0.187999993563 0.0710000023246 183.0
0.944999992847 -0.194000005722 0.0719999969006 189.0
0.93599998951 -0.197999998927 0.0710000023246 188.0
0.930000007153 -0.202000007033 0.0710000023246 187.0
0.938000023365 -0.209999993443 0.0719999969006 190.0
0.927999973297 -0.212999999523 0.0710000023246 194.0
0.943000018597 -0.222000002861 0.0719999969006 191.0
0.949999988079 -0.230000004172 0.0729999989271 544.0
0.957000017166 -0.238000005484 0.0740000009537 1368.0
0.953999996185 -0.243000000715 0.0729999989271 1458.0
0.950999975204 -0.247999995947 0.0729999989271 1477.0
0.947000026703 -0.252999991179 0.0729999989271 1478.0
0.948000013828 -0.259000003338 0.0729999989271 1486.0
0.947000026703 -0.264999985695 0.0729999989271 1491.0
0.947000026703 -0.270999997854 0.0740000009537 1498.0
0.945999979973 -0.275999993086 0.0740000009537 1503.0
0.943000018597 -0.282000005245 0.0740000009537 1508.0
0.947000026703 -0.28900000453 0.0740000009537 1516.0
0.93900001049 -0.291999995708 0.0729999989271 1534.0
0.935000002384 -0.29699999094 0.0729999989271 1533.0
0.938000023365 -0.303999990225 0.0740000009537 1540.0
0.935000002384 -0.308999985456 0.0740000009537 1532.0
0.925000011921 -0.312000006437 0.0729999989271 700.0
0.916999995708 -0.314999997616 0.0719999969006 241.0
0.907000005245 -0.317999988794 0.0719999969006 205.0
0.887000024319 -0.317000001669 0.070000000298 211.0
0.897000014782 -0.326000005007 0.0710000023246 213.0
0.888999998569 -0.330000013113 0.0710000023246 215.0
0.885999977589 -0.333999991417 0.0710000023246 204.0
0.875 -0.33599999547 0.070000000298 207.0
0.896000027657 -0.34999999404 0.0719999969006 216.0
0.876999974251 -0.349000006914 0.070000000298 212.0
0.879000008106 -0.356000006199 0.0710000023246 219.0
0.871999979019 -0.358999997377 0.0710000023246 219.0
0.883000016212 -0.370000004768 0.0719999969006 221.0
0.860000014305 -0.365999996662 0.070000000298 217.0
0.889999985695 -0.386000007391 0.0729999989271 672.0
0.902000010014 -0.398000001907 0.0740000009537 1508.0
0.902000010014 -0.404000014067 0.0740000009537 1629.0
0.901000022888 -0.409999996424 0.0740000009537 1638.0
0.897000014782 -0.414999991655 0.0740000009537 1640.0
0.896000027657 -0.421000003815 0.0740000009537 1628.0
0.893000006676 -0.425999999046 0.0740000009537 1640.0
0.888999998569 -0.430999994278 0.0740000009537 1641.0
0.887000024319 -0.437000006437 0.0740000009537 1643.0
0.888000011444 -0.444000005722 0.0740000009537 1653.0
0.882000029087 -0.448000013828 0.0740000009537 1665.0
0.885999977589 -0.456999987364 0.0750000029802 1657.0
0.884000003338 -0.462999999523 0.0750000029802 1656.0
0.883000016212 -0.469000011683 0.0750000029802 1638.0
0.878000020981 -0.474000006914 0.0750000029802 840.0
0.852999985218 -0.467000007629 0.0729999989271 268.0
0.841000020504 -0.467000007629 0.0719999969006 218.0
2.20799994469 1.26999998093 0.166999995708 207.0
2.24699997902 1.27400004864 0.168999999762 235.0
2.23000001907 1.2460000515 0.167999997735 132.0
2.33800005913 1.28699994087 0.17499999702 86.0
3.36400008202 1.39600002766 0.243000000715 84.0
3.89599990845 1.53499996662 0.280999988317 65.0
4.00699996948 1.55099999905 0.287999987602 77.0
4.00500011444 1.52300000191 0.287999987602 82.0
4.01800012589 1.5 0.287999987602 69.0
4.31599998474 1.49500000477 0.307999998331 73.0
4.3109998703 1.46500003338 0.307000011206 73.0
4.34000015259 1.44599997997 0.308999985456 73.0
4.27899980545 1.39800000191 0.303999990225 76.0
4.24800014496 1.36000001431 0.300999999046 70.0
4.28700017929 1.34399998188 0.303999990225 68.0
4.40899991989 1.35399997234 0.312000006437 70.0
4.31500005722 1.29700005054 0.305000007153 67.0
4.39699983597 1.29400002956 0.31099998951 65.0
4.35400009155 1.2539999485 0.307000011206 68.0
4.36999988556 1.23099994659 0.307999998331 73.0
4.33300018311 1.19299995899 0.305000007153 70.0
4.29600000381 1.15499997139 0.301999986172 68.0
4.34800004959 1.14199995995 0.305999994278 68.0
4.3220000267 1.10800004005 0.303999990225 66.0
4.29500007629 1.07500004768 0.300999999046 69.0
4.3860001564 1.07000005245 0.307999998331 64.0
4.41599988937 1.04999995232 0.308999985456 67.0
4.39499998093 1.01800000668 0.307999998331 69.0
4.34399986267 0.980000019073 0.303999990225 65.0
4.37599992752 0.959999978542 0.305999994278 69.0
4.35900020599 0.930000007153 0.305000007153 70.0
4.36100006104 0.903999984264 0.303999990225 67.0
4.38700008392 0.882000029087 0.305999994278 65.0
4.45300006866 0.869000017643 0.31099998951 54.0
1.00499999523 -0.0649999976158 0.0689999982715 507.0
1.00699996948 -0.0710000023246 0.0689999982715 1171.0
1.00699996948 -0.0769999995828 0.0689999982715 1207.0
1.00300002098 -0.082000002265 0.0689999982715 1204.0
1.00600004196 -0.0879999995232 0.0689999982715 1214.0
1.0039999485 -0.0939999967813 0.0689999982715 1226.0
1.00600004196 -0.10000000149 0.0689999982715 1228.0
1.00199997425 -0.104999996722 0.0689999982715 1229.0
0.991999983788 -0.109999999404 0.0680000036955 1248.0
0.994000017643 -0.115999996662 0.0689999982715 1268.0
0.995999991894 -0.122000001371 0.0689999982715 1265.0
0.991999983788 -0.127000004053 0.0689999982715 1271.0
0.986000001431 -0.131999999285 0.0680000036955 1280.0
0.990999996662 -0.138999998569 0.0689999982715 1290.0
0.986999988556 -0.143999993801 0.0680000036955 1300.0
0.986999988556 -0.15000000596 0.0689999982715 1242.0
0.98400002718 -0.155000001192 0.0680000036955 406.0
0.944000005722 -0.153999999166 0.0659999996424 180.0
0.962999999523 -0.163000002503 0.0670000016689 180.0
0.964999973774 -0.168999999762 0.0670000016689 179.0
0.948000013828 -0.172000005841 0.0659999996424 179.0
0.948000013828 -0.178000003099 0.0659999996424 173.0
0.938000023365 -0.180999994278 0.0659999996424 176.0
0.948000013828 -0.188999995589 0.0659999996424 181.0
0.949000000954 -0.194999992847 0.0670000016689 187.0
0.939999997616 -0.199000000954 0.0659999996424 185.0
0.971000015736 -0.21099999547 0.0680000036955 189.0
0.945999979973 -0.211999997497 0.0670000016689 192.0
0.933000028133 -0.21400000155 0.0659999996424 195.0
0.939999997616 -0.222000002861 0.0659999996424 196.0
0.944999992847 -0.229000002146 0.0670000016689 546.0
0.953999996185 -0.237000003457 0.0680000036955 1372.0
0.954999983311 -0.243000000715 0.0680000036955 1460.0
0.953999996185 -0.248999997973 0.0680000036955 1476.0
0.944999992847 -0.252000004053 0.0670000016689 1485.0
0.948000013828 -0.259000003338 0.0680000036955 1497.0
0.948000013828 -0.264999985695 0.0680000036955 1492.0
0.944999992847 -0.270000010729 0.0680000036955 1510.0
0.943000018597 -0.27500000596 0.0680000036955 1508.0
0.93900001049 -0.280000001192 0.0680000036955 1510.0
0.947000026703 -0.28900000453 0.0680000036955 1519.0
0.935000002384 -0.291000008583 0.0680000036955 1530.0
0.93599998951 -0.298000007868 0.0680000036955 1525.0
0.939999997616 -0.305000007153 0.0680000036955 1545.0
0.934000015259 -0.308999985456 0.0680000036955 1531.0
0.925999999046 -0.312000006437 0.0670000016689 700.0
0.888000011444 -0.305000007153 0.0649999976158 242.0
0.893000006676 -0.312999993563 0.0649999976158 210.0
0.889999985695 -0.317999988794 0.0649999976158 207.0
0.889999985695 -0.324000000954 0.0649999976158 214.0
0.908999979496 -0.337000012398 0.0670000016689 209.0
0.913999974728 -0.344999998808 0.0670000016689 216.0
0.888000011444 -0.340999990702 0.0659999996424 215.0
0.888999998569 -0.347999989986 0.0659999996424 213.0
0.898999989033 -0.358000010252 0.0670000016689 216.0
0.880999982357 -0.356999993324 0.0659999996424 207.0
0.85799998045 -0.352999985218 0.0640000030398 216.0
0.870000004768 -0.365000009537 0.0649999976158 220.0
0.851999998093 -0.363000005484 0.0640000030398 212.0
0.898000001907 -0.388999998569 0.0680000036955 666.0
0.901000022888 -0.397000014782 0.0680000036955 1520.0
0.903999984264 -0.405000001192 0.0680000036955 1632.0
0.897000014782 -0.407999992371 0.0680000036955 1630.0
0.901000022888 -0.416999995708 0.0689999982715 1636.0
0.898000001907 -0.42199999094 0.0689999982715 1648.0
0.896000027657 -0.428000003099 0.0689999982715 1639.0
0.89200001955 -0.432000011206 0.0689999982715 1639.0
0.89099997282 -0.43900001049 0.0689999982715 1650.0
0.887000024319 -0.442999988794 0.0689999982715 1634.0
0.884999990463 -0.449000000954 0.0689999982715 1655.0
0.883000016212 -0.455000013113 0.0689999982715 1652.0
0.885999977589 -0.462999999523 0.0689999982715 1638.0
0.879000008106 -0.467000007629 0.0689999982715 1649.0
0.873000025749 -0.469999998808 0.0689999982715 878.0
0.853999972343 -0.467000007629 0.0670000016689 277.0
0.839999973774 -0.465999990702 0.0659999996424 220.0
2.21399998665 1.27300000191 0.152999997139 163.0
2.25200009346 1.27600002289 0.155000001192 174.0
2.3220000267 1.29700005054 0.158999994397 105.0
4.10099983215 1.5870000124 0.270000010729 66.0
4.05100011826 1.53900003433 0.266000002623 62.0
4.33699989319 1.50199997425 0.282999992371 63.0
4.33500003815 1.47200000286 0.282999992371 63.0
4.40299987793 1.4659999609 0.287000000477 64.0
4.36100006104 1.4240000248 0.284000009298 62.0
4.32100009918 1.38300001621 0.280999988317 67.0
4.38399982452 1.37399995327 0.284000009298 64.0
4.45499992371 1.36800003052 0.28900000453 64.0
4.38999986649 1.31900000572 0.284000009298 63.0
4.40000009537 1.29400002956 0.284000009298 61.0
4.46600008011 1.28499996662 0.287999987602 58.0
4.40500020981 1.24000000954 0.284000009298 67.0
4.47100019455 1.23000001907 0.287999987602 63.0
4.44000005722 1.19299995899 0.286000013351 59.0
4.36100006104 1.14499998093 0.280999988317 64.0
4.38999986649 1.125 0.282000005245 62.0
4.45499992371 1.11399996281 0.286000013351 60.0
4.41800022125 1.07700002193 0.284000009298 60.0
4.45499992371 1.05900001526 0.286000013351 63.0
4.50099992752 1.04200005531 0.287999987602 65.0
4.49700021744 1.01400005817 0.287999987602 63.0
4.42399978638 0.97000002861 0.282999992371 62.0
4.45100021362 0.949000000954 0.284999996424 63.0
4.4279999733 0.916999995708 0.282999992371 62.0
4.39699983597 0.884000003338 0.280999988317 62.0
1.01100003719 -0.0649999976158 0.0630000010133 528.0
1.01100003719 -0.0710000023246 0.0640000030398 1174.0
1.01100003719 -0.0769999995828 0.0640000030398 1209.0
1.00499999523 -0.082000002265 0.0630000010133 1207.0
1.00800001621 -0.0879999995232 0.0630000010133 1207.0
1.00499999523 -0.0939999967813 0.0630000010133 1222.0
0.999000012875 -0.0989999994636 0.0630000010133 1247.0
0.998000025749 -0.104999996722 0.0630000010133 1231.0
0.998000025749 -0.111000001431 0.0630000010133 1240.0
0.995000004768 -0.115999996662 0.0630000010133 1265.0
0.994000017643 -0.122000001371 0.0630000010133 1274.0
0.992999970913 -0.127000004053 0.0630000010133 1270.0
0.992999970913 -0.133000001311 0.0630000010133 1291.0
0.987999975681 -0.137999996543 0.0630000010133 1302.0
0.985000014305 -0.143999993801 0.0630000010133 1303.0
0.98299998045 -0.149000003934 0.0630000010133 1241.0
0.971000015736 -0.152999997139 0.0619999989867 411.0
0.967000007629 -0.158000007272 0.0619999989867 184.0
0.938000023365 -0.158999994397 0.0599999986589 174.0
0.962999999523 -0.168999999762 0.0619999989867 179.0
0.936999976635 -0.170000001788 0.0599999986589 175.0
0.92199999094 -0.172999992967 0.0590000003576 178.0
0.948000013828 -0.182999998331 0.0610000006855 184.0
0.921000003815 -0.182999998331 0.0590000003576 190.0
0.939999997616 -0.193000003695 0.0599999986589 187.0
0.922999978065 -0.194999992847 0.0590000003576 186.0
0.926999986172 -0.202000007033 0.0599999986589 186.0
0.945999979973 -0.21099999547 0.0610000006855 192.0
0.917999982834 -0.21099999547 0.0590000003576 192.0
0.912000000477 -0.215000003576 0.0590000003576 201.0
0.945999979973 -0.229000002146 0.0610000006855 540.0
0.955999970436 -0.237000003457 0.0619999989867 1380.0
0.952000021935 -0.241999998689 0.0619999989867 1466.0
0.954999983311 -0.248999997973 0.0619999989867 1479.0
0.949000000954 -0.252999991179 0.0619999989867 1483.0
0.952000021935 -0.259999990463 0.0619999989867 1498.0
0.948000013828 -0.264999985695 0.0619999989867 1495.0
0.948000013828 -0.270999997854 0.0619999989867 1505.0
0.941999971867 -0.27500000596 0.0619999989867 1507.0
0.939999997616 -0.280000001192 0.0619999989867 1520.0
0.939999997616 -0.287000000477 0.0619999989867 1532.0
0.938000023365 -0.291999995708 0.0619999989867 1548.0
0.940999984741 -0.298999994993 0.0619999989867 1533.0
0.938000023365 -0.303999990225 0.0619999989867 1531.0
0.929000020027 -0.307000011206 0.0619999989867 1526.0
0.936999976635 -0.316000014544 0.0630000010133 707.0
0.912000000477 -0.312999993563 0.0610000006855 238.0
0.919000029564 -0.321999996901 0.0619999989867 217.0
0.913999974728 -0.326000005007 0.0610000006855 207.0
0.901000022888 -0.32800000906 0.0610000006855 212.0
0.907999992371 -0.33599999547 0.0610000006855 214.0
0.899999976158 -0.338999986649 0.0610000006855 214.0
0.884999990463 -0.340000003576 0.0599999986589 212.0
0.883000016212 -0.344999998808 0.0599999986589 218.0
0.89200001955 -0.354999989271 0.0610000006855 220.0
0.889999985695 -0.360000014305 0.0610000006855 218.0
0.867999970913 -0.356999993324 0.0590000003576 217.0
0.870000004768 -0.363999992609 0.0599999986589 218.0
0.882000029087 -0.375999987125 0.0610000006855 228.0
0.898999989033 -0.388999998569 0.0619999989867 647.0
0.898999989033 -0.395999997854 0.0619999989867 1520.0
0.901000022888 -0.404000014067 0.0630000010133 1630.0
0.896000027657 -0.407999992371 0.0619999989867 1636.0
0.893999993801 -0.412999987602 0.0619999989867 1630.0
0.897000014782 -0.421000003815 0.0630000010133 1642.0
0.89099997282 -0.425000011921 0.0630000010133 1651.0
0.897000014782 -0.435000002384 0.0630000010133 1638.0
0.887000024319 -0.437000006437 0.0630000010133 1647.0
0.889999985695 -0.444999992847 0.0630000010133 1644.0
0.885999977589 -0.449999988079 0.0630000010133 1659.0
0.884000003338 -0.456000000238 0.0630000010133 1652.0
0.884000003338 -0.462999999523 0.0630000010133 1645.0
0.876999974251 -0.465999990702 0.0630000010133 1655.0
0.875 -0.472000002861 0.0630000010133 897.0
0.852999985218 -0.465999990702 0.0619999989867 283.0
0.852999985218 -0.472999989986 0.0619999989867 225.0
2.13100004196 1.22399997711 0.133000001311 112.0
2.15400004387 1.22000002861 0.134000003338 107.0
0.898000001907 0.430000007153 0.0529999993742 76.0
0.920000016689 0.426999986172 0.0540000014007 88.0
0.926999986172 0.391000002623 0.0540000014007 140.0
0.85799998045 0.337999999523 0.0500000007451 151.0
0.899999976158 0.33599999547 0.0520000010729 159.0
0.908999979496 0.333000004292 0.0529999993742 178.0
0.916999995708 0.324000000954 0.0529999993742 217.0
0.753000020981 0.261000007391 0.0430000014603 127.0
0.800000011921 0.272000014782 0.0460000000894 158.0
0.893999993801 0.291999995708 0.0509999990463 245.0
0.913999974728 0.291999995708 0.0520000010729 247.0
0.875999987125 0.268999993801 0.0500000007451 195.0
0.823000013828 0.24699999392 0.0469999983907 159.0
0.882000029087 0.259000003338 0.0500000007451 213.0
0.866999983788 0.25 0.0489999987185 183.0
0.851999998093 0.239999994636 0.0480000004172 172.0
0.84500002861 0.232999995351 0.0480000004172 180.0
0.875 0.234999999404 0.0500000007451 185.0
0.850000023842 0.223000004888 0.0480000004172 179.0
0.848999977112 0.217999994755 0.0480000004172 181.0
0.901000022888 0.225999996066 0.0509999990463 235.0
0.876999974251 0.21400000155 0.0500000007451 194.0
0.851999998093 0.202999994159 0.0480000004172 194.0
0.889999985695 0.206000000238 0.0500000007451 200.0
0.880999982357 0.199000000954 0.0500000007451 204.0
0.879999995232 0.193000003695 0.0500000007451 204.0
0.912000000477 0.194999992847 0.0509999990463 246.0
0.867999970913 0.180000007153 0.0489999987185 203.0
0.879999995232 0.178000003099 0.0500000007451 202.0
0.934000015259 0.182999998331 0.0529999993742 207.0
0.990999996662 0.187999993563 0.0560000017285 223.0
1.01600003242 0.187000006437 0.0570000000298 234.0
0.992999970913 0.175999999046 0.0560000017285 225.0
1.00499999523 0.172000005841 0.0570000000298 231.0
1.00499999523 0.166999995708 0.0570000000298 227.0
1.01199996471 0.162000000477 0.0570000000298 222.0
0.994000017643 0.152999997139 0.0560000017285 234.0
0.999000012875 0.148000001907 0.0560000017285 237.0
0.992999970913 0.141000002623 0.0560000017285 229.0
0.989000022411 0.135000005364 0.0560000017285 213.0
1.00300002098 0.130999997258 0.0570000000298 211.0
0.991999983788 0.123000003397 0.0560000017285 242.0
1.00199997425 0.119000002742 0.0560000017285 205.0
1.02199995518 0.115000002086 0.0579999983311 205.0
1.02600002289 0.109999999404 0.0579999983311 213.0
1.01199996471 0.101999998093 0.0570000000298 210.0
1.02600002289 0.097999997437 0.0579999983311 203.0
1.01900005341 0.0909999981523 0.0570000000298 248.0
1.0 0.0839999988675 0.0560000017285 243.0
1.03600001335 0.0810000002384 0.0579999983311 192.0
1.00199997425 0.0719999969006 0.0560000017285 243.0
1.02600002289 0.0619999989867 0.0579999983311 300.0
1.00999999046 0.0560000017285 0.0570000000298 277.0
0.998000025749 0.0489999987185 0.0560000017285 252.0
1.00300002098 0.0439999997616 0.0570000000298 232.0
1.01300001144 0.0320000015199 0.0570000000298 188.0
1.01300001144 -0.0649999976158 0.0579999983311 545.0
1.00899994373 -0.0710000023246 0.0579999983311 1177.0
1.00699996948 -0.0769999995828 0.0570000000298 1199.0
1.00800001621 -0.082999996841 0.0579999983311 1213.0
1.00600004196 -0.0879999995232 0.0579999983311 1215.0
0.998000025749 -0.0930000022054 0.0570000000298 1222.0
0.999000012875 -0.0989999994636 0.0570000000298 1241.0
0.995999991894 -0.104999996722 0.0570000000298 1249.0
0.996999979019 -0.111000001431 0.0570000000298 1244.0
0.995999991894 -0.115999996662 0.0570000000298 1270.0
0.991999983788 -0.122000001371 0.0570000000298 1261.0
0.986000001431 -0.127000004053 0.0570000000298 1283.0
0.990999996662 -0.133000001311 0.0570000000298 1290.0
0.98400002718 -0.137999996543 0.0570000000298 1302.0
0.986999988556 -0.143999993801 0.0570000000298 1313.0
0.990000009537 -0.15000000596 0.0570000000298 1223.0
0.96899998188 -0.152999997139 0.0560000017285 402.0
0.953999996185 -0.156000003219 0.054999999702 181.0
0.95300000906 -0.162000000477 0.054999999702 178.0
0.962000012398 -0.168999999762 0.0560000017285 182.0
0.957000017166 -0.173999994993 0.0560000017285 176.0
0.95300000906 -0.178000003099 0.054999999702 182.0
0.938000023365 -0.180999994278 0.054999999702 182.0
0.949999988079 -0.188999995589 0.054999999702 186.0
0.945999979973 -0.194000005722 0.054999999702 185.0
0.934000015259 -0.196999996901 0.054999999702 184.0
0.933000028133 -0.202999994159 0.054999999702 189.0
0.944000005722 -0.21099999547 0.054999999702 192.0
0.916999995708 -0.209999993443 0.0540000014007 194.0
0.931999981403 -0.219999998808 0.054999999702 199.0
0.957000017166 -0.231000006199 0.0560000017285 557.0
0.955999970436 -0.237000003457 0.0570000000298 1385.0
0.953999996185 -0.243000000715 0.0570000000298 1470.0
0.953999996185 -0.248999997973 0.0570000000298 1483.0
0.950999975204 -0.254000008106 0.0570000000298 1485.0
0.948000013828 -0.259000003338 0.0560000017285 1500.0
0.949000000954 -0.264999985695 0.0570000000298 1496.0
0.949000000954 -0.270999997854 0.0570000000298 1507.0
0.940999984741 -0.27500000596 0.0560000017285 1514.0
0.940999984741 -0.280999988317 0.0560000017285 1507.0
0.943000018597 -0.287000000477 0.0570000000298 1519.0
0.939999997616 -0.293000012636 0.0570000000298 1527.0
0.939999997616 -0.298999994993 0.0570000000298 1530.0
0.935000002384 -0.303000003099 0.0570000000298 1552.0
0.930999994278 -0.307999998331 0.0560000017285 1531.0
0.930999994278 -0.31400001049 0.0570000000298 708.0
0.888000011444 -0.305000007153 0.0540000014007 237.0
0.898000001907 -0.314999997616 0.054999999702 210.0
0.880999982357 -0.31400001049 0.0540000014007 213.0
0.916999995708 -0.333999991417 0.0560000017285 216.0
0.894999980927 -0.331000000238 0.054999999702 215.0
0.884000003338 -0.333000004292 0.0540000014007 212.0
0.875999987125 -0.33599999547 0.0540000014007 215.0
0.889999985695 -0.347999989986 0.054999999702 218.0
0.869000017643 -0.345999985933 0.0540000014007 211.0
0.893999993801 -0.361999988556 0.0560000017285 218.0
0.874000012875 -0.360000014305 0.0540000014007 211.0
0.879999995232 -0.368999987841 0.054999999702 217.0
0.865999996662 -0.368999987841 0.0540000014007 221.0
0.899999976158 -0.389999985695 0.0570000000298 641.0
0.898000001907 -0.395000010729 0.0570000000298 1506.0
0.901000022888 -0.402999997139 0.0570000000298 1627.0
0.898999989033 -0.409000009298 0.0570000000298 1637.0
0.89200001955 -0.412000000477 0.0570000000298 1642.0
0.897000014782 -0.421000003815 0.0570000000298 1647.0
0.89200001955 -0.425999999046 0.0570000000298 1651.0
0.89200001955 -0.432000011206 0.0570000000298 1650.0
0.89099997282 -0.437999993563 0.0570000000298 1658.0
0.884999990463 -0.442000001669 0.0570000000298 1649.0
0.887000024319 -0.449999988079 0.0579999983311 1669.0
0.878000020981 -0.451999992132 0.0570000000298 1661.0
0.879000008106 -0.460000008345 0.0570000000298 1653.0
0.876999974251 -0.465000003576 0.0570000000298 1665.0
0.880999982357 -0.47499999404 0.0579999983311 920.0
0.866999983788 -0.474000006914 0.0570000000298 282.0
0.841000020504 -0.465999990702 0.0560000017285 217.0
1.05799996853 0.606999993324 0.0579999983311 281.0
1.03699994087 0.586000025272 0.0570000000298 285.0
1.00499999523 0.560000002384 0.054999999702 319.0
0.964999973774 0.52999997139 0.0520000010729 339.0
0.963999986649 0.522000014782 0.0520000010729 353.0
0.962999999523 0.513999998569 0.0520000010729 379.0
0.96899998188 0.509000003338 0.0520000010729 392.0
0.966000020504 0.5 0.0520000010729 404.0
0.963999986649 0.490999996662 0.0520000010729 415.0
0.962000012398 0.483000010252 0.0520000010729 429.0
0.966000020504 0.477999985218 0.0520000010729 468.0
0.972999989986 0.474000006914 0.0520000010729 509.0
0.959999978542 0.460000008345 0.0509999990463 496.0
0.978999972343 0.462000012398 0.0520000010729 504.0
0.963999986649 0.448000013828 0.0509999990463 534.0
0.972999989986 0.444999992847 0.0509999990463 557.0
0.961000025272 0.432000011206 0.0509999990463 562.0
0.976999998093 0.432000011206 0.0520000010729 573.0
0.972000002861 0.423000007868 0.0509999990463 613.0
0.96899998188 0.414999991655 0.0509999990463 618.0
0.967000007629 0.407000005245 0.0509999990463 639.0
0.967999994755 0.400999993086 0.0509999990463 648.0
0.975000023842 0.397000014782 0.0509999990463 641.0
0.962000012398 0.384999990463 0.0500000007451 646.0
0.977999985218 0.384999990463 0.0509999990463 647.0
0.967000007629 0.374000012875 0.0500000007451 671.0
0.971000015736 0.368999987841 0.0500000007451 701.0
0.97000002861 0.361000001431 0.0500000007451 708.0
0.966000020504 0.354000002146 0.0500000007451 729.0
0.967000007629 0.347000002861 0.0500000007451 756.0
0.972000002861 0.342999994755 0.0500000007451 743.0
0.981000006199 0.338999986649 0.0509999990463 767.0
0.973999977112 0.331000000238 0.0500000007451 774.0
0.967999994755 0.321999996901 0.0500000007451 797.0
0.972999989986 0.317000001669 0.0500000007451 800.0
0.978999972343 0.312999993563 0.0500000007451 806.0
0.98299998045 0.307999998331 0.0500000007451 817.0
0.98299998045 0.301999986172 0.0500000007451 814.0
0.978999972343 0.293999999762 0.0500000007451 819.0
0.976999998093 0.287000000477 0.0500000007451 843.0
0.98400002718 0.282999992371 0.0500000007451 845.0
0.98400002718 0.277000010014 0.0500000007451 861.0
0.981000006199 0.270000010729 0.0500000007451 874.0
0.981999993324 0.263999998569 0.0500000007451 875.0
0.978999972343 0.256999999285 0.0500000007451 892.0
0.981999993324 0.252000004053 0.0500000007451 896.0
0.981000006199 0.246000006795 0.0500000007451 897.0
0.977999985218 0.238999992609 0.0500000007451 906.0
0.985000014305 0.233999997377 0.0500000007451 928.0
0.98400002718 0.228000000119 0.0500000007451 940.0
0.98299998045 0.222000002861 0.0500000007451 953.0
0.98299998045 0.216000005603 0.0500000007451 960.0
0.981999993324 0.209999993443 0.0500000007451 963.0
0.978999972343 0.202999994159 0.0500000007451 956.0
0.986999988556 0.199000000954 0.0500000007451 931.0
0.986000001431 0.193000003695 0.0500000007451 928.0
0.987999975681 0.187000006437 0.0500000007451 948.0
0.985000014305 0.180999994278 0.0500000007451 1009.0
0.986999988556 0.17499999702 0.0500000007451 1008.0
0.985000014305 0.168999999762 0.0500000007451 1027.0
0.986000001431 0.163000002503 0.0500000007451 1011.0
0.981999993324 0.157000005245 0.0500000007451 1007.0
0.990000009537 0.151999995112 0.0500000007451 1046.0
0.994000017643 0.146999999881 0.0500000007451 1060.0
0.989000022411 0.140000000596 0.0500000007451 1052.0
0.985000014305 0.134000003338 0.0500000007451 1061.0
0.98400002718 0.12800000608 0.0500000007451 1061.0
0.986000001431 0.123000003397 0.0500000007451 1039.0
0.995999991894 0.118000000715 0.0500000007451 1028.0
0.990999996662 0.112000003457 0.0500000007451 1083.0
0.990000009537 0.105999998748 0.0500000007451 1077.0
0.985000014305 0.10000000149 0.0500000007451 1079.0
0.992999970913 0.0949999988079 0.0500000007451 1060.0
0.987999975681 0.0879999995232 0.0500000007451 1034.0
0.991999983788 0.082999996841 0.0500000007451 1065.0
0.998000025749 0.0780000016093 0.0500000007451 1082.0
0.996999979019 0.0719999969006 0.0500000007451 1055.0
0.991999983788 0.0659999996424 0.0500000007451 1068.0
0.995999991894 0.0610000006855 0.0500000007451 1035.0
0.991999983788 0.054999999702 0.0500000007451 998.0
0.994000017643 0.0489999987185 0.0500000007451 945.0
0.994000017643 0.0430000014603 0.0500000007451 918.0
0.998000025749 0.0379999987781 0.0509999990463 867.0
0.992999970913 0.0320000015199 0.0500000007451 794.0
1.01499998569 0.0270000007004 0.0509999990463 375.0
1.01100003719 -0.0649999976158 0.0520000010729 563.0
1.01100003719 -0.0710000023246 0.0520000010729 1182.0
1.01600003242 -0.0769999995828 0.0520000010729 1196.0
1.00999999046 -0.082999996841 0.0520000010729 1198.0
1.00699996948 -0.0879999995232 0.0520000010729 1208.0
1.00100004673 -0.0939999967813 0.0509999990463 1220.0
0.998000025749 -0.0989999994636 0.0509999990463 1236.0
0.998000025749 -0.104999996722 0.0509999990463 1244.0
0.994000017643 -0.109999999404 0.0509999990463 1253.0
0.998000025749 -0.115999996662 0.0520000010729 1263.0
0.992999970913 -0.122000001371 0.0509999990463 1266.0
0.995000004768 -0.12800000608 0.0509999990463 1275.0
0.991999983788 -0.133000001311 0.0509999990463 1275.0
0.990000009537 -0.138999998569 0.0509999990463 1304.0
0.990999996662 -0.144999995828 0.0509999990463 1306.0
0.980000019073 -0.149000003934 0.0509999990463 1231.0
0.967000007629 -0.151999995112 0.0500000007451 387.0
0.945999979973 -0.155000001192 0.0489999987185 180.0
0.962000012398 -0.163000002503 0.0500000007451 179.0
0.93599998951 -0.16400000453 0.0489999987185 177.0
0.955999970436 -0.172999992967 0.0500000007451 183.0
0.933000028133 -0.17499999702 0.0489999987185 179.0
0.93599998951 -0.180999994278 0.0489999987185 185.0
0.93599998951 -0.186000004411 0.0489999987185 189.0
0.944999992847 -0.194000005722 0.0500000007451 190.0
0.939999997616 -0.199000000954 0.0489999987185 190.0
0.949999988079 -0.207000002265 0.0500000007451 187.0
0.950999975204 -0.212999999523 0.0500000007451 186.0
0.920000016689 -0.21099999547 0.0489999987185 194.0
0.93599998951 -0.219999998808 0.0500000007451 199.0
0.944000005722 -0.228000000119 0.0500000007451 558.0
0.953999996185 -0.237000003457 0.0509999990463 1376.0
0.958000004292 -0.243000000715 0.0509999990463 1469.0
0.957000017166 -0.248999997973 0.0509999990463 1485.0
0.949000000954 -0.252999991179 0.0509999990463 1483.0
0.952000021935 -0.259999990463 0.0509999990463 1486.0
0.945999979973 -0.263999998569 0.0509999990463 1495.0
0.950999975204 -0.272000014782 0.0509999990463 1516.0
0.948000013828 -0.277000010014 0.0509999990463 1516.0
0.944000005722 -0.282000005245 0.0509999990463 1516.0
0.93900001049 -0.286000013351 0.0509999990463 1523.0
0.93900001049 -0.291999995708 0.0509999990463 1531.0
0.935000002384 -0.29699999094 0.0509999990463 1545.0
0.931999981403 -0.301999986172 0.0509999990463 1547.0
0.930000007153 -0.307999998331 0.0509999990463 1533.0
0.930999994278 -0.31400001049 0.0509999990463 709.0
0.921000003815 -0.316000014544 0.0500000007451 238.0
0.901000022888 -0.314999997616 0.0489999987185 213.0
0.887000024319 -0.316000014544 0.0489999987185 214.0
0.898999989033 -0.326999992132 0.0500000007451 209.0
0.879000008106 -0.324999988079 0.0489999987185 213.0
0.89099997282 -0.33599999547 0.0489999987185 217.0
0.882000029087 -0.337999999523 0.0489999987185 216.0
0.873000025749 -0.340999990702 0.0489999987185 216.0
0.89099997282 -0.354000002146 0.0500000007451 217.0
0.893999993801 -0.361999988556 0.0500000007451 215.0
0.887000024319 -0.365000009537 0.0500000007451 216.0
0.899999976158 -0.377000004053 0.0509999990463 219.0
0.885999977589 -0.377000004053 0.0500000007451 231.0
0.898000001907 -0.388999998569 0.0509999990463 639.0
0.897000014782 -0.395000010729 0.0509999990463 1508.0
0.899999976158 -0.402999997139 0.0509999990463 1636.0
0.898999989033 -0.409000009298 0.0509999990463 1636.0
0.897000014782 -0.41400000453 0.0509999990463 1664.0
0.889999985695 -0.418000012636 0.0509999990463 1639.0
0.893999993801 -0.425999999046 0.0520000010729 1667.0
0.89200001955 -0.432000011206 0.0520000010729 1651.0
0.89099997282 -0.43900001049 0.0520000010729 1663.0
0.884000003338 -0.442000001669 0.0520000010729 1638.0
0.885999977589 -0.449000000954 0.0520000010729 1652.0
0.885999977589 -0.456000000238 0.0520000010729 1659.0
0.879000008106 -0.458999991417 0.0520000010729 1658.0
0.878000020981 -0.465999990702 0.0520000010729 1652.0
0.876999974251 -0.472000002861 0.0520000010729 946.0
0.862999975681 -0.472000002861 0.0509999990463 293.0
0.837000012398 -0.463999986649 0.0500000007451 219.0
0.958000004292 0.549000024796 0.0460000000894 759.0
0.953999996185 0.538999974728 0.0460000000894 797.0
0.958000004292 0.533999979496 0.0460000000894 807.0
0.953999996185 0.523999989033 0.0460000000894 819.0
0.958000004292 0.518000006676 0.0460000000894 820.0
0.954999983311 0.509000003338 0.0460000000894 837.0
0.963999986649 0.505999982357 0.0460000000894 841.0
0.959999978542 0.497000008821 0.0460000000894 840.0
0.963999986649 0.490999996662 0.0460000000894 860.0
0.961000025272 0.481999993324 0.0450000017881 871.0
0.958000004292 0.474000006914 0.0450000017881 894.0
0.955999970436 0.465000003576 0.0450000017881 913.0
0.962000012398 0.46099999547 0.0450000017881 902.0
0.962999999523 0.453999996185 0.0450000017881 922.0
0.961000025272 0.446000009775 0.0450000017881 936.0
0.964999973774 0.441000014544 0.0450000017881 927.0
0.961000025272 0.432000011206 0.0450000017881 939.0
0.961000025272 0.425000011921 0.0450000017881 963.0
0.964999973774 0.419999986887 0.0450000017881 972.0
0.97000002861 0.414999991655 0.0450000017881 964.0
0.963999986649 0.405999988317 0.0450000017881 989.0
0.961000025272 0.398000001907 0.0439999997616 1005.0
0.967999994755 0.393999993801 0.0450000017881 1001.0
0.967999994755 0.386999994516 0.0450000017881 1019.0
0.964999973774 0.379000008106 0.0439999997616 1004.0
0.961000025272 0.370999991894 0.0439999997616 1030.0
0.966000020504 0.365999996662 0.0439999997616 1041.0
0.964999973774 0.358999997377 0.0439999997616 1051.0
0.972999989986 0.356000006199 0.0450000017881 1071.0
0.967999994755 0.347999989986 0.0439999997616 1078.0
0.975000023842 0.344000011683 0.0439999997616 1085.0
0.967999994755 0.335000008345 0.0439999997616 1098.0
0.97000002861 0.328999996185 0.0439999997616 1100.0
0.97000002861 0.323000013828 0.0439999997616 1124.0
0.972999989986 0.317000001669 0.0439999997616 1125.0
0.972999989986 0.31099998951 0.0439999997616 1126.0
0.976000010967 0.305999994278 0.0439999997616 1129.0
0.973999977112 0.298999994993 0.0439999997616 1140.0
0.973999977112 0.291999995708 0.0439999997616 1147.0
0.972999989986 0.286000013351 0.0439999997616 1167.0
0.977999985218 0.280999988317 0.0439999997616 1169.0
0.97000002861 0.273000001907 0.0439999997616 1193.0
0.97000002861 0.266999989748 0.0439999997616 1203.0
0.972000002861 0.261000007391 0.0439999997616 1199.0
0.978999972343 0.256999999285 0.0439999997616 1212.0
0.978999972343 0.250999987125 0.0439999997616 1216.0
0.981999993324 0.246000006795 0.0439999997616 1226.0
0.980000019073 0.238999992609 0.0439999997616 1230.0
0.973999977112 0.231999993324 0.0439999997616 1277.0
0.977999985218 0.226999998093 0.0439999997616 1283.0
0.981999993324 0.221000000834 0.0439999997616 1299.0
0.980000019073 0.215000003576 0.0439999997616 1300.0
0.980000019073 0.209000006318 0.0439999997616 1329.0
0.98299998045 0.203999996185 0.0439999997616 1336.0
0.98400002718 0.197999998927 0.0439999997616 1316.0
0.977999985218 0.190999999642 0.0439999997616 1298.0
0.977999985218 0.185000002384 0.0439999997616 1310.0
0.980000019073 0.180000007153 0.0439999997616 1348.0
0.980000019073 0.173999994993 0.0439999997616 1369.0
0.98400002718 0.168999999762 0.0439999997616 1399.0
0.98400002718 0.163000002503 0.0439999997616 1417.0
0.98299998045 0.157000005245 0.0439999997616 1415.0
0.981000006199 0.150999993086 0.0439999997616 1436.0
0.989000022411 0.145999997854 0.0439999997616 1447.0
0.98400002718 0.140000000596 0.0439999997616 1448.0
0.986999988556 0.134000003338 0.0439999997616 1493.0
0.985000014305 0.12800000608 0.0439999997616 1520.0
0.987999975681 0.123000003397 0.0439999997616 1527.0
0.985000014305 0.116999998689 0.0439999997616 1522.0
0.986999988556 0.111000001431 0.0439999997616 1542.0
0.981999993324 0.104999996722 0.0439999997616 1477.0
0.987999975681 0.10000000149 0.0439999997616 1511.0
0.989000022411 0.0939999967813 0.0439999997616 1548.0
0.989000022411 0.0890000015497 0.0439999997616 1602.0
0.989000022411 0.082999996841 0.0439999997616 1609.0
0.987999975681 0.0769999995828 0.0439999997616 1611.0
0.989000022411 0.0710000023246 0.0439999997616 1588.0
0.994000017643 0.0659999996424 0.0439999997616 1553.0
0.987999975681 0.0599999986589 0.0439999997616 1519.0
0.986999988556 0.0540000014007 0.0439999997616 1469.0
0.990000009537 0.0489999987185 0.0439999997616 1464.0
0.995999991894 0.0430000014603 0.0450000017881 1425.0
0.992999970913 0.0370000004768 0.0450000017881 1413.0
0.992999970913 0.0320000015199 0.0450000017881 1367.0
1.0 0.0260000005364 0.0450000017881 689.0
1.01400005817 -0.0659999996424 0.0460000000894 581.0
1.00600004196 -0.0710000023246 0.0460000000894 1185.0
1.00899994373 -0.0769999995828 0.0460000000894 1197.0
1.0039999485 -0.082000002265 0.0460000000894 1208.0
1.00600004196 -0.0879999995232 0.0460000000894 1215.0
1.00499999523 -0.0939999967813 0.0460000000894 1219.0
1.00100004673 -0.0989999994636 0.0460000000894 1230.0
0.994000017643 -0.104000002146 0.0450000017881 1231.0
0.991999983788 -0.109999999404 0.0450000017881 1250.0
1.00199997425 -0.116999998689 0.0460000000894 1245.0
0.995000004768 -0.122000001371 0.0460000000894 1257.0
0.990999996662 -0.127000004053 0.0460000000894 1265.0
0.990999996662 -0.133000001311 0.0460000000894 1271.0
0.98400002718 -0.137999996543 0.0450000017881 1305.0
0.992999970913 -0.144999995828 0.0460000000894 1313.0
0.990000009537 -0.15000000596 0.0460000000894 1223.0
0.976999998093 -0.153999999166 0.0450000017881 388.0
0.936999976635 -0.152999997139 0.0430000014603 177.0
0.939999997616 -0.158999994397 0.0430000014603 177.0
0.962999999523 -0.168999999762 0.0450000017881 182.0
0.920000016689 -0.166999995708 0.0430000014603 179.0
0.931999981403 -0.173999994993 0.0430000014603 183.0
0.944000005722 -0.181999996305 0.0439999997616 185.0
0.943000018597 -0.187999993563 0.0439999997616 179.0
0.940999984741 -0.193000003695 0.0439999997616 185.0
0.93599998951 -0.197999998927 0.0439999997616 192.0
0.945999979973 -0.206000000238 0.0439999997616 193.0
0.949000000954 -0.211999997497 0.0450000017881 198.0
0.934000015259 -0.21400000155 0.0439999997616 193.0
0.938000023365 -0.221000000834 0.0439999997616 201.0
0.948000013828 -0.229000002146 0.0450000017881 571.0
0.952000021935 -0.236000001431 0.0450000017881 1387.0
0.952000021935 -0.241999998689 0.0450000017881 1474.0
0.95300000906 -0.247999995947 0.0450000017881 1497.0
0.945999979973 -0.252000004053 0.0450000017881 1487.0
0.949999988079 -0.259000003338 0.0450000017881 1482.0
0.95300000906 -0.266000002623 0.0460000000894 1491.0
0.939999997616 -0.268000006676 0.0450000017881 1504.0
0.943000018597 -0.27500000596 0.0450000017881 1512.0
0.943000018597 -0.280999988317 0.0450000017881 1516.0
0.941999971867 -0.287000000477 0.0450000017881 1526.0
0.931999981403 -0.289999991655 0.0450000017881 1542.0
0.941999971867 -0.298999994993 0.0460000000894 1532.0
0.935000002384 -0.303000003099 0.0450000017881 1548.0
0.934000015259 -0.308999985456 0.0450000017881 1541.0
0.92199999094 -0.31099998951 0.0450000017881 715.0
0.913999974728 -0.31400001049 0.0450000017881 235.0
0.910000026226 -0.317999988794 0.0439999997616 216.0
0.907000005245 -0.324000000954 0.0439999997616 208.0
0.889999985695 -0.324000000954 0.0439999997616 218.0
0.887000024319 -0.32800000906 0.0439999997616 215.0
0.893000006676 -0.337000012398 0.0439999997616 218.0
0.899999976158 -0.344999998808 0.0450000017881 217.0
0.885999977589 -0.345999985933 0.0439999997616 219.0
0.884000003338 -0.351000010967 0.0439999997616 224.0
0.871999979019 -0.352999985218 0.0430000014603 221.0
0.874000012875 -0.360000014305 0.0439999997616 221.0
0.884999990463 -0.370000004768 0.0439999997616 224.0
0.897000014782 -0.381999999285 0.0450000017881 227.0
0.889999985695 -0.384999990463 0.0450000017881 642.0
0.902999997139 -0.397000014782 0.0460000000894 1508.0
0.898999989033 -0.402000010014 0.0460000000894 1640.0
0.898999989033 -0.407999992371 0.0460000000894 1646.0
0.894999980927 -0.412999987602 0.0460000000894 1635.0
0.893000006676 -0.418999999762 0.0460000000894 1649.0
0.888999998569 -0.423999994993 0.0460000000894 1650.0
0.893999993801 -0.432999998331 0.0460000000894 1650.0
0.889999985695 -0.437999993563 0.0460000000894 1665.0
0.882000029087 -0.439999997616 0.0460000000894 1657.0
0.884000003338 -0.448000013828 0.0460000000894 1658.0
0.884999990463 -0.456000000238 0.0460000000894 1670.0
0.875999987125 -0.458000004292 0.0460000000894 1654.0
0.878000020981 -0.465999990702 0.0460000000894 1671.0
0.878000020981 -0.472999989986 0.0460000000894 954.0
