ply
format ascii 1.0
element vertex 940
property float x
property float y
property float z
property float intensity
end_header
0.941999971867 -0.287999987602 0.254999995232 1391.0
0.93900001049 -0.293999999762 0.254000008106 1392.0
0.941999971867 -0.300999999046 0.254999995232 1416.0
0.935000002384 -0.305000007153 0.254000008106 1420.0
0.938000023365 -0.312000006437 0.254999995232 1417.0
0.93599998951 -0.317999988794 0.254999995232 1423.0
0.930999994278 -0.321999996901 0.254000008106 1436.0
0.925000011921 -0.326999992132 0.252999991179 1435.0
0.925999999046 -0.333000004292 0.254000008106 1430.0
0.921000003815 -0.337999999523 0.252999991179 1446.0
0.922999978065 -0.344999998808 0.254000008106 1459.0
0.921000003815 -0.351000010967 0.254000008106 1436.0
0.915000021458 -0.354999989271 0.252999991179 1454.0
0.913999974728 -0.361000001431 0.254000008106 1444.0
0.916000008583 -0.368000000715 0.254999995232 1466.0
0.920000016689 -0.377000004053 0.256999999285 1465.0
0.912000000477 -0.379999995232 0.254999995232 1476.0
0.916000008583 -0.388000011444 0.256000012159 1470.0
0.90600001812 -0.389999985695 0.254000008106 1488.0
0.907999992371 -0.398000001907 0.256000012159 1479.0
0.902999997139 -0.402000010014 0.254999995232 1485.0
0.901000022888 -0.409000009298 0.254999995232 1469.0
0.899999976158 -0.414999991655 0.254999995232 1476.0
0.898000001907 -0.421000003815 0.254999995232 1490.0
0.893000006676 -0.425000011921 0.254999995232 1496.0
0.896000027657 -0.432999998331 0.256000012159 1496.0
0.89200001955 -0.437999993563 0.256000012159 1509.0
0.89200001955 -0.444999992847 0.256000012159 1505.0
0.888999998569 -0.451000005007 0.256000012159 1502.0
0.884000003338 -0.455000013113 0.256000012159 1498.0
0.882000029087 -0.46099999547 0.256000012159 1502.0
0.884999990463 -0.469999998808 0.256999999285 1497.0
0.879999995232 -0.47499999404 0.256999999285 1483.0
0.882000029087 -0.483000010252 0.25799998641 1497.0
0.875 -0.486000001431 0.256999999285 1503.0
0.874000012875 -0.493000000715 0.256999999285 1510.0
0.871999979019 -0.499000012875 0.25799998641 1504.0
2.1210000515 1.26100003719 0.60799998045 206.0
2.19000005722 1.28299999237 0.625999987125 100.0
2.17899990082 1.25800001621 0.620999991894 115.0
2.2349998951 1.27100002766 0.634999990463 217.0
2.23900008202 1.25499999523 0.634000003338 193.0
2.26699995995 1.25199997425 0.639999985695 116.0
3.44899988174 1.42599999905 0.931999981403 87.0
3.55500006676 1.44400000572 0.958999991417 82.0
3.64199995995 1.45399999619 0.981000006199 77.0
3.8259999752 1.5 1.02799999714 94.0
3.92199993134 1.50999999046 1.05200004578 119.0
3.84899997711 1.45500004292 1.02999997139 116.0
3.94499993324 1.46300005913 1.05400002003 95.0
4.09200000763 1.49000000954 1.09200000763 75.0
4.07800006866 1.45599997044 1.08599996567 74.0
4.23400020599 1.48300004005 1.12600004673 77.0
4.10200023651 1.4090000391 1.08899998665 100.0
4.09100008011 1.37699997425 1.08399999142 127.0
4.11000013351 1.35599994659 1.0870000124 125.0
4.1939997673 1.35500001907 1.10800004005 118.0
4.16800022125 1.31900000572 1.09899997711 118.0
4.22499990463 1.30900001526 1.11199998856 112.0
4.1859998703 1.26900005341 1.10000002384 117.0
4.19600009918 1.24500000477 1.10199999809 112.0
4.1810002327 1.21300005913 1.09599995613 113.0
4.18699979782 1.18700003624 1.09599995613 118.0
4.1970000267 1.1629999876 1.09700000286 119.0
4.16099977493 1.12600004673 1.08599996567 111.0
4.18800020218 1.10599994659 1.09200000763 112.0
4.21600008011 1.0870000124 1.09800004959 112.0
4.1939997673 1.05400002003 1.0909999609 113.0
4.15700006485 1.01900005341 1.08000004292 115.0
4.19000005722 1.0 1.0870000124 110.0
4.22800016403 0.981999993324 1.09599995613 115.0
4.24700021744 0.959999978542 1.10000002384 113.0
4.24800014496 0.934000015259 1.09899997711 116.0
4.20599985123 0.898000001907 1.0870000124 117.0
4.20100021362 0.870999991894 1.08500003815 112.0
4.23500013351 0.851999998093 1.09300005436 116.0
4.23400020599 0.824999988079 1.0909999609 93.0
1.01300001144 -0.0719999969006 0.256999999285 932.0
1.01499998569 -0.0780000016093 0.256999999285 561.0
1.02499997616 -0.0850000008941 0.259999990463 205.0
1.00999999046 -0.0900000035763 0.256000012159 639.0
1.00699996948 -0.0949999988079 0.256000012159 1108.0
1.0039999485 -0.101000003517 0.254999995232 1156.0
1.00499999523 -0.107000000775 0.256000012159 1171.0
1.00499999523 -0.112999998033 0.256000012159 1174.0
0.991999983788 -0.118000000715 0.252000004053 1185.0
1.0 -0.125 0.254999995232 1185.0
0.990999996662 -0.128999993205 0.252999991179 1202.0
0.990000009537 -0.135000005364 0.252999991179 1207.0
0.992999970913 -0.142000004649 0.254000008106 1228.0
0.994000017643 -0.148000001907 0.254000008106 1236.0
0.990999996662 -0.152999997139 0.252999991179 1216.0
0.98299998045 -0.158000007272 0.252000004053 1233.0
0.98400002718 -0.16400000453 0.252000004053 1260.0
0.981000006199 -0.170000001788 0.252000004053 1253.0
0.981000006199 -0.175999999046 0.252000004053 1267.0
0.98400002718 -0.181999996305 0.252999991179 1265.0
0.975000023842 -0.187000006437 0.250999987125 1280.0
0.972000002861 -0.192000001669 0.25 1285.0
0.973999977112 -0.197999998927 0.250999987125 1286.0
0.971000015736 -0.203999996185 0.250999987125 1297.0
0.971000015736 -0.209999993443 0.250999987125 1305.0
0.967999994755 -0.215000003576 0.250999987125 1316.0
0.966000020504 -0.221000000834 0.25 1323.0
0.963999986649 -0.225999996066 0.25 1332.0
0.958000004292 -0.231000006199 0.248999997973 1350.0
0.957000017166 -0.237000003457 0.248999997973 1348.0
0.959999978542 -0.244000002742 0.25 1351.0
0.958999991417 -0.25 0.25 1346.0
0.958000004292 -0.254999995232 0.25 1368.0
0.952000021935 -0.259999990463 0.248999997973 1371.0
0.95300000906 -0.266000002623 0.25 1366.0
0.950999975204 -0.272000014782 0.25 1374.0
0.95300000906 -0.279000014067 0.250999987125 1385.0
0.945999979973 -0.282999992371 0.248999997973 1388.0
0.944000005722 -0.287999987602 0.248999997973 1381.0
0.943000018597 -0.293999999762 0.248999997973 1407.0
0.940999984741 -0.300000011921 0.248999997973 1417.0
0.939999997616 -0.305999994278 0.248999997973 1414.0
0.938000023365 -0.312000006437 0.248999997973 1424.0
0.933000028133 -0.316000014544 0.247999995947 1425.0
0.931999981403 -0.321999996901 0.247999995947 1433.0
0.929000020027 -0.32800000906 0.247999995947 1434.0
0.931999981403 -0.335000008345 0.25 1431.0
0.924000024796 -0.338999986649 0.247999995947 1451.0
0.924000024796 -0.344999998808 0.247999995947 1464.0
0.92199999094 -0.351000010967 0.248999997973 1457.0
0.920000016689 -0.356000006199 0.248999997973 1464.0
0.917999982834 -0.361999988556 0.248999997973 1461.0
0.916000008583 -0.368000000715 0.248999997973 1461.0
0.912999987602 -0.372999995947 0.247999995947 1476.0
0.916000008583 -0.381000012159 0.25 1476.0
0.90499997139 -0.38299998641 0.24699999392 1473.0
0.90600001812 -0.389999985695 0.247999995947 1486.0
0.903999984264 -0.395999997854 0.247999995947 1481.0
0.903999984264 -0.402000010014 0.248999997973 1489.0
0.90499997139 -0.409999996424 0.25 1496.0
0.901000022888 -0.414999991655 0.248999997973 1497.0
0.897000014782 -0.419999986887 0.248999997973 1486.0
0.896000027657 -0.425999999046 0.248999997973 1490.0
0.894999980927 -0.432000011206 0.25 1504.0
0.893000006676 -0.437999993563 0.25 1514.0
0.893999993801 -0.446000009775 0.250999987125 1515.0
0.887000024319 -0.449000000954 0.248999997973 1501.0
0.884999990463 -0.455000013113 0.25 1517.0
0.883000016212 -0.46099999547 0.25 1515.0
0.882000029087 -0.467999994755 0.25 1521.0
0.884000003338 -0.476000010967 0.252000004053 1511.0
0.879000008106 -0.481000006199 0.250999987125 1515.0
0.874000012875 -0.485000014305 0.25 1521.0
0.873000025749 -0.49200001359 0.250999987125 1515.0
0.869000017643 -0.497000008821 0.250999987125 1511.0
2.11400008202 1.25499999523 0.591000020504 189.0
2.1930000782 1.28299999237 0.611000001431 99.0
2.1930000782 1.26400005817 0.60900002718 126.0
2.23600006104 1.26999998093 0.619000017643 232.0
2.25999999046 1.26499998569 0.624000012875 178.0
2.33200001717 1.28600001335 0.64200001955 107.0
3.42600011826 1.41499996185 0.902999997139 94.0
3.49900007248 1.41900002956 0.920000016689 83.0
3.47300004959 1.38399994373 0.912000000477 72.0
3.89299988747 1.52400004864 1.01999998093 94.0
3.85100007057 1.48000001907 1.00699996948 112.0
3.84800004959 1.45200002193 1.00499999523 115.0
3.92700004578 1.45500004292 1.02300000191 104.0
4.1779999733 1.51800000668 1.0870000124 69.0
4.20499992371 1.49899995327 1.09200000763 72.0
4.22599983215 1.47800004482 1.09599995613 71.0
4.17600011826 1.43200004101 1.08099997044 109.0
4.16300010681 1.39900004864 1.0759999752 132.0
4.17999982834 1.37699997425 1.07799994946 117.0
4.16300010681 1.34399998188 1.0720000267 117.0
4.14900016785 1.31099998951 1.06700003147 113.0
4.14099979401 1.28100001812 1.06299996376 116.0
4.19099998474 1.26900005341 1.07500004768 110.0
4.19099998474 1.24100005627 1.07299995422 113.0
4.1890001297 1.21300005913 1.07099997997 115.0
4.15600013733 1.17700004578 1.06099998951 117.0
4.10699987411 1.13600003719 1.04700005054 112.0
4.16900014877 1.12600004673 1.06200003624 120.0
4.19899988174 1.10800004005 1.06799995899 114.0
4.19299983978 1.07899999619 1.06500005722 109.0
4.22100019455 1.05900001526 1.07099997997 116.0
4.21799993515 1.03199994564 1.06900000572 115.0
4.21199989319 1.0039999485 1.06599998474 115.0
4.1360001564 0.959999978542 1.04600000381 111.0
4.19199991226 0.945999979973 1.05900001526 117.0
4.20499992371 0.922999978065 1.06099998951 118.0
4.20399999619 0.896000027657 1.05999994278 112.0
4.19199991226 0.867999970913 1.05599999428 110.0
4.19600009918 0.842999994755 1.05599999428 115.0
4.17000007629 0.811999976635 1.0490000248 93.0
1.01800000668 -0.0659999996424 0.252000004053 263.0
1.01199996471 -0.0719999969006 0.25 963.0
1.00600004196 -0.0769999995828 0.248999997973 954.0
1.01100003719 -0.0839999988675 0.25 870.0
1.00600004196 -0.0890000015497 0.248999997973 1268.0
1.00699996948 -0.0949999988079 0.248999997973 1158.0
1.0039999485 -0.101000003517 0.248999997973 1164.0
1.00199997425 -0.107000000775 0.247999995947 1163.0
1.00100004673 -0.112999998033 0.247999995947 1176.0
1.0 -0.118000000715 0.247999995947 1189.0
0.998000025749 -0.123999997973 0.247999995947 1197.0
0.995999991894 -0.129999995232 0.247999995947 1207.0
0.998000025749 -0.136000007391 0.247999995947 1198.0
0.991999983788 -0.141000002623 0.24699999392 1232.0
0.992999970913 -0.148000001907 0.247999995947 1231.0
0.978999972343 -0.150999993086 0.244000002742 1232.0
0.987999975681 -0.158999994397 0.24699999392 1253.0
0.986999988556 -0.16400000453 0.24699999392 1263.0
0.985000014305 -0.170000001788 0.24699999392 1256.0
0.975000023842 -0.173999994993 0.244000002742 1262.0
0.978999972343 -0.180999994278 0.245000004768 1276.0
0.978999972343 -0.187000006437 0.246000006795 1286.0
0.971000015736 -0.192000001669 0.244000002742 1291.0
0.967999994755 -0.196999996901 0.243000000715 1299.0
0.975000023842 -0.203999996185 0.246000006795 1296.0
0.967999994755 -0.209000006318 0.244000002742 1313.0
0.97000002861 -0.215000003576 0.245000004768 1330.0
0.966000020504 -0.219999998808 0.244000002742 1341.0
0.966000020504 -0.226999998093 0.244000002742 1342.0
0.959999978542 -0.231000006199 0.243000000715 1353.0
0.962999999523 -0.238000005484 0.244000002742 1352.0
0.962999999523 -0.244000002742 0.245000004768 1351.0
0.958999991417 -0.248999997973 0.244000002742 1360.0
0.950999975204 -0.252999991179 0.241999998689 1371.0
0.949000000954 -0.259000003338 0.241999998689 1374.0
0.953999996185 -0.266000002623 0.244000002742 1388.0
0.952000021935 -0.272000014782 0.244000002742 1385.0
0.943000018597 -0.27500000596 0.241999998689 1383.0
0.944999992847 -0.282000005245 0.243000000715 1382.0
0.943000018597 -0.287999987602 0.243000000715 1392.0
0.936999976635 -0.291999995708 0.241999998689 1405.0
0.941999971867 -0.300000011921 0.243000000715 1427.0
0.93599998951 -0.303999990225 0.241999998689 1420.0
0.93599998951 -0.31099998951 0.243000000715 1429.0
0.935000002384 -0.317000001669 0.243000000715 1434.0
0.930999994278 -0.321000009775 0.241999998689 1436.0
0.930999994278 -0.32800000906 0.243000000715 1433.0
0.926999986172 -0.333000004292 0.241999998689 1434.0
0.927999973297 -0.340000003576 0.243000000715 1464.0
0.927999973297 -0.345999985933 0.244000002742 1474.0
0.919000029564 -0.349000006914 0.240999996662 1454.0
0.916000008583 -0.354000002146 0.240999996662 1463.0
0.916999995708 -0.361000001431 0.241999998689 1464.0
0.919000029564 -0.368000000715 0.243000000715 1467.0
0.912999987602 -0.372000008821 0.241999998689 1476.0
0.912999987602 -0.379000008106 0.243000000715 1483.0
0.911000013351 -0.384999990463 0.243000000715 1486.0
0.911000013351 -0.391000002623 0.243000000715 1483.0
0.902000010014 -0.393999993801 0.240999996662 1488.0
0.899999976158 -0.40000000596 0.241999998689 1500.0
0.902999997139 -0.407999992371 0.243000000715 1488.0
0.897000014782 -0.412000000477 0.241999998689 1492.0
0.896000027657 -0.418000012636 0.241999998689 1526.0
0.889999985695 -0.423000007868 0.241999998689 1493.0
0.89200001955 -0.430000007153 0.243000000715 1508.0
0.894999980927 -0.43900001049 0.244000002742 1520.0
0.89200001955 -0.444000005722 0.244000002742 1521.0
0.888999998569 -0.449999988079 0.244000002742 1524.0
0.884000003338 -0.453999996185 0.243000000715 1504.0
0.884999990463 -0.46099999547 0.244000002742 1530.0
0.880999982357 -0.465999990702 0.244000002742 1527.0
0.883000016212 -0.47499999404 0.245000004768 1508.0
0.879000008106 -0.479999989271 0.245000004768 1538.0
0.875 -0.485000014305 0.245000004768 1516.0
0.870999991894 -0.490000009537 0.244000002742 1512.0
0.865000009537 -0.493999987841 0.243000000715 1513.0
2.14299988747 1.26999998093 0.583000004292 180.0
2.13400006294 1.2460000515 0.578999996185 101.0
2.18799996376 1.25899994373 0.592000007629 125.0
2.24399995804 1.27300000191 0.606000006199 236.0
2.26300001144 1.26499998569 0.60900002718 166.0
2.28699994087 1.25899994373 0.614000022411 95.0
3.42100000381 1.40999996662 0.879000008106 98.0
3.52699995041 1.42900002003 0.903999984264 80.0
3.58899998665 1.4279999733 0.917999982834 75.0
3.76900005341 1.47300004959 0.962999999523 105.0
3.81900000572 1.4659999609 0.973999977112 121.0
3.86299991608 1.45599997044 0.98299998045 114.0
3.93799996376 1.45599997044 1.0 90.0
4.19899988174 1.49500000477 1.06299996376 71.0
4.24900007248 1.48399996758 1.07400000095 79.0
4.16099977493 1.42499995232 1.04999995232 112.0
4.19299983978 1.40699994564 1.05599999428 119.0
4.19199991226 1.3789999485 1.05400002003 119.0
4.19500017166 1.35199999809 1.0529999733 116.0
4.17100000381 1.31599998474 1.04600000381 116.0
4.22599983215 1.30599999428 1.05799996853 113.0
4.23400020599 1.27999997139 1.05799996853 113.0
4.22800016403 1.25100004673 1.05499994755 111.0
4.15299987793 1.2009999752 1.03499996662 115.0
4.14599990845 1.17200005054 1.03199994564 108.0
4.09899997711 1.13199996948 1.01900005341 116.0
4.20699977875 1.13499999046 1.04400002956 109.0
4.1360001564 1.08899998665 1.02499997616 116.0
4.21799993515 1.08399999142 1.04400002956 113.0
4.16699981689 1.04400002956 1.03100001812 119.0
4.20499992371 1.02699995041 1.03900003433 118.0
4.18400001526 0.995999991894 1.03299999237 112.0
4.16099977493 0.963999986649 1.02600002289 117.0
4.20699977875 0.948000013828 1.03600001335 112.0
4.1970000267 0.920000016689 1.03199994564 116.0
4.15700006485 0.884999990463 1.02199995518 120.0
4.21600008011 0.871999979019 1.03499996662 115.0
4.16400003433 0.834999978542 1.02199995518 109.0
4.19000005722 0.81400001049 1.02699995041 83.0
1.00800001621 -0.0659999996424 0.243000000715 274.0
1.01300001144 -0.0719999969006 0.244000002742 982.0
1.00899994373 -0.0780000016093 0.243000000715 1144.0
1.00699996948 -0.082999996841 0.243000000715 1139.0
1.01100003719 -0.0900000035763 0.244000002742 1150.0
1.00499999523 -0.0949999988079 0.243000000715 1167.0
1.00800001621 -0.101000003517 0.244000002742 1164.0
0.998000025749 -0.105999998748 0.240999996662 1175.0
1.00199997425 -0.112999998033 0.243000000715 1179.0
0.999000012875 -0.118000000715 0.241999998689 1206.0
1.00100004673 -0.123999997973 0.241999998689 1194.0
0.989000022411 -0.128999993205 0.239999994636 1209.0
0.994000017643 -0.136000007391 0.240999996662 1207.0
0.986000001431 -0.140000000596 0.238999992609 1233.0
0.990000009537 -0.146999999881 0.240999996662 1239.0
0.992999970913 -0.152999997139 0.241999998689 1241.0
0.986000001431 -0.158000007272 0.239999994636 1262.0
0.986000001431 -0.16400000453 0.239999994636 1259.0
0.985000014305 -0.170000001788 0.239999994636 1273.0
0.975000023842 -0.173999994993 0.238000005484 1275.0
0.981999993324 -0.180999994278 0.239999994636 1276.0
0.973999977112 -0.186000004411 0.238000005484 1294.0
0.978999972343 -0.193000003695 0.239999994636 1283.0
0.967000007629 -0.196999996901 0.237000003457 1307.0
0.972999989986 -0.203999996185 0.238999992609 1321.0
0.97000002861 -0.209000006318 0.238000005484 1317.0
0.967999994755 -0.215000003576 0.238000005484 1328.0
0.961000025272 -0.218999996781 0.237000003457 1332.0
0.959999978542 -0.22499999404 0.237000003457 1344.0
0.958999991417 -0.231000006199 0.237000003457 1356.0
0.961000025272 -0.237000003457 0.238000005484 1360.0
0.958999991417 -0.243000000715 0.238000005484 1353.0
0.954999983311 -0.247999995947 0.237000003457 1379.0
0.957000017166 -0.254999995232 0.238000005484 1369.0
0.957000017166 -0.261000007391 0.238000005484 1366.0
0.953999996185 -0.266000002623 0.238000005484 1385.0
0.945999979973 -0.270000010729 0.236000001431 1386.0
0.949000000954 -0.277000010014 0.237000003457 1396.0
0.93900001049 -0.280000001192 0.234999999404 1399.0
0.941999971867 -0.287000000477 0.236000001431 1409.0
0.939999997616 -0.293000012636 0.236000001431 1427.0
0.940999984741 -0.298999994993 0.237000003457 1429.0
0.941999971867 -0.305999994278 0.238000005484 1432.0
0.938000023365 -0.31099998951 0.237000003457 1435.0
0.934000015259 -0.316000014544 0.236000001431 1431.0
0.930999994278 -0.321000009775 0.236000001431 1443.0
0.930999994278 -0.326999992132 0.237000003457 1443.0
0.929000020027 -0.333000004292 0.237000003457 1450.0
0.922999978065 -0.337000012398 0.236000001431 1466.0
0.925999999046 -0.344999998808 0.237000003457 1473.0
0.916000008583 -0.347000002861 0.234999999404 1464.0
0.920000016689 -0.354999989271 0.236000001431 1472.0
0.916000008583 -0.360000014305 0.236000001431 1473.0
0.911000013351 -0.365000009537 0.234999999404 1471.0
0.916000008583 -0.372999995947 0.237000003457 1487.0
0.911000013351 -0.377999991179 0.236000001431 1485.0
0.912000000477 -0.384999990463 0.237000003457 1495.0
0.907000005245 -0.388999998569 0.236000001431 1517.0
0.90600001812 -0.395000010729 0.236000001431 1510.0
0.902000010014 -0.40000000596 0.236000001431 1501.0
0.901000022888 -0.407000005245 0.236000001431 1493.0
0.898000001907 -0.412000000477 0.236000001431 1514.0
0.902000010014 -0.421000003815 0.238000005484 1506.0
0.894999980927 -0.423999994993 0.237000003457 1513.0
0.898000001907 -0.432000011206 0.238000005484 1509.0
0.888999998569 -0.435000002384 0.236000001431 1512.0
0.897000014782 -0.446000009775 0.238999992609 1518.0
0.888999998569 -0.449000000954 0.238000005484 1534.0
0.889999985695 -0.456000000238 0.238999992609 1533.0
0.885999977589 -0.462000012398 0.238000005484 1538.0
0.884999990463 -0.467999994755 0.238999992609 1517.0
0.879000008106 -0.472000002861 0.238000005484 1531.0
0.882000029087 -0.481000006199 0.238999992609 1526.0
0.875999987125 -0.485000014305 0.238999992609 1542.0
0.874000012875 -0.490999996662 0.238999992609 1514.0
0.871999979019 -0.497000008821 0.238999992609 1541.0
2.11899995804 1.2539999485 0.561999976635 167.0
2.18000006676 1.27100002766 0.575999975204 92.0
2.21499991417 1.27300000191 0.583999991417 134.0
2.24799990654 1.27300000191 0.591000020504 241.0
2.30500006676 1.28600001335 0.603999972343 147.0
2.26900005341 1.24699997902 0.592999994755 81.0
3.42700004578 1.41100001335 0.85799998045 90.0
3.51300001144 1.42100000381 0.876999974251 77.0
3.67100000381 1.45799994469 0.915000021458 76.0
3.80800008774 1.48599994183 0.948000013828 101.0
3.86999988556 1.48300004005 0.961000025272 120.0
3.87299990654 1.45700001717 0.959999978542 111.0
3.96700000763 1.46500003338 0.981999993324 86.0
4.23400020599 1.53499996662 1.04600000381 68.0
4.21600008011 1.49899995327 1.03999996185 69.0
4.22900009155 1.47500002384 1.04100000858 82.0
4.18200016022 1.42999994755 1.02799999714 117.0
4.16400003433 1.39600002766 1.02199995518 127.0
4.1890001297 1.37600004673 1.02600002289 121.0
4.17700004578 1.34399998188 1.02199995518 115.0
4.14699983597 1.30700004101 1.01300001144 117.0
4.19799995422 1.29499995708 1.02400004864 117.0
4.21099996567 1.27100002766 1.02499997616 121.0
4.1970000267 1.24000000954 1.01999998093 120.0
4.20499992371 1.21500003338 1.02100002766 111.0
4.15500020981 1.17299997807 1.00699996948 110.0
4.15199995041 1.14600002766 1.00499999523 116.0
4.17500019073 1.125 1.00999999046 113.0
4.20599985123 1.10599994659 1.01600003242 119.0
4.1939997673 1.0759999752 1.01199996471 106.0
4.19500017166 1.04999995232 1.01100003719 110.0
4.24499988556 1.03600001335 1.02199995518 114.0
4.14599990845 0.985000014305 0.996999979019 107.0
4.17000007629 0.964999973774 1.00199997425 115.0
4.17399978638 0.93900001049 1.00100004673 111.0
4.22399997711 0.924000024796 1.01300001144 111.0
4.22900009155 0.898999989033 1.01300001144 110.0
4.18800020218 0.865000009537 1.00199997425 112.0
4.17100000381 0.834999978542 0.996999979019 109.0
4.13800001144 0.802999973297 0.987999975681 90.0
0.986999988556 -0.0640000030398 0.231999993324 292.0
1.00999999046 -0.0719999969006 0.237000003457 978.0
1.01800000668 -0.0780000016093 0.238999992609 1142.0
1.01199996471 -0.0839999988675 0.238000005484 1155.0
1.00199997425 -0.0890000015497 0.236000001431 1152.0
1.00300002098 -0.0949999988079 0.236000001431 1175.0
1.00600004196 -0.101000003517 0.237000003457 1173.0
1.00499999523 -0.107000000775 0.237000003457 1190.0
1.00199997425 -0.112999998033 0.236000001431 1192.0
0.995999991894 -0.118000000715 0.234999999404 1201.0
0.996999979019 -0.123999997973 0.234999999404 1198.0
0.990999996662 -0.128999993205 0.233999997377 1219.0
0.995000004768 -0.136000007391 0.234999999404 1225.0
0.986000001431 -0.140000000596 0.232999995351 1238.0
0.989000022411 -0.146999999881 0.233999997377 1248.0
0.986000001431 -0.151999995112 0.233999997377 1234.0
0.989000022411 -0.158000007272 0.234999999404 1254.0
0.98400002718 -0.16400000453 0.233999997377 1274.0
0.976000010967 -0.167999997735 0.231999993324 1285.0
0.978999972343 -0.17499999702 0.232999995351 1286.0
0.981000006199 -0.180999994278 0.233999997377 1282.0
0.977999985218 -0.187000006437 0.232999995351 1306.0
0.976000010967 -0.192000001669 0.232999995351 1315.0
0.971000015736 -0.196999996901 0.231999993324 1318.0
0.96899998188 -0.202999994159 0.231999993324 1314.0
0.972999989986 -0.209000006318 0.232999995351 1327.0
0.962000012398 -0.212999999523 0.231000006199 1320.0
0.967999994755 -0.219999998808 0.231999993324 1348.0
0.961000025272 -0.22499999404 0.231000006199 1342.0
0.962999999523 -0.231000006199 0.231999993324 1346.0
0.962999999523 -0.238000005484 0.231999993324 1362.0
0.958999991417 -0.241999998689 0.231000006199 1363.0
0.953999996185 -0.24699999392 0.231000006199 1387.0
0.949999988079 -0.252000004053 0.230000004172 1376.0
0.950999975204 -0.259000003338 0.231000006199 1380.0
0.949999988079 -0.264999985695 0.231000006199 1380.0
0.945999979973 -0.268999993801 0.230000004172 1378.0
0.940999984741 -0.273999989033 0.229000002146 1408.0
0.943000018597 -0.280999988317 0.230000004172 1421.0
0.944999992847 -0.287999987602 0.231000006199 1408.0
0.941999971867 -0.293000012636 0.231000006199 1428.0
0.93900001049 -0.298000007868 0.230000004172 1432.0
0.933000028133 -0.303000003099 0.229000002146 1427.0
0.936999976635 -0.310000002384 0.231000006199 1435.0
0.935000002384 -0.316000014544 0.231000006199 1446.0
0.931999981403 -0.321000009775 0.230000004172 1457.0
0.933000028133 -0.32800000906 0.231000006199 1460.0
0.924000024796 -0.331000000238 0.229000002146 1438.0
0.926999986172 -0.337999999523 0.231000006199 1476.0
0.922999978065 -0.342999994755 0.230000004172 1482.0
0.915000021458 -0.345999985933 0.228000000119 1482.0
0.924000024796 -0.356000006199 0.231000006199 1472.0
0.915000021458 -0.358999997377 0.229000002146 1475.0
0.916999995708 -0.36700001359 0.230000004172 1482.0
0.913999974728 -0.372000008821 0.230000004172 1499.0
0.908999979496 -0.375999987125 0.230000004172 1507.0
0.908999979496 -0.38299998641 0.230000004172 1508.0
0.907999992371 -0.388999998569 0.231000006199 1511.0
0.90499997139 -0.395000010729 0.230000004172 1514.0
0.902999997139 -0.400999993086 0.230000004172 1513.0
0.901000022888 -0.405999988317 0.230000004172 1496.0
0.902999997139 -0.41400000453 0.231000006199 1512.0
0.899999976158 -0.418999999762 0.231000006199 1528.0
0.898000001907 -0.425000011921 0.231999993324 1499.0
0.898000001907 -0.432000011206 0.231999993324 1520.0
0.893999993801 -0.437000006437 0.231999993324 1516.0
0.887000024319 -0.439999997616 0.230000004172 1518.0
0.885999977589 -0.446999996901 0.231000006199 1536.0
0.884999990463 -0.45300000906 0.231000006199 1515.0
0.883000016212 -0.458999991417 0.231000006199 1530.0
0.879999995232 -0.465000003576 0.231000006199 1536.0
0.879999995232 -0.472000002861 0.231999993324 1526.0
0.879000008106 -0.479000002146 0.232999995351 1534.0
0.879999995232 -0.486000001431 0.233999997377 1546.0
0.878000020981 -0.493000000715 0.233999997377 1539.0
0.870999991894 -0.495999991894 0.232999995351 1540.0
2.11299991608 1.24800002575 0.545000016689 139.0
2.16799998283 1.26300001144 0.558000028133 102.0
2.21900010109 1.27300000191 0.569000005722 145.0
2.23399996758 1.26300001144 0.572000026703 237.0
2.28500008583 1.27300000191 0.583000004292 137.0
3.375 1.38699996471 0.822000026703 96.0
3.5569999218 1.43700003624 0.865000009537 82.0
3.84299993515 1.52499997616 0.933000028133 76.0
3.85299992561 1.50199997425 0.934000015259 106.0
3.83699989319 1.46899998188 0.927999973297 119.0
3.85500001907 1.44799995422 0.930000007153 113.0
3.97699999809 1.46700000763 0.958000004292 95.0
4.05399990082 1.46700000763 0.975000023842 66.0
4.16900014877 1.48000001907 1.00100004673 69.0
4.24100017548 1.47699999809 1.01699995995 80.0
4.1360001564 1.41199994087 0.990000009537 118.0
4.16699981689 1.39499998093 0.995999991894 119.0
4.13700008392 1.35699999332 0.986999988556 113.0
4.18800020218 1.34599995613 0.996999979019 124.0
4.15100002289 1.30599999428 0.986999988556 112.0
4.19500017166 1.29299998283 0.995999991894 114.0
4.16699981689 1.25600004196 0.987999975681 115.0
4.16800022125 1.22899997234 0.986999988556 116.0
4.17299985886 1.20399999619 0.986000001431 111.0
4.11100006104 1.1590000391 0.97000002861 110.0
4.17899990082 1.15100002289 0.985000014305 116.0
4.17700004578 1.12399995327 0.98400002718 115.0
4.17399978638 1.09599995613 0.981999993324 112.0
4.17399978638 1.07000005245 0.981000006199 108.0
4.18200016022 1.04499995708 0.981000006199 111.0
4.20800018311 1.02499997616 0.986000001431 111.0
4.19099998474 0.995000004768 0.981000006199 118.0
4.23799991608 0.978999972343 0.990999996662 111.0
4.17600011826 0.93900001049 0.976000010967 117.0
4.1939997673 0.916999995708 0.978999972343 116.0
4.21299982071 0.894999980927 0.981999993324 115.0
4.25600004196 0.876999974251 0.991999983788 107.0
4.20200014114 0.839999973774 0.977999985218 108.0
4.20499992371 0.814999997616 0.977999985218 82.0
1.01600003242 -0.0719999969006 0.231999993324 982.0
1.01400005817 -0.0780000016093 0.231999993324 1148.0
1.01300001144 -0.0839999988675 0.231999993324 1142.0
1.00699996948 -0.0890000015497 0.231000006199 1170.0
0.999000012875 -0.0939999967813 0.229000002146 1163.0
0.998000025749 -0.10000000149 0.229000002146 1176.0
1.00199997425 -0.105999998748 0.230000004172 1177.0
1.00100004673 -0.112000003457 0.230000004172 1195.0
0.999000012875 -0.118000000715 0.229000002146 1210.0
0.996999979019 -0.123999997973 0.229000002146 1212.0
0.995999991894 -0.129999995232 0.229000002146 1222.0
0.986000001431 -0.134000003338 0.226999998093 1234.0
0.987999975681 -0.140000000596 0.228000000119 1252.0
0.98400002718 -0.145999997854 0.226999998093 1248.0
0.990000009537 -0.152999997139 0.229000002146 1248.0
0.986999988556 -0.158000007272 0.228000000119 1268.0
0.980000019073 -0.163000002503 0.226999998093 1269.0
0.981999993324 -0.168999999762 0.226999998093 1279.0
0.976999998093 -0.173999994993 0.225999996066 1274.0
0.973999977112 -0.179000005126 0.225999996066 1288.0
0.978999972343 -0.186000004411 0.226999998093 1306.0
0.972999989986 -0.190999999642 0.225999996066 1304.0
0.971000015736 -0.196999996901 0.225999996066 1319.0
0.971000015736 -0.202999994159 0.225999996066 1325.0
0.964999973774 -0.208000004292 0.22499999404 1336.0
0.967000007629 -0.21400000155 0.225999996066 1330.0
0.959999978542 -0.217999994755 0.224000006914 1334.0
0.959999978542 -0.224000006914 0.22499999404 1349.0
0.962000012398 -0.231000006199 0.225999996066 1362.0
0.961000025272 -0.237000003457 0.225999996066 1365.0
0.958999991417 -0.241999998689 0.22499999404 1345.0
0.953999996185 -0.24699999392 0.22499999404 1372.0
0.958000004292 -0.254000008106 0.225999996066 1383.0
0.954999983311 -0.259000003338 0.22499999404 1383.0
0.945999979973 -0.263000011444 0.224000006914 1412.0
0.945999979973 -0.268999993801 0.224000006914 1395.0
0.939999997616 -0.273999989033 0.223000004888 1426.0
0.948000013828 -0.282000005245 0.22499999404 1407.0
0.93900001049 -0.284999996424 0.223000004888 1422.0
0.944000005722 -0.293000012636 0.22499999404 1431.0
0.943000018597 -0.298999994993 0.22499999404 1445.0
0.938000023365 -0.303999990225 0.22499999404 1442.0
0.936999976635 -0.310000002384 0.22499999404 1454.0
0.934000015259 -0.314999997616 0.224000006914 1446.0
0.933000028133 -0.321000009775 0.224000006914 1453.0
0.931999981403 -0.326999992132 0.22499999404 1460.0
0.929000020027 -0.331999987364 0.224000006914 1464.0
0.927999973297 -0.337999999523 0.22499999404 1469.0
0.922999978065 -0.342999994755 0.224000006914 1486.0
0.922999978065 -0.349000006914 0.224000006914 1482.0
0.919000029564 -0.354000002146 0.224000006914 1471.0
0.916999995708 -0.360000014305 0.224000006914 1484.0
0.915000021458 -0.365000009537 0.224000006914 1494.0
0.912000000477 -0.370999991894 0.224000006914 1501.0
0.913999974728 -0.377999991179 0.22499999404 1503.0
0.908999979496 -0.38299998641 0.224000006914 1492.0
0.907999992371 -0.388999998569 0.224000006914 1510.0
0.902000010014 -0.393000006676 0.223000004888 1516.0
0.907999992371 -0.402000010014 0.22499999404 1500.0
0.907999992371 -0.409000009298 0.225999996066 1517.0
0.898999989033 -0.412000000477 0.22499999404 1525.0
0.898000001907 -0.418000012636 0.22499999404 1511.0
0.898000001907 -0.425000011921 0.22499999404 1526.0
0.894999980927 -0.430000007153 0.22499999404 1526.0
0.894999980927 -0.437000006437 0.225999996066 1540.0
0.888999998569 -0.441000014544 0.22499999404 1537.0
0.884999990463 -0.446000009775 0.22499999404 1546.0
0.887000024319 -0.453999996185 0.225999996066 1533.0
0.883000016212 -0.458999991417 0.22499999404 1534.0
0.884000003338 -0.465999990702 0.225999996066 1552.0
0.883000016212 -0.472999989986 0.226999998093 1541.0
0.880999982357 -0.479000002146 0.226999998093 1545.0
0.875 -0.483000010252 0.225999996066 1552.0
0.873000025749 -0.488999992609 0.225999996066 1549.0
0.870999991894 -0.495000004768 0.226999998093 1547.0
2.13599991798 1.25999999046 0.536000013351 127.0
2.19099998474 1.27400004864 0.547999978065 111.0
2.25200009346 1.28999996185 0.561999976635 166.0
2.25699996948 1.27499997616 0.561999976635 258.0
2.25600004196 1.25499999523 0.560000002384 126.0
3.41499996185 1.40199995041 0.809000015259 85.0
3.46499991417 1.39800000191 0.819999992847 72.0
3.75600004196 1.48800003529 0.887000024319 74.0
3.87599992752 1.50899994373 0.913999974728 111.0
3.83200001717 1.46500003338 0.902000010014 117.0
3.84699988365 1.44400000572 0.902999997139 110.0
3.95600008965 1.45700001717 0.926999986172 84.0
4.13700008392 1.49500000477 0.967999994755 67.0
4.23500013351 1.50199997425 0.990000009537 67.0
4.26000022888 1.48099994659 0.994000017643 83.0
4.15500020981 1.41700005531 0.967000007629 118.0
4.20499992371 1.40600001812 0.976999998093 122.0
4.19000005722 1.37300002575 0.972000002861 116.0
4.18400001526 1.34300005436 0.96899998188 118.0
4.13700008392 1.29999995232 0.957000017166 118.0
4.20699977875 1.29499995708 0.972000002861 114.0
4.15700006485 1.25199997425 0.958999991417 118.0
4.18800020218 1.23399996758 0.964999973774 114.0
4.16499996185 1.20000004768 0.958000004292 107.0
4.21199989319 1.18599998951 0.967999994755 108.0
4.20599985123 1.15699994564 0.964999973774 110.0
4.1859998703 1.125 0.958999991417 113.0
4.19000005722 1.09899997711 0.958999991417 117.0
4.23199987411 1.08299994469 0.967000007629 111.0
4.1859998703 1.04499995708 0.955999970436 113.0
4.23099994659 1.02999997139 0.964999973774 107.0
4.20499992371 0.996999979019 0.958000004292 116.0
4.19299983978 0.967000007629 0.953999996185 110.0
4.23999977112 0.952000021935 0.963999986649 111.0
4.20900011063 0.919000029564 0.955999970436 117.0
4.1810002327 0.887000024319 0.949000000954 111.0
4.18499994278 0.861999988556 0.949000000954 106.0
4.14799976349 0.82800000906 0.939999997616 107.0
4.21999979019 0.816999971867 0.954999983311 84.0
1.01300001144 -0.0719999969006 0.22499999404 997.0
1.00699996948 -0.0769999995828 0.224000006914 1160.0
1.01100003719 -0.0839999988675 0.22499999404 1166.0
1.00699996948 -0.0890000015497 0.224000006914 1167.0
1.00499999523 -0.0949999988079 0.224000006914 1174.0
1.00600004196 -0.101000003517 0.224000006914 1186.0
1.00100004673 -0.105999998748 0.224000006914 1186.0
0.995000004768 -0.112000003457 0.222000002861 1192.0
0.994000017643 -0.116999998689 0.222000002861 1213.0
0.994000017643 -0.123000003397 0.222000002861 1222.0
0.991999983788 -0.128999993205 0.222000002861 1220.0
0.991999983788 -0.135000005364 0.222000002861 1234.0
0.991999983788 -0.141000002623 0.222000002861 1254.0
0.989000022411 -0.145999997854 0.222000002861 1260.0
0.986000001431 -0.151999995112 0.222000002861 1252.0
0.98400002718 -0.157000005245 0.221000000834 1262.0
0.985000014305 -0.163000002503 0.222000002861 1267.0
0.981999993324 -0.168999999762 0.221000000834 1284.0
0.98400002718 -0.17499999702 0.222000002861 1288.0
0.976999998093 -0.180000007153 0.219999998808 1287.0
0.978999972343 -0.186000004411 0.221000000834 1298.0
0.973999977112 -0.190999999642 0.219999998808 1316.0
0.971000015736 -0.196999996901 0.219999998808 1308.0
0.97000002861 -0.202000007033 0.219999998808 1322.0
0.971000015736 -0.209000006318 0.219999998808 1350.0
0.967999994755 -0.21400000155 0.219999998808 1329.0
0.962000012398 -0.218999996781 0.218999996781 1349.0
0.962999999523 -0.22499999404 0.219999998808 1339.0
0.961000025272 -0.231000006199 0.218999996781 1370.0
0.959999978542 -0.236000001431 0.218999996781 1378.0
0.954999983311 -0.240999996662 0.218999996781 1364.0
0.955999970436 -0.24699999392 0.218999996781 1381.0
0.955999970436 -0.254000008106 0.218999996781 1389.0
0.949999988079 -0.25799998641 0.217999994755 1379.0
0.950999975204 -0.263999998569 0.218999996781 1400.0
0.949999988079 -0.270000010729 0.218999996781 1404.0
0.949000000954 -0.275999993086 0.218999996781 1418.0
0.949000000954 -0.282000005245 0.219999998808 1438.0
0.941999971867 -0.286000013351 0.217999994755 1432.0
0.943000018597 -0.293000012636 0.218999996781 1439.0
0.941999971867 -0.298999994993 0.218999996781 1447.0
0.938000023365 -0.303000003099 0.217999994755 1435.0
0.939999997616 -0.310000002384 0.218999996781 1452.0
0.933000028133 -0.31400001049 0.217999994755 1455.0
0.925000011921 -0.317999988794 0.216999992728 1455.0
0.926999986172 -0.324999988079 0.216999992728 1473.0
0.924000024796 -0.330000013113 0.216999992728 1462.0
0.926999986172 -0.337000012398 0.217999994755 1464.0
0.916000008583 -0.340000003576 0.216000005603 1485.0
0.925999999046 -0.34999999404 0.218999996781 1491.0
0.917999982834 -0.352999985218 0.217999994755 1496.0
0.917999982834 -0.360000014305 0.217999994755 1497.0
0.915000021458 -0.365000009537 0.217999994755 1502.0
0.911000013351 -0.370000004768 0.217999994755 1513.0
0.916000008583 -0.377999991179 0.218999996781 1494.0
0.907999992371 -0.381999999285 0.217999994755 1497.0
0.912000000477 -0.389999985695 0.218999996781 1508.0
0.90600001812 -0.393999993801 0.217999994755 1524.0
0.903999984264 -0.40000000596 0.217999994755 1521.0
0.902000010014 -0.405999988317 0.218999996781 1505.0
0.898000001907 -0.409999996424 0.217999994755 1528.0
0.896000027657 -0.416000008583 0.217999994755 1520.0
0.897000014782 -0.423999994993 0.218999996781 1526.0
0.89200001955 -0.428000003099 0.217999994755 1531.0
0.893999993801 -0.43599998951 0.218999996781 1539.0
0.889999985695 -0.439999997616 0.218999996781 1552.0
0.883000016212 -0.444000005722 0.217999994755 1549.0
0.883000016212 -0.451000005007 0.218999996781 1551.0
0.884000003338 -0.458999991417 0.219999998808 1544.0
0.882000029087 -0.463999986649 0.219999998808 1547.0
0.878000020981 -0.469999998808 0.219999998808 1556.0
0.879000008106 -0.476999998093 0.219999998808 1542.0
0.875999987125 -0.483000010252 0.219999998808 1566.0
0.875 -0.490000009537 0.221000000834 1553.0
0.873000025749 -0.495000004768 0.221000000834 1563.0
2.1099998951 1.24300003052 0.514999985695 122.0
2.17600011826 1.26300001144 0.528999984264 104.0
2.21000003815 1.26499998569 0.536000013351 183.0
2.2539999485 1.27100002766 0.545000016689 241.0
2.29399991035 1.27400004864 0.552999973297 116.0
3.4240000248 1.40299999714 0.788999974728 85.0
3.53299999237 1.42299997807 0.813000023365 83.0
3.88599991798 1.5379999876 0.89200001955 88.0
3.90899991989 1.51900005341 0.896000027657 107.0
3.83999991417 1.4659999609 0.878000020981 119.0
3.89800000191 1.46099996567 0.889999985695 114.0
3.99499988556 1.47000002861 0.911000013351 83.0
4.14799976349 1.46899998188 0.941999971867 76.0
4.17199993134 1.44900000095 0.945999979973 86.0
4.18800020218 1.42599999905 0.948000013828 123.0
4.18800020218 1.39800000191 0.947000026703 115.0
4.20900011063 1.37699997425 0.949999988079 119.0
4.15600013733 1.33200001717 0.93599998951 113.0
4.18699979782 1.31400001049 0.941999971867 113.0
4.20800018311 1.29299998283 0.944999992847 111.0
4.17100000381 1.2539999485 0.93599998951 122.0
4.24100017548 1.24800002575 0.949999988079 116.0
4.17899990082 1.20200002193 0.935000002384 115.0
4.16099977493 1.16999995708 0.930000007153 111.0
4.16599988937 1.14499998093 0.929000020027 107.0
4.19600009918 1.12600004673 0.935000002384 110.0
4.17899990082 1.09500002861 0.930000007153 112.0
4.16699981689 1.06500005722 0.925999999046 114.0
4.19999980927 1.04700005054 0.933000028133 108.0
4.22599983215 1.02699995041 0.936999976635 114.0
4.19000005722 0.991999983788 0.927999973297 116.0
4.20300006866 0.96899998188 0.930000007153 111.0
4.22900009155 0.948000013828 0.935000002384 114.0
4.14699983597 0.903999984264 0.916000008583 121.0
4.14400005341 0.878000020981 0.915000021458 113.0
4.12699985504 0.848999977112 0.910000026226 111.0
4.17399978638 0.832000017166 0.919000029564 112.0
4.23600006104 0.819000005722 0.931999981403 76.0
1.02100002766 -0.0659999996424 0.221000000834 331.0
1.00999999046 -0.0719999969006 0.218999996781 1005.0
1.00999999046 -0.0769999995828 0.218999996781 1150.0
1.00800001621 -0.082999996841 0.217999994755 1168.0
1.00699996948 -0.0890000015497 0.217999994755 1166.0
1.00699996948 -0.0949999988079 0.217999994755 1172.0
1.0039999485 -0.101000003517 0.217999994755 1181.0
0.994000017643 -0.104999996722 0.216000005603 1180.0
0.994000017643 -0.111000001431 0.216000005603 1193.0
0.996999979019 -0.118000000715 0.216999992728 1219.0
0.996999979019 -0.123000003397 0.216999992728 1214.0
0.996999979019 -0.129999995232 0.216999992728 1233.0
0.999000012875 -0.136000007391 0.217999994755 1223.0
0.994000017643 -0.141000002623 0.216999992728 1238.0
0.986999988556 -0.145999997854 0.215000003576 1255.0
0.98400002718 -0.150999993086 0.215000003576 1239.0
0.981999993324 -0.157000005245 0.215000003576 1262.0
0.980000019073 -0.163000002503 0.215000003576 1281.0
0.986000001431 -0.168999999762 0.216000005603 1283.0
0.975000023842 -0.172999992967 0.21400000155 1296.0
0.976999998093 -0.180000007153 0.215000003576 1298.0
0.976999998093 -0.186000004411 0.215000003576 1299.0
0.976999998093 -0.192000001669 0.215000003576 1309.0
0.967999994755 -0.195999994874 0.212999999523 1320.0
0.96899998188 -0.202000007033 0.21400000155 1331.0
0.972999989986 -0.209000006318 0.215000003576 1344.0
0.967000007629 -0.21400000155 0.21400000155 1338.0
0.962000012398 -0.217999994755 0.212999999523 1357.0
0.962000012398 -0.224000006914 0.212999999523 1370.0
0.954999983311 -0.229000002146 0.211999997497 1367.0
0.95300000906 -0.233999997377 0.211999997497 1373.0
0.961000025272 -0.241999998689 0.21400000155 1368.0
0.95300000906 -0.246000006795 0.211999997497 1382.0
0.95300000906 -0.252000004053 0.212999999523 1403.0
0.952000021935 -0.25799998641 0.212999999523 1388.0
0.954999983311 -0.264999985695 0.21400000155 1414.0
0.952000021935 -0.270000010729 0.21400000155 1392.0
0.952000021935 -0.277000010014 0.21400000155 1427.0
0.944999992847 -0.280999988317 0.212999999523 1426.0
0.943000018597 -0.286000013351 0.211999997497 1440.0
0.941999971867 -0.291999995708 0.212999999523 1451.0
0.940999984741 -0.298000007868 0.212999999523 1448.0
0.939999997616 -0.303999990225 0.212999999523 1445.0
0.93599998951 -0.308999985456 0.211999997497 1441.0
0.931999981403 -0.31400001049 0.211999997497 1451.0
0.927999973297 -0.317999988794 0.21099999547 1461.0
0.931999981403 -0.326000005007 0.212999999523 1485.0
0.929000020027 -0.331000000238 0.211999997497 1471.0
0.922999978065 -0.33599999547 0.211999997497 1465.0
0.920000016689 -0.340999990702 0.21099999547 1503.0
0.926999986172 -0.34999999404 0.212999999523 1500.0
0.917999982834 -0.352999985218 0.211999997497 1500.0
0.922999978065 -0.361000001431 0.212999999523 1492.0
0.916999995708 -0.365000009537 0.211999997497 1508.0
0.912999987602 -0.370000004768 0.211999997497 1513.0
0.912000000477 -0.375999987125 0.211999997497 1509.0
0.912999987602 -0.38299998641 0.212999999523 1498.0
0.908999979496 -0.388000011444 0.211999997497 1508.0
0.908999979496 -0.395000010729 0.212999999523 1527.0
0.90600001812 -0.40000000596 0.212999999523 1517.0
0.903999984264 -0.405999988317 0.212999999523 1511.0
0.899999976158 -0.411000013351 0.212999999523 1536.0
0.893999993801 -0.414999991655 0.211999997497 1520.0
0.894999980927 -0.42199999094 0.212999999523 1536.0
0.894999980927 -0.428999990225 0.212999999523 1531.0
0.888999998569 -0.432999998331 0.211999997497 1543.0
0.89099997282 -0.441000014544 0.212999999523 1553.0
0.89099997282 -0.446999996901 0.21400000155 1541.0
0.887000024319 -0.45300000906 0.21400000155 1547.0
0.884999990463 -0.458000004292 0.21400000155 1557.0
0.879000008106 -0.462000012398 0.212999999523 1538.0
0.884000003338 -0.472000002861 0.215000003576 1546.0
0.879999995232 -0.476999998093 0.215000003576 1552.0
0.873000025749 -0.481000006199 0.21400000155 1559.0
0.871999979019 -0.486999988556 0.21400000155 1570.0
0.875 -0.495999991894 0.216000005603 1561.0
2.1289999485 1.25199997425 0.504999995232 113.0
2.19499993324 1.27300000191 0.518999993801 104.0
2.23799991608 1.27900004387 0.527000010014 196.0
2.23799991608 1.25999999046 0.526000022888 216.0
2.30999994278 1.28199994564 0.541000008583 120.0
3.43300008774 1.40600001812 0.768999993801 91.0
3.52500009537 1.41799998283 0.787999987602 81.0
3.86299991608 1.5 0.860000014305 115.0
3.84400010109 1.46500003338 0.853999972343 114.0
3.82500004768 1.43099999428 0.847999989986 104.0
4.07499980927 1.49699997902 0.902000010014 77.0
4.14599990845 1.49399995804 0.916999995708 66.0
4.21000003815 1.48899996281 0.929000020027 68.0
4.25500011444 1.47599995136 0.938000023365 84.0
4.14599990845 1.40999996662 0.912000000477 120.0
4.07000017166 1.35699999332 0.893999993801 114.0
4.15100002289 1.35599994659 0.910000026226 118.0
4.15600013733 1.33000004292 0.910000026226 121.0
4.17000007629 1.30700004101 0.912000000477 111.0
4.14400005341 1.27199995518 0.90499997139 116.0
4.17999982834 1.25499999523 0.911000013351 110.0
4.18200016022 1.22899997234 0.910000026226 109.0
4.23099994659 1.2159999609 0.920000016689 99.0
4.15299987793 1.16700005531 0.902000010014 94.0
4.18499994278 1.14900004864 0.907000005245 88.0
4.22100019455 1.13199996948 0.913999974728 98.0
4.15199995041 1.0870000124 0.898000001907 100.0
4.18699979782 1.06900000572 0.90499997139 109.0
4.15100002289 1.0340000391 0.896000027657 111.0
4.22399997711 1.02499997616 0.911000013351 109.0
4.19199991226 0.990999996662 0.902000010014 116.0
4.18800020218 0.963999986649 0.901000022888 119.0
4.19000005722 0.938000023365 0.899999976158 113.0
4.19299983978 0.912999987602 0.899999976158 114.0
4.21799993515 0.89200001955 0.90499997139 109.0
4.18200016022 0.85900002718 0.896000027657 105.0
4.22900009155 0.842000007629 0.90499997139 110.0
4.20499992371 0.811999976635 0.898999989033 75.0
1.00999999046 -0.0710000023246 0.212999999523 1024.0
1.00800001621 -0.0769999995828 0.211999997497 1155.0
1.00899994373 -0.082999996841 0.211999997497 1165.0
1.00300002098 -0.0890000015497 0.21099999547 1169.0
1.00699996948 -0.0949999988079 0.211999997497 1188.0
1.0039999485 -0.101000003517 0.211999997497 1189.0
1.00199997425 -0.105999998748 0.21099999547 1185.0
0.996999979019 -0.112000003457 0.21099999547 1196.0
0.999000012875 -0.118000000715 0.21099999547 1200.0
0.999000012875 -0.123999997973 0.21099999547 1204.0
0.995999991894 -0.128999993205 0.21099999547 1217.0
0.994000017643 -0.135000005364 0.21099999547 1226.0
0.985000014305 -0.140000000596 0.209000006318 1232.0
0.986999988556 -0.145999997854 0.209000006318 1246.0
0.985000014305 -0.150999993086 0.209000006318 1251.0
0.98299998045 -0.157000005245 0.209000006318 1267.0
0.989000022411 -0.16400000453 0.209999993443 1287.0
0.980000019073 -0.167999997735 0.209000006318 1272.0
0.981999993324 -0.17499999702 0.209000006318 1296.0
0.972000002861 -0.179000005126 0.207000002265 1296.0
0.975000023842 -0.185000002384 0.208000004292 1317.0
0.976000010967 -0.190999999642 0.209000006318 1317.0
0.97000002861 -0.195999994874 0.208000004292 1319.0
0.971000015736 -0.202000007033 0.208000004292 1336.0
0.966000020504 -0.207000002265 0.207000002265 1343.0
0.966000020504 -0.212999999523 0.207000002265 1353.0
0.959999978542 -0.217999994755 0.206000000238 1351.0
0.964999973774 -0.22499999404 0.208000004292 1366.0
0.962999999523 -0.230000004172 0.208000004292 1376.0
0.955999970436 -0.234999999404 0.206000000238 1366.0
0.957000017166 -0.240999996662 0.207000002265 1379.0
0.958999991417 -0.24699999392 0.208000004292 1380.0
0.95300000906 -0.252000004053 0.207000002265 1391.0
0.953999996185 -0.25799998641 0.207000002265 1401.0
0.950999975204 -0.263999998569 0.207000002265 1399.0
0.949999988079 -0.270000010729 0.207000002265 1412.0
0.948000013828 -0.27500000596 0.207000002265 1408.0
0.943000018597 -0.280000001192 0.206000000238 1424.0
0.939999997616 -0.284999996424 0.206000000238 1426.0
0.939999997616 -0.291000008583 0.206000000238 1440.0
0.936999976635 -0.296000003815 0.206000000238 1444.0
0.93599998951 -0.301999986172 0.206000000238 1440.0
0.938000023365 -0.308999985456 0.207000002265 1461.0
0.935000002384 -0.31400001049 0.207000002265 1460.0
0.927999973297 -0.317999988794 0.204999998212 1473.0
0.930999994278 -0.326000005007 0.207000002265 1471.0
0.930000007153 -0.331000000238 0.207000002265 1475.0
0.926999986172 -0.337000012398 0.206000000238 1499.0
0.92199999094 -0.340999990702 0.206000000238 1506.0
0.916000008583 -0.344999998808 0.204999998212 1487.0
0.920000016689 -0.352999985218 0.206000000238 1501.0
0.919000029564 -0.358999997377 0.206000000238 1507.0
0.916000008583 -0.365000009537 0.206000000238 1505.0
0.916999995708 -0.370999991894 0.207000002265 1510.0
0.907999992371 -0.374000012875 0.204999998212 1497.0
0.908999979496 -0.381000012159 0.206000000238 1520.0
0.90600001812 -0.386000007391 0.206000000238 1528.0
0.908999979496 -0.395000010729 0.207000002265 1526.0
0.902999997139 -0.398000001907 0.206000000238 1542.0
0.899999976158 -0.404000014067 0.206000000238 1518.0
0.902999997139 -0.412000000477 0.207000002265 1542.0
