ply
format ascii 1.0
element vertex 902
property float x
property float y
property float z
property float intensity
end_header
0.959999978542 -0.186000004411 -0.054999999702 668.0
0.95300000906 -0.190999999642 -0.054999999702 705.0
0.955999970436 -0.196999996901 -0.054999999702 737.0
0.959999978542 -0.202999994159 -0.054999999702 760.0
0.962999999523 -0.209999993443 -0.054999999702 800.0
0.958999991417 -0.215000003576 -0.054999999702 827.0
0.955999970436 -0.219999998808 -0.054999999702 861.0
0.950999975204 -0.22499999404 -0.054999999702 890.0
0.947000026703 -0.230000004172 -0.054999999702 766.0
0.947000026703 -0.234999999404 -0.054999999702 678.0
0.944000005722 -0.240999996662 -0.054999999702 660.0
0.952000021935 -0.248999997973 -0.054999999702 639.0
0.949000000954 -0.254000008106 -0.054999999702 619.0
0.944000005722 -0.25799998641 -0.054999999702 594.0
0.947000026703 -0.264999985695 -0.054999999702 571.0
0.935000002384 -0.266999989748 -0.0540000014007 547.0
0.938000023365 -0.273999989033 -0.0540000014007 534.0
0.931999981403 -0.279000014067 -0.0540000014007 509.0
0.925000011921 -0.282000005245 -0.0540000014007 490.0
0.930999994278 -0.289999991655 -0.0540000014007 477.0
0.925000011921 -0.293999999762 -0.0540000014007 466.0
0.919000029564 -0.298000007868 -0.0540000014007 445.0
0.925999999046 -0.307000011206 -0.0540000014007 484.0
0.924000024796 -0.312000006437 -0.0540000014007 1209.0
0.925999999046 -0.319000005722 -0.0540000014007 1348.0
0.92199999094 -0.324000000954 -0.0540000014007 1370.0
0.922999978065 -0.330000013113 -0.0540000014007 1404.0
0.920000016689 -0.335000008345 -0.0540000014007 1423.0
0.916999995708 -0.340000003576 -0.0540000014007 1429.0
0.908999979496 -0.342999994755 -0.0540000014007 1428.0
0.910000026226 -0.34999999404 -0.0540000014007 1438.0
0.912000000477 -0.356999993324 -0.0540000014007 1454.0
0.907000005245 -0.361000001431 -0.0540000014007 1465.0
0.908999979496 -0.368000000715 -0.0540000014007 1475.0
0.899999976158 -0.370999991894 -0.0540000014007 1489.0
0.90600001812 -0.379999995232 -0.0540000014007 1495.0
0.901000022888 -0.384000003338 -0.0540000014007 1505.0
0.897000014782 -0.388999998569 -0.0540000014007 867.0
0.887000024319 -0.391000002623 -0.0529999993742 376.0
0.870999991894 -0.389999985695 -0.0520000010729 328.0
0.883000016212 -0.402000010014 -0.0529999993742 329.0
0.865999996662 -0.40000000596 -0.0520000010729 325.0
0.870000004768 -0.409000009298 -0.0529999993742 326.0
0.874000012875 -0.416999995708 -0.0529999993742 323.0
0.869000017643 -0.42199999094 -0.0529999993742 325.0
0.873000025749 -0.430000007153 -0.0529999993742 308.0
0.867999970913 -0.433999985456 -0.0529999993742 316.0
0.866999983788 -0.439999997616 -0.0529999993742 311.0
0.871999979019 -0.449000000954 -0.0529999993742 304.0
0.856000006199 -0.448000013828 -0.0520000010729 305.0
0.856999993324 -0.455000013113 -0.0529999993742 323.0
0.869000017643 -0.469000011683 -0.0529999993742 1146.0
0.871999979019 -0.476999998093 -0.0540000014007 1558.0
0.871999979019 -0.483999997377 -0.0540000014007 1604.0
0.995999991894 0.570999979973 -0.0740000009537 492.0
0.999000012875 0.564999997616 -0.0740000009537 459.0
0.972000002861 0.541000008583 -0.0719999969006 424.0
0.955999970436 0.524999976158 -0.070000000298 367.0
0.97000002861 0.524999976158 -0.0710000023246 348.0
0.985000014305 0.524999976158 -0.0719999969006 312.0
0.949999988079 0.499000012875 -0.0689999982715 276.0
0.964999973774 0.499000012875 -0.070000000298 253.0
0.96899998188 0.493000000715 -0.070000000298 235.0
0.930999994278 0.467000007629 -0.0670000016689 201.0
0.958000004292 0.472999989986 -0.0689999982715 295.0
0.991999983788 0.483000010252 -0.0710000023246 269.0
0.958000004292 0.458999991417 -0.0680000036955 237.0
0.93900001049 0.442999988794 -0.0670000016689 183.0
0.922999978065 0.428000003099 -0.0649999976158 157.0
0.885999977589 0.398000001907 -0.0619999989867 113.0
4.03700017929 1.53100001812 -0.277000010014 68.0
4.19999980927 1.56400001049 -0.287000000477 62.0
4.07800006866 1.49100005627 -0.277999997139 80.0
4.11299991608 1.47599995136 -0.280000001192 75.0
4.27699995041 1.50600004196 -0.289999991655 75.0
4.34800004959 1.50199997425 -0.293999999762 90.0
4.31799983978 1.46399998665 -0.291999995708 85.0
4.32100009918 1.43599998951 -0.291000008583 80.0
4.28700017929 1.39699995518 -0.287999987602 83.0
4.36100006104 1.39199995995 -0.293000012636 70.0
4.33699989319 1.35599994659 -0.291000008583 70.0
4.28200006485 1.31200003624 -0.286000013351 79.0
4.32899999619 1.29799997807 -0.28900000453 82.0
4.28599977493 1.25800001621 -0.286000013351 77.0
4.28000020981 1.22899997234 -0.284999996424 81.0
4.30200004578 1.20799994469 -0.286000013351 80.0
4.28700017929 1.17599999905 -0.284000009298 76.0
4.26900005341 1.14499998093 -0.282000005245 77.0
4.33500003815 1.13499999046 -0.286000013351 85.0
4.30100011826 1.09899997711 -0.284000009298 80.0
4.30700016022 1.07400000095 -0.282999992371 77.0
4.33500003815 1.05400002003 -0.284999996424 82.0
4.32899999619 1.02600002289 -0.284000009298 81.0
4.32100009918 0.996999979019 -0.282999992371 85.0
4.25400018692 0.955999970436 -0.277999997139 87.0
4.3220000267 0.944999992847 -0.282000005245 84.0
4.33400011063 0.921000003815 -0.282999992371 73.0
4.23999977112 0.875 -0.275999993086 84.0
4.36899995804 0.875 -0.284000009298 75.0
4.47399997711 0.869000017643 -0.289999991655 60.0
4.90600013733 0.924000024796 -0.317999988794 53.0
4.72800016403 0.833999991417 -0.305999994278 59.0
4.757999897 0.81099998951 -0.307000011206 66.0
4.75699996948 0.782000005245 -0.307000011206 66.0
4.82000017166 0.763999998569 -0.31099998951 62.0
4.74900007248 0.723999977112 -0.305999994278 56.0
4.70300006866 0.689999997616 -0.301999986172 56.0
4.75299978256 0.669000029564 -0.305000007153 60.0
4.72499990463 0.637000024319 -0.303000003099 57.0
4.75699996948 0.612999975681 -0.305000007153 62.0
4.82399988174 0.564999997616 -0.307999998331 60.0
4.77299976349 0.53100001812 -0.305000007153 63.0
4.80499982834 0.507000029087 -0.307000011206 61.0
4.78700017929 0.476999998093 -0.305000007153 62.0
4.84999990463 0.455000013113 -0.308999985456 60.0
4.80700016022 0.423000007868 -0.305999994278 60.0
4.84100008011 0.398000001907 -0.307999998331 63.0
4.87400007248 0.372000008821 -0.310000002384 56.0
4.8860001564 0.344999998808 -0.310000002384 63.0
4.88500022888 0.317000001669 -0.310000002384 59.0
4.91099977493 0.289999991655 -0.31099998951 61.0
4.89900016785 0.261000007391 -0.310000002384 58.0
4.91300010681 0.232999995351 -0.31099998951 57.0
4.90000009537 0.203999996185 -0.310000002384 63.0
5.00299978256 0.180000007153 -0.316000014544 58.0
4.92999982834 0.149000003934 -0.31099998951 60.0
4.97100019455 0.120999999344 -0.31400001049 50.0
1.04700005054 -0.0619999989867 -0.0659999996424 210.0
1.00300002098 -0.0649999976158 -0.0630000010133 986.0
1.00499999523 -0.0710000023246 -0.0630000010133 1214.0
1.00600004196 -0.0769999995828 -0.0630000010133 1227.0
1.00699996948 -0.082999996841 -0.0630000010133 1225.0
0.998000025749 -0.0879999995232 -0.0630000010133 1238.0
0.994000017643 -0.0930000022054 -0.0630000010133 1250.0
0.991999983788 -0.0989999994636 -0.0619999989867 1252.0
0.995000004768 -0.104999996722 -0.0630000010133 1254.0
0.990999996662 -0.109999999404 -0.0619999989867 1263.0
0.991999983788 -0.115999996662 -0.0619999989867 1281.0
0.987999975681 -0.122000001371 -0.0619999989867 1275.0
0.986000001431 -0.127000004053 -0.0619999989867 1285.0
0.986999988556 -0.133000001311 -0.0619999989867 1301.0
0.985000014305 -0.138999998569 -0.0619999989867 1314.0
0.98400002718 -0.143999993801 -0.0619999989867 1325.0
0.976999998093 -0.149000003934 -0.0619999989867 953.0
0.972000002861 -0.153999999166 -0.0610000006855 236.0
0.957000017166 -0.157000005245 -0.0599999986589 178.0
0.943000018597 -0.159999996424 -0.0599999986589 190.0
0.949000000954 -0.166999995708 -0.0599999986589 188.0
0.954999983311 -0.173999994993 -0.0599999986589 185.0
0.938000023365 -0.175999999046 -0.0590000003576 197.0
0.949000000954 -0.184000000358 -0.0599999986589 196.0
0.958000004292 -0.192000001669 -0.0610000006855 192.0
0.949000000954 -0.194999992847 -0.0599999986589 201.0
0.931999981403 -0.197999998927 -0.0590000003576 205.0
0.947000026703 -0.206000000238 -0.0599999986589 205.0
0.939999997616 -0.21099999547 -0.0599999986589 212.0
0.919000029564 -0.21099999547 -0.0579999983311 218.0
0.952000021935 -0.22499999404 -0.0610000006855 220.0
0.947000026703 -0.230000004172 -0.0599999986589 962.0
0.949000000954 -0.236000001431 -0.0599999986589 1428.0
0.948000013828 -0.241999998689 -0.0599999986589 1450.0
0.948000013828 -0.24699999392 -0.0599999986589 1471.0
0.941999971867 -0.252000004053 -0.0599999986589 1449.0
0.940999984741 -0.25799998641 -0.0599999986589 1444.0
0.93900001049 -0.263000011444 -0.0599999986589 1435.0
0.938000023365 -0.268999993801 -0.0599999986589 1444.0
0.93599998951 -0.273999989033 -0.0599999986589 1435.0
0.930999994278 -0.277999997139 -0.0599999986589 1423.0
0.934000015259 -0.284999996424 -0.0599999986589 1440.0
0.933000028133 -0.291000008583 -0.0599999986589 1431.0
0.930999994278 -0.296000003815 -0.0599999986589 1420.0
0.927999973297 -0.300999999046 -0.0599999986589 1428.0
0.929000020027 -0.307999998331 -0.0599999986589 1308.0
0.912000000477 -0.307999998331 -0.0590000003576 504.0
0.924000024796 -0.317999988794 -0.0599999986589 376.0
0.910000026226 -0.319999992847 -0.0590000003576 390.0
0.898999989033 -0.321999996901 -0.0579999983311 399.0
0.908999979496 -0.331000000238 -0.0590000003576 425.0
0.920000016689 -0.342000007629 -0.0599999986589 445.0
0.915000021458 -0.345999985933 -0.0599999986589 459.0
0.912999987602 -0.351000010967 -0.0599999986589 475.0
0.910000026226 -0.356000006199 -0.0590000003576 494.0
0.90600001812 -0.361000001431 -0.0590000003576 520.0
0.897000014782 -0.363999992609 -0.0590000003576 548.0
0.89200001955 -0.368000000715 -0.0590000003576 574.0
0.89099997282 -0.374000012875 -0.0590000003576 603.0
0.893999993801 -0.381000012159 -0.0590000003576 634.0
0.896000027657 -0.388999998569 -0.0590000003576 897.0
0.89099997282 -0.393000006676 -0.0590000003576 1113.0
0.894999980927 -0.400999993086 -0.0590000003576 1106.0
0.89200001955 -0.405999988317 -0.0590000003576 1083.0
0.893999993801 -0.41400000453 -0.0590000003576 1060.0
0.889999985695 -0.418000012636 -0.0590000003576 1042.0
0.882000029087 -0.42199999094 -0.0590000003576 1026.0
0.887000024319 -0.430000007153 -0.0590000003576 1009.0
0.884999990463 -0.43599998951 -0.0590000003576 1011.0
0.876999974251 -0.43900001049 -0.0590000003576 987.0
0.880999982357 -0.448000013828 -0.0590000003576 979.0
0.875 -0.451000005007 -0.0590000003576 959.0
0.878000020981 -0.460000008345 -0.0590000003576 948.0
0.870999991894 -0.462999999523 -0.0590000003576 931.0
0.870000004768 -0.469000011683 -0.0590000003576 946.0
0.870999991894 -0.476999998093 -0.0590000003576 927.0
0.866999983788 -0.481999993324 -0.0590000003576 956.0
0.957000017166 0.549000024796 -0.0769999995828 854.0
0.954999983311 0.540000021458 -0.0769999995828 879.0
0.961000025272 0.536000013351 -0.0769999995828 862.0
0.949999988079 0.522000014782 -0.0759999975562 839.0
0.957000017166 0.518000006676 -0.0759999975562 852.0
0.953999996185 0.509000003338 -0.0759999975562 832.0
0.958999991417 0.503000020981 -0.0759999975562 809.0
0.976000010967 0.504999995232 -0.0769999995828 776.0
0.958000004292 0.488000005484 -0.0750000029802 747.0
0.976000010967 0.490000009537 -0.0759999975562 738.0
0.962000012398 0.47499999404 -0.0750000029802 736.0
0.962999999523 0.469000011683 -0.0750000029802 732.0
0.96899998188 0.463999986649 -0.0750000029802 686.0
0.955999970436 0.451000005007 -0.0740000009537 684.0
0.958000004292 0.444999992847 -0.0740000009537 676.0
0.966000020504 0.442000001669 -0.0740000009537 627.0
0.964999973774 0.433999985456 -0.0740000009537 601.0
0.967999994755 0.428000003099 -0.0740000009537 591.0
0.962000012398 0.418999999762 -0.0729999989271 533.0
0.966000020504 0.412999987602 -0.0740000009537 479.0
0.971000015736 0.409000009298 -0.0740000009537 442.0
0.948000013828 0.391999989748 -0.0719999969006 402.0
0.978999972343 0.398000001907 -0.0740000009537 353.0
0.961000025272 0.384000003338 -0.0719999969006 327.0
0.957000017166 0.375999987125 -0.0719999969006 310.0
0.940999984741 0.363000005484 -0.0710000023246 261.0
0.884999990463 0.33599999547 -0.0659999996424 218.0
0.929000020027 0.345999985933 -0.0689999982715 244.0
0.936999976635 0.342999994755 -0.070000000298 307.0
0.773999989033 0.273000001907 -0.0570000000298 142.0
0.550999999046 0.189999997616 -0.0410000011325 105.0
0.507000029087 0.172000005841 -0.0379999987781 88.0
0.184000000358 0.0610000006855 -0.0140000004321 77.0
0.01600000076 0.00499999988824 -0.0010000000475 71.0
0.00800000037998 0.00300000002608 -0.0010000000475 66.0
4.64300012589 1.42299997807 -0.337999999523 63.0
4.63999986649 1.39199995995 -0.337999999523 61.0
4.48799991608 1.31700003147 -0.326000005007 69.0
4.43200016022 1.27300000191 -0.321000009775 67.0
4.48500013351 1.25899994373 -0.324999988079 68.0
4.37699985504 1.2009999752 -0.316000014544 65.0
4.43400001526 1.18900001049 -0.319999992847 72.0
4.36600017548 1.14400005341 -0.31400001049 70.0
4.35500001907 1.11300003529 -0.312999993563 74.0
4.39599990845 1.09599995613 -0.314999997616 67.0
4.29799985886 1.04600000381 -0.307999998331 72.0
4.35599994659 1.03299999237 -0.312000006437 76.0
4.33199977875 1.0 -0.308999985456 79.0
4.37699985504 0.98400002718 -0.312000006437 74.0
4.37599992752 0.957000017166 -0.312000006437 75.0
4.4310002327 0.941999971867 -0.314999997616 71.0
4.32899999619 0.893999993801 -0.307000011206 70.0
4.382999897 0.879000008106 -0.31099998951 68.0
4.87200021744 0.888000011444 -0.344000011683 55.0
4.73699998856 0.834999978542 -0.333999991417 51.0
4.76599979401 0.811999976635 -0.33599999547 57.0
4.84499979019 0.79699999094 -0.340999990702 58.0
4.78700017929 0.759000003338 -0.33599999547 57.0
4.867000103 0.741999983788 -0.342000007629 50.0
4.72599983215 0.693000018597 -0.331000000238 51.0
4.86999988556 0.685000002384 -0.340999990702 52.0
4.77600002289 0.643999993801 -0.333999991417 56.0
4.90399980545 0.602999985218 -0.342000007629 52.0
4.85699987411 0.569000005722 -0.338999986649 50.0
4.89300012589 0.545000016689 -0.340999990702 52.0
4.9390001297 0.521000027657 -0.344000011683 50.0
4.9439997673 0.463999986649 -0.344000011683 52.0
4.93400001526 0.433999985456 -0.342999994755 52.0
4.867000103 0.40000000596 -0.337999999523 53.0
4.87799978256 0.372999995947 -0.337999999523 53.0
4.97200012207 0.351000010967 -0.344999998808 51.0
4.97300004959 0.321999996901 -0.344000011683 52.0
5.00500011444 0.294999986887 -0.345999985933 51.0
5.05000019073 0.268999993801 -0.349000006914 51.0
5.01999998093 0.238000005484 -0.347000002861 51.0
4.92399978638 0.204999998212 -0.340000003576 51.0
4.98699998856 0.179000005126 -0.344000011683 48.0
0.133000001311 0.00600000005215 -0.00899999961257 47.0
1.00699996948 -0.0659999996424 -0.0689999982715 1017.0
1.00600004196 -0.0710000023246 -0.0689999982715 1226.0
1.0039999485 -0.0769999995828 -0.0689999982715 1224.0
1.0 -0.082999996841 -0.0689999982715 1233.0
0.998000025749 -0.0879999995232 -0.0689999982715 1231.0
0.995999991894 -0.0939999967813 -0.0689999982715 1254.0
0.994000017643 -0.0989999994636 -0.0680000036955 1254.0
0.995000004768 -0.104999996722 -0.0680000036955 1266.0
0.992999970913 -0.111000001431 -0.0680000036955 1264.0
0.990999996662 -0.115999996662 -0.0680000036955 1284.0
0.990000009537 -0.122000001371 -0.0680000036955 1285.0
0.990999996662 -0.12800000608 -0.0680000036955 1291.0
0.989000022411 -0.133000001311 -0.0680000036955 1298.0
0.989000022411 -0.138999998569 -0.0680000036955 1314.0
0.98299998045 -0.143999993801 -0.0680000036955 1320.0
0.981000006199 -0.15000000596 -0.0680000036955 923.0
0.953999996185 -0.150999993086 -0.0659999996424 223.0
0.952000021935 -0.156000003219 -0.0659999996424 186.0
0.925000011921 -0.157000005245 -0.0640000030398 183.0
0.949000000954 -0.166999995708 -0.0649999976158 184.0
0.944999992847 -0.172000005841 -0.0649999976158 184.0
0.92199999094 -0.172999992967 -0.0640000030398 186.0
0.930000007153 -0.180000007153 -0.0640000030398 184.0
0.929000020027 -0.186000004411 -0.0640000030398 191.0
0.936999976635 -0.193000003695 -0.0649999976158 193.0
0.934000015259 -0.197999998927 -0.0649999976158 193.0
0.925999999046 -0.202000007033 -0.0640000030398 196.0
0.921000003815 -0.206000000238 -0.0640000030398 199.0
0.916999995708 -0.21099999547 -0.0640000030398 206.0
0.925000011921 -0.218999996781 -0.0640000030398 212.0
0.949999988079 -0.231000006199 -0.0659999996424 995.0
0.948000013828 -0.236000001431 -0.0659999996424 1457.0
0.95300000906 -0.243000000715 -0.0659999996424 1480.0
0.945999979973 -0.24699999392 -0.0659999996424 1494.0
0.948000013828 -0.254000008106 -0.0659999996424 1486.0
0.947000026703 -0.259000003338 -0.0659999996424 1505.0
0.939999997616 -0.263000011444 -0.0659999996424 1498.0
0.940999984741 -0.268999993801 -0.0659999996424 1520.0
0.943000018597 -0.275999993086 -0.0659999996424 1518.0
0.933000028133 -0.279000014067 -0.0649999976158 1512.0
0.93599998951 -0.286000013351 -0.0659999996424 1543.0
0.934000015259 -0.291000008583 -0.0659999996424 1533.0
0.930999994278 -0.296000003815 -0.0649999976158 1541.0
0.929000020027 -0.301999986172 -0.0649999976158 1549.0
0.926999986172 -0.307000011206 -0.0649999976158 1412.0
0.912999987602 -0.308999985456 -0.0640000030398 401.0
0.889999985695 -0.307000011206 -0.0630000010133 227.0
0.888999998569 -0.312000006437 -0.0630000010133 219.0
0.90600001812 -0.324000000954 -0.0640000030398 223.0
0.889999985695 -0.324999988079 -0.0630000010133 221.0
0.888000011444 -0.330000013113 -0.0630000010133 221.0
0.89099997282 -0.337000012398 -0.0630000010133 232.0
0.879999995232 -0.338999986649 -0.0630000010133 220.0
0.860000014305 -0.337000012398 -0.0610000006855 226.0
0.884000003338 -0.351999998093 -0.0630000010133 230.0
0.871999979019 -0.354000002146 -0.0619999989867 223.0
0.879000008106 -0.363000005484 -0.0630000010133 232.0
0.869000017643 -0.365000009537 -0.0630000010133 235.0
0.887000024319 -0.379000008106 -0.0640000030398 242.0
0.897000014782 -0.388999998569 -0.0649999976158 990.0
0.899999976158 -0.397000014782 -0.0649999976158 1584.0
0.897000014782 -0.402000010014 -0.0649999976158 1625.0
0.894999980927 -0.407999992371 -0.0649999976158 1634.0
0.89200001955 -0.412999987602 -0.0649999976158 1634.0
0.889999985695 -0.418999999762 -0.0649999976158 1638.0
0.889999985695 -0.425999999046 -0.0649999976158 1653.0
0.885999977589 -0.430000007153 -0.0649999976158 1637.0
0.884000003338 -0.43599998951 -0.0649999976158 1633.0
0.885999977589 -0.442999988794 -0.0649999976158 1620.0
0.879999995232 -0.448000013828 -0.0649999976158 1631.0
0.879000008106 -0.453999996185 -0.0649999976158 1623.0
0.878000020981 -0.460000008345 -0.0649999976158 1607.0
0.873000025749 -0.463999986649 -0.0649999976158 1577.0
0.856000006199 -0.462000012398 -0.0640000030398 651.0
0.856000006199 -0.469000011683 -0.0640000030398 302.0
0.832000017166 -0.462999999523 -0.0619999989867 292.0
0.95300000906 0.54699999094 -0.082999996841 869.0
0.952000021935 0.538999974728 -0.082999996841 891.0
0.961000025272 0.535000026226 -0.082999996841 912.0
0.954999983311 0.524999976158 -0.082000002265 906.0
0.959999978542 0.519999980927 -0.082999996841 924.0
0.961000025272 0.512000024319 -0.082000002265 945.0
0.959999978542 0.504000008106 -0.082000002265 931.0
0.957000017166 0.495000004768 -0.082000002265 942.0
0.957000017166 0.488000005484 -0.0810000002384 949.0
0.952000021935 0.477999985218 -0.0810000002384 966.0
0.958999991417 0.474000006914 -0.0810000002384 983.0
0.957000017166 0.465999990702 -0.0810000002384 987.0
0.952000021935 0.456000000238 -0.0799999982119 972.0
0.958999991417 0.451999992132 -0.0799999982119 1005.0
0.962999999523 0.446999996901 -0.0799999982119 981.0
0.96899998188 0.442999988794 -0.0810000002384 984.0
0.967000007629 0.435000002384 -0.0799999982119 962.0
0.963999986649 0.425999999046 -0.0799999982119 968.0
0.966000020504 0.421000003815 -0.0799999982119 959.0
0.961000025272 0.412000000477 -0.0790000036359 929.0
0.975000023842 0.409999996424 -0.0799999982119 922.0
0.96899998188 0.400999993086 -0.0790000036359 938.0
0.964999973774 0.393000006676 -0.0790000036359 932.0
0.966000020504 0.386999994516 -0.0790000036359 922.0
0.973999977112 0.38299998641 -0.0790000036359 912.0
0.964999973774 0.372999995947 -0.0780000016093 892.0
0.97000002861 0.368000000715 -0.0780000016093 869.0
0.97000002861 0.361999988556 -0.0780000016093 834.0
0.978999972343 0.358000010252 -0.0790000036359 836.0
0.972000002861 0.349000006914 -0.0780000016093 819.0
0.971000015736 0.342000007629 -0.0780000016093 780.0
0.977999985218 0.337999999523 -0.0780000016093 769.0
0.973999977112 0.330000013113 -0.0780000016093 721.0
0.972999989986 0.324000000954 -0.0780000016093 686.0
0.972000002861 0.317000001669 -0.0769999995828 660.0
0.964999973774 0.307999998331 -0.0769999995828 650.0
0.967999994755 0.303000003099 -0.0769999995828 632.0
0.97000002861 0.29699999094 -0.0769999995828 585.0
0.961000025272 0.287999987602 -0.0759999975562 570.0
0.962000012398 0.282999992371 -0.0759999975562 538.0
0.958000004292 0.27500000596 -0.0750000029802 493.0
0.949999988079 0.266999989748 -0.0750000029802 449.0
0.947000026703 0.259999990463 -0.0740000009537 410.0
0.939999997616 0.252999991179 -0.0740000009537 379.0
0.922999978065 0.241999998689 -0.0719999969006 349.0
0.930999994278 0.238000005484 -0.0729999989271 317.0
0.927999973297 0.231999993324 -0.0719999969006 281.0
0.901000022888 0.219999998808 -0.070000000298 250.0
0.869000017643 0.207000002265 -0.0680000036955 217.0
0.818000018597 0.188999995589 -0.0630000010133 195.0
0.893999993801 0.202000007033 -0.0689999982715 209.0
0.763000011444 0.166999995708 -0.0590000003576 147.0
0.740999996662 0.158000007272 -0.0570000000298 122.0
0.577000021935 0.119999997318 -0.0450000017881 107.0
0.611000001431 0.123000003397 -0.0469999983907 88.0
0.76700001955 0.15000000596 -0.0590000003576 96.0
0.838999986649 0.158999994397 -0.0640000030398 134.0
0.833000004292 0.152999997139 -0.0640000030398 116.0
0.532999992371 0.0949999988079 -0.0410000011325 83.0
0.358999997377 0.0619999989867 -0.0280000008643 70.0
0.270999997854 0.0450000017881 -0.0209999997169 59.0
0.21400000155 0.035000000149 -0.0170000009239 61.0
0.216999992728 0.0340000018477 -0.0170000009239 53.0
0.166999995708 0.0250000003725 -0.0130000002682 53.0
0.0270000007004 0.00499999988824 -0.00200000009499 53.0
0.146999999881 0.019999999553 -0.0109999999404 52.0
4.94000005722 0.60799998045 -0.374000012875 49.0
0.0270000007004 0.00400000018999 -0.00200000009499 50.0
0.0120000001043 0.00300000002608 -0.0010000000475 52.0
5.01499986649 0.528999984264 -0.377999991179 48.0
4.94500017166 0.493000000715 -0.372999995947 50.0
5.02500009537 0.442000001669 -0.377999991179 51.0
5.03499984741 0.41400000453 -0.379000008106 50.0
4.97900009155 0.379999995232 -0.374000012875 52.0
5.007999897 0.354000002146 -0.375999987125 48.0
5.04600000381 0.326999992132 -0.379000008106 49.0
5.04199981689 0.268000006676 -0.377999991179 52.0
4.99300003052 0.237000003457 -0.374000012875 50.0
0.0810000002384 0.00499999988824 -0.00600000005215 52.0
5.03200006485 0.180999994278 -0.377000004053 48.0
0.0740000009537 0.00400000018999 -0.00600000005215 47.0
1.01199996471 -0.0659999996424 -0.0759999975562 1035.0
1.00999999046 -0.0719999969006 -0.0750000029802 1231.0
1.0 -0.0769999995828 -0.0750000029802 1230.0
1.0 -0.082999996841 -0.0750000029802 1232.0
1.0 -0.0879999995232 -0.0750000029802 1232.0
0.995999991894 -0.0939999967813 -0.0740000009537 1248.0
0.995999991894 -0.10000000149 -0.0740000009537 1253.0
0.992999970913 -0.104999996722 -0.0740000009537 1263.0
0.990999996662 -0.111000001431 -0.0740000009537 1267.0
0.992999970913 -0.116999998689 -0.0740000009537 1291.0
0.986000001431 -0.120999999344 -0.0740000009537 1290.0
0.986999988556 -0.127000004053 -0.0740000009537 1289.0
0.986000001431 -0.133000001311 -0.0740000009537 1303.0
0.980000019073 -0.137999996543 -0.0729999989271 1324.0
0.978999972343 -0.143999993801 -0.0729999989271 1328.0
0.977999985218 -0.149000003934 -0.0729999989271 908.0
0.950999975204 -0.150999993086 -0.0710000023246 219.0
0.93900001049 -0.153999999166 -0.070000000298 183.0
0.935000002384 -0.158999994397 -0.070000000298 184.0
0.925999999046 -0.163000002503 -0.0689999982715 184.0
0.938000023365 -0.171000003815 -0.070000000298 185.0
0.931999981403 -0.17499999702 -0.070000000298 183.0
0.927999973297 -0.180000007153 -0.070000000298 186.0
0.929000020027 -0.186000004411 -0.070000000298 190.0
0.940999984741 -0.194000005722 -0.0710000023246 189.0
0.92199999094 -0.195999994874 -0.0689999982715 197.0
0.903999984264 -0.196999996901 -0.0680000036955 196.0
0.940999984741 -0.21099999547 -0.0710000023246 196.0
0.921000003815 -0.211999997497 -0.0689999982715 199.0
0.926999986172 -0.218999996781 -0.070000000298 219.0
0.949999988079 -0.231000006199 -0.0719999969006 1031.0
0.949999988079 -0.236000001431 -0.0719999969006 1457.0
0.954999983311 -0.244000002742 -0.0719999969006 1474.0
0.949000000954 -0.247999995947 -0.0719999969006 1496.0
0.944999992847 -0.252999991179 -0.0719999969006 1490.0
0.944000005722 -0.259000003338 -0.0719999969006 1503.0
0.943000018597 -0.263999998569 -0.0719999969006 1501.0
0.939999997616 -0.268999993801 -0.0710000023246 1512.0
0.938000023365 -0.27500000596 -0.0710000023246 1517.0
0.936999976635 -0.280000001192 -0.0710000023246 1523.0
0.936999976635 -0.286000013351 -0.0710000023246 1535.0
0.935000002384 -0.291999995708 -0.0710000023246 1539.0
0.930999994278 -0.296000003815 -0.0710000023246 1552.0
0.930000007153 -0.301999986172 -0.0710000023246 1538.0
0.925000011921 -0.307000011206 -0.0710000023246 1381.0
0.915000021458 -0.310000002384 -0.070000000298 381.0
0.901000022888 -0.31099998951 -0.0689999982715 223.0
0.912999987602 -0.321000009775 -0.070000000298 220.0
0.884000003338 -0.316000014544 -0.0680000036955 218.0
0.893999993801 -0.326000005007 -0.0689999982715 218.0
0.884000003338 -0.32800000906 -0.0680000036955 220.0
0.870999991894 -0.328999996185 -0.0670000016689 223.0
0.876999974251 -0.337999999523 -0.0680000036955 220.0
0.894999980927 -0.351000010967 -0.0689999982715 222.0
0.875 -0.349000006914 -0.0680000036955 220.0
0.878000020981 -0.356000006199 -0.0680000036955 221.0
0.865999996662 -0.356999993324 -0.0680000036955 232.0
0.878000020981 -0.368999987841 -0.0689999982715 231.0
0.882000029087 -0.377000004053 -0.0689999982715 229.0
0.894999980927 -0.388999998569 -0.070000000298 1025.0
0.896000027657 -0.395999997854 -0.070000000298 1587.0
0.894999980927 -0.400999993086 -0.070000000298 1635.0
0.89200001955 -0.407000005245 -0.070000000298 1650.0
0.894999980927 -0.414999991655 -0.0710000023246 1654.0
0.893000006676 -0.419999986887 -0.0710000023246 1653.0
0.893000006676 -0.426999986172 -0.0710000023246 1660.0
0.89099997282 -0.432999998331 -0.0710000023246 1669.0
0.888999998569 -0.437999993563 -0.0710000023246 1668.0
0.884000003338 -0.442999988794 -0.0710000023246 1667.0
0.875 -0.444999992847 -0.070000000298 1666.0
0.878000020981 -0.453999996185 -0.0710000023246 1680.0
0.875999987125 -0.458999991417 -0.0710000023246 1671.0
0.875999987125 -0.465999990702 -0.0710000023246 1627.0
0.870000004768 -0.469999998808 -0.070000000298 595.0
0.850000023842 -0.465999990702 -0.0689999982715 242.0
0.837000012398 -0.465999990702 -0.0680000036955 227.0
0.971000015736 0.556999981403 -0.0909999981523 551.0
0.967999994755 0.547999978065 -0.0900000035763 596.0
0.958999991417 0.535000026226 -0.0890000015497 632.0
0.961000025272 0.527999997139 -0.0890000015497 653.0
0.95300000906 0.51599997282 -0.0879999995232 698.0
0.949999988079 0.507000029087 -0.0879999995232 738.0
0.954999983311 0.501999974251 -0.0879999995232 755.0
0.962000012398 0.497999995947 -0.0879999995232 778.0
0.95300000906 0.486000001431 -0.0869999974966 826.0
0.962000012398 0.483000010252 -0.0879999995232 831.0
0.958999991417 0.474000006914 -0.0869999974966 864.0
0.958000004292 0.467000007629 -0.0869999974966 889.0
0.958999991417 0.460000008345 -0.0869999974966 931.0
0.952000021935 0.449000000954 -0.0860000029206 952.0
0.958999991417 0.446000009775 -0.0860000029206 968.0
0.958999991417 0.437999993563 -0.0860000029206 977.0
0.958999991417 0.430999994278 -0.0860000029206 994.0
0.959999978542 0.425000011921 -0.0850000008941 1017.0
0.961000025272 0.418000012636 -0.0850000008941 1019.0
0.962000012398 0.412000000477 -0.0850000008941 1017.0
0.958999991417 0.404000014067 -0.0850000008941 1041.0
0.96899998188 0.400999993086 -0.0850000008941 1054.0
0.961000025272 0.391000002623 -0.0839999988675 1063.0
0.967999994755 0.386999994516 -0.0850000008941 1057.0
0.963999986649 0.379000008106 -0.0839999988675 1053.0
0.966000020504 0.372999995947 -0.0839999988675 1069.0
0.96899998188 0.368000000715 -0.0839999988675 1068.0
0.971000015736 0.361999988556 -0.0839999988675 1070.0
0.966000020504 0.352999985218 -0.0839999988675 1088.0
0.966000020504 0.347000002861 -0.0839999988675 1111.0
0.966000020504 0.340999990702 -0.082999996841 1104.0
0.967000007629 0.335000008345 -0.082999996841 1111.0
0.972999989986 0.330000013113 -0.0839999988675 1093.0
0.96899998188 0.321999996901 -0.082999996841 1101.0
0.971000015736 0.317000001669 -0.082999996841 1101.0
0.97000002861 0.310000002384 -0.082999996841 1112.0
0.972999989986 0.305000007153 -0.082999996841 1100.0
0.971000015736 0.298000007868 -0.082999996841 1095.0
0.972000002861 0.291999995708 -0.082999996841 1076.0
0.978999972343 0.287999987602 -0.082999996841 1070.0
0.967999994755 0.277999997139 -0.082000002265 1057.0
0.971000015736 0.273000001907 -0.082000002265 1042.0
0.973999977112 0.268000006676 -0.082000002265 1026.0
0.973999977112 0.261999994516 -0.082000002265 1019.0
0.977999985218 0.256999999285 -0.082000002265 1016.0
0.980000019073 0.250999987125 -0.082000002265 1017.0
0.976999998093 0.244000002742 -0.082000002265 998.0
0.976000010967 0.238000005484 -0.082000002265 973.0
0.981000006199 0.232999995351 -0.082000002265 956.0
0.987999975681 0.229000002146 -0.082000002265 949.0
0.980000019073 0.221000000834 -0.082000002265 939.0
0.98299998045 0.215000003576 -0.082000002265 914.0
0.98299998045 0.209999993443 -0.082000002265 909.0
0.981000006199 0.202999994159 -0.0810000002384 878.0
0.978999972343 0.196999996901 -0.0810000002384 832.0
0.990000009537 0.193000003695 -0.082000002265 797.0
0.985000014305 0.186000004411 -0.0810000002384 744.0
0.976999998093 0.179000005126 -0.0810000002384 735.0
0.978999972343 0.172999992967 -0.0810000002384 709.0
0.973999977112 0.166999995708 -0.0799999982119 663.0
0.981999993324 0.162000000477 -0.0810000002384 635.0
0.981000006199 0.156000003219 -0.0810000002384 603.0
0.981999993324 0.150999993086 -0.0810000002384 569.0
0.97000002861 0.143000006676 -0.0799999982119 528.0
0.975000023842 0.137999996543 -0.0799999982119 504.0
0.975000023842 0.131999999285 -0.0799999982119 480.0
0.981999993324 0.12800000608 -0.0799999982119 451.0
0.971000015736 0.119999997318 -0.0790000036359 425.0
0.961000025272 0.11400000006 -0.0780000016093 382.0
0.963999986649 0.108000002801 -0.0790000036359 367.0
0.949000000954 0.101000003517 -0.0769999995828 336.0
0.945999979973 0.0949999988079 -0.0769999995828 299.0
0.944000005722 0.0900000035763 -0.0769999995828 272.0
0.924000024796 0.082000002265 -0.0750000029802 253.0
0.929000020027 0.0769999995828 -0.0750000029802 232.0
0.930999994278 0.0719999969006 -0.0759999975562 200.0
0.913999974728 0.0659999996424 -0.0740000009537 184.0
0.922999978065 0.0610000006855 -0.0750000029802 202.0
0.893000006676 0.0540000014007 -0.0719999969006 185.0
0.801999986172 0.0390000008047 -0.0649999976158 118.0
0.731999993324 0.0320000015199 -0.0590000003576 104.0
0.888999998569 0.0329999998212 -0.0719999969006 161.0
0.876999974251 0.0280000008643 -0.0710000023246 137.0
0.883000016212 0.0230000000447 -0.0710000023246 121.0
1.02400004864 -0.0610000006855 -0.082000002265 289.0
1.00199997425 -0.0649999976158 -0.0810000002384 1052.0
1.00699996948 -0.0719999969006 -0.0810000002384 1228.0
0.998000025749 -0.0769999995828 -0.0799999982119 1214.0
1.00499999523 -0.082999996841 -0.0810000002384 1226.0
1.0 -0.0879999995232 -0.0799999982119 1233.0
0.991999983788 -0.0930000022054 -0.0799999982119 1249.0
0.992999970913 -0.0989999994636 -0.0799999982119 1251.0
0.995000004768 -0.104999996722 -0.0799999982119 1251.0
0.990999996662 -0.111000001431 -0.0799999982119 1280.0
0.994000017643 -0.116999998689 -0.0799999982119 1280.0
0.98400002718 -0.120999999344 -0.0790000036359 1284.0
0.986000001431 -0.127000004053 -0.0790000036359 1297.0
0.986999988556 -0.133000001311 -0.0790000036359 1292.0
0.986999988556 -0.138999998569 -0.0790000036359 1318.0
0.985000014305 -0.144999995828 -0.0790000036359 1313.0
0.975000023842 -0.149000003934 -0.0790000036359 861.0
0.954999983311 -0.150999993086 -0.0769999995828 213.0
0.93599998951 -0.153999999166 -0.0750000029802 183.0
0.943000018597 -0.16099999845 -0.0759999975562 184.0
0.941999971867 -0.165999993682 -0.0759999975562 179.0
0.947000026703 -0.172999992967 -0.0759999975562 183.0
0.93599998951 -0.175999999046 -0.0759999975562 192.0
0.924000024796 -0.179000005126 -0.0750000029802 187.0
0.962000012398 -0.193000003695 -0.0780000016093 188.0
0.930999994278 -0.192000001669 -0.0750000029802 188.0
0.92199999094 -0.195999994874 -0.0750000029802 197.0
0.913999974728 -0.20000000298 -0.0740000009537 188.0
0.943000018597 -0.211999997497 -0.0769999995828 193.0
0.930000007153 -0.21400000155 -0.0759999975562 194.0
0.947000026703 -0.224000006914 -0.0769999995828 215.0
0.954999983311 -0.231999993324 -0.0780000016093 1057.0
0.947000026703 -0.236000001431 -0.0769999995828 1450.0
0.949999988079 -0.243000000715 -0.0769999995828 1478.0
0.944999992847 -0.24699999392 -0.0769999995828 1496.0
0.948000013828 -0.254000008106 -0.0769999995828 1498.0
0.947000026703 -0.259000003338 -0.0769999995828 1495.0
0.941999971867 -0.263999998569 -0.0769999995828 1506.0
0.936999976635 -0.268999993801 -0.0769999995828 1515.0
0.936999976635 -0.27500000596 -0.0769999995828 1525.0
0.939999997616 -0.280999988317 -0.0769999995828 1510.0
0.93599998951 -0.286000013351 -0.0769999995828 1531.0
0.935000002384 -0.291999995708 -0.0769999995828 1544.0
0.931999981403 -0.29699999094 -0.0769999995828 1543.0
0.929000020027 -0.301999986172 -0.0769999995828 1554.0
0.925999999046 -0.307000011206 -0.0769999995828 1357.0
0.926999986172 -0.31400001049 -0.0769999995828 369.0
0.902999997139 -0.31099998951 -0.0750000029802 218.0
0.902999997139 -0.317000001669 -0.0750000029802 217.0
0.880999982357 -0.316000014544 -0.0729999989271 224.0
0.89200001955 -0.324999988079 -0.0740000009537 214.0
0.893999993801 -0.331999987364 -0.0740000009537 215.0
0.879000008106 -0.333000004292 -0.0729999989271 221.0
0.875 -0.337000012398 -0.0729999989271 223.0
0.876999974251 -0.344000011683 -0.0729999989271 223.0
0.879999995232 -0.351000010967 -0.0740000009537 223.0
0.879000008106 -0.356999993324 -0.0740000009537 216.0
0.869000017643 -0.358999997377 -0.0729999989271 223.0
0.873000025749 -0.36700001359 -0.0740000009537 219.0
0.875 -0.374000012875 -0.0740000009537 230.0
0.898999989033 -0.391000002623 -0.0759999975562 1089.0
0.898000001907 -0.397000014782 -0.0759999975562 1589.0
0.901000022888 -0.404000014067 -0.0769999995828 1645.0
0.89200001955 -0.407000005245 -0.0759999975562 1651.0
0.893999993801 -0.414999991655 -0.0759999975562 1650.0
0.89099997282 -0.419999986887 -0.0759999975562 1659.0
0.888999998569 -0.425000011921 -0.0759999975562 1649.0
0.884999990463 -0.430000007153 -0.0759999975562 1664.0
0.884000003338 -0.43599998951 -0.0759999975562 1679.0
0.879999995232 -0.441000014544 -0.0759999975562 1664.0
0.882000029087 -0.449000000954 -0.0759999975562 1672.0
0.876999974251 -0.45300000906 -0.0759999975562 1674.0
0.880999982357 -0.462000012398 -0.0769999995828 1665.0
0.876999974251 -0.467000007629 -0.0759999975562 1606.0
0.875 -0.472999989986 -0.0759999975562 555.0
0.819999992847 -0.449000000954 -0.0719999969006 230.0
0.828999996185 -0.46099999547 -0.0729999989271 232.0
1.85899996758 1.06900000572 -0.186000004411 132.0
1.37600004673 0.778999984264 -0.137999996543 128.0
1.03600001335 0.57800000906 -0.103000000119 210.0
0.981999993324 0.540000021458 -0.097999997437 246.0
0.953999996185 0.51599997282 -0.0939999967813 295.0
0.971000015736 0.518000006676 -0.0960000008345 262.0
0.972999989986 0.510999977589 -0.0960000008345 241.0
0.986000001431 0.510999977589 -0.097000002861 262.0
0.959999978542 0.490000009537 -0.0939999967813 326.0
0.975000023842 0.490000009537 -0.0949999988079 357.0
0.955999970436 0.472999989986 -0.0930000022054 402.0
0.95300000906 0.463999986649 -0.0920000001788 448.0
0.953999996185 0.458000004292 -0.0920000001788 502.0
0.954999983311 0.451000005007 -0.0920000001788 545.0
0.966000020504 0.449000000954 -0.0930000022054 579.0
0.955999970436 0.437000006437 -0.0920000001788 610.0
0.952000021935 0.428000003099 -0.0909999981523 648.0
0.966000020504 0.428000003099 -0.0920000001788 683.0
0.967999994755 0.42199999094 -0.0920000001788 724.0
0.962000012398 0.412000000477 -0.0909999981523 745.0
0.966000020504 0.407000005245 -0.0909999981523 768.0
0.964999973774 0.40000000596 -0.0909999981523 810.0
0.971000015736 0.395000010729 -0.0909999981523 843.0
0.963999986649 0.386000007391 -0.0900000035763 865.0
0.96899998188 0.381000012159 -0.0909999981523 887.0
0.972000002861 0.375999987125 -0.0909999981523 900.0
0.96899998188 0.368000000715 -0.0900000035763 943.0
0.963999986649 0.358999997377 -0.0900000035763 954.0
0.96899998188 0.354999989271 -0.0900000035763 974.0
0.964999973774 0.347000002861 -0.0890000015497 1016.0
0.967999994755 0.340999990702 -0.0890000015497 1048.0
0.971000015736 0.33599999547 -0.0900000035763 1048.0
0.96899998188 0.328999996185 -0.0890000015497 1067.0
0.967999994755 0.321999996901 -0.0890000015497 1081.0
0.96899998188 0.316000014544 -0.0890000015497 1099.0
0.97000002861 0.310000002384 -0.0890000015497 1140.0
0.967999994755 0.303000003099 -0.0879999995232 1139.0
0.975000023842 0.298999994993 -0.0890000015497 1142.0
0.967999994755 0.291000008583 -0.0879999995232 1165.0
0.964999973774 0.284000009298 -0.0879999995232 1177.0
0.964999973774 0.277000010014 -0.0869999974966 1186.0
0.97000002861 0.273000001907 -0.0879999995232 1194.0
0.972000002861 0.266999989748 -0.0879999995232 1211.0
0.96899998188 0.259999990463 -0.0869999974966 1240.0
0.97000002861 0.254999995232 -0.0869999974966 1241.0
0.980000019073 0.250999987125 -0.0879999995232 1251.0
0.976000010967 0.244000002742 -0.0879999995232 1246.0
0.978999972343 0.238999992609 -0.0879999995232 1279.0
0.972999989986 0.231000006199 -0.0869999974966 1282.0
0.980000019073 0.226999998093 -0.0879999995232 1308.0
0.976999998093 0.219999998808 -0.0869999974966 1289.0
0.976000010967 0.21400000155 -0.0869999974966 1278.0
0.972999989986 0.207000002265 -0.0869999974966 1316.0
0.976999998093 0.202000007033 -0.0869999974966 1323.0
0.973999977112 0.195999994874 -0.0860000029206 1312.0
0.981999993324 0.192000001669 -0.0869999974966 1289.0
0.981999993324 0.186000004411 -0.0869999974966 1287.0
0.980000019073 0.179000005126 -0.0869999974966 1298.0
0.981999993324 0.173999994993 -0.0869999974966 1297.0
0.981000006199 0.167999997735 -0.0869999974966 1280.0
0.977999985218 0.162000000477 -0.0860000029206 1278.0
0.976999998093 0.156000003219 -0.0860000029206 1280.0
0.976999998093 0.15000000596 -0.0860000029206 1266.0
0.985000014305 0.144999995828 -0.0869999974966 1243.0
0.981999993324 0.138999998569 -0.0860000029206 1245.0
0.981999993324 0.133000001311 -0.0860000029206 1251.0
0.985000014305 0.12800000608 -0.0860000029206 1259.0
0.986000001431 0.122000001371 -0.0860000029206 1244.0
0.985000014305 0.115999996662 -0.0860000029206 1212.0
0.986999988556 0.111000001431 -0.0860000029206 1225.0
0.98400002718 0.104999996722 -0.0860000029206 1206.0
0.986000001431 0.0989999994636 -0.0860000029206 1173.0
0.980000019073 0.0930000022054 -0.0850000008941 1160.0
0.986999988556 0.0879999995232 -0.0860000029206 1151.0
0.98299998045 0.082000002265 -0.0860000029206 1130.0
0.986999988556 0.0759999975562 -0.0860000029206 1098.0
0.989000022411 0.0710000023246 -0.0860000029206 1081.0
0.990999996662 0.0649999976158 -0.0860000029206 1043.0
0.985000014305 0.0590000003576 -0.0860000029206 1014.0
0.990000009537 0.0540000014007 -0.0860000029206 978.0
0.990000009537 0.0480000004172 -0.0860000029206 933.0
0.985000014305 0.0419999994338 -0.0850000008941 906.0
0.986000001431 0.0370000004768 -0.0850000008941 866.0
0.989000022411 0.0309999994934 -0.0860000029206 824.0
0.991999983788 0.0250000003725 -0.0860000029206 791.0
0.987999975681 0.019999999553 -0.0850000008941 750.0
0.995000004768 0.0140000004321 -0.0860000029206 674.0
1.01400005817 0.00800000037998 -0.0879999995232 259.0
1.00600004196 -0.0659999996424 -0.0869999974966 1058.0
1.00800001621 -0.0719999969006 -0.0869999974966 1226.0
1.00300002098 -0.0769999995828 -0.0860000029206 1220.0
0.995999991894 -0.082000002265 -0.0860000029206 1225.0
0.992999970913 -0.0879999995232 -0.0860000029206 1241.0
0.996999979019 -0.0939999967813 -0.0860000029206 1246.0
0.996999979019 -0.10000000149 -0.0860000029206 1247.0
0.991999983788 -0.104999996722 -0.0860000029206 1248.0
0.990999996662 -0.111000001431 -0.0860000029206 1258.0
0.996999979019 -0.116999998689 -0.0860000029206 1285.0
0.986000001431 -0.122000001371 -0.0850000008941 1281.0
0.98400002718 -0.127000004053 -0.0850000008941 1291.0
0.986000001431 -0.133000001311 -0.0850000008941 1296.0
0.98400002718 -0.138999998569 -0.0850000008941 1324.0
0.977999985218 -0.143999993801 -0.0839999988675 1316.0
0.973999977112 -0.149000003934 -0.0839999988675 838.0
0.963999986649 -0.152999997139 -0.082999996841 206.0
0.939999997616 -0.155000001192 -0.0810000002384 176.0
0.953999996185 -0.163000002503 -0.082999996841 188.0
0.962999999523 -0.170000001788 -0.082999996841 185.0
0.943000018597 -0.172000005841 -0.082000002265 178.0
0.948000013828 -0.179000005126 -0.082000002265 187.0
0.957000017166 -0.186000004411 -0.082999996841 190.0
0.930999994278 -0.186000004411 -0.0810000002384 190.0
0.938000023365 -0.194000005722 -0.0810000002384 187.0
0.924000024796 -0.195999994874 -0.0799999982119 194.0
0.939999997616 -0.204999998212 -0.082000002265 191.0
0.925000011921 -0.208000004292 -0.0810000002384 200.0
0.926999986172 -0.21400000155 -0.0810000002384 197.0
0.931999981403 -0.221000000834 -0.0810000002384 230.0
0.95300000906 -0.231999993324 -0.082999996841 1095.0
0.950999975204 -0.237000003457 -0.082999996841 1455.0
0.949999988079 -0.243000000715 -0.082999996841 1475.0
0.950999975204 -0.248999997973 -0.082999996841 1483.0
0.947000026703 -0.254000008106 -0.082999996841 1486.0
0.947000026703 -0.259999990463 -0.082999996841 1501.0
0.939999997616 -0.263999998569 -0.082999996841 1511.0
0.938000023365 -0.268999993801 -0.082000002265 1516.0
0.936999976635 -0.27500000596 -0.082000002265 1524.0
0.93599998951 -0.280000001192 -0.082000002265 1517.0
0.938000023365 -0.287000000477 -0.082999996841 1531.0
0.933000028133 -0.291999995708 -0.082000002265 1538.0
0.933000028133 -0.298000007868 -0.082000002265 1546.0
0.930999994278 -0.303000003099 -0.082000002265 1559.0
0.925999999046 -0.307000011206 -0.082000002265 1325.0
0.915000021458 -0.310000002384 -0.0810000002384 346.0
0.907999992371 -0.312999993563 -0.0810000002384 212.0
0.873000025749 -0.307000011206 -0.0780000016093 213.0
0.878000020981 -0.31400001049 -0.0780000016093 219.0
0.873000025749 -0.319000005722 -0.0780000016093 220.0
0.893999993801 -0.331999987364 -0.0799999982119 218.0
0.896000027657 -0.338999986649 -0.0799999982119 217.0
0.894999980927 -0.344999998808 -0.0799999982119 220.0
0.884000003338 -0.347000002861 -0.0790000036359 214.0
0.880999982357 -0.351999998093 -0.0790000036359 221.0
0.894999980927 -0.363000005484 -0.0810000002384 220.0
0.873000025749 -0.361000001431 -0.0790000036359 223.0
0.889999985695 -0.374000012875 -0.0810000002384 224.0
0.885999977589 -0.379000008106 -0.0799999982119 235.0
0.898000001907 -0.389999985695 -0.082000002265 1120.0
0.898000001907 -0.397000014782 -0.082000002265 1596.0
0.894999980927 -0.402000010014 -0.082000002265 1657.0
0.893999993801 -0.407999992371 -0.082000002265 1651.0
0.89099997282 -0.412999987602 -0.082000002265 1642.0
0.887000024319 -0.418000012636 -0.082000002265 1659.0
0.89099997282 -0.426999986172 -0.082000002265 1659.0
0.885999977589 -0.430999994278 -0.082000002265 1672.0
0.884999990463 -0.437000006437 -0.082000002265 1679.0
0.884999990463 -0.444000005722 -0.082000002265 1667.0
0.879999995232 -0.448000013828 -0.082000002265 1669.0
0.878000020981 -0.453999996185 -0.082000002265 1675.0
0.876999974251 -0.460000008345 -0.082000002265 1682.0
0.869000017643 -0.462999999523 -0.0810000002384 1575.0
0.871999979019 -0.470999985933 -0.082000002265 522.0
0.833000004292 -0.456999987364 -0.0780000016093 231.0
0.829999983311 -0.462000012398 -0.0780000016093 224.0
2.21099996567 1.27199995518 -0.236000001431 178.0
2.21799993515 1.25800001621 -0.236000001431 117.0
0.893000006676 0.409000009298 -0.0909999981523 124.0
0.967000007629 0.421000003815 -0.097999997437 242.0
0.959999978542 0.404000014067 -0.097000002861 306.0
0.972000002861 0.395999997854 -0.097000002861 435.0
0.948000013828 0.379999995232 -0.0949999988079 295.0
0.972000002861 0.381999999285 -0.097000002861 323.0
0.943000018597 0.365000009537 -0.0939999967813 358.0
0.955999970436 0.363000005484 -0.0949999988079 405.0
0.961000025272 0.358999997377 -0.0949999988079 452.0
0.962000012398 0.351999998093 -0.0949999988079 494.0
0.962999999523 0.345999985933 -0.0949999988079 534.0
0.964999973774 0.340000003576 -0.0949999988079 603.0
0.972000002861 0.33599999547 -0.0960000008345 621.0
0.96899998188 0.328999996185 -0.0949999988079 659.0
0.971000015736 0.323000013828 -0.0949999988079 700.0
0.97000002861 0.316000014544 -0.0949999988079 737.0
0.97000002861 0.310000002384 -0.0949999988079 775.0
0.967999994755 0.303000003099 -0.0939999967813 813.0
0.972000002861 0.298000007868 -0.0939999967813 831.0
0.973999977112 0.293000012636 -0.0939999967813 874.0
0.96899998188 0.284999996424 -0.0939999967813 906.0
0.97000002861 0.279000014067 -0.0939999967813 933.0
0.975000023842 0.273999989033 -0.0939999967813 961.0
0.977999985218 0.268999993801 -0.0939999967813 988.0
0.972000002861 0.261000007391 -0.0930000022054 1020.0
0.972999989986 0.254999995232 -0.0930000022054 1030.0
0.981000006199 0.250999987125 -0.0939999967813 1059.0
0.973999977112 0.244000002742 -0.0930000022054 1097.0
0.973999977112 0.238000005484 -0.0930000022054 1136.0
0.976000010967 0.231999993324 -0.0930000022054 1175.0
0.97000002861 0.22499999404 -0.0920000001788 1188.0
0.967000007629 0.217999994755 -0.0920000001788 1199.0
0.973999977112 0.21400000155 -0.0930000022054 1217.0
0.976000010967 0.208000004292 -0.0930000022054 1259.0
0.97000002861 0.201000005007 -0.0920000001788 1285.0
0.975000023842 0.195999994874 -0.0920000001788 1301.0
0.976999998093 0.190999999642 -0.0920000001788 1321.0
0.977999985218 0.185000002384 -0.0920000001788 1313.0
0.976999998093 0.179000005126 -0.0920000001788 1329.0
0.977999985218 0.172999992967 -0.0920000001788 1370.0
0.980000019073 0.167999997735 -0.0920000001788 1387.0
0.978999972343 0.162000000477 -0.0920000001788 1400.0
0.980000019073 0.156000003219 -0.0920000001788 1436.0
0.976999998093 0.15000000596 -0.0920000001788 1459.0
0.978999972343 0.143999993801 -0.0920000001788 1479.0
0.980000019073 0.138999998569 -0.0920000001788 1521.0
0.972999989986 0.131999999285 -0.0909999981523 1552.0
0.976999998093 0.127000004053 -0.0909999981523 1583.0
0.976999998093 0.120999999344 -0.0909999981523 1615.0
0.98299998045 0.115999996662 -0.0920000001788 1599.0
0.976000010967 0.109999999404 -0.0909999981523 1653.0
0.985000014305 0.104999996722 -0.0920000001788 1635.0
0.978999972343 0.0989999994636 -0.0909999981523 1646.0
0.986999988556 0.0939999967813 -0.0920000001788 1639.0
0.976999998093 0.0869999974966 -0.0909999981523 1665.0
0.981000006199 0.082000002265 -0.0909999981523 1685.0
0.978999972343 0.0759999975562 -0.0909999981523 1699.0
0.981000006199 0.070000000298 -0.0909999981523 1717.0
0.980000019073 0.0649999976158 -0.0909999981523 1759.0
0.98400002718 0.0590000003576 -0.0909999981523 1753.0
