ply
format ascii 1.0
element vertex 926
property float x
property float y
property float z
property float intensity
end_header
0.98400002718 0.140000000596 0.101000003517 747.0
0.976000010967 0.134000003338 0.10000000149 759.0
0.98400002718 0.128999993205 0.101000003517 764.0
0.981000006199 0.123000003397 0.101000003517 758.0
0.98400002718 0.116999998689 0.101000003517 770.0
0.98299998045 0.112000003457 0.101000003517 762.0
0.989000022411 0.105999998748 0.101999998093 754.0
0.990999996662 0.101000003517 0.101999998093 755.0
0.986999988556 0.0949999988079 0.101000003517 761.0
0.986000001431 0.0890000015497 0.101000003517 769.0
0.987999975681 0.082999996841 0.101999998093 761.0
0.995999991894 0.0780000016093 0.101999998093 762.0
0.985000014305 0.0719999969006 0.101000003517 745.0
0.995000004768 0.0670000016689 0.101999998093 744.0
0.987999975681 0.0610000006855 0.101999998093 733.0
0.98299998045 0.054999999702 0.101000003517 746.0
0.985000014305 0.0489999987185 0.101000003517 761.0
0.986000001431 0.0430000014603 0.101000003517 771.0
0.989000022411 0.0379999987781 0.101999998093 760.0
0.990000009537 0.0320000015199 0.101999998093 745.0
0.985000014305 0.0260000005364 0.101000003517 661.0
1.0039999485 0.0209999997169 0.103000000119 237.0
1.00600004196 -0.0649999976158 0.104000002146 386.0
1.0039999485 -0.0710000023246 0.104000002146 1141.0
1.01199996471 -0.0769999995828 0.104999996722 1184.0
1.00999999046 -0.082999996841 0.104999996722 1192.0
1.00999999046 -0.0890000015497 0.104999996722 1199.0
1.0 -0.0930000022054 0.104000002146 1215.0
1.00199997425 -0.10000000149 0.104000002146 1227.0
1.00300002098 -0.104999996722 0.104000002146 1222.0
0.999000012875 -0.111000001431 0.104000002146 1236.0
0.996999979019 -0.115999996662 0.104000002146 1250.0
0.995000004768 -0.122000001371 0.104000002146 1255.0
0.994000017643 -0.12800000608 0.104000002146 1250.0
0.991999983788 -0.133000001311 0.103000000119 1256.0
0.986000001431 -0.137999996543 0.103000000119 1279.0
0.986000001431 -0.143999993801 0.103000000119 1285.0
0.98400002718 -0.15000000596 0.103000000119 1240.0
0.981000006199 -0.155000001192 0.103000000119 465.0
0.949000000954 -0.155000001192 0.0989999994636 177.0
0.925000011921 -0.157000005245 0.097000002861 168.0
0.959999978542 -0.168999999762 0.101000003517 171.0
0.961000025272 -0.17499999702 0.101000003517 182.0
0.949999988079 -0.178000003099 0.10000000149 181.0
0.944999992847 -0.182999998331 0.10000000149 177.0
0.941999971867 -0.187999993563 0.0989999994636 183.0
0.935000002384 -0.192000001669 0.0989999994636 180.0
0.939999997616 -0.199000000954 0.0989999994636 183.0
0.938000023365 -0.203999996185 0.0989999994636 187.0
0.93599998951 -0.209999993443 0.0989999994636 186.0
0.913999974728 -0.209999993443 0.097000002861 190.0
0.931999981403 -0.219999998808 0.0989999994636 189.0
0.944000005722 -0.229000002146 0.101000003517 526.0
0.955999970436 -0.238000005484 0.101999998093 1344.0
0.962999999523 -0.245000004768 0.103000000119 1436.0
0.954999983311 -0.248999997973 0.101999998093 1459.0
0.949000000954 -0.254000008106 0.101999998093 1460.0
0.949000000954 -0.259999990463 0.101999998093 1457.0
0.95300000906 -0.266999989748 0.101999998093 1473.0
0.948000013828 -0.272000014782 0.101999998093 1486.0
0.944000005722 -0.275999993086 0.101999998093 1504.0
0.940999984741 -0.282000005245 0.101999998093 1488.0
0.93599998951 -0.286000013351 0.101000003517 1510.0
0.939999997616 -0.293000012636 0.101999998093 1511.0
0.934000015259 -0.29699999094 0.101000003517 1510.0
0.935000002384 -0.303999990225 0.101999998093 1513.0
0.934000015259 -0.310000002384 0.101999998093 1507.0
0.930000007153 -0.31400001049 0.101999998093 640.0
0.916999995708 -0.316000014544 0.10000000149 226.0
0.907000005245 -0.319000005722 0.10000000149 203.0
0.907999992371 -0.324999988079 0.10000000149 206.0
0.879000008106 -0.319999992847 0.097000002861 207.0
0.910000026226 -0.337999999523 0.10000000149 210.0
0.912000000477 -0.344999998808 0.101000003517 211.0
0.896000027657 -0.344999998808 0.0989999994636 207.0
0.897000014782 -0.351999998093 0.10000000149 214.0
0.875 -0.349000006914 0.097000002861 213.0
0.888000011444 -0.360000014305 0.0989999994636 210.0
0.885999977589 -0.365999996662 0.0989999994636 214.0
0.879000008106 -0.368999987841 0.0989999994636 216.0
0.926999986172 -0.395999997854 0.104000002146 214.0
0.897000014782 -0.389999985695 0.101000003517 765.0
0.903999984264 -0.398999989033 0.101999998093 1519.0
0.899999976158 -0.404000014067 0.101999998093 1604.0
0.901000022888 -0.411000013351 0.103000000119 1610.0
0.897000014782 -0.416000008583 0.101999998093 1592.0
0.894999980927 -0.42199999094 0.101999998093 1608.0
0.893000006676 -0.426999986172 0.101999998093 1620.0
0.888999998569 -0.432000011206 0.101999998093 1616.0
0.889999985695 -0.439999997616 0.103000000119 1603.0
0.884000003338 -0.442999988794 0.101999998093 1613.0
0.879000008106 -0.446999996901 0.101999998093 1591.0
0.879999995232 -0.455000013113 0.101999998093 1598.0
0.880999982357 -0.462000012398 0.103000000119 1606.0
0.876999974251 -0.467000007629 0.103000000119 1549.0
0.879000008106 -0.47499999404 0.103000000119 687.0
0.856000006199 -0.469999998808 0.101000003517 324.0
0.838999986649 -0.467000007629 0.0989999994636 295.0
0.961000025272 0.554000020027 0.103000000119 763.0
0.957000017166 0.544000029564 0.101999998093 745.0
0.945999979973 0.528999984264 0.101000003517 737.0
0.958000004292 0.528999984264 0.101999998093 725.0
0.953999996185 0.518000006676 0.101000003517 707.0
0.962999999523 0.51599997282 0.101999998093 706.0
0.962000012398 0.507000029087 0.101000003517 689.0
0.958999991417 0.499000012875 0.101000003517 670.0
0.958000004292 0.490000009537 0.10000000149 670.0
0.958999991417 0.483999997377 0.10000000149 672.0
0.958000004292 0.476000010967 0.10000000149 658.0
0.962000012398 0.469999998808 0.10000000149 630.0
0.959999978542 0.462000012398 0.10000000149 622.0
0.962000012398 0.456000000238 0.10000000149 621.0
0.959999978542 0.448000013828 0.0989999994636 610.0
0.958999991417 0.439999997616 0.0989999994636 594.0
0.955999970436 0.432000011206 0.097999997437 579.0
0.964999973774 0.428999990225 0.0989999994636 580.0
0.967999994755 0.423000007868 0.0989999994636 569.0
0.962000012398 0.41400000453 0.097999997437 554.0
0.958999991417 0.405000001192 0.097999997437 546.0
0.966000020504 0.402000010014 0.097999997437 527.0
0.96899998188 0.395999997854 0.0989999994636 523.0
0.967999994755 0.388999998569 0.097999997437 504.0
0.971000015736 0.38299998641 0.097999997437 493.0
0.966000020504 0.375 0.097999997437 465.0
0.957000017166 0.365000009537 0.097000002861 450.0
0.950999975204 0.356000006199 0.0960000008345 417.0
0.96899998188 0.356000006199 0.097000002861 408.0
0.947000026703 0.342000007629 0.0949999988079 404.0
0.952000021935 0.337000012398 0.0949999988079 389.0
0.958999991417 0.333000004292 0.0960000008345 360.0
0.927999973297 0.316000014544 0.0930000022054 342.0
0.943000018597 0.314999997616 0.0939999967813 332.0
0.936999976635 0.307000011206 0.0930000022054 321.0
0.925999999046 0.29699999094 0.0920000001788 315.0
0.910000026226 0.286000013351 0.0900000035763 298.0
0.922999978065 0.284000009298 0.0920000001788 292.0
0.913999974728 0.275999993086 0.0909999981523 283.0
0.920000016689 0.272000014782 0.0909999981523 288.0
0.935000002384 0.270000010729 0.0920000001788 266.0
0.934000015259 0.263999998569 0.0920000001788 262.0
0.92199999094 0.254999995232 0.0909999981523 260.0
0.925000011921 0.25 0.0909999981523 257.0
0.920000016689 0.243000000715 0.0909999981523 247.0
0.916999995708 0.236000001431 0.0900000035763 242.0
0.911000013351 0.229000002146 0.0890000015497 236.0
0.876999974251 0.215000003576 0.0860000029206 202.0
0.916999995708 0.21400000155 0.0900000035763 263.0
0.930999994278 0.21099999547 0.0909999981523 262.0
0.866999983788 0.190999999642 0.0850000008941 195.0
0.889999985695 0.190999999642 0.0869999974966 191.0
0.958000004292 0.20000000298 0.0939999967813 344.0
0.973999977112 0.196999996901 0.0949999988079 344.0
0.96899998188 0.189999997616 0.0949999988079 338.0
0.999000012875 0.189999997616 0.097999997437 239.0
0.996999979019 0.184000000358 0.097000002861 200.0
0.991999983788 0.177000001073 0.097000002861 196.0
1.00800001621 0.167999997735 0.097999997437 312.0
1.00300002098 0.16099999845 0.097999997437 220.0
0.991999983788 0.152999997139 0.0960000008345 306.0
1.0 0.149000003934 0.097000002861 304.0
0.986000001431 0.141000002623 0.0960000008345 212.0
1.01300001144 0.138999998569 0.097999997437 299.0
0.995999991894 0.129999995232 0.097000002861 283.0
1.02799999714 0.128999993205 0.10000000149 218.0
1.02199995518 0.122000001371 0.0989999994636 302.0
1.01499998569 0.108999997377 0.097999997437 302.0
0.999000012875 0.101999998093 0.097000002861 299.0
1.0 0.0960000008345 0.097000002861 300.0
1.00999999046 0.0850000008941 0.097999997437 297.0
1.00699996948 0.0729999989271 0.097999997437 307.0
1.00199997425 0.0670000016689 0.097000002861 219.0
1.01600003242 0.0619999989867 0.097999997437 298.0
1.0 0.054999999702 0.097000002861 305.0
0.998000025749 0.0489999987185 0.097000002861 220.0
1.0 0.0439999997616 0.097000002861 225.0
1.01499998569 0.0390000008047 0.097999997437 180.0
1.00600004196 0.0329999998212 0.097999997437 298.0
1.03999996185 0.0280000008643 0.101000003517 190.0
1.01600003242 -0.0659999996424 0.0989999994636 404.0
1.00999999046 -0.0710000023246 0.0989999994636 1141.0
1.00899994373 -0.0769999995828 0.0989999994636 1189.0
1.00800001621 -0.082999996841 0.0989999994636 1195.0
1.00199997425 -0.0879999995232 0.097999997437 1201.0
1.0039999485 -0.0939999967813 0.097999997437 1216.0
0.995999991894 -0.0989999994636 0.097999997437 1226.0
0.995999991894 -0.104999996722 0.097999997437 1220.0
0.994000017643 -0.109999999404 0.097999997437 1237.0
0.990000009537 -0.115999996662 0.097000002861 1243.0
0.995999991894 -0.122000001371 0.097999997437 1251.0
0.992999970913 -0.12800000608 0.097999997437 1268.0
0.989000022411 -0.133000001311 0.097000002861 1268.0
0.990000009537 -0.138999998569 0.097999997437 1277.0
0.986000001431 -0.143999993801 0.097000002861 1298.0
0.986999988556 -0.15000000596 0.097000002861 1247.0
0.98299998045 -0.155000001192 0.097000002861 457.0
0.944999992847 -0.155000001192 0.0930000022054 173.0
0.949000000954 -0.16099999845 0.0939999967813 173.0
0.947000026703 -0.165999993682 0.0939999967813 175.0
0.953999996185 -0.172999992967 0.0949999988079 172.0
0.927999973297 -0.173999994993 0.0920000001788 178.0
0.944999992847 -0.182999998331 0.0939999967813 182.0
0.925999999046 -0.185000002384 0.0920000001788 184.0
0.941999971867 -0.194000005722 0.0939999967813 181.0
0.950999975204 -0.201000005007 0.0949999988079 185.0
0.947000026703 -0.206000000238 0.0949999988079 184.0
0.940999984741 -0.21099999547 0.0939999967813 184.0
0.924000024796 -0.212999999523 0.0930000022054 186.0
0.950999975204 -0.22499999404 0.0949999988079 184.0
0.952000021935 -0.231000006199 0.0960000008345 524.0
0.953999996185 -0.237000003457 0.0960000008345 1350.0
0.953999996185 -0.243000000715 0.0960000008345 1456.0
0.955999970436 -0.248999997973 0.097000002861 1452.0
0.949000000954 -0.254000008106 0.0960000008345 1463.0
0.947000026703 -0.259000003338 0.0960000008345 1470.0
0.944000005722 -0.263999998569 0.0960000008345 1456.0
0.945999979973 -0.270999997854 0.0960000008345 1481.0
0.943000018597 -0.275999993086 0.0960000008345 1485.0
0.944999992847 -0.282000005245 0.0960000008345 1500.0
0.940999984741 -0.287000000477 0.0960000008345 1508.0
0.939999997616 -0.293000012636 0.0960000008345 1507.0
0.936999976635 -0.298000007868 0.0960000008345 1519.0
0.931999981403 -0.303000003099 0.0960000008345 1512.0
0.934000015259 -0.308999985456 0.0960000008345 1504.0
0.930000007153 -0.31400001049 0.0960000008345 658.0
0.911000013351 -0.31400001049 0.0939999967813 225.0
0.902999997139 -0.317000001669 0.0939999967813 199.0
0.898999989033 -0.321999996901 0.0930000022054 207.0
0.899999976158 -0.32800000906 0.0939999967813 211.0
0.907999992371 -0.337000012398 0.0949999988079 206.0
0.875 -0.331000000238 0.0909999981523 206.0
0.887000024319 -0.340999990702 0.0930000022054 211.0
0.896000027657 -0.351000010967 0.0939999967813 211.0
0.889999985695 -0.354999989271 0.0939999967813 210.0
0.903999984264 -0.36700001359 0.0949999988079 215.0
0.893999993801 -0.368999987841 0.0939999967813 217.0
0.864000022411 -0.363000005484 0.0920000001788 207.0
0.888000011444 -0.379000008106 0.0939999967813 221.0
0.894999980927 -0.388000011444 0.0949999988079 747.0
0.907000005245 -0.400999993086 0.097000002861 1512.0
0.898000001907 -0.402999997139 0.0960000008345 1623.0
0.894999980927 -0.407999992371 0.0960000008345 1620.0
0.894999980927 -0.414999991655 0.0960000008345 1603.0
0.901000022888 -0.423999994993 0.097000002861 1623.0
0.89200001955 -0.426999986172 0.097000002861 1638.0
0.889999985695 -0.432000011206 0.097000002861 1626.0
0.888999998569 -0.43900001049 0.097000002861 1639.0
0.888000011444 -0.444999992847 0.097000002861 1627.0
0.884000003338 -0.449999988079 0.097000002861 1639.0
0.883000016212 -0.456000000238 0.097000002861 1641.0
0.875999987125 -0.460000008345 0.097000002861 1626.0
0.878000020981 -0.467000007629 0.097000002861 1616.0
0.875 -0.472999989986 0.097000002861 731.0
0.851999998093 -0.467000007629 0.0949999988079 264.0
0.822000026703 -0.456999987364 0.0920000001788 214.0
0.998000025749 0.574999988079 0.10000000149 382.0
1.02300000191 0.579999983311 0.103000000119 358.0
1.00499999523 0.561999976635 0.101000003517 336.0
0.986000001431 0.542999982834 0.097999997437 323.0
0.973999977112 0.528999984264 0.097000002861 293.0
0.964999973774 0.51599997282 0.0960000008345 278.0
0.967000007629 0.509999990463 0.0960000008345 256.0
0.990000009537 0.513999998569 0.097999997437 232.0
0.990000009537 0.505999982357 0.097000002861 212.0
0.953999996185 0.481000006199 0.0939999967813 205.0
0.97000002861 0.474000006914 0.0949999988079 293.0
0.958999991417 0.46099999547 0.0939999967813 261.0
0.958000004292 0.45300000906 0.0930000022054 247.0
0.945999979973 0.426999986172 0.0909999981523 174.0
0.68900001049 0.275999993086 0.0649999976158 63.0
4.23099994659 1.46899998188 0.405000001192 62.0
4.29099988937 1.46099996567 0.409999996424 68.0
4.30100011826 1.43599998951 0.411000013351 64.0
4.40399980545 1.44200003147 0.419999986887 64.0
4.27099990845 1.37000000477 0.407000005245 67.0
4.32100009918 1.35800004005 0.411000013351 61.0
4.30399990082 1.32500004768 0.409000009298 62.0
4.46199989319 1.34500002861 0.423000007868 69.0
4.39599990845 1.29700005054 0.416000008583 63.0
4.34600019455 1.2539999485 0.411000013351 59.0
4.36100006104 1.23000001907 0.412000000477 60.0
4.42000007629 1.21899998188 0.416999995708 59.0
4.32299995422 1.16499996185 0.407999992371 60.0
4.125 1.08599996567 0.388999998569 71.0
4.33300018311 1.11300003529 0.407999992371 65.0
4.37699985504 1.09700000286 0.412000000477 60.0
4.29199981689 1.0490000248 0.402999997139 60.0
4.39499998093 1.01999998093 0.412000000477 62.0
4.36199998856 0.986000001431 0.409000009298 61.0
4.30900001526 0.947000026703 0.402999997139 58.0
4.42999982834 0.947000026703 0.414999991655 57.0
4.27600002289 0.888000011444 0.40000000596 65.0
4.35400009155 0.878000020981 0.407000005245 58.0
4.36899995804 0.853999972343 0.407999992371 52.0
1.01699995995 -0.0659999996424 0.0930000022054 430.0
1.00999999046 -0.0710000023246 0.0930000022054 1148.0
1.00699996948 -0.0769999995828 0.0930000022054 1198.0
1.00499999523 -0.082000002265 0.0920000001788 1197.0
1.00600004196 -0.0879999995232 0.0930000022054 1203.0
1.00600004196 -0.0939999967813 0.0930000022054 1213.0
1.00100004673 -0.0989999994636 0.0920000001788 1232.0
0.999000012875 -0.104999996722 0.0920000001788 1236.0
1.00100004673 -0.111000001431 0.0920000001788 1237.0
0.996999979019 -0.115999996662 0.0920000001788 1252.0
0.992999970913 -0.122000001371 0.0920000001788 1244.0
0.989000022411 -0.127000004053 0.0909999981523 1268.0
0.990000009537 -0.133000001311 0.0920000001788 1287.0
0.989000022411 -0.138999998569 0.0920000001788 1291.0
0.98299998045 -0.143999993801 0.0909999981523 1295.0
0.981999993324 -0.149000003934 0.0909999981523 1232.0
0.978999972343 -0.155000001192 0.0909999981523 453.0
0.958999991417 -0.157000005245 0.0890000015497 180.0
0.971000015736 -0.165000006557 0.0900000035763 173.0
0.950999975204 -0.166999995708 0.0890000015497 175.0
0.953999996185 -0.172999992967 0.0890000015497 175.0
0.933000028133 -0.17499999702 0.0869999974966 170.0
0.938000023365 -0.180999994278 0.0879999995232 180.0
0.943000018597 -0.187999993563 0.0879999995232 181.0
0.927999973297 -0.190999999642 0.0869999974966 178.0
0.944000005722 -0.20000000298 0.0890000015497 184.0
0.940999984741 -0.204999998212 0.0879999995232 182.0
0.936999976635 -0.209999993443 0.0879999995232 182.0
0.921000003815 -0.211999997497 0.0869999974966 182.0
0.931999981403 -0.219999998808 0.0879999995232 189.0
0.953999996185 -0.231000006199 0.0900000035763 527.0
0.953999996185 -0.237000003457 0.0900000035763 1351.0
0.953999996185 -0.243000000715 0.0909999981523 1451.0
0.952000021935 -0.247999995947 0.0900000035763 1465.0
0.949999988079 -0.254000008106 0.0900000035763 1461.0
0.949999988079 -0.259999990463 0.0909999981523 1476.0
0.948000013828 -0.264999985695 0.0900000035763 1474.0
0.945999979973 -0.270999997854 0.0900000035763 1494.0
0.940999984741 -0.27500000596 0.0900000035763 1494.0
0.941999971867 -0.280999988317 0.0900000035763 1487.0
0.939999997616 -0.287000000477 0.0900000035763 1509.0
0.93900001049 -0.293000012636 0.0900000035763 1512.0
0.934000015259 -0.29699999094 0.0900000035763 1521.0
0.935000002384 -0.303999990225 0.0900000035763 1537.0
0.933000028133 -0.308999985456 0.0900000035763 1521.0
0.926999986172 -0.312999993563 0.0900000035763 679.0
0.915000021458 -0.314999997616 0.0890000015497 230.0
0.917999982834 -0.321999996901 0.0900000035763 201.0
0.915000021458 -0.326999992132 0.0890000015497 208.0
0.912000000477 -0.331999987364 0.0890000015497 216.0
0.899999976158 -0.333999991417 0.0879999995232 208.0
0.893000006676 -0.337999999523 0.0879999995232 215.0
0.896000027657 -0.344999998808 0.0879999995232 206.0
0.884999990463 -0.347000002861 0.0869999974966 205.0
0.901000022888 -0.358999997377 0.0890000015497 207.0
0.893999993801 -0.361999988556 0.0890000015497 208.0
0.867999970913 -0.358000010252 0.0860000029206 216.0
0.887000024319 -0.372000008821 0.0879999995232 213.0
0.884999990463 -0.377999991179 0.0890000015497 216.0
0.898000001907 -0.389999985695 0.0900000035763 721.0
0.902999997139 -0.398000001907 0.0909999981523 1522.0
0.899999976158 -0.404000014067 0.0909999981523 1612.0
0.898999989033 -0.409999996424 0.0909999981523 1617.0
0.898000001907 -0.416000008583 0.0909999981523 1620.0
0.893000006676 -0.419999986887 0.0909999981523 1633.0
0.894999980927 -0.428000003099 0.0909999981523 1636.0
0.89099997282 -0.432999998331 0.0909999981523 1631.0
0.884000003338 -0.43599998951 0.0909999981523 1629.0
0.884999990463 -0.442999988794 0.0909999981523 1626.0
0.884999990463 -0.449999988079 0.0909999981523 1638.0
0.884000003338 -0.456000000238 0.0909999981523 1662.0
0.884000003338 -0.462999999523 0.0920000001788 1640.0
0.876999974251 -0.467000007629 0.0909999981523 1631.0
0.871999979019 -0.470999985933 0.0909999981523 761.0
0.842000007629 -0.462000012398 0.0879999995232 267.0
0.870000004768 -0.483999997377 0.0920000001788 213.0
1.91499996185 1.10300004482 0.181999996305 97.0
2.01600003242 1.14499998093 0.190999999642 109.0
2.21900010109 1.24199998379 0.209999993443 90.0
3.88599991798 1.50600004196 0.351000010967 62.0
3.96799993515 1.51100003719 0.358000010252 65.0
4.01399993896 1.50100004673 0.361999988556 66.0
4.23400020599 1.46899998188 0.379000008106 68.0
4.3189997673 1.47000002861 0.386999994516 71.0
4.28499984741 1.42999994755 0.38299998641 64.0
4.26900005341 1.39600002766 0.381000012159 69.0
4.27400016785 1.37000000477 0.381000012159 68.0
4.29600000381 1.34899997711 0.381999999285 66.0
4.25199985504 1.30799996853 0.377999991179 63.0
4.38899993896 1.3220000267 0.389999985695 68.0
4.30700016022 1.26900005341 0.381999999285 65.0
4.29099988937 1.23699998856 0.379999995232 70.0
4.34100008011 1.22399997711 0.384000003338 67.0
4.24700021744 1.17100000381 0.375 74.0
4.32299995422 1.16400003433 0.381999999285 65.0
4.30499982834 1.13300001621 0.379999995232 67.0
4.33400011063 1.11300003529 0.381999999285 67.0
4.34100008011 1.08800005913 0.381999999285 69.0
4.22900009155 1.0340000391 0.372000008821 67.0
4.24900007248 1.01199996471 0.372999995947 65.0
4.33500003815 1.00600004196 0.381000012159 64.0
4.27199983597 0.964999973774 0.375 65.0
4.26900005341 0.938000023365 0.374000012875 65.0
4.34200000763 0.927999973297 0.379999995232 67.0
4.31599998474 0.896000027657 0.377999991179 69.0
4.2610001564 0.85900002718 0.372999995947 64.0
1.01499998569 -0.0659999996424 0.0869999974966 437.0
1.00999999046 -0.0710000023246 0.0869999974966 1164.0
1.00899994373 -0.0769999995828 0.0869999974966 1210.0
1.01300001144 -0.082999996841 0.0869999974966 1203.0
1.00499999523 -0.0879999995232 0.0869999974966 1205.0
1.00699996948 -0.0939999967813 0.0869999974966 1217.0
0.996999979019 -0.0989999994636 0.0860000029206 1229.0
0.996999979019 -0.104999996722 0.0860000029206 1234.0
0.999000012875 -0.111000001431 0.0860000029206 1240.0
0.999000012875 -0.116999998689 0.0860000029206 1260.0
0.995000004768 -0.122000001371 0.0860000029206 1257.0
0.996999979019 -0.12800000608 0.0860000029206 1263.0
0.987999975681 -0.133000001311 0.0860000029206 1280.0
0.986000001431 -0.137999996543 0.0860000029206 1297.0
0.987999975681 -0.143999993801 0.0860000029206 1305.0
0.985000014305 -0.15000000596 0.0860000029206 1248.0
0.980000019073 -0.155000001192 0.0850000008941 440.0
0.963999986649 -0.158000007272 0.0839999988675 178.0
0.936999976635 -0.158999994397 0.082000002265 172.0
0.955999970436 -0.167999997735 0.082999996841 176.0
0.929000020027 -0.167999997735 0.0810000002384 176.0
0.933000028133 -0.17499999702 0.082000002265 179.0
0.944000005722 -0.182999998331 0.082999996841 177.0
0.944999992847 -0.187999993563 0.082999996841 179.0
0.93599998951 -0.192000001669 0.082000002265 182.0
0.945999979973 -0.20000000298 0.082999996841 185.0
0.930000007153 -0.202000007033 0.082000002265 183.0
0.930000007153 -0.208000004292 0.082000002265 182.0
0.913999974728 -0.209999993443 0.0810000002384 194.0
0.925999999046 -0.218999996781 0.082000002265 196.0
0.948000013828 -0.230000004172 0.0839999988675 521.0
0.953999996185 -0.237000003457 0.0850000008941 1353.0
0.953999996185 -0.243000000715 0.0850000008941 1461.0
0.949999988079 -0.247999995947 0.0850000008941 1467.0
0.948000013828 -0.252999991179 0.0850000008941 1480.0
0.949000000954 -0.259000003338 0.0850000008941 1474.0
0.95300000906 -0.266999989748 0.0850000008941 1472.0
0.949000000954 -0.270999997854 0.0850000008941 1498.0
0.944000005722 -0.275999993086 0.0850000008941 1490.0
0.939999997616 -0.280999988317 0.0850000008941 1501.0
0.938000023365 -0.286000013351 0.0850000008941 1504.0
0.934000015259 -0.291000008583 0.0839999988675 1516.0
0.935000002384 -0.29699999094 0.0850000008941 1525.0
0.93599998951 -0.303999990225 0.0850000008941 1525.0
0.935000002384 -0.308999985456 0.0850000008941 1518.0
0.92199999094 -0.31099998951 0.0839999988675 684.0
0.90600001812 -0.312000006437 0.082999996841 235.0
0.897000014782 -0.314999997616 0.082000002265 208.0
0.908999979496 -0.324999988079 0.082999996841 208.0
0.879999995232 -0.321000009775 0.0810000002384 207.0
0.901000022888 -0.333999991417 0.082999996841 217.0
0.90499997139 -0.342000007629 0.082999996841 215.0
0.879999995232 -0.337999999523 0.0810000002384 213.0
0.897000014782 -0.351000010967 0.082999996841 209.0
0.883000016212 -0.351999998093 0.082000002265 218.0
0.893999993801 -0.361999988556 0.082999996841 214.0
0.885999977589 -0.365999996662 0.082999996841 215.0
0.871999979019 -0.365999996662 0.082000002265 218.0
0.876999974251 -0.374000012875 0.082000002265 223.0
0.89200001955 -0.386999994516 0.0839999988675 700.0
0.899999976158 -0.397000014782 0.0850000008941 1518.0
0.899999976158 -0.404000014067 0.0850000008941 1625.0
0.902000010014 -0.411000013351 0.0860000029206 1619.0
0.894999980927 -0.41400000453 0.0850000008941 1623.0
0.898999989033 -0.423000007868 0.0860000029206 1629.0
0.893999993801 -0.426999986172 0.0850000008941 1635.0
0.89099997282 -0.432999998331 0.0850000008941 1638.0
0.885999977589 -0.437000006437 0.0850000008941 1644.0
0.889999985695 -0.446000009775 0.0860000029206 1642.0
0.883000016212 -0.449000000954 0.0850000008941 1665.0
0.880999982357 -0.453999996185 0.0850000008941 1641.0
0.879999995232 -0.46099999547 0.0860000029206 1635.0
0.880999982357 -0.467999994755 0.0860000029206 1649.0
0.880999982357 -0.476000010967 0.0860000029206 797.0
0.860000014305 -0.470999985933 0.0850000008941 271.0
0.827000021935 -0.458999991417 0.0810000002384 226.0
2.16899991035 1.24899995327 0.192000001669 137.0
2.19899988174 1.24800002575 0.194000005722 184.0
2.29200005531 1.28199994564 0.202000007033 92.0
3.36100006104 1.39600002766 0.284999996424 76.0
3.42499995232 1.39800000191 0.289999991655 70.0
3.85500001907 1.46700000763 0.324000000954 83.0
3.90199995041 1.45799994469 0.32800000906 77.0
4.21500015259 1.4620000124 0.351999998093 86.0
4.20300006866 1.42999994755 0.34999999404 88.0
4.18400001526 1.39499998093 0.347999989986 92.0
4.21899986267 1.37999999523 0.351000010967 91.0
4.24499988556 1.36000001431 0.352999985218 91.0
4.24499988556 1.33299994469 0.351999998093 89.0
4.18499994278 1.28699994087 0.347000002861 95.0
4.26599979401 1.2840000391 0.352999985218 90.0
4.22599983215 1.24500000477 0.349000006914 88.0
4.17899990082 1.20399999619 0.344999998808 91.0
4.23699998856 1.19400000572 0.349000006914 95.0
4.24700021744 1.16999995708 0.34999999404 95.0
4.27600002289 1.15100002289 0.351999998093 88.0
4.21099996567 1.10699999332 0.345999985933 96.0
4.29600000381 1.10300004482 0.352999985218 93.0
4.24499988556 1.06299996376 0.347999989986 94.0
4.22700023651 1.03199994564 0.347000002861 95.0
4.242000103 1.00999999046 0.347999989986 93.0
4.22499990463 0.980000019073 0.345999985933 97.0
4.24800014496 0.958999991417 0.347000002861 95.0
4.28499984741 0.940999984741 0.34999999404 94.0
4.21700000763 0.899999976158 0.344000011683 100.0
4.26900005341 0.885999977589 0.347999989986 98.0
4.24499988556 0.855000019073 0.345999985933 99.0
4.20100021362 0.820999979973 0.342000007629 79.0
1.01300001144 -0.0649999976158 0.0810000002384 462.0
1.01199996471 -0.0710000023246 0.0810000002384 1160.0
1.00899994373 -0.0769999995828 0.0810000002384 1194.0
1.00100004673 -0.082000002265 0.0799999982119 1198.0
1.0039999485 -0.0879999995232 0.0810000002384 1203.0
1.00300002098 -0.0939999967813 0.0810000002384 1216.0
1.00199997425 -0.0989999994636 0.0810000002384 1228.0
0.995000004768 -0.104999996722 0.0799999982119 1233.0
1.00100004673 -0.111000001431 0.0810000002384 1237.0
0.995999991894 -0.115999996662 0.0799999982119 1250.0
0.991999983788 -0.122000001371 0.0799999982119 1260.0
0.992999970913 -0.127000004053 0.0799999982119 1258.0
0.990999996662 -0.133000001311 0.0799999982119 1281.0
0.991999983788 -0.138999998569 0.0799999982119 1298.0
0.985000014305 -0.143999993801 0.0799999982119 1301.0
0.981000006199 -0.149000003934 0.0799999982119 1242.0
0.959999978542 -0.150999993086 0.0780000016093 436.0
0.954999983311 -0.156000003219 0.0780000016093 178.0
0.953999996185 -0.162000000477 0.0780000016093 174.0
0.93900001049 -0.165000006557 0.0759999975562 176.0
0.95300000906 -0.172999992967 0.0780000016093 171.0
0.93900001049 -0.175999999046 0.0769999995828 172.0
0.93599998951 -0.180999994278 0.0769999995828 178.0
0.936999976635 -0.187000006437 0.0769999995828 177.0
0.958000004292 -0.196999996901 0.0780000016093 180.0
0.957000017166 -0.202999994159 0.0790000036359 185.0
0.92199999094 -0.201000005007 0.0759999975562 185.0
0.919000029564 -0.204999998212 0.0759999975562 184.0
0.907999992371 -0.209000006318 0.0750000029802 186.0
0.934000015259 -0.219999998808 0.0769999995828 192.0
0.955999970436 -0.231999993324 0.0790000036359 523.0
0.947000026703 -0.234999999404 0.0780000016093 1349.0
0.953999996185 -0.243000000715 0.0790000036359 1457.0
0.955999970436 -0.248999997973 0.0790000036359 1477.0
0.949999988079 -0.254000008106 0.0790000036359 1481.0
0.95300000906 -0.259999990463 0.0790000036359 1483.0
0.944999992847 -0.263999998569 0.0790000036359 1487.0
0.945999979973 -0.270000010729 0.0790000036359 1498.0
0.943000018597 -0.275999993086 0.0790000036359 1494.0
0.939999997616 -0.280999988317 0.0790000036359 1498.0
0.943000018597 -0.287999987602 0.0790000036359 1519.0
0.93599998951 -0.291000008583 0.0790000036359 1526.0
0.938000023365 -0.298000007868 0.0790000036359 1536.0
0.935000002384 -0.303000003099 0.0790000036359 1538.0
0.931999981403 -0.308999985456 0.0790000036359 1529.0
0.925000011921 -0.312000006437 0.0790000036359 689.0
0.907000005245 -0.312000006437 0.0769999995828 231.0
0.899999976158 -0.316000014544 0.0769999995828 206.0
0.879999995232 -0.31400001049 0.0750000029802 210.0
0.889999985695 -0.324000000954 0.0759999975562 217.0
0.893000006676 -0.331000000238 0.0769999995828 214.0
0.880999982357 -0.333000004292 0.0759999975562 212.0
0.876999974251 -0.337000012398 0.0759999975562 213.0
0.887000024319 -0.347000002861 0.0769999995828 216.0
0.889999985695 -0.354999989271 0.0769999995828 209.0
0.894999980927 -0.363000005484 0.0780000016093 215.0
0.871999979019 -0.360000014305 0.0759999975562 221.0
0.897000014782 -0.375999987125 0.0780000016093 207.0
0.879999995232 -0.375 0.0769999995828 227.0
0.898999989033 -0.389999985695 0.0790000036359 684.0
0.898000001907 -0.395999997854 0.0790000036359 1503.0
0.898999989033 -0.402999997139 0.0790000036359 1617.0
0.897000014782 -0.409000009298 0.0790000036359 1633.0
0.893999993801 -0.41400000453 0.0790000036359 1632.0
0.898000001907 -0.42199999094 0.0799999982119 1634.0
0.893999993801 -0.426999986172 0.0799999982119 1636.0
0.896000027657 -0.435000002384 0.0799999982119 1649.0
0.89099997282 -0.43900001049 0.0799999982119 1635.0
0.888999998569 -0.444999992847 0.0799999982119 1632.0
0.885999977589 -0.449999988079 0.0799999982119 1661.0
0.880999982357 -0.455000013113 0.0799999982119 1662.0
0.879000008106 -0.460000008345 0.0799999982119 1656.0
0.875 -0.465000003576 0.0799999982119 1656.0
0.874000012875 -0.472000002861 0.0799999982119 814.0
0.851999998093 -0.467000007629 0.0780000016093 267.0
0.828999996185 -0.460000008345 0.0759999975562 212.0
2.21000003815 1.27199995518 0.180999994278 187.0
2.21700000763 1.25800001621 0.181999996305 239.0
2.25200009346 1.25899994373 0.184000000358 130.0
2.2990000248 1.26699995995 0.187000006437 112.0
3.28099989891 1.36199998856 0.25799998641 86.0
3.52800011635 1.41499996185 0.275999993086 65.0
3.87599992752 1.52799999714 0.303000003099 71.0
3.77500009537 1.4620000124 0.294999986887 102.0
3.93300008774 1.4960000515 0.307000011206 99.0
3.86100006104 1.44200003147 0.300999999046 87.0
4.14799976349 1.49300003052 0.321999996901 68.0
4.30700016022 1.52199995518 0.333999991417 61.0
4.17600011826 1.44799995422 0.323000013828 91.0
4.1890001297 1.4240000248 0.324000000954 104.0
4.22100019455 1.40699994564 0.326000005007 106.0
4.22599983215 1.38100004196 0.326000005007 98.0
4.24100017548 1.35800004005 0.326999992132 104.0
4.22499990463 1.3259999752 0.324999988079 103.0
4.16400003433 1.27999997139 0.319999992847 94.0
4.24100017548 1.27600002289 0.324999988079 100.0
4.25 1.25100004673 0.326000005007 101.0
4.26900005341 1.23000001907 0.326999992132 94.0
4.23400020599 1.19299995899 0.324000000954 97.0
4.21299982071 1.15999996662 0.321999996901 100.0
4.25699996948 1.14600002766 0.324999988079 92.0
4.19299983978 1.10199999809 0.319999992847 93.0
4.25500011444 1.09200000763 0.324000000954 94.0
4.24499988556 1.06299996376 0.323000013828 95.0
4.25199985504 1.0379999876 0.323000013828 95.0
4.24599981308 1.00999999046 0.323000013828 91.0
4.24499988556 0.98400002718 0.321999996901 93.0
4.28599977493 0.967000007629 0.324999988079 101.0
4.22900009155 0.927999973297 0.321000009775 95.0
4.27600002289 0.912999987602 0.324000000954 99.0
4.27099990845 0.885999977589 0.323000013828 99.0
4.21099996567 0.847999989986 0.319000005722 104.0
4.37699985504 0.855000019073 0.331000000238 81.0
1.02199995518 -0.0659999996424 0.0759999975562 474.0
1.00800001621 -0.0710000023246 0.0750000029802 1168.0
1.01100003719 -0.0769999995828 0.0750000029802 1196.0
1.00699996948 -0.082000002265 0.0750000029802 1212.0
1.00899994373 -0.0879999995232 0.0750000029802 1196.0
0.999000012875 -0.0930000022054 0.0750000029802 1218.0
1.00300002098 -0.10000000149 0.0750000029802 1237.0
1.0039999485 -0.104999996722 0.0750000029802 1230.0
0.994000017643 -0.109999999404 0.0740000009537 1243.0
0.992999970913 -0.115999996662 0.0740000009537 1259.0
0.987999975681 -0.120999999344 0.0740000009537 1264.0
0.990000009537 -0.127000004053 0.0740000009537 1263.0
0.995000004768 -0.134000003338 0.0750000029802 1283.0
0.990000009537 -0.138999998569 0.0740000009537 1299.0
0.981000006199 -0.143000006676 0.0740000009537 1295.0
0.981000006199 -0.149000003934 0.0740000009537 1242.0
0.972999989986 -0.152999997139 0.0729999989271 442.0
0.947000026703 -0.155000001192 0.0710000023246 173.0
0.962000012398 -0.163000002503 0.0729999989271 181.0
0.93599998951 -0.16400000453 0.0710000023246 180.0
0.949000000954 -0.172000005841 0.0719999969006 178.0
0.948000013828 -0.178000003099 0.0719999969006 179.0
0.947000026703 -0.182999998331 0.0719999969006 175.0
0.933000028133 -0.186000004411 0.0710000023246 177.0
0.943000018597 -0.194000005722 0.0719999969006 181.0
0.941999971867 -0.199000000954 0.0719999969006 187.0
0.948000013828 -0.206000000238 0.0719999969006 189.0
0.957000017166 -0.21400000155 0.0729999989271 190.0
0.948000013828 -0.217999994755 0.0729999989271 193.0
0.93599998951 -0.221000000834 0.0719999969006 196.0
0.950999975204 -0.230000004172 0.0729999989271 526.0
0.957000017166 -0.238000005484 0.0740000009537 1364.0
0.958000004292 -0.244000002742 0.0740000009537 1459.0
0.952000021935 -0.247999995947 0.0729999989271 1468.0
0.949000000954 -0.252999991179 0.0729999989271 1478.0
0.949000000954 -0.259000003338 0.0729999989271 1485.0
0.944999992847 -0.263999998569 0.0729999989271 1492.0
0.944000005722 -0.270000010729 0.0729999989271 1496.0
0.944000005722 -0.275999993086 0.0729999989271 1504.0
0.947000026703 -0.282999992371 0.0740000009537 1503.0
0.943000018597 -0.287000000477 0.0740000009537 1516.0
0.935000002384 -0.291000008583 0.0729999989271 1522.0
0.935000002384 -0.29699999094 0.0729999989271 1533.0
0.933000028133 -0.303000003099 0.0729999989271 1528.0
0.930000007153 -0.307999998331 0.0729999989271 1526.0
0.935000002384 -0.314999997616 0.0740000009537 692.0
0.912000000477 -0.31400001049 0.0719999969006 237.0
0.919000029564 -0.321999996901 0.0729999989271 208.0
0.920000016689 -0.328999996185 0.0729999989271 206.0
0.884000003338 -0.321999996901 0.070000000298 208.0
0.901000022888 -0.333999991417 0.0719999969006 212.0
0.901000022888 -0.340000003576 0.0719999969006 210.0
0.876999974251 -0.337000012398 0.070000000298 214.0
0.893000006676 -0.349000006914 0.0719999969006 215.0
0.889999985695 -0.354000002146 0.0719999969006 215.0
0.89099997282 -0.361000001431 0.0719999969006 214.0
0.882000029087 -0.363000005484 0.0710000023246 215.0
0.884999990463 -0.370999991894 0.0719999969006 213.0
0.884999990463 -0.377000004053 0.0719999969006 217.0
0.898999989033 -0.389999985695 0.0729999989271 658.0
0.899999976158 -0.395999997854 0.0740000009537 1501.0
0.897000014782 -0.402000010014 0.0740000009537 1622.0
0.901000022888 -0.409999996424 0.0740000009537 1637.0
0.893000006676 -0.412999987602 0.0740000009537 1628.0
0.893999993801 -0.419999986887 0.0740000009537 1637.0
0.893000006676 -0.425999999046 0.0740000009537 1638.0
0.888000011444 -0.430999994278 0.0740000009537 1646.0
0.887000024319 -0.437000006437 0.0740000009537 1644.0
0.888000011444 -0.444000005722 0.0740000009537 1637.0
0.880999982357 -0.448000013828 0.0740000009537 1655.0
0.885999977589 -0.456999987364 0.0750000029802 1665.0
0.882000029087 -0.462000012398 0.0740000009537 1642.0
0.878000020981 -0.467000007629 0.0740000009537 1651.0
0.875 -0.472000002861 0.0740000009537 847.0
0.84500002861 -0.462999999523 0.0719999969006 276.0
0.847000002861 -0.469999998808 0.0719999969006 223.0
2.20700001717 1.26999998093 0.166999995708 205.0
2.22900009155 1.26400005817 0.167999997735 229.0
2.27699995041 1.27199995518 0.171000003815 126.0
2.22300004959 1.22399997711 0.166999995708 81.0
4.02500009537 1.58599996567 0.289999991655 75.0
4.01000022888 1.55200004578 0.287999987602 73.0
4.02199983597 1.50199997425 0.287999987602 74.0
4.25600004196 1.47399997711 0.303999990225 69.0
4.26599979401 1.44900000095 0.303999990225 75.0
4.33799982071 1.44599997997 0.308999985456 75.0
4.25500011444 1.38999998569 0.301999986172 74.0
4.25899982452 1.36399996281 0.301999986172 73.0
4.30700016022 1.35099995136 0.305000007153 75.0
4.30900001526 1.32400000095 0.305000007153 71.0
4.44199991226 1.33599996567 0.31400001049 65.0
4.34899997711 1.27999997139 0.307000011206 71.0
4.382999897 1.26199996471 0.308999985456 70.0
4.3639998436 1.22899997234 0.307999998331 68.0
4.32899999619 1.19099998474 0.305000007153 61.0
4.34299993515 1.16799998283 0.305999994278 67.0
4.29500007629 1.12800002098 0.301999986172 68.0
4.39599990845 1.12699997425 0.308999985456 62.0
4.46400022507 1.11699998379 0.312999993563 71.0
4.34000015259 1.05900001526 0.303999990225 70.0
4.32600021362 1.02900004387 0.303000003099 67.0
4.46700000763 1.03499996662 0.312999993563 69.0
4.39099979401 0.990000009537 0.307000011206 67.0
4.36199998856 0.957000017166 0.305000007153 76.0
4.29300022125 0.916000008583 0.300000011921 64.0
4.37300014496 0.90600001812 0.305000007153 64.0
4.42000007629 0.888999998569 0.307999998331 66.0
4.49100017548 0.875999987125 0.312999993563 57.0
1.00800001621 -0.0649999976158 0.0689999982715 499.0
1.00800001621 -0.0710000023246 0.0689999982715 1176.0
1.00199997425 -0.0759999975562 0.0689999982715 1205.0
1.00800001621 -0.082999996841 0.0689999982715 1209.0
1.00499999523 -0.0879999995232 0.0689999982715 1208.0
1.00100004673 -0.0939999967813 0.0689999982715 1229.0
0.998000025749 -0.0989999994636 0.0689999982715 1233.0
0.995000004768 -0.104000002146 0.0689999982715 1231.0
0.994000017643 -0.109999999404 0.0689999982715 1247.0
0.996999979019 -0.115999996662 0.0689999982715 1255.0
0.991999983788 -0.122000001371 0.0689999982715 1260.0
0.990999996662 -0.127000004053 0.0689999982715 1273.0
0.990999996662 -0.133000001311 0.0689999982715 1285.0
0.989000022411 -0.138999998569 0.0689999982715 1299.0
0.989000022411 -0.143999993801 0.0689999982715 1291.0
0.98400002718 -0.149000003934 0.0680000036955 1245.0
0.973999977112 -0.153999999166 0.0680000036955 422.0
0.949000000954 -0.155000001192 0.0659999996424 180.0
0.949999988079 -0.16099999845 0.0659999996424 174.0
0.947000026703 -0.165999993682 0.0659999996424 178.0
0.955999970436 -0.172999992967 0.0670000016689 175.0
0.938000023365 -0.175999999046 0.0659999996424 176.0
0.972000002861 -0.187999993563 0.0680000036955 181.0
0.944000005722 -0.187999993563 0.0659999996424 186.0
0.92199999094 -0.188999995589 0.0649999976158 184.0
0.927999973297 -0.195999994874 0.0649999976158 190.0
0.952000021935 -0.207000002265 0.0670000016689 190.0
0.957000017166 -0.21400000155 0.0680000036955 191.0
0.936999976635 -0.215000003576 0.0659999996424 195.0
0.949000000954 -0.224000006914 0.0670000016689 198.0
0.959999978542 -0.231999993324 0.0680000036955 531.0
0.950999975204 -0.236000001431 0.0670000016689 1361.0
0.959999978542 -0.244000002742 0.0680000036955 1466.0
0.948000013828 -0.24699999392 0.0670000016689 1473.0
0.948000013828 -0.252999991179 0.0680000036955 1481.0
0.949000000954 -0.259000003338 0.0680000036955 1478.0
0.950999975204 -0.266000002623 0.0680000036955 1488.0
0.947000026703 -0.270000010729 0.0680000036955 1513.0
0.947000026703 -0.277000010014 0.0680000036955 1517.0
0.941999971867 -0.280999988317 0.0680000036955 1522.0
0.939999997616 -0.287000000477 0.0680000036955 1523.0
0.938000023365 -0.291999995708 0.0680000036955 1525.0
0.935000002384 -0.29699999094 0.0680000036955 1527.0
0.935000002384 -0.303000003099 0.0680000036955 1545.0
0.931999981403 -0.307999998331 0.0680000036955 1543.0
0.92199999094 -0.31099998951 0.0670000016689 709.0
0.910000026226 -0.312999993563 0.0659999996424 233.0
0.888999998569 -0.31099998951 0.0649999976158 206.0
0.913999974728 -0.326000005007 0.0670000016689 212.0
0.898000001907 -0.326999992132 0.0659999996424 217.0
0.879999995232 -0.326000005007 0.0649999976158 207.0
0.899999976158 -0.340000003576 0.0659999996424 215.0
0.880999982357 -0.337999999523 0.0649999976158 213.0
0.880999982357 -0.344999998808 0.0649999976158 217.0
0.887000024319 -0.352999985218 0.0659999996424 219.0
0.876999974251 -0.354999989271 0.0649999976158 211.0
0.901000022888 -0.370999991894 0.0670000016689 219.0
0.896000027657 -0.375 0.0670000016689 215.0
0.856000006199 -0.365000009537 0.0640000030398 221.0
0.898000001907 -0.388999998569 0.0680000036955 654.0
0.898000001907 -0.395999997854 0.0680000036955 1516.0
0.903999984264 -0.405000001192 0.0680000036955 1634.0
0.898000001907 -0.409000009298 0.0680000036955 1627.0
0.893999993801 -0.41400000453 0.0680000036955 1642.0
0.89200001955 -0.418999999762 0.0680000036955 1653.0
0.896000027657 -0.428000003099 0.0689999982715 1671.0
0.888999998569 -0.430999994278 0.0680000036955 1650.0
0.884000003338 -0.435000002384 0.0680000036955 1650.0
0.885999977589 -0.442999988794 0.0680000036955 1645.0
0.883000016212 -0.448000013828 0.0689999982715 1660.0
0.880999982357 -0.453999996185 0.0689999982715 1660.0
0.879999995232 -0.460000008345 0.0689999982715 1642.0
0.878000020981 -0.467000007629 0.0689999982715 1660.0
0.874000012875 -0.470999985933 0.0689999982715 862.0
0.847999989986 -0.463999986649 0.0670000016689 273.0
0.825999975204 -0.458000004292 0.0649999976158 216.0
2.22399997711 1.27799999714 0.152999997139 157.0
2.27099990845 1.28699994087 0.156000003219 176.0
4.02099990845 1.55599999428 0.264999985695 70.0
4.02099990845 1.52799999714 0.263999998569 65.0
4.23699998856 1.46700000763 0.275999993086 66.0
4.41699981689 1.5 0.287999987602 64.0
4.35099983215 1.44900000095 0.282999992371 67.0
4.41200017929 1.44000005722 0.287000000477 64.0
4.4359998703 1.41900002956 0.287999987602 62.0
4.41200017929 1.38300001621 0.286000013351 65.0
4.39599990845 1.35000002384 0.284999996424 66.0
4.39799976349 1.3220000267 0.284999996424 64.0
4.47100019455 1.31500005722 0.28900000453 63.0
4.32899999619 1.2460000515 0.280000001192 64.0
4.45699977875 1.2539999485 0.287999987602 60.0
4.44500017166 1.22300004959 0.287000000477 67.0
4.43400001526 1.19200003147 0.286000013351 62.0
4.38100004196 1.14999997616 0.282000005245 61.0
4.40399980545 1.1289999485 0.282999992371 65.0
4.40700006485 1.10199999809 0.282999992371 60.0
4.43499994278 1.08200001717 0.284999996424 65.0
4.4390001297 1.05499994755 0.284999996424 62.0
4.43400001526 1.02699995041 0.284000009298 63.0
4.39400005341 0.990000009537 0.280999988317 64.0
4.42600011826 0.971000015736 0.282999992371 66.0
4.51499986649 0.962999999523 0.28900000453 64.0
4.47100019455 0.925999999046 0.286000013351 68.0
4.43400001526 0.89200001955 0.282999992371 63.0
1.01400005817 -0.0649999976158 0.0640000030398 518.0
1.01300001144 -0.0710000023246 0.0640000030398 1179.0
1.00899994373 -0.0769999995828 0.0630000010133 1198.0
1.00699996948 -0.082000002265 0.0630000010133 1198.0
1.0039999485 -0.0879999995232 0.0630000010133 1220.0
1.0039999485 -0.0939999967813 0.0630000010133 1224.0
1.0 -0.0989999994636 0.0630000010133 1237.0
0.999000012875 -0.104999996722 0.0630000010133 1236.0
0.999000012875 -0.111000001431 0.0630000010133 1248.0
0.991999983788 -0.115999996662 0.0630000010133 1256.0
0.992999970913 -0.122000001371 0.0630000010133 1268.0
0.994000017643 -0.12800000608 0.0630000010133 1276.0
0.989000022411 -0.133000001311 0.0630000010133 1285.0
0.990000009537 -0.138999998569 0.0630000010133 1302.0
0.98299998045 -0.143000006676 0.0619999989867 1308.0
0.985000014305 -0.15000000596 0.0630000010133 1235.0
0.977999985218 -0.153999999166 0.0619999989867 420.0
0.949999988079 -0.155000001192 0.0610000006855 176.0
0.943000018597 -0.159999996424 0.0599999986589 180.0
0.962999999523 -0.168999999762 0.0619999989867 181.0
0.941999971867 -0.171000003815 0.0599999986589 180.0
0.964999973774 -0.180999994278 0.0619999989867 179.0
0.976999998093 -0.188999995589 0.0630000010133 179.0
0.944999992847 -0.187999993563 0.0610000006855 179.0
0.935000002384 -0.192000001669 0.0599999986589 182.0
0.935000002384 -0.197999998927 0.0599999986589 194.0
0.926999986172 -0.202000007033 0.0599999986589 193.0
0.949999988079 -0.211999997497 0.0610000006855 188.0
0.931999981403 -0.21400000155 0.0599999986589 193.0
0.930999994278 -0.218999996781 0.0599999986589 193.0
0.95300000906 -0.231000006199 0.0619999989867 543.0
0.955999970436 -0.237000003457 0.0619999989867 1369.0
0.952000021935 -0.241999998689 0.0619999989867 1459.0
0.95300000906 -0.247999995947 0.0619999989867 1469.0
0.949999988079 -0.252999991179 0.0619999989867 1479.0
0.948000013828 -0.259000003338 0.0619999989867 1489.0
0.949000000954 -0.264999985695 0.0619999989867 1495.0
0.941999971867 -0.268999993801 0.0619999989867 1511.0
0.943000018597 -0.27500000596 0.0619999989867 1508.0
0.943000018597 -0.280999988317 0.0619999989867 1522.0
0.93900001049 -0.286000013351 0.0619999989867 1530.0
0.938000023365 -0.291999995708 0.0619999989867 1534.0
0.935000002384 -0.29699999094 0.0619999989867 1530.0
0.93599998951 -0.303000003099 0.0619999989867 1547.0
0.930000007153 -0.307000011206 0.0619999989867 1529.0
0.919000029564 -0.310000002384 0.0610000006855 715.0
0.912999987602 -0.31400001049 0.0610000006855 235.0
0.913999974728 -0.319999992847 0.0610000006855 213.0
0.903999984264 -0.323000013828 0.0610000006855 211.0
0.915000021458 -0.333000004292 0.0619999989867 219.0
0.876999974251 -0.324999988079 0.0590000003576 216.0
0.901000022888 -0.340000003576 0.0610000006855 214.0
0.883000016212 -0.338999986649 0.0599999986589 211.0
0.883000016212 -0.344999998808 0.0599999986589 217.0
0.889999985695 -0.354000002146 0.0610000006855 214.0
0.879000008106 -0.356000006199 0.0599999986589 219.0
0.894999980927 -0.368000000715 0.0610000006855 222.0
0.861000001431 -0.361000001431 0.0590000003576 222.0
0.876999974251 -0.374000012875 0.0599999986589 224.0
0.896000027657 -0.388000011444 0.0619999989867 641.0
0.902999997139 -0.398000001907 0.0630000010133 1524.0
0.897000014782 -0.402000010014 0.0619999989867 1629.0
0.898000001907 -0.409000009298 0.0630000010133 1642.0
0.893999993801 -0.412999987602 0.0630000010133 1638.0
0.893000006676 -0.418999999762 0.0630000010133 1646.0
0.894999980927 -0.426999986172 0.0630000010133 1647.0
0.893999993801 -0.432999998331 0.0630000010133 1640.0
0.888000011444 -0.437000006437 0.0630000010133 1657.0
0.888000011444 -0.444000005722 0.0630000010133 1646.0
0.887000024319 -0.449999988079 0.0630000010133 1663.0
0.888000011444 -0.458000004292 0.0630000010133 1646.0
0.879999995232 -0.460000008345 0.0630000010133 1650.0
0.879999995232 -0.467000007629 0.0630000010133 1659.0
0.870999991894 -0.469000011683 0.0630000010133 897.0
0.832000017166 -0.455000013113 0.0599999986589 279.0
0.85900002718 -0.476999998093 0.0619999989867 218.0
2.16599988937 1.24500000477 0.135000005364 108.0
2.14700007439 1.2159999609 0.134000003338 112.0
1.01199996471 0.500999987125 0.0610000006855 76.0
1.09500002861 0.532999992371 0.0659999996424 74.0
0.911000013351 0.430000007153 0.0540000014007 90.0
0.887000024319 0.354999989271 0.0520000010729 135.0
0.860000014305 0.337999999523 0.0500000007451 131.0
0.615000009537 0.238000005484 0.035000000149 107.0
0.893999993801 0.340000003576 0.0520000010729 148.0
0.888999998569 0.331000000238 0.0509999990463 169.0
0.908999979496 0.333000004292 0.0529999993742 194.0
0.921000003815 0.331000000238 0.0529999993742 213.0
0.916999995708 0.324000000954 0.0529999993742 210.0
0.888999998569 0.307999998331 0.0509999990463 212.0
0.731999993324 0.248999997973 0.0419999994338 130.0
0.750999987125 0.25 0.0430000014603 139.0
0.791000008583 0.25799998641 0.0450000017881 141.0
0.84399998188 0.270000010729 0.0480000004172 183.0
