ply
format ascii 1.0
element vertex 926
property float x
property float y
property float z
property float intensity
end_header
0.837000012398 -0.467999994755 -0.112000003457 211.0
2.21799993515 1.28100001812 -0.324999988079 280.0
2.21900010109 1.26300001144 -0.324000000954 225.0
2.28099989891 1.27900004387 -0.331999987364 124.0
2.49699997902 1.29999995232 -0.358000010252 77.0
3.36400008202 1.4240000248 -0.465999990702 95.0
3.38800001144 1.4090000391 -0.467999994755 102.0
3.41100001335 1.39499998093 -0.469999998808 89.0
3.84699988365 1.51900005341 -0.527000010014 76.0
3.87299990654 1.50300002098 -0.52999997139 105.0
3.84200000763 1.46399998665 -0.523999989033 131.0
3.92700004578 1.46899998188 -0.535000026226 96.0
3.97900009155 1.4620000124 -0.541000008583 106.0
3.95499992371 1.42599999905 -0.536000013351 139.0
4.08099985123 1.44400000572 -0.551999986172 101.0
4.12799978256 1.43299996853 -0.558000028133 126.0
4.10799980164 1.39900004864 -0.554000020027 106.0
4.13100004196 1.3789999485 -0.555999994278 102.0
4.14200019836 1.35599994659 -0.555999994278 107.0
4.16800022125 1.3370000124 -0.559000015259 85.0
4.15100002289 1.30400002003 -0.555000007153 77.0
4.17999982834 1.28600001335 -0.558000028133 89.0
4.16400003433 1.2539999485 -0.555000007153 94.0
4.18200016022 1.23300004005 -0.556999981403 95.0
4.19799995422 1.21000003815 -0.558000028133 70.0
4.13100004196 1.16499996185 -0.547999978065 89.0
4.11199998856 1.13300001621 -0.545000016689 97.0
4.11000013351 1.10599994659 -0.542999982834 87.0
4.08500003815 1.07400000095 -0.538999974728 95.0
4.17999982834 1.07299995422 -0.550999999046 108.0
4.20900011063 1.05400002003 -0.554000020027 101.0
4.14799976349 1.01300001144 -0.545000016689 113.0
4.21999979019 1.0039999485 -0.554000020027 115.0
4.16800022125 0.966000020504 -0.546000003815 118.0
4.17999982834 0.943000018597 -0.54699999094 123.0
4.15999984741 0.912999987602 -0.544000029564 127.0
4.15600013733 0.885999977589 -0.542999982834 124.0
4.18699979782 0.866999983788 -0.546000003815 126.0
4.21099996567 0.847000002861 -0.547999978065 115.0
4.49800014496 0.876999974251 -0.584999978542 76.0
4.68800020218 0.885999977589 -0.60900002718 58.0
4.68200016022 0.856000006199 -0.60799998045 79.0
4.63999986649 0.820999979973 -0.601999998093 89.0
4.65199995041 0.795000016689 -0.601999998093 89.0
4.67399978638 0.771000027657 -0.605000019073 78.0
4.69000005722 0.745000004768 -0.606000006199 77.0
4.64099979401 0.709999978542 -0.598999977112 78.0
4.7389998436 0.697000026703 -0.611000001431 73.0
4.66800022125 0.657999992371 -0.601999998093 74.0
4.70900011063 0.635999977589 -0.606000006199 77.0
4.69999980927 0.606999993324 -0.605000019073 72.0
4.79500007629 0.591000020504 -0.615999996662 68.0
4.73400020599 0.555999994278 -0.60799998045 69.0
4.76300001144 0.53100001812 -0.611000001431 74.0
4.84499979019 0.512000024319 -0.620999991894 65.0
4.82100009918 0.481000006199 -0.617999970913 73.0
4.77899980545 0.449000000954 -0.611999988556 66.0
4.8140001297 0.423999994993 -0.615999996662 70.0
4.81799983978 0.395999997854 -0.615999996662 70.0
4.81799983978 0.368000000715 -0.615999996662 70.0
4.81199979782 0.340000003576 -0.615000009537 70.0
4.87400007248 0.287999987602 -0.621999979019 62.0
4.87799978256 0.259000003338 -0.621999979019 65.0
4.95200014114 0.234999999404 -0.630999982357 65.0
4.97300004959 0.207000002265 -0.634000003338 64.0
4.96400022507 0.178000003099 -0.632000029087 63.0
4.95900011063 0.149000003934 -0.632000029087 60.0
4.97200012207 0.119999997318 -0.633000016212 58.0
1.0759999752 0.00899999961257 -0.136999994516 53.0
1.15999996662 0.00300000002608 -0.148000001907 52.0
1.15699994564 -0.00300000002608 -0.146999999881 54.0
0.995999991894 -0.0599999986589 -0.126000002027 337.0
1.00499999523 -0.0659999996424 -0.12800000608 1139.0
1.00100004673 -0.0719999969006 -0.127000004053 1214.0
1.00100004673 -0.0769999995828 -0.127000004053 1218.0
1.0039999485 -0.0839999988675 -0.12800000608 1221.0
1.00100004673 -0.0890000015497 -0.127000004053 1217.0
0.998000025749 -0.0949999988079 -0.127000004053 1248.0
0.991999983788 -0.10000000149 -0.126000002027 1259.0
0.985000014305 -0.104999996722 -0.125 1265.0
0.986999988556 -0.111000001431 -0.126000002027 1271.0
0.986000001431 -0.116999998689 -0.126000002027 1280.0
0.989000022411 -0.123000003397 -0.126000002027 1287.0
0.98400002718 -0.12800000608 -0.125 1289.0
0.976999998093 -0.133000001311 -0.123999997973 1296.0
0.981000006199 -0.138999998569 -0.125 1319.0
0.98299998045 -0.144999995828 -0.125 1309.0
0.971000015736 -0.149000003934 -0.123999997973 597.0
0.926999986172 -0.148000001907 -0.118000000715 180.0
0.926999986172 -0.152999997139 -0.118000000715 182.0
0.931999981403 -0.159999996424 -0.119000002742 179.0
0.925000011921 -0.16400000453 -0.118000000715 189.0
0.917999982834 -0.167999997735 -0.118000000715 183.0
0.940999984741 -0.178000003099 -0.119999997318 184.0
0.915000021458 -0.178000003099 -0.116999998689 192.0
0.912000000477 -0.182999998331 -0.116999998689 184.0
0.908999979496 -0.187999993563 -0.116999998689 185.0
0.931999981403 -0.199000000954 -0.119999997318 196.0
0.926999986172 -0.202999994159 -0.119000002742 193.0
0.912999987602 -0.206000000238 -0.116999998689 192.0
0.925000011921 -0.21400000155 -0.119000002742 202.0
0.939999997616 -0.224000006914 -0.120999999344 354.0
0.954999983311 -0.232999995351 -0.123000003397 1297.0
0.953999996185 -0.238999992609 -0.123000003397 1454.0
0.947000026703 -0.243000000715 -0.122000001371 1459.0
0.945999979973 -0.248999997973 -0.122000001371 1475.0
0.940999984741 -0.252999991179 -0.122000001371 1486.0
0.93900001049 -0.259000003338 -0.122000001371 1499.0
0.940999984741 -0.264999985695 -0.122000001371 1494.0
0.936999976635 -0.270000010729 -0.122000001371 1505.0
0.93900001049 -0.277000010014 -0.122000001371 1518.0
0.93599998951 -0.282000005245 -0.122000001371 1508.0
0.930999994278 -0.286000013351 -0.122000001371 1526.0
0.933000028133 -0.293000012636 -0.122000001371 1537.0
0.927999973297 -0.29699999094 -0.122000001371 1533.0
0.925999999046 -0.303000003099 -0.120999999344 1533.0
0.927999973297 -0.310000002384 -0.122000001371 986.0
0.889999985695 -0.303000003099 -0.116999998689 265.0
0.896000027657 -0.31099998951 -0.118000000715 214.0
0.888999998569 -0.31400001049 -0.116999998689 211.0
0.89200001955 -0.321000009775 -0.118000000715 217.0
0.870000004768 -0.319000005722 -0.115000002086 212.0
0.874000012875 -0.326000005007 -0.115999996662 219.0
0.880999982357 -0.335000008345 -0.116999998689 213.0
0.861000001431 -0.333000004292 -0.115000002086 211.0
0.874000012875 -0.344000011683 -0.115999996662 222.0
0.885999977589 -0.354999989271 -0.118000000715 220.0
0.865999996662 -0.354000002146 -0.115999996662 222.0
0.852999985218 -0.354000002146 -0.11400000006 224.0
0.878000020981 -0.370999991894 -0.118000000715 222.0
0.883000016212 -0.379000008106 -0.119000002742 385.0
0.898999989033 -0.393000006676 -0.120999999344 1419.0
0.894999980927 -0.397000014782 -0.120999999344 1602.0
0.896000027657 -0.404000014067 -0.120999999344 1626.0
0.89200001955 -0.409000009298 -0.120999999344 1646.0
0.889999985695 -0.414999991655 -0.120999999344 1629.0
0.888999998569 -0.421000003815 -0.120999999344 1642.0
0.883000016212 -0.425000011921 -0.120999999344 1653.0
0.880999982357 -0.430000007153 -0.120999999344 1654.0
0.885999977589 -0.439999997616 -0.122000001371 1650.0
0.879999995232 -0.444000005722 -0.120999999344 1659.0
0.874000012875 -0.446999996901 -0.120999999344 1657.0
0.876999974251 -0.456000000238 -0.120999999344 1670.0
0.873000025749 -0.460000008345 -0.120999999344 1652.0
0.871999979019 -0.467000007629 -0.120999999344 1226.0
0.846000015736 -0.460000008345 -0.118000000715 330.0
0.823000013828 -0.45300000906 -0.115000002086 217.0
0.833000004292 -0.465999990702 -0.116999998689 224.0
2.20900011063 1.27600002289 -0.338999986649 245.0
2.2539999485 1.2840000391 -0.344999998808 217.0
2.24300003052 1.25899994373 -0.342000007629 134.0
2.4960000515 1.30099999905 -0.374000012875 77.0
2.72399997711 1.33500003815 -0.404000014067 72.0
3.367000103 1.42599999905 -0.486999988556 86.0
3.36299991608 1.39999997616 -0.486000001431 104.0
3.46300005913 1.41700005531 -0.499000012875 95.0
3.78699994087 1.47000002861 -0.541999995708 98.0
3.77900004387 1.44099998474 -0.538999974728 126.0
3.86299991608 1.4470000267 -0.550000011921 95.0
4.00500011444 1.47300004959 -0.569000005722 104.0
3.9509999752 1.42599999905 -0.560000002384 132.0
4.14300012589 1.46700000763 -0.586000025272 95.0
4.22399997711 1.46700000763 -0.597000002861 92.0
4.13899993896 1.40999996662 -0.583999991417 72.0
4.2389998436 1.41600000858 -0.596000015736 71.0
4.23199987411 1.38600003719 -0.59399998188 65.0
4.3220000267 1.38699996471 -0.606000006199 59.0
4.28599977493 1.34700000286 -0.600000023842 59.0
4.14900016785 1.27699995041 -0.579999983311 65.0
4.23099994659 1.27499997616 -0.589999973774 61.0
4.20300006866 1.2120000124 -0.583999991417 67.0
4.14599990845 1.16900002956 -0.574999988079 59.0
4.09200000763 1.12800002098 -0.566999971867 55.0
4.1859998703 1.12800002098 -0.578999996185 64.0
4.09200000763 1.0759999752 -0.564999997616 68.0
4.13000011444 1.05999994278 -0.569000005722 64.0
4.26200008392 1.06799995899 -0.587000012398 71.0
4.25500011444 1.03900003433 -0.584999978542 74.0
4.21799993515 1.0039999485 -0.578999996185 80.0
4.21400022507 0.976999998093 -0.57800000906 82.0
4.18300008774 0.944000005722 -0.573000013828 108.0
4.15199995041 0.911000013351 -0.568000018597 125.0
4.18200016022 0.89200001955 -0.570999979973 125.0
4.20900011063 0.871999979019 -0.574000000954 128.0
4.17999982834 0.841000020504 -0.569000005722 119.0
4.36899995804 0.851999998093 -0.59399998188 70.0
4.65999984741 0.852999985218 -0.633000016212 70.0
4.64499998093 0.822000026703 -0.629999995232 87.0
4.65999984741 0.79699999094 -0.630999982357 88.0
4.6139998436 0.760999977589 -0.624000012875 90.0
4.65100002289 0.740000009537 -0.629000008106 82.0
4.70699977875 0.72000002861 -0.635999977589 78.0
4.65299987793 0.684000015259 -0.628000020981 85.0
4.70800018311 0.663999974728 -0.634999990463 72.0
4.75 0.64200001955 -0.639999985695 73.0
4.73500013351 0.611999988556 -0.637000024319 76.0
4.77199983597 0.588999986649 -0.64200001955 72.0
4.77299976349 0.56099998951 -0.64099997282 71.0
4.76300001144 0.532000005245 -0.639999985695 78.0
4.80200004578 0.508000016212 -0.643999993801 66.0
4.77400016785 0.476999998093 -0.639999985695 70.0
4.79199981689 0.449999988079 -0.64200001955 75.0
4.83599996567 0.425999999046 -0.647000014782 68.0
4.83199977875 0.398000001907 -0.647000014782 70.0
4.81300020218 0.368000000715 -0.643999993801 71.0
4.87300014496 0.344000011683 -0.651000022888 68.0
4.86800003052 0.316000014544 -0.649999976158 68.0
4.84100008011 0.286000013351 -0.646000027657 68.0
4.92100000381 0.261999994516 -0.657000005245 70.0
4.85500001907 0.230000004172 -0.648000001907 67.0
4.92899990082 0.204999998212 -0.657000005245 70.0
4.91699981689 0.175999999046 -0.65499997139 60.0
4.91200017929 0.146999999881 -0.653999984264 67.0
4.92299985886 0.119000002742 -0.65600001812 59.0
1.1970000267 0.00300000002608 -0.158999994397 49.0
0.989000022411 -0.0590000003576 -0.130999997258 355.0
1.00300002098 -0.0659999996424 -0.133000001311 1140.0
1.00699996948 -0.0719999969006 -0.134000003338 1202.0
0.999000012875 -0.0769999995828 -0.133000001311 1206.0
0.998000025749 -0.082999996841 -0.133000001311 1215.0
0.992999970913 -0.0890000015497 -0.131999999285 1234.0
0.999000012875 -0.0949999988079 -0.133000001311 1245.0
0.991999983788 -0.10000000149 -0.131999999285 1244.0
0.994000017643 -0.105999998748 -0.131999999285 1255.0
0.98400002718 -0.111000001431 -0.130999997258 1256.0
0.98400002718 -0.115999996662 -0.130999997258 1274.0
0.98299998045 -0.122000001371 -0.130999997258 1280.0
0.981999993324 -0.12800000608 -0.130999997258 1287.0
0.981999993324 -0.134000003338 -0.130999997258 1299.0
0.986999988556 -0.140000000596 -0.131999999285 1309.0
0.980000019073 -0.144999995828 -0.130999997258 1309.0
0.975000023842 -0.15000000596 -0.129999995232 560.0
0.936999976635 -0.149000003934 -0.125 185.0
0.953999996185 -0.158000007272 -0.12800000608 180.0
0.93599998951 -0.159999996424 -0.125 178.0
0.930999994278 -0.165000006557 -0.125 179.0
0.947000026703 -0.173999994993 -0.127000004053 181.0
0.922999978065 -0.17499999702 -0.123999997973 183.0
0.934000015259 -0.182999998331 -0.125 187.0
0.915000021458 -0.184000000358 -0.123000003397 190.0
0.916000008583 -0.189999997616 -0.123000003397 191.0
0.917999982834 -0.195999994874 -0.123000003397 196.0
0.926999986172 -0.203999996185 -0.125 200.0
0.927999973297 -0.209000006318 -0.125 201.0
0.945999979973 -0.218999996781 -0.127000004053 200.0
0.93900001049 -0.224000006914 -0.127000004053 381.0
0.945999979973 -0.231000006199 -0.12800000608 1315.0
0.95300000906 -0.238999992609 -0.128999993205 1459.0
0.949999988079 -0.244000002742 -0.128999993205 1464.0
0.948000013828 -0.248999997973 -0.12800000608 1484.0
0.941999971867 -0.254000008106 -0.12800000608 1474.0
0.945999979973 -0.261000007391 -0.12800000608 1482.0
0.939999997616 -0.264999985695 -0.12800000608 1489.0
0.93599998951 -0.270000010729 -0.127000004053 1498.0
0.935000002384 -0.275999993086 -0.127000004053 1503.0
0.930999994278 -0.280000001192 -0.127000004053 1502.0
0.933000028133 -0.287000000477 -0.127000004053 1520.0
0.931999981403 -0.293000012636 -0.127000004053 1530.0
0.92199999094 -0.296000003815 -0.126000002027 1532.0
0.926999986172 -0.303000003099 -0.127000004053 1542.0
0.922999978065 -0.307999998331 -0.127000004053 931.0
0.896000027657 -0.305000007153 -0.123000003397 265.0
0.901000022888 -0.312999993563 -0.123999997973 210.0
0.910000026226 -0.321999996901 -0.126000002027 210.0
0.871999979019 -0.31400001049 -0.120999999344 216.0
0.893999993801 -0.32800000906 -0.123999997973 216.0
0.894999980927 -0.335000008345 -0.123999997973 212.0
0.861000001431 -0.32800000906 -0.119999997318 212.0
0.883000016212 -0.342000007629 -0.123000003397 217.0
0.876999974251 -0.345999985933 -0.122000001371 215.0
0.85799998045 -0.344000011683 -0.119999997318 216.0
0.874000012875 -0.356999993324 -0.122000001371 216.0
0.847999989986 -0.351999998093 -0.119000002742 223.0
0.876999974251 -0.370999991894 -0.123000003397 222.0
0.893999993801 -0.384999990463 -0.126000002027 424.0
0.893999993801 -0.391000002623 -0.126000002027 1449.0
0.898000001907 -0.398999989033 -0.127000004053 1608.0
0.889999985695 -0.402000010014 -0.126000002027 1640.0
0.89200001955 -0.409999996424 -0.127000004053 1632.0
0.89099997282 -0.416000008583 -0.127000004053 1633.0
0.884000003338 -0.418999999762 -0.126000002027 1653.0
0.885999977589 -0.426999986172 -0.127000004053 1648.0
0.885999977589 -0.432999998331 -0.127000004053 1662.0
0.880999982357 -0.437000006437 -0.127000004053 1648.0
0.874000012875 -0.441000014544 -0.126000002027 1644.0
0.879999995232 -0.451000005007 -0.127000004053 1643.0
0.875 -0.455000013113 -0.127000004053 1653.0
0.874000012875 -0.46099999547 -0.127000004053 1651.0
0.865999996662 -0.463999986649 -0.126000002027 1160.0
0.855000019073 -0.465000003576 -0.125 321.0
0.816999971867 -0.451000005007 -0.119999997318 227.0
0.830999970436 -0.465000003576 -0.122000001371 225.0
2.22399997711 1.28600001335 -0.356000006199 165.0
2.24399995804 1.27900004387 -0.358000010252 160.0
2.54600000381 1.32700002193 -0.398000001907 77.0
3.41300010681 1.42200005054 -0.513999998569 103.0
3.48900008202 1.42900002003 -0.524999976158 81.0
3.81500005722 1.48199999332 -0.569999992847 101.0
3.8180000782 1.45700001717 -0.569000005722 120.0
3.97300004959 1.48899996281 -0.591000020504 98.0
3.98900008202 1.46700000763 -0.592000007629 104.0
3.992000103 1.44099998474 -0.591000020504 133.0
4.02199983597 1.42499995232 -0.59399998188 87.0
4.13800001144 1.43799996376 -0.610000014305 61.0
3.99499988556 1.20399999619 -0.580999970436 60.0
3.78800010681 0.972999989986 -0.545000016689 62.0
4.22200012207 1.03199994564 -0.606000006199 57.0
4.07800006866 0.971000015736 -0.583999991417 58.0
4.38399982452 1.01699995995 -0.626999974251 64.0
4.16099977493 0.939999997616 -0.59500002861 79.0
4.14599990845 0.911000013351 -0.592000007629 122.0
4.16300010681 0.888999998569 -0.592999994755 125.0
4.11999988556 0.853999972343 -0.587000012398 127.0
4.13999986649 0.833000004292 -0.588999986649 114.0
4.29500007629 0.837999999523 -0.610000014305 87.0
4.63399982452 0.847999989986 -0.657000005245 70.0
4.66499996185 0.825999975204 -0.661000013351 88.0
4.62300014496 0.791000008583 -0.653999984264 88.0
4.64099979401 0.76599997282 -0.65600001812 83.0
4.70900011063 0.749000012875 -0.665000021458 82.0
4.66599988937 0.713999986649 -0.657999992371 77.0
4.65000009537 0.684000015259 -0.65499997139 78.0
4.73099994659 0.667999982834 -0.666000008583 76.0
4.75600004196 0.643000006676 -0.669000029564 72.0
4.69899988174 0.60799998045 -0.660000026226 74.0
4.75099992752 0.586000025272 -0.666999995708 69.0
4.71000003815 0.554000020027 -0.661000013351 67.0
4.78900003433 0.535000026226 -0.671000003815 75.0
4.74599981308 0.501999974251 -0.665000021458 67.0
4.77199983597 0.476999998093 -0.667999982834 66.0
4.85099983215 0.456000000238 -0.679000020027 70.0
4.81699991226 0.425000011921 -0.672999978065 69.0
4.87300014496 0.400999993086 -0.680999994278 68.0
4.87799978256 0.372999995947 -0.680999994278 75.0
4.87200021744 0.344000011683 -0.680000007153 73.0
4.89400005341 0.317000001669 -0.683000028133 70.0
4.89900016785 0.28900000453 -0.683000028133 67.0
4.87300014496 0.259000003338 -0.679000020027 70.0
4.87799978256 0.231000006199 -0.679000020027 72.0
4.90199995041 0.203999996185 -0.681999981403 70.0
4.86000013351 0.173999994993 -0.675999999046 77.0
4.92899990082 0.148000001907 -0.68599998951 71.0
4.87200021744 0.118000000715 -0.677999973297 60.0
1.00699996948 -0.0610000006855 -0.140000000596 384.0
0.995000004768 -0.0659999996424 -0.137999996543 1049.0
0.996999979019 -0.0719999969006 -0.137999996543 624.0
0.994000017643 -0.0769999995828 -0.137999996543 602.0
1.00300002098 -0.0839999988675 -0.138999998569 647.0
0.989000022411 -0.0879999995232 -0.136999994516 696.0
0.994000017643 -0.0949999988079 -0.137999996543 739.0
0.981999993324 -0.0989999994636 -0.136000007391 793.0
0.990999996662 -0.105999998748 -0.137999996543 839.0
0.98299998045 -0.111000001431 -0.136999994516 899.0
0.986999988556 -0.116999998689 -0.136999994516 958.0
0.980000019073 -0.122000001371 -0.136000007391 995.0
0.976999998093 -0.127000004053 -0.136000007391 1046.0
0.981000006199 -0.133000001311 -0.136999994516 1089.0
0.981000006199 -0.138999998569 -0.136999994516 1134.0
0.976999998093 -0.143999993801 -0.136000007391 1139.0
0.971000015736 -0.149000003934 -0.135000005364 550.0
0.953999996185 -0.151999995112 -0.133000001311 284.0
0.950999975204 -0.158000007272 -0.133000001311 268.0
0.953999996185 -0.16400000453 -0.133000001311 250.0
0.958999991417 -0.170000001788 -0.134000003338 242.0
0.93599998951 -0.172000005841 -0.130999997258 228.0
0.941999971867 -0.179000005126 -0.131999999285 220.0
0.944000005722 -0.185000002384 -0.131999999285 218.0
0.939999997616 -0.188999995589 -0.131999999285 217.0
0.948000013828 -0.196999996901 -0.133000001311 211.0
0.952000021935 -0.203999996185 -0.134000003338 213.0
0.941999971867 -0.207000002265 -0.131999999285 206.0
0.925000011921 -0.209000006318 -0.129999995232 203.0
0.921000003815 -0.21400000155 -0.129999995232 209.0
0.948000013828 -0.225999996066 -0.134000003338 423.0
0.945999979973 -0.231000006199 -0.133000001311 1328.0
0.944999992847 -0.237000003457 -0.134000003338 1454.0
0.943000018597 -0.241999998689 -0.133000001311 1457.0
0.938000023365 -0.24699999392 -0.133000001311 1474.0
0.941999971867 -0.254000008106 -0.133000001311 1470.0
0.944000005722 -0.259999990463 -0.134000003338 1471.0
0.93599998951 -0.263999998569 -0.133000001311 1486.0
0.93599998951 -0.270000010729 -0.133000001311 1488.0
0.93599998951 -0.275999993086 -0.133000001311 1522.0
0.936999976635 -0.282000005245 -0.134000003338 1519.0
0.931999981403 -0.287000000477 -0.133000001311 1525.0
0.930999994278 -0.293000012636 -0.133000001311 1527.0
0.925999999046 -0.29699999094 -0.133000001311 1521.0
0.926999986172 -0.303000003099 -0.133000001311 1536.0
0.921000003815 -0.307999998331 -0.131999999285 869.0
0.899999976158 -0.305999994278 -0.128999993205 250.0
0.866999983788 -0.300999999046 -0.125 220.0
0.902000010014 -0.319000005722 -0.129999995232 212.0
0.861000001431 -0.310000002384 -0.123999997973 222.0
0.883000016212 -0.324000000954 -0.12800000608 215.0
0.894999980927 -0.335000008345 -0.129999995232 225.0
0.885999977589 -0.337000012398 -0.128999993205 213.0
0.880999982357 -0.342000007629 -0.12800000608 217.0
0.870999991894 -0.344000011683 -0.127000004053 223.0
0.862999975681 -0.347000002861 -0.126000002027 220.0
0.861000001431 -0.351999998093 -0.126000002027 213.0
0.860000014305 -0.358000010252 -0.126000002027 217.0
0.865000009537 -0.365999996662 -0.127000004053 222.0
0.885999977589 -0.381000012159 -0.129999995232 482.0
0.898000001907 -0.393000006676 -0.133000001311 1457.0
0.898999989033 -0.40000000596 -0.133000001311 1606.0
0.889999985695 -0.402000010014 -0.131999999285 1627.0
0.89200001955 -0.409999996424 -0.133000001311 1637.0
0.89099997282 -0.416000008583 -0.133000001311 1634.0
0.888999998569 -0.42199999094 -0.133000001311 1641.0
0.884000003338 -0.425999999046 -0.131999999285 1649.0
0.880999982357 -0.430999994278 -0.131999999285 1643.0
0.880999982357 -0.437999993563 -0.131999999285 1652.0
0.879999995232 -0.444000005722 -0.133000001311 1628.0
0.875 -0.448000013828 -0.131999999285 1646.0
0.878000020981 -0.456999987364 -0.133000001311 1654.0
0.873000025749 -0.46099999547 -0.133000001311 1639.0
0.870000004768 -0.467000007629 -0.131999999285 1081.0
0.848999977112 -0.462000012398 -0.129999995232 297.0
0.84500002861 -0.467000007629 -0.128999993205 225.0
0.832000017166 -0.467000007629 -0.12800000608 224.0
1.82500004768 1.05599999428 -0.303999990225 98.0
1.96700000763 1.12199997902 -0.326999992132 109.0
3.39400005341 1.41499996185 -0.532999992371 79.0
3.46799993515 1.42100000381 -0.542999982834 74.0
3.81399989128 1.45599997044 -0.592000007629 107.0
3.98300004005 1.49300003052 -0.616999983788 80.0
4.05900001526 1.49399995804 -0.628000020981 87.0
3.99099993706 1.44200003147 -0.615999996662 115.0
4.0609998703 1.44000005722 -0.625 95.0
3.56399989128 1.14499998093 -0.544000029564 63.0
3.83500003815 1.20700001717 -0.583999991417 64.0
3.73699998856 1.15199995041 -0.568000018597 66.0
3.82500004768 1.10500001907 -0.57800000906 59.0
3.82399988174 1.05599999428 -0.575999975204 57.0
3.89299988747 1.04999995232 -0.586000025272 55.0
3.76999998093 0.992999970913 -0.565999984741 57.0
3.90899991989 1.00499999523 -0.586000025272 55.0
3.95499992371 0.991999983788 -0.592000007629 55.0
4.45699977875 1.00699996948 -0.663999974728 58.0
4.19099998474 0.921000003815 -0.624000012875 115.0
4.11100006104 0.878000020981 -0.611000001431 121.0
4.20300006866 0.871999979019 -0.624000012875 129.0
4.19099998474 0.84399998188 -0.620999991894 120.0
4.43400001526 0.865999996662 -0.657000005245 77.0
4.64099979401 0.878000020981 -0.68599998951 52.0
4.70699977875 0.861999988556 -0.694999992847 75.0
4.62599992752 0.819999992847 -0.683000028133 87.0
4.65999984741 0.797999978065 -0.686999976635 85.0
4.66699981689 0.771000027657 -0.686999976635 86.0
4.69899988174 0.748000025749 -0.690999984741 74.0
4.71500015259 0.722000002861 -0.693000018597 84.0
4.66699981689 0.686999976635 -0.685000002384 80.0
4.69600009918 0.662999987602 -0.68900001049 74.0
4.70699977875 0.637000024319 -0.689999997616 75.0
4.74700021744 0.614000022411 -0.694999992847 71.0
4.77600002289 0.589999973774 -0.699000000954 69.0
4.75400018692 0.559000015259 -0.694999992847 72.0
4.80499982834 0.537000000477 -0.702000021935 68.0
4.71700000763 0.499000012875 -0.68900001049 66.0
4.77400016785 0.476999998093 -0.697000026703 65.0
4.78700017929 0.449999988079 -0.698000013828 74.0
4.78700017929 0.42199999094 -0.698000013828 69.0
4.79500007629 0.395000010729 -0.698000013828 76.0
4.86100006104 0.372000008821 -0.708000004292 73.0
4.84700012207 0.342999994755 -0.704999983311 72.0
4.82800006866 0.312999993563 -0.702000021935 69.0
4.88899993896 0.28900000453 -0.709999978542 78.0
4.875 0.259000003338 -0.708000004292 77.0
4.89200019836 0.231999993324 -0.709999978542 73.0
4.88999986649 0.202999994159 -0.709999978542 67.0
4.90399980545 0.17499999702 -0.711000025272 70.0
4.87799978256 0.145999997854 -0.708000004292 73.0
4.95499992371 0.119999997318 -0.717999994755 58.0
1.00100004673 -0.0599999986589 -0.144999995828 416.0
0.999000012875 -0.0659999996424 -0.144999995828 1005.0
0.976999998093 -0.070000000298 -0.141000002623 271.0
0.96899998188 -0.0750000029802 -0.140000000596 166.0
0.954999983311 -0.0799999982119 -0.137999996543 165.0
0.943000018597 -0.0839999988675 -0.136000007391 167.0
0.978999972343 -0.0930000022054 -0.142000004649 169.0
0.944999992847 -0.0949999988079 -0.136999994516 172.0
0.954999983311 -0.101999998093 -0.137999996543 174.0
0.958999991417 -0.108000002801 -0.138999998569 183.0
0.964999973774 -0.11400000006 -0.140000000596 198.0
0.976000010967 -0.120999999344 -0.142000004649 211.0
0.963999986649 -0.126000002027 -0.140000000596 227.0
0.953999996185 -0.129999995232 -0.138999998569 243.0
0.958000004292 -0.136000007391 -0.138999998569 266.0
0.966000020504 -0.143000006676 -0.140000000596 316.0
0.967000007629 -0.149000003934 -0.141000002623 921.0
0.97000002861 -0.155000001192 -0.141000002623 1153.0
0.976999998093 -0.162000000477 -0.142000004649 1139.0
0.972000002861 -0.166999995708 -0.142000004649 1112.0
0.963999986649 -0.171000003815 -0.141000002623 1082.0
0.959999978542 -0.175999999046 -0.140000000596 1042.0
0.962999999523 -0.182999998331 -0.141000002623 1010.0
0.957000017166 -0.187000006437 -0.140000000596 973.0
0.961000025272 -0.194000005722 -0.140000000596 936.0
0.961000025272 -0.20000000298 -0.141000002623 905.0
0.955999970436 -0.204999998212 -0.140000000596 875.0
0.958000004292 -0.21099999547 -0.140000000596 836.0
0.950999975204 -0.215000003576 -0.138999998569 805.0
0.940999984741 -0.218999996781 -0.137999996543 775.0
0.941999971867 -0.22499999404 -0.137999996543 771.0
0.944000005722 -0.231000006199 -0.138999998569 901.0
0.949999988079 -0.238000005484 -0.140000000596 942.0
0.945999979973 -0.243000000715 -0.138999998569 993.0
0.944000005722 -0.248999997973 -0.138999998569 1021.0
0.944000005722 -0.254999995232 -0.140000000596 1058.0
0.939999997616 -0.259000003338 -0.138999998569 1108.0
0.936999976635 -0.264999985695 -0.138999998569 1133.0
0.933000028133 -0.268999993801 -0.137999996543 1169.0
0.927999973297 -0.273999989033 -0.137999996543 1216.0
0.934000015259 -0.282000005245 -0.138999998569 1228.0
0.927999973297 -0.286000013351 -0.137999996543 1267.0
0.920000016689 -0.289999991655 -0.136999994516 1294.0
0.927999973297 -0.298000007868 -0.138999998569 1323.0
0.925000011921 -0.303000003099 -0.137999996543 1342.0
0.920000016689 -0.307000011206 -0.137999996543 753.0
0.907000005245 -0.308999985456 -0.136000007391 373.0
0.912000000477 -0.317000001669 -0.136999994516 340.0
0.911000013351 -0.323000013828 -0.136999994516 339.0
0.907999992371 -0.32800000906 -0.136999994516 335.0
0.903999984264 -0.331999987364 -0.136000007391 330.0
0.897000014782 -0.33599999547 -0.136000007391 320.0
0.896000027657 -0.342000007629 -0.136000007391 325.0
0.876999974251 -0.340999990702 -0.133000001311 314.0
0.888999998569 -0.351000010967 -0.135000005364 324.0
0.885999977589 -0.356000006199 -0.135000005364 322.0
0.884999990463 -0.361999988556 -0.135000005364 310.0
0.879999995232 -0.365999996662 -0.135000005364 313.0
0.873000025749 -0.370000004768 -0.134000003338 308.0
0.893000006676 -0.384999990463 -0.136999994516 607.0
0.893999993801 -0.391999989748 -0.137999996543 1419.0
0.893000006676 -0.397000014782 -0.137999996543 1502.0
0.888999998569 -0.402000010014 -0.136999994516 1533.0
0.889999985695 -0.409000009298 -0.137999996543 1541.0
0.889999985695 -0.416000008583 -0.137999996543 1542.0
0.878000020981 -0.416999995708 -0.136999994516 1554.0
0.879000008106 -0.423999994993 -0.136999994516 1565.0
0.884999990463 -0.432999998331 -0.137999996543 1555.0
0.878000020981 -0.437000006437 -0.137999996543 1561.0
0.876999974251 -0.442999988794 -0.137999996543 1551.0
0.874000012875 -0.448000013828 -0.137999996543 1547.0
0.871999979019 -0.453999996185 -0.137999996543 1565.0
0.870999991894 -0.460000008345 -0.137999996543 1562.0
0.862999975681 -0.462999999523 -0.136999994516 947.0
0.848999977112 -0.462000012398 -0.135000005364 363.0
0.841000020504 -0.465000003576 -0.134000003338 308.0
0.851000010967 -0.477999985218 -0.136000007391 307.0
0.964999973774 0.558000028133 -0.166999995708 586.0
0.986000001431 0.561999976635 -0.170000001788 542.0
0.976999998093 0.549000024796 -0.167999997735 496.0
0.954999983311 0.528999984264 -0.16400000453 449.0
0.958999991417 0.523000001907 -0.16400000453 390.0
0.962999999523 0.518000006676 -0.16400000453 340.0
0.961000025272 0.509000003338 -0.16400000453 290.0
1.00699996948 0.524999976158 -0.171000003815 251.0
0.945999979973 0.486000001431 -0.159999996424 342.0
0.98299998045 0.490000009537 -0.165000006557 242.0
3.51999998093 1.46899998188 -0.574999988079 68.0
3.97699999809 1.51999998093 -0.643000006676 67.0
3.88100004196 1.42999994755 -0.624000012875 78.0
4.125 1.49100005627 -0.662000000477 75.0
4.17999982834 1.48300004005 -0.670000016689 68.0
4.02299976349 1.24100005627 -0.635999977589 59.0
4.16499996185 0.941999971867 -0.646000027657 55.0
4.19500017166 0.922999978065 -0.648999989033 93.0
4.22900009155 0.903999984264 -0.653999984264 102.0
4.19199991226 0.870000004768 -0.647000014782 107.0
4.20100021362 0.847000002861 -0.648000001907 103.0
4.47599983215 0.875 -0.689999997616 69.0
4.65999984741 0.853999972343 -0.716000020504 65.0
4.69000005722 0.830999970436 -0.72000002861 78.0
4.66599988937 0.799000024796 -0.716000020504 83.0
4.66099977493 0.769999980927 -0.713999986649 83.0
4.65899991989 0.741999983788 -0.712999999523 66.0
4.73799991608 0.726000010967 -0.725000023842 75.0
4.69500017166 0.691999971867 -0.717999994755 71.0
4.69000005722 0.662999987602 -0.716000020504 75.0
4.73400020599 0.64099997282 -0.722000002861 70.0
4.80999994278 0.623000025749 -0.73299998045 68.0
4.80100011826 0.592999994755 -0.731000006199 68.0
4.78999996185 0.563000023365 -0.728999972343 63.0
4.76900005341 0.532999992371 -0.725000023842 63.0
4.84100008011 0.512000024319 -0.736000001431 65.0
4.73999977112 0.474000006914 -0.72000002861 69.0
4.78399991989 0.449999988079 -0.726000010967 65.0
4.83900022507 0.426999986172 -0.73400002718 67.0
4.83599996567 0.398000001907 -0.73299998045 74.0
4.83799982071 0.370000004768 -0.73299998045 76.0
4.87200021744 0.344999998808 -0.737999975681 71.0
4.87900018692 0.316000014544 -0.737999975681 66.0
4.84700012207 0.286000013351 -0.73299998045 81.0
4.86199998856 0.259000003338 -0.735000014305 70.0
4.92500019073 0.232999995351 -0.744000017643 75.0
4.90500020981 0.203999996185 -0.740999996662 70.0
4.90500020981 0.17499999702 -0.740999996662 71.0
4.92700004578 0.148000001907 -0.744000017643 72.0
5.00400018692 0.120999999344 -0.754999995232 55.0
0.999000012875 -0.0599999986589 -0.15000000596 447.0
0.995000004768 -0.0659999996424 -0.15000000596 984.0
0.986999988556 -0.0710000023246 -0.149000003934 251.0
0.973999977112 -0.0759999975562 -0.146999999881 154.0
0.95300000906 -0.0799999982119 -0.143999993801 159.0
0.954999983311 -0.0850000008941 -0.143999993801 153.0
0.948000013828 -0.0900000035763 -0.143000006676 166.0
0.95300000906 -0.0960000008345 -0.143999993801 166.0
0.952000021935 -0.101999998093 -0.143999993801 162.0
0.958000004292 -0.108000002801 -0.144999995828 163.0
0.948000013828 -0.112000003457 -0.143000006676 168.0
0.949999988079 -0.118000000715 -0.143000006676 167.0
0.955999970436 -0.125 -0.143999993801 173.0
0.950999975204 -0.129999995232 -0.143999993801 173.0
0.959999978542 -0.136000007391 -0.144999995828 177.0
0.948000013828 -0.140000000596 -0.143000006676 209.0
0.972000002861 -0.15000000596 -0.146999999881 1007.0
0.972000002861 -0.156000003219 -0.146999999881 1329.0
0.966000020504 -0.159999996424 -0.145999997854 1356.0
0.973999977112 -0.167999997735 -0.148000001907 1352.0
0.966000020504 -0.172000005841 -0.146999999881 1375.0
0.966000020504 -0.178000003099 -0.146999999881 1374.0
0.963999986649 -0.182999998331 -0.145999997854 1391.0
0.959999978542 -0.187999993563 -0.145999997854 1386.0
0.961000025272 -0.194000005722 -0.145999997854 1395.0
0.959999978542 -0.20000000298 -0.145999997854 1393.0
0.958999991417 -0.204999998212 -0.145999997854 1420.0
0.954999983311 -0.209999993443 -0.145999997854 1422.0
0.949000000954 -0.215000003576 -0.144999995828 1424.0
0.952000021935 -0.221000000834 -0.144999995828 1417.0
0.947000026703 -0.225999996066 -0.144999995828 1098.0
0.931999981403 -0.228000000119 -0.143000006676 288.0
0.925999999046 -0.232999995351 -0.142000004649 218.0
0.931999981403 -0.239999994636 -0.143000006676 227.0
0.934000015259 -0.246000006795 -0.143999993801 228.0
0.931999981403 -0.252000004053 -0.143000006676 245.0
0.919000029564 -0.254000008106 -0.142000004649 257.0
0.93599998951 -0.264999985695 -0.143999993801 265.0
0.924000024796 -0.266999989748 -0.143000006676 279.0
0.931999981403 -0.27500000596 -0.143999993801 289.0
0.917999982834 -0.277000010014 -0.142000004649 300.0
0.927999973297 -0.286000013351 -0.143999993801 322.0
0.902999997139 -0.284000009298 -0.140000000596 328.0
0.908999979496 -0.291999995708 -0.141000002623 346.0
0.910000026226 -0.298000007868 -0.142000004649 355.0
0.921000003815 -0.307999998331 -0.143999993801 923.0
0.913999974728 -0.312000006437 -0.143000006676 1319.0
0.921000003815 -0.319999992847 -0.143999993801 1315.0
0.912000000477 -0.323000013828 -0.143000006676 1289.0
0.912000000477 -0.328999996185 -0.143000006676 1261.0
0.912999987602 -0.33599999547 -0.143999993801 1258.0
0.907999992371 -0.340000003576 -0.143000006676 1223.0
0.90499997139 -0.344999998808 -0.143000006676 1218.0
0.90499997139 -0.351999998093 -0.143000006676 1199.0
0.903999984264 -0.358000010252 -0.143000006676 1177.0
0.894999980927 -0.361000001431 -0.142000004649 1158.0
0.899999976158 -0.368999987841 -0.143000006676 1132.0
0.898999989033 -0.375 -0.143000006676 1111.0
0.898999989033 -0.381000012159 -0.143999993801 1088.0
0.899999976158 -0.388000011444 -0.143999993801 965.0
0.887000024319 -0.388999998569 -0.142000004649 736.0
0.888999998569 -0.395999997854 -0.143000006676 733.0
0.885999977589 -0.400999993086 -0.143000006676 755.0
0.888000011444 -0.409000009298 -0.143000006676 774.0
0.885999977589 -0.41400000453 -0.143000006676 783.0
0.880999982357 -0.418999999762 -0.143000006676 813.0
0.882000029087 -0.425999999046 -0.143000006676 812.0
0.880999982357 -0.432000011206 -0.143999993801 833.0
0.871999979019 -0.433999985456 -0.142000004649 848.0
0.884000003338 -0.446999996901 -0.144999995828 849.0
0.870999991894 -0.446999996901 -0.143000006676 852.0
0.864000022411 -0.451000005007 -0.142000004649 863.0
0.867999970913 -0.460000008345 -0.143000006676 862.0
0.862999975681 -0.463999986649 -0.143000006676 861.0
0.867999970913 -0.474000006914 -0.143999993801 963.0
0.865000009537 -0.479000002146 -0.143999993801 962.0
0.866999983788 -0.486999988556 -0.144999995828 960.0
0.964999973774 0.559000015259 -0.173999994993 901.0
0.958000004292 0.54699999094 -0.172000005841 908.0
0.955999970436 0.537999987602 -0.171000003815 919.0
0.962999999523 0.533999979496 -0.172000005841 917.0
0.959999978542 0.523999989033 -0.171000003815 910.0
0.958999991417 0.51599997282 -0.170000001788 893.0
0.958999991417 0.509000003338 -0.170000001788 863.0
0.95300000906 0.497000008821 -0.167999997735 851.0
0.957000017166 0.49200001359 -0.167999997735 818.0
0.957000017166 0.483999997377 -0.167999997735 795.0
0.954999983311 0.476000010967 -0.166999995708 751.0
0.967000007629 0.47499999404 -0.167999997735 733.0
0.972000002861 0.469999998808 -0.168999999762 685.0
0.950999975204 0.45300000906 -0.165000006557 643.0
0.96899998188 0.453999996185 -0.166999995708 594.0
0.967999994755 0.446000009775 -0.166999995708 533.0
0.976000010967 0.442999988794 -0.167999997735 496.0
0.97000002861 0.432999998331 -0.165999993682 444.0
0.967000007629 0.423999994993 -0.165000006557 386.0
0.961000025272 0.414999991655 -0.16400000453 335.0
0.944000005722 0.400999993086 -0.159999996424 280.0
0.972000002861 0.405999988317 -0.165000006557 414.0
0.955999970436 0.379000008106 -0.16099999845 249.0
0.945999979973 0.368000000715 -0.158999994397 203.0
0.824999988079 0.310000002384 -0.137999996543 117.0
0.776000022888 0.286000013351 -0.129999995232 83.0
0.483000010252 0.17499999702 -0.0799999982119 72.0
4.39099979401 0.992999970913 -0.707000017166 54.0
4.34600019455 0.955999970436 -0.699000000954 75.0
4.31300020218 0.92199999094 -0.693000018597 74.0
4.33900022507 0.901000022888 -0.695999979973 79.0
4.2610001564 0.85900002718 -0.683000028133 71.0
4.3860001564 0.85799998045 -0.702000021935 54.0
4.71000003815 0.834999978542 -0.751999974251 63.0
4.70900011063 0.806999981403 -0.750999987125 63.0
4.65299987793 0.768999993801 -0.740999996662 59.0
4.72800016403 0.753000020981 -0.751999974251 56.0
4.73199987411 0.726000010967 -0.751999974251 57.0
4.8189997673 0.709999978542 -0.764999985695 55.0
4.74100017548 0.670000016689 -0.751999974251 60.0
4.78200006485 0.648000001907 -0.758000016212 62.0
4.80900001526 0.623000025749 -0.762000024319 59.0
4.72399997711 0.583999991417 -0.748000025749 58.0
4.84600019455 0.541999995708 -0.76599997282 62.0
4.86600017548 0.514999985695 -0.768000006676 58.0
4.81300020218 0.481000006199 -0.759999990463 60.0
4.85799980164 0.456999987364 -0.76599997282 60.0
4.84600019455 0.428000003099 -0.763999998569 59.0
4.88199996948 0.402000010014 -0.768999993801 58.0
4.92399978638 0.377000004053 -0.774999976158 57.0
4.94899988174 0.34999999404 -0.778999984264 61.0
4.90399980545 0.317999988794 -0.771000027657 66.0
4.89300012589 0.28900000453 -0.768999993801 66.0
4.84000015259 0.25799998641 -0.759999990463 63.0
4.90199995041 0.231999993324 -0.769999980927 58.0
4.93200016022 0.204999998212 -0.773999989033 57.0
4.96000003815 0.177000001073 -0.777999997139 58.0
4.91499996185 0.146999999881 -0.771000027657 63.0
4.87300014496 0.118000000715 -0.763999998569 61.0
0.992999970913 -0.0599999986589 -0.155000001192 476.0
0.999000012875 -0.0659999996424 -0.156000003219 970.0
0.989000022411 -0.0710000023246 -0.155000001192 246.0
0.962000012398 -0.0750000029802 -0.150999993086 153.0
0.978999972343 -0.082000002265 -0.152999997139 154.0
0.962999999523 -0.0860000029206 -0.150999993086 154.0
0.943000018597 -0.0900000035763 -0.148000001907 161.0
0.950999975204 -0.0960000008345 -0.149000003934 158.0
0.934000015259 -0.10000000149 -0.145999997854 160.0
0.944000005722 -0.105999998748 -0.148000001907 169.0
0.945999979973 -0.112000003457 -0.148000001907 168.0
0.938000023365 -0.116999998689 -0.146999999881 168.0
0.929000020027 -0.120999999344 -0.145999997854 173.0
0.941999971867 -0.12800000608 -0.148000001907 167.0
0.925000011921 -0.130999997258 -0.144999995828 176.0
0.962000012398 -0.143000006676 -0.150999993086 221.0
0.97000002861 -0.15000000596 -0.152999997139 1051.0
0.971000015736 -0.156000003219 -0.152999997139 1345.0
0.973999977112 -0.162000000477 -0.152999997139 1363.0
0.97000002861 -0.166999995708 -0.152999997139 1360.0
0.97000002861 -0.172999992967 -0.152999997139 1365.0
0.964999973774 -0.178000003099 -0.151999995112 1378.0
0.963999986649 -0.182999998331 -0.151999995112 1392.0
0.962000012398 -0.188999995589 -0.151999995112 1407.0
0.963999986649 -0.194999992847 -0.151999995112 1404.0
0.958999991417 -0.20000000298 -0.151999995112 1410.0
0.958999991417 -0.206000000238 -0.151999995112 1405.0
0.957000017166 -0.21099999547 -0.151999995112 1412.0
0.953999996185 -0.216000005603 -0.150999993086 1426.0
0.944999992847 -0.219999998808 -0.15000000596 1420.0
0.945999979973 -0.225999996066 -0.15000000596 1072.0
0.922999978065 -0.225999996066 -0.146999999881 264.0
0.919000029564 -0.231000006199 -0.146999999881 199.0
0.941999971867 -0.243000000715 -0.15000000596 195.0
0.90600001812 -0.238999992609 -0.144999995828 203.0
0.90499997139 -0.244000002742 -0.144999995828 202.0
0.902000010014 -0.248999997973 -0.143999993801 203.0
0.896000027657 -0.252999991179 -0.143999993801 206.0
0.89099997282 -0.25799998641 -0.143000006676 209.0
0.913999974728 -0.270000010729 -0.146999999881 199.0
0.879999995232 -0.266000002623 -0.142000004649 208.0
0.889999985695 -0.27500000596 -0.143000006676 210.0
0.884999990463 -0.279000014067 -0.143000006676 211.0
0.897000014782 -0.287999987602 -0.144999995828 214.0
0.903999984264 -0.29699999094 -0.145999997854 214.0
0.920000016689 -0.307999998331 -0.149000003934 1040.0
0.917999982834 -0.31400001049 -0.149000003934 1536.0
0.915000021458 -0.319000005722 -0.149000003934 1557.0
0.915000021458 -0.324999988079 -0.149000003934 1549.0
0.913999974728 -0.331000000238 -0.149000003934 1542.0
0.913999974728 -0.337000012398 -0.149000003934 1561.0
0.908999979496 -0.340999990702 -0.149000003934 1568.0
0.907999992371 -0.347000002861 -0.149000003934 1579.0
0.907000005245 -0.352999985218 -0.149000003934 1583.0
0.903999984264 -0.358000010252 -0.149000003934 1574.0
0.90499997139 -0.365000009537 -0.149000003934 1579.0
0.90600001812 -0.372000008821 -0.15000000596 1579.0
0.896000027657 -0.374000012875 -0.148000001907 1592.0
0.898999989033 -0.381999999285 -0.149000003934 1584.0
0.893000006676 -0.384999990463 -0.149000003934 1111.0
0.876999974251 -0.384999990463 -0.145999997854 299.0
0.861000001431 -0.384000003338 -0.143999993801 226.0
0.861000001431 -0.389999985695 -0.143999993801 239.0
0.856999993324 -0.395000010729 -0.143999993801 230.0
0.855000019073 -0.40000000596 -0.143999993801 242.0
0.861000001431 -0.409000009298 -0.144999995828 239.0
0.874000012875 -0.42199999094 -0.148000001907 229.0
0.84399998188 -0.41400000453 -0.143000006676 238.0
0.85799998045 -0.428000003099 -0.145999997854 243.0
0.82800000906 -0.418999999762 -0.141000002623 242.0
0.84500002861 -0.433999985456 -0.143999993801 255.0
0.842000007629 -0.43900001049 -0.143999993801 251.0
0.84500002861 -0.448000013828 -0.144999995828 259.0
0.864000022411 -0.465000003576 -0.149000003934 1014.0
0.867999970913 -0.474000006914 -0.15000000596 1571.0
0.869000017643 -0.481999993324 -0.15000000596 1588.0
0.85900002718 -0.483000010252 -0.149000003934 1616.0
0.991999983788 0.574999988079 -0.185000002384 567.0
0.976999998093 0.558000028133 -0.181999996305 601.0
0.953999996185 0.537000000477 -0.177000001073 679.0
0.958000004292 0.53100001812 -0.177000001073 731.0
0.962000012398 0.526000022888 -0.177000001073 774.0
0.958999991417 0.51700001955 -0.175999999046 831.0
0.953999996185 0.505999982357 -0.17499999702 846.0
0.955999970436 0.499000012875 -0.17499999702 886.0
0.962000012398 0.495000004768 -0.17499999702 917.0
0.955999970436 0.485000014305 -0.173999994993 947.0
0.961000025272 0.479000002146 -0.173999994993 965.0
0.958999991417 0.470999985933 -0.172999992967 967.0
0.959999978542 0.463999986649 -0.172999992967 999.0
0.961000025272 0.458000004292 -0.172999992967 1009.0
0.962000012398 0.451000005007 -0.172000005841 1014.0
0.953999996185 0.439999997616 -0.170000001788 998.0
0.961000025272 0.43599998951 -0.171000003815 1016.0
0.961000025272 0.428999990225 -0.171000003815 1006.0
0.966000020504 0.423999994993 -0.171000003815 1000.0
0.958000004292 0.41400000453 -0.168999999762 963.0
0.962999999523 0.409000009298 -0.170000001788 954.0
0.955999970436 0.398999989033 -0.167999997735 940.0
0.967999994755 0.397000014782 -0.170000001788 908.0
0.962999999523 0.388000011444 -0.168999999762 884.0
0.959999978542 0.381000012159 -0.167999997735 849.0
0.961000025272 0.374000012875 -0.167999997735 832.0
0.967999994755 0.370000004768 -0.167999997735 780.0
0.967000007629 0.363000005484 -0.167999997735 738.0
0.967999994755 0.356999993324 -0.167999997735 698.0
0.959999978542 0.347000002861 -0.165999993682 651.0
0.958000004292 0.340000003576 -0.165000006557 599.0
0.963999986649 0.33599999547 -0.165999993682 541.0
0.976000010967 0.333999991417 -0.167999997735 492.0
0.957000017166 0.321000009775 -0.16400000453 447.0
0.953999996185 0.31400001049 -0.163000002503 397.0
0.962000012398 0.310000002384 -0.16400000453 353.0
0.95300000906 0.300999999046 -0.163000002503 313.0
0.948000013828 0.293000012636 -0.16099999845 339.0
0.958000004292 0.289999991655 -0.163000002503 403.0
0.972000002861 0.287999987602 -0.165000006557 350.0
0.952000021935 0.275999993086 -0.16099999845 287.0
0.925000011921 0.256000012159 -0.156000003219 194.0
0.899999976158 0.244000002742 -0.151999995112 151.0
0.786000013351 0.202999994159 -0.131999999285 94.0
4.40600013733 0.996999979019 -0.736000001431 55.0
4.39599990845 0.967999994755 -0.73400002718 75.0
4.41900014877 0.945999979973 -0.736999988556 71.0
4.31799983978 0.898000001907 -0.71899998188 77.0
4.28599977493 0.865000009537 -0.712999999523 70.0
4.73500013351 0.811999976635 -0.782999992371 59.0
4.69299983978 0.72000002861 -0.773999989033 55.0
0.998000025749 -0.0599999986589 -0.162000000477 486.0
0.996999979019 -0.0659999996424 -0.162000000477 959.0
0.986000001431 -0.0710000023246 -0.159999996424 230.0
0.953999996185 -0.0740000009537 -0.155000001192 158.0
0.953999996185 -0.0799999982119 -0.155000001192 152.0
0.933000028133 -0.082999996841 -0.151999995112 163.0
0.96899998188 -0.0920000001788 -0.158000007272 160.0
0.933000028133 -0.0939999967813 -0.151999995112 164.0
0.957000017166 -0.101999998093 -0.156000003219 168.0
0.97000002861 -0.109999999404 -0.158000007272 163.0
0.944999992847 -0.112000003457 -0.153999999166 161.0
0.948000013828 -0.118000000715 -0.153999999166 168.0
0.952000021935 -0.123999997973 -0.155000001192 167.0
0.927999973297 -0.127000004053 -0.150999993086 170.0
0.912000000477 -0.129999995232 -0.149000003934 175.0
0.962999999523 -0.143000006676 -0.157000005245 240.0
0.966000020504 -0.149000003934 -0.158000007272 1087.0
0.976000010967 -0.157000005245 -0.159999996424 1334.0
0.972999989986 -0.162000000477 -0.158999994397 1353.0
0.96899998188 -0.166999995708 -0.158999994397 1370.0
0.964999973774 -0.172000005841 -0.158000007272 1379.0
0.967999994755 -0.178000003099 -0.158999994397 1376.0
0.963999986649 -0.182999998331 -0.158000007272 1389.0
0.963999986649 -0.188999995589 -0.158000007272 1399.0
0.962000012398 -0.194999992847 -0.158000007272 1408.0
0.959999978542 -0.20000000298 -0.158000007272 1411.0
0.958999991417 -0.206000000238 -0.158000007272 1422.0
0.953999996185 -0.21099999547 -0.157000005245 1418.0
0.959999978542 -0.217999994755 -0.158000007272 1415.0
0.952000021935 -0.222000002861 -0.157000005245 1441.0
0.949999988079 -0.226999998093 -0.157000005245 1012.0
0.927999973297 -0.228000000119 -0.152999997139 253.0
0.907000005245 -0.228000000119 -0.15000000596 197.0
0.924000024796 -0.238000005484 -0.152999997139 199.0
0.898999989033 -0.237000003457 -0.149000003934 195.0
0.879999995232 -0.238000005484 -0.145999997854 197.0
0.899999976158 -0.248999997973 -0.15000000596 198.0
0.89200001955 -0.252999991179 -0.149000003934 206.0
0.873000025749 -0.252999991179 -0.145999997854 204.0
0.89200001955 -0.263999998569 -0.149000003934 201.0
0.889999985695 -0.268999993801 -0.149000003934 200.0
0.887000024319 -0.273999989033 -0.148000001907 207.0
0.883000016212 -0.277999997139 -0.148000001907 203.0
0.875 -0.280999988317 -0.146999999881 206.0
0.898999989033 -0.294999986887 -0.150999993086 223.0
0.927999973297 -0.31099998951 -0.156000003219 1104.0
0.916999995708 -0.31400001049 -0.155000001192 1548.0
0.919000029564 -0.319999992847 -0.155000001192 1550.0
0.912999987602 -0.324000000954 -0.153999999166 1539.0
0.917999982834 -0.331999987364 -0.156000003219 1563.0
0.915000021458 -0.337000012398 -0.155000001192 1581.0
0.908999979496 -0.342000007629 -0.155000001192 1578.0
0.907000005245 -0.347000002861 -0.155000001192 1579.0
0.907000005245 -0.352999985218 -0.155000001192 1571.0
0.90600001812 -0.358999997377 -0.155000001192 1577.0
0.901000022888 -0.363000005484 -0.153999999166 1585.0
0.90499997139 -0.370999991894 -0.155000001192 1581.0
0.90499997139 -0.377999991179 -0.156000003219 1602.0
0.898000001907 -0.381000012159 -0.155000001192 1597.0
0.894999980927 -0.386999994516 -0.155000001192 1021.0
0.867999970913 -0.381000012159 -0.15000000596 280.0
0.865000009537 -0.386000007391 -0.15000000596 219.0
