ply
format ascii 1.0
element vertex 930
property float x
property float y
property float z
property float intensity
end_header
0.981999993324 0.0320000015199 0.146999999881 254.0
0.98400002718 0.0270000007004 0.146999999881 220.0
1.00999999046 -0.0649999976158 0.151999995112 346.0
1.00499999523 -0.0710000023246 0.150999993086 994.0
0.998000025749 -0.0759999975562 0.15000000596 328.0
0.967000007629 -0.0790000036359 0.145999997854 150.0
0.981999993324 -0.0860000029206 0.148000001907 140.0
0.990000009537 -0.0930000022054 0.149000003934 149.0
0.978999972343 -0.097000002861 0.148000001907 155.0
0.98400002718 -0.104000002146 0.149000003934 154.0
0.945999979973 -0.104999996722 0.143000006676 155.0
0.962000012398 -0.112999998033 0.144999995828 157.0
0.930999994278 -0.11400000006 0.141000002623 157.0
0.963999986649 -0.123999997973 0.145999997854 157.0
0.967999994755 -0.129999995232 0.146999999881 159.0
0.954999983311 -0.134000003338 0.144999995828 163.0
0.966000020504 -0.142000004649 0.146999999881 167.0
0.962000012398 -0.146999999881 0.145999997854 202.0
0.973999977112 -0.153999999166 0.148000001907 938.0
0.986999988556 -0.162000000477 0.15000000596 1293.0
0.98299998045 -0.167999997735 0.15000000596 1319.0
0.981000006199 -0.172999992967 0.15000000596 1330.0
0.975000023842 -0.178000003099 0.149000003934 1318.0
0.977999985218 -0.184000000358 0.149000003934 1333.0
0.971000015736 -0.188999995589 0.149000003934 1350.0
0.97000002861 -0.194999992847 0.149000003934 1359.0
0.972999989986 -0.201000005007 0.149000003934 1365.0
0.96899998188 -0.206000000238 0.149000003934 1384.0
0.966000020504 -0.21099999547 0.148000001907 1378.0
0.967999994755 -0.217999994755 0.149000003934 1388.0
0.967000007629 -0.224000006914 0.149000003934 1391.0
0.963999986649 -0.229000002146 0.149000003934 1392.0
0.962000012398 -0.233999997377 0.149000003934 983.0
0.949000000954 -0.237000003457 0.146999999881 250.0
0.912000000477 -0.232999995351 0.141000002623 183.0
0.92199999094 -0.241999998689 0.143000006676 190.0
0.92199999094 -0.247999995947 0.143000006676 184.0
0.920000016689 -0.252999991179 0.143000006676 187.0
0.933000028133 -0.261999994516 0.144999995828 190.0
0.917999982834 -0.263999998569 0.143000006676 189.0
0.934000015259 -0.27500000596 0.145999997854 189.0
0.926999986172 -0.279000014067 0.144999995828 196.0
0.924000024796 -0.284000009298 0.144999995828 185.0
0.902000010014 -0.282999992371 0.142000004649 191.0
0.917999982834 -0.293999999762 0.144999995828 192.0
0.916999995708 -0.298999994993 0.144999995828 197.0
0.92199999094 -0.307000011206 0.145999997854 260.0
0.930999994278 -0.316000014544 0.148000001907 1190.0
0.929000020027 -0.321999996901 0.146999999881 1502.0
0.930999994278 -0.328999996185 0.148000001907 1498.0
0.925999999046 -0.333000004292 0.148000001907 1525.0
0.925000011921 -0.338999986649 0.148000001907 1541.0
0.919000029564 -0.342999994755 0.146999999881 1524.0
0.924000024796 -0.351000010967 0.148000001907 1525.0
0.912999987602 -0.354000002146 0.146999999881 1534.0
0.920000016689 -0.361999988556 0.148000001907 1553.0
0.911000013351 -0.365000009537 0.146999999881 1556.0
0.913999974728 -0.372999995947 0.148000001907 1547.0
0.911000013351 -0.377999991179 0.148000001907 1545.0
0.908999979496 -0.384000003338 0.148000001907 1580.0
0.903999984264 -0.388000011444 0.146999999881 1554.0
0.90499997139 -0.395000010729 0.148000001907 699.0
0.882000029087 -0.391999989748 0.144999995828 252.0
0.867999970913 -0.391999989748 0.143000006676 211.0
0.876999974251 -0.402000010014 0.143999993801 204.0
0.856999993324 -0.398999989033 0.142000004649 199.0
0.861000001431 -0.407999992371 0.143000006676 205.0
0.862999975681 -0.414999991655 0.143000006676 210.0
0.865999996662 -0.423000007868 0.143999993801 203.0
0.865999996662 -0.430000007153 0.144999995828 213.0
0.84500002861 -0.425999999046 0.141000002623 201.0
0.847999989986 -0.433999985456 0.142000004649 209.0
0.833000004292 -0.432999998331 0.140000000596 212.0
0.829999983311 -0.437999993563 0.140000000596 208.0
0.861999988556 -0.462000012398 0.145999997854 412.0
0.874000012875 -0.476000010967 0.149000003934 1401.0
0.875 -0.483000010252 0.149000003934 1607.0
0.874000012875 -0.490000009537 0.15000000596 1602.0
2.26699995995 1.29700005054 0.365999996662 109.0
2.26600003242 1.27799999714 0.365000009537 112.0
0.90499997139 0.405000001192 0.138999998569 184.0
0.93900001049 0.412999987602 0.143999993801 200.0
0.926999986172 0.400999993086 0.142000004649 175.0
0.902999997139 0.384000003338 0.136999994516 198.0
0.913999974728 0.381999999285 0.138999998569 195.0
0.931999981403 0.38299998641 0.141000002623 214.0
0.90600001812 0.365999996662 0.136999994516 201.0
0.944999992847 0.375 0.143000006676 222.0
0.902999997139 0.351999998093 0.136000007391 235.0
0.916999995708 0.351999998093 0.137999996543 240.0
0.902999997139 0.340000003576 0.136000007391 260.0
0.935000002384 0.345999985933 0.140000000596 280.0
0.935000002384 0.338999986649 0.140000000596 306.0
0.930000007153 0.331000000238 0.138999998569 330.0
0.939999997616 0.32800000906 0.140000000596 349.0
0.944999992847 0.324000000954 0.141000002623 377.0
0.936999976635 0.314999997616 0.138999998569 401.0
0.941999971867 0.310000002384 0.140000000596 418.0
0.949999988079 0.307000011206 0.141000002623 426.0
0.954999983311 0.301999986172 0.142000004649 454.0
0.95300000906 0.294999986887 0.141000002623 475.0
0.958000004292 0.291000008583 0.141000002623 497.0
0.959999978542 0.284999996424 0.142000004649 507.0
0.961000025272 0.279000014067 0.142000004649 523.0
0.958000004292 0.272000014782 0.141000002623 528.0
0.955999970436 0.266000002623 0.140000000596 553.0
0.967999994755 0.263000011444 0.142000004649 566.0
0.953999996185 0.252999991179 0.140000000596 575.0
0.962999999523 0.248999997973 0.141000002623 589.0
0.962999999523 0.243000000715 0.141000002623 608.0
0.959999978542 0.237000003457 0.140000000596 622.0
0.953999996185 0.229000002146 0.138999998569 623.0
0.961000025272 0.22499999404 0.140000000596 634.0
0.955999970436 0.217999994755 0.138999998569 643.0
0.953999996185 0.211999997497 0.138999998569 651.0
0.952000021935 0.204999998212 0.137999996543 658.0
0.959999978542 0.201000005007 0.140000000596 672.0
0.963999986649 0.195999994874 0.140000000596 667.0
0.964999973774 0.190999999642 0.140000000596 680.0
0.959999978542 0.184000000358 0.138999998569 679.0
0.964999973774 0.179000005126 0.140000000596 676.0
0.959999978542 0.172000005841 0.138999998569 679.0
0.963999986649 0.166999995708 0.138999998569 687.0
0.963999986649 0.16099999845 0.138999998569 699.0
0.961000025272 0.155000001192 0.138999998569 715.0
0.958999991417 0.149000003934 0.137999996543 703.0
0.972999989986 0.145999997854 0.140000000596 709.0
0.967999994755 0.138999998569 0.140000000596 708.0
0.964999973774 0.133000001311 0.138999998569 723.0
0.967000007629 0.127000004053 0.138999998569 739.0
0.963999986649 0.120999999344 0.138999998569 744.0
0.964999973774 0.115999996662 0.138999998569 765.0
0.962000012398 0.109999999404 0.137999996543 773.0
0.967999994755 0.104999996722 0.138999998569 764.0
0.962000012398 0.0989999994636 0.137999996543 766.0
0.964999973774 0.0930000022054 0.138999998569 775.0
0.966000020504 0.0879999995232 0.138999998569 794.0
0.964999973774 0.082000002265 0.138999998569 813.0
0.962999999523 0.0759999975562 0.137999996543 831.0
0.963999986649 0.0710000023246 0.138999998569 821.0
0.967999994755 0.0649999976158 0.138999998569 827.0
0.972999989986 0.0599999986589 0.140000000596 818.0
0.972999989986 0.0540000014007 0.140000000596 827.0
0.973999977112 0.0489999987185 0.140000000596 823.0
0.972000002861 0.0430000014603 0.140000000596 806.0
0.972999989986 0.0379999987781 0.140000000596 810.0
0.971000015736 0.0320000015199 0.140000000596 806.0
0.971000015736 0.0260000005364 0.140000000596 743.0
0.995999991894 0.0209999997169 0.143000006676 233.0
1.02300000191 -0.0659999996424 0.148000001907 279.0
1.00699996948 -0.0710000023246 0.145999997854 990.0
1.00699996948 -0.0769999995828 0.145999997854 315.0
0.971000015736 -0.0799999982119 0.140000000596 150.0
0.955999970436 -0.0839999988675 0.137999996543 146.0
0.972999989986 -0.0909999981523 0.141000002623 152.0
0.973999977112 -0.097000002861 0.141000002623 151.0
0.96899998188 -0.101999998093 0.141000002623 157.0
0.954999983311 -0.105999998748 0.138999998569 157.0
0.959999978542 -0.112000003457 0.138999998569 153.0
0.96899998188 -0.119000002742 0.141000002623 158.0
0.962999999523 -0.123999997973 0.140000000596 156.0
0.962999999523 -0.129999995232 0.140000000596 157.0
0.962999999523 -0.135000005364 0.140000000596 161.0
0.972000002861 -0.142000004649 0.142000004649 160.0
0.955999970436 -0.145999997854 0.138999998569 201.0
0.98400002718 -0.156000003219 0.143999993801 944.0
0.98400002718 -0.162000000477 0.143999993801 1315.0
0.98400002718 -0.167999997735 0.143999993801 1326.0
0.977999985218 -0.172999992967 0.143000006676 1314.0
0.980000019073 -0.179000005126 0.143999993801 1327.0
0.973999977112 -0.184000000358 0.143000006676 1333.0
0.978999972343 -0.189999997616 0.143999993801 1346.0
0.97000002861 -0.194000005722 0.143000006676 1351.0
0.971000015736 -0.20000000298 0.143000006676 1359.0
0.97000002861 -0.206000000238 0.143000006676 1377.0
0.97000002861 -0.211999997497 0.143000006676 1386.0
0.96899998188 -0.217999994755 0.143000006676 1392.0
0.958000004292 -0.221000000834 0.142000004649 1385.0
0.958999991417 -0.226999998093 0.142000004649 1403.0
0.962000012398 -0.233999997377 0.143000006676 995.0
0.954999983311 -0.238000005484 0.142000004649 257.0
0.931999981403 -0.238000005484 0.138999998569 191.0
0.919000029564 -0.240999996662 0.136999994516 186.0
0.938000023365 -0.252000004053 0.140000000596 187.0
0.920000016689 -0.252999991179 0.137999996543 188.0
0.913999974728 -0.256999999285 0.136999994516 193.0
0.920000016689 -0.263999998569 0.137999996543 193.0
0.919000029564 -0.270000010729 0.137999996543 190.0
0.910000026226 -0.273000001907 0.136999994516 192.0
0.911000013351 -0.279000014067 0.136999994516 194.0
0.913999974728 -0.286000013351 0.137999996543 189.0
0.908999979496 -0.289999991655 0.137999996543 195.0
0.896000027657 -0.291999995708 0.136000007391 197.0
0.907000005245 -0.301999986172 0.137999996543 254.0
0.931999981403 -0.317000001669 0.142000004649 1163.0
0.925999999046 -0.321000009775 0.141000002623 1504.0
0.925999999046 -0.326999992132 0.142000004649 1517.0
0.927999973297 -0.333999991417 0.142000004649 1520.0
0.925000011921 -0.338999986649 0.142000004649 1545.0
0.925999999046 -0.345999985933 0.142000004649 1545.0
0.920000016689 -0.34999999404 0.142000004649 1538.0
0.917999982834 -0.354999989271 0.142000004649 1549.0
0.919000029564 -0.361999988556 0.142000004649 1554.0
0.916000008583 -0.36700001359 0.142000004649 1553.0
0.913999974728 -0.372999995947 0.142000004649 1561.0
0.911000013351 -0.377999991179 0.142000004649 1550.0
0.90600001812 -0.381999999285 0.142000004649 1566.0
0.912000000477 -0.391999989748 0.143000006676 1567.0
0.902000010014 -0.393999993801 0.142000004649 735.0
0.884999990463 -0.393000006676 0.138999998569 249.0
0.875 -0.393999993801 0.137999996543 207.0
0.882000029087 -0.404000014067 0.140000000596 205.0
0.847999989986 -0.395000010729 0.134000003338 210.0
0.865999996662 -0.409999996424 0.137999996543 208.0
0.856000006199 -0.411000013351 0.136999994516 210.0
0.871999979019 -0.425999999046 0.140000000596 208.0
0.836000025272 -0.41400000453 0.134000003338 205.0
0.856000006199 -0.430999994278 0.137999996543 198.0
0.852999985218 -0.43599998951 0.137999996543 208.0
0.848999977112 -0.441000014544 0.137999996543 213.0
0.860000014305 -0.453999996185 0.140000000596 207.0
0.871999979019 -0.467000007629 0.142000004649 374.0
0.878000020981 -0.476999998093 0.143000006676 1375.0
0.878000020981 -0.483999997377 0.143999993801 1611.0
0.870000004768 -0.486999988556 0.143000006676 1608.0
1.03600001335 0.601000010967 0.158999994397 148.0
1.26199996471 0.721000015736 0.194000005722 138.0
1.15999996662 0.652999997139 0.178000003099 147.0
0.972000002861 0.538999974728 0.148000001907 234.0
0.936999976635 0.512000024319 0.142000004649 192.0
0.947000026703 0.509999990463 0.143000006676 228.0
0.948000013828 0.503000020981 0.143000006676 261.0
0.949999988079 0.495999991894 0.143000006676 276.0
0.949000000954 0.488000005484 0.142000004649 301.0
0.953999996185 0.483999997377 0.143000006676 329.0
0.943000018597 0.470999985933 0.141000002623 364.0
0.93599998951 0.460000008345 0.138999998569 381.0
0.949999988079 0.460000008345 0.141000002623 401.0
0.949999988079 0.451999992132 0.141000002623 439.0
0.944000005722 0.442000001669 0.140000000596 459.0
0.944999992847 0.43599998951 0.138999998569 473.0
0.934000015259 0.423999994993 0.136999994516 486.0
0.940999984741 0.421000003815 0.137999996543 518.0
0.949999988079 0.416999995708 0.138999998569 536.0
0.95300000906 0.412000000477 0.138999998569 551.0
0.947000026703 0.402999997139 0.137999996543 571.0
0.948000013828 0.395999997854 0.137999996543 593.0
0.950999975204 0.391000002623 0.137999996543 602.0
0.945999979973 0.381999999285 0.136999994516 633.0
0.957000017166 0.379999995232 0.138999998569 638.0
0.949999988079 0.370000004768 0.136999994516 660.0
0.948000013828 0.363000005484 0.136999994516 681.0
0.953999996185 0.358999997377 0.136999994516 697.0
0.950999975204 0.351000010967 0.136999994516 702.0
0.95300000906 0.345999985933 0.136999994516 723.0
0.950999975204 0.337999999523 0.136000007391 748.0
0.947000026703 0.331000000238 0.135000005364 765.0
0.949999988079 0.324999988079 0.136000007391 790.0
0.948000013828 0.319000005722 0.135000005364 805.0
0.944999992847 0.31099998951 0.135000005364 792.0
0.954999983311 0.307999998331 0.136000007391 808.0
0.949000000954 0.300000011921 0.135000005364 821.0
0.95300000906 0.294999986887 0.135000005364 842.0
0.958999991417 0.291000008583 0.136000007391 846.0
0.958000004292 0.284000009298 0.135000005364 847.0
0.949999988079 0.275999993086 0.134000003338 865.0
0.949000000954 0.270000010729 0.134000003338 881.0
0.957000017166 0.266000002623 0.135000005364 902.0
0.949999988079 0.25799998641 0.134000003338 917.0
0.944999992847 0.250999987125 0.133000001311 932.0
0.952000021935 0.246000006795 0.134000003338 952.0
0.950999975204 0.239999994636 0.133000001311 956.0
0.961000025272 0.237000003457 0.135000005364 964.0
0.949000000954 0.228000000119 0.133000001311 959.0
0.958999991417 0.224000006914 0.134000003338 984.0
0.949000000954 0.216000005603 0.131999999285 976.0
0.954999983311 0.211999997497 0.133000001311 970.0
0.95300000906 0.204999998212 0.133000001311 984.0
0.958999991417 0.201000005007 0.134000003338 982.0
0.961000025272 0.194999992847 0.134000003338 1004.0
0.961000025272 0.189999997616 0.134000003338 992.0
0.958000004292 0.182999998331 0.133000001311 987.0
0.958999991417 0.178000003099 0.133000001311 1002.0
0.962000012398 0.172000005841 0.134000003338 1018.0
0.958000004292 0.165999993682 0.133000001311 1004.0
0.953999996185 0.159999996424 0.131999999285 1011.0
0.961000025272 0.155000001192 0.133000001311 1024.0
0.962999999523 0.15000000596 0.133000001311 1022.0
0.961000025272 0.143999993801 0.133000001311 1040.0
0.958999991417 0.137999996543 0.133000001311 1030.0
0.962000012398 0.131999999285 0.133000001311 1042.0
0.966000020504 0.127000004053 0.133000001311 1058.0
0.964999973774 0.120999999344 0.133000001311 1064.0
0.964999973774 0.115999996662 0.133000001311 1078.0
0.961000025272 0.109999999404 0.133000001311 1084.0
0.961000025272 0.104000002146 0.133000001311 1097.0
0.967000007629 0.0989999994636 0.133000001311 1105.0
0.966000020504 0.0930000022054 0.133000001311 1096.0
0.963999986649 0.0869999974966 0.133000001311 1111.0
0.964999973774 0.082000002265 0.133000001311 1122.0
0.96899998188 0.0769999995828 0.134000003338 1122.0
0.96899998188 0.0710000023246 0.134000003338 1134.0
0.966000020504 0.0649999976158 0.133000001311 1140.0
0.971000015736 0.0599999986589 0.134000003338 1172.0
0.964999973774 0.0540000014007 0.133000001311 1197.0
0.97000002861 0.0489999987185 0.134000003338 1211.0
0.967000007629 0.0430000014603 0.133000001311 1211.0
0.967999994755 0.0370000004768 0.133000001311 1213.0
0.96899998188 0.0320000015199 0.134000003338 1225.0
0.973999977112 0.0260000005364 0.134000003338 1138.0
0.976000010967 0.0209999997169 0.135000005364 301.0
1.01900005341 -0.0659999996424 0.141000002623 291.0
1.00600004196 -0.0710000023246 0.138999998569 981.0
1.01100003719 -0.0769999995828 0.140000000596 308.0
0.985000014305 -0.0810000002384 0.136999994516 150.0
0.976999998093 -0.0860000029206 0.136000007391 151.0
0.963999986649 -0.0900000035763 0.134000003338 151.0
0.985000014305 -0.097999997437 0.136999994516 159.0
0.962999999523 -0.101000003517 0.134000003338 152.0
0.975000023842 -0.108000002801 0.136000007391 150.0
0.966000020504 -0.112999998033 0.134000003338 158.0
0.967999994755 -0.119000002742 0.135000005364 156.0
0.972000002861 -0.125 0.136000007391 162.0
0.950999975204 -0.12800000608 0.133000001311 162.0
0.96899998188 -0.136000007391 0.135000005364 164.0
0.941999971867 -0.137999996543 0.131999999285 165.0
0.953999996185 -0.144999995828 0.133000001311 191.0
0.976999998093 -0.155000001192 0.136999994516 961.0
0.98400002718 -0.162000000477 0.137999996543 1301.0
0.98400002718 -0.166999995708 0.137999996543 1328.0
0.980000019073 -0.172999992967 0.137999996543 1335.0
0.976000010967 -0.178000003099 0.136999994516 1321.0
0.977999985218 -0.184000000358 0.137999996543 1351.0
0.972999989986 -0.188999995589 0.136999994516 1352.0
0.972000002861 -0.194999992847 0.136999994516 1348.0
0.964999973774 -0.199000000954 0.136000007391 1367.0
0.967999994755 -0.206000000238 0.136999994516 1376.0
0.967000007629 -0.21099999547 0.136999994516 1389.0
0.962000012398 -0.216000005603 0.136999994516 1392.0
0.962999999523 -0.222000002861 0.136999994516 1393.0
0.964999973774 -0.229000002146 0.136999994516 1401.0
0.961000025272 -0.233999997377 0.136999994516 1008.0
0.92199999094 -0.230000004172 0.130999997258 257.0
0.935000002384 -0.238999992609 0.134000003338 187.0
0.927999973297 -0.243000000715 0.133000001311 192.0
0.936999976635 -0.250999987125 0.134000003338 184.0
0.90499997139 -0.247999995947 0.129999995232 193.0
0.92199999094 -0.259000003338 0.133000001311 189.0
0.913999974728 -0.261999994516 0.131999999285 188.0
0.934000015259 -0.273999989033 0.135000005364 196.0
0.919000029564 -0.275999993086 0.133000001311 191.0
0.902000010014 -0.275999993086 0.129999995232 197.0
0.907999992371 -0.284000009298 0.131999999285 199.0
0.925000011921 -0.294999986887 0.134000003338 198.0
0.902999997139 -0.293999999762 0.130999997258 201.0
0.920000016689 -0.305999994278 0.134000003338 239.0
0.935000002384 -0.317000001669 0.136999994516 1148.0
0.930999994278 -0.321999996901 0.136000007391 1520.0
0.926999986172 -0.326999992132 0.136000007391 1536.0
0.925000011921 -0.331999987364 0.136000007391 1528.0
0.92199999094 -0.337999999523 0.136000007391 1550.0
0.921000003815 -0.344000011683 0.136000007391 1549.0
0.920000016689 -0.34999999404 0.136000007391 1545.0
0.919000029564 -0.354999989271 0.136000007391 1544.0
0.917999982834 -0.361000001431 0.136000007391 1559.0
0.915000021458 -0.365999996662 0.136000007391 1556.0
0.912999987602 -0.372000008821 0.136000007391 1558.0
0.912000000477 -0.377999991179 0.136000007391 1578.0
0.908999979496 -0.38299998641 0.136000007391 1573.0
0.907999992371 -0.388999998569 0.136999994516 1568.0
0.902000010014 -0.393000006676 0.136000007391 781.0
0.879999995232 -0.389999985695 0.133000001311 255.0
0.84399998188 -0.379999995232 0.12800000608 208.0
0.853999972343 -0.391000002623 0.129999995232 207.0
0.876999974251 -0.407999992371 0.134000003338 202.0
0.852999985218 -0.402999997139 0.129999995232 203.0
0.855000019073 -0.409999996424 0.130999997258 212.0
0.856000006199 -0.416999995708 0.130999997258 208.0
0.865999996662 -0.428999990225 0.133000001311 203.0
0.822000026703 -0.412999987602 0.127000004053 202.0
0.851000010967 -0.435000002384 0.131999999285 211.0
0.874000012875 -0.45300000906 0.136000007391 211.0
0.829999983311 -0.437000006437 0.128999993205 207.0
0.873000025749 -0.467000007629 0.136000007391 337.0
0.876999974251 -0.476000010967 0.137999996543 1340.0
0.875 -0.481999993324 0.137999996543 1602.0
0.875 -0.488999992609 0.137999996543 1630.0
0.95300000906 0.550999999046 0.140000000596 481.0
0.943000018597 0.537999987602 0.137999996543 524.0
0.944000005722 0.53100001812 0.137999996543 553.0
0.939999997616 0.521000027657 0.136999994516 574.0
0.945999979973 0.51599997282 0.136999994516 614.0
0.947000026703 0.509000003338 0.136999994516 645.0
0.948000013828 0.501999974251 0.136999994516 644.0
0.943000018597 0.49200001359 0.136000007391 665.0
0.936999976635 0.481999993324 0.135000005364 685.0
0.944999992847 0.479000002146 0.135000005364 704.0
0.940999984741 0.469000011683 0.134000003338 720.0
0.943000018597 0.462999999523 0.134000003338 716.0
0.944999992847 0.456999987364 0.134000003338 745.0
0.940999984741 0.448000013828 0.133000001311 755.0
0.948000013828 0.444000005722 0.134000003338 761.0
0.944999992847 0.43599998951 0.133000001311 769.0
0.945999979973 0.428999990225 0.133000001311 786.0
0.947000026703 0.423000007868 0.133000001311 807.0
0.95300000906 0.418000012636 0.134000003338 800.0
0.952000021935 0.411000013351 0.133000001311 825.0
0.940999984741 0.40000000596 0.130999997258 852.0
0.945999979973 0.395000010729 0.131999999285 862.0
0.944000005722 0.388000011444 0.130999997258 857.0
0.949999988079 0.38299998641 0.131999999285 873.0
0.949000000954 0.375999987125 0.131999999285 888.0
0.943000018597 0.36700001359 0.129999995232 909.0
0.948000013828 0.363000005484 0.130999997258 910.0
0.948000013828 0.356000006199 0.130999997258 923.0
0.944999992847 0.349000006914 0.129999995232 926.0
0.950999975204 0.344999998808 0.130999997258 960.0
0.947000026703 0.337000012398 0.129999995232 948.0
0.954999983311 0.333000004292 0.130999997258 979.0
0.949999988079 0.324999988079 0.129999995232 991.0
0.944999992847 0.317000001669 0.128999993205 1015.0
0.949999988079 0.312999993563 0.128999993205 1039.0
0.957000017166 0.308999985456 0.129999995232 1025.0
0.949000000954 0.300000011921 0.128999993205 1047.0
0.948000013828 0.293000012636 0.128999993205 1040.0
0.950999975204 0.287999987602 0.128999993205 1049.0
0.957000017166 0.284000009298 0.128999993205 1075.0
0.953999996185 0.277000010014 0.128999993205 1100.0
0.944999992847 0.268000006676 0.12800000608 1131.0
0.950999975204 0.263999998569 0.12800000608 1157.0
0.949000000954 0.256999999285 0.12800000608 1165.0
0.953999996185 0.252999991179 0.12800000608 1167.0
0.952000021935 0.246000006795 0.12800000608 1177.0
0.955999970436 0.240999996662 0.12800000608 1185.0
0.954999983311 0.234999999404 0.12800000608 1183.0
0.958000004292 0.230000004172 0.12800000608 1175.0
0.955999970436 0.223000004888 0.12800000608 1185.0
0.957000017166 0.217999994755 0.12800000608 1181.0
0.961000025272 0.212999999523 0.12800000608 1185.0
0.955999970436 0.206000000238 0.12800000608 1198.0
0.955999970436 0.20000000298 0.127000004053 1201.0
0.954999983311 0.194000005722 0.127000004053 1179.0
0.952000021935 0.187999993563 0.127000004053 1193.0
0.954999983311 0.181999996305 0.127000004053 1181.0
0.962999999523 0.178000003099 0.12800000608 1199.0
0.962000012398 0.172000005841 0.12800000608 1199.0
0.962999999523 0.166999995708 0.12800000608 1192.0
0.958999991417 0.159999996424 0.127000004053 1190.0
0.963999986649 0.155000001192 0.12800000608 1193.0
0.96899998188 0.15000000596 0.12800000608 1198.0
0.964999973774 0.143999993801 0.12800000608 1197.0
0.962000012398 0.137999996543 0.127000004053 1220.0
0.962000012398 0.131999999285 0.127000004053 1251.0
0.958999991417 0.126000002027 0.127000004053 1288.0
0.958999991417 0.120999999344 0.127000004053 1299.0
0.962999999523 0.115000002086 0.127000004053 1322.0
0.962000012398 0.109999999404 0.127000004053 1332.0
0.962000012398 0.104000002146 0.127000004053 1351.0
0.962999999523 0.097999997437 0.127000004053 1334.0
0.966000020504 0.0930000022054 0.12800000608 1335.0
0.967000007629 0.0879999995232 0.12800000608 1352.0
0.964999973774 0.082000002265 0.127000004053 1378.0
0.967000007629 0.0759999975562 0.12800000608 1403.0
0.967000007629 0.0710000023246 0.12800000608 1403.0
0.962999999523 0.0649999976158 0.127000004053 1408.0
0.966000020504 0.0599999986589 0.127000004053 1459.0
0.96899998188 0.0540000014007 0.12800000608 1529.0
0.967000007629 0.0480000004172 0.12800000608 1531.0
0.964999973774 0.0430000014603 0.127000004053 1565.0
0.966000020504 0.0370000004768 0.127000004053 1626.0
0.962999999523 0.0309999994934 0.127000004053 1630.0
0.967999994755 0.0260000005364 0.12800000608 1456.0
0.985000014305 0.0209999997169 0.129999995232 308.0
1.01100003719 -0.0649999976158 0.134000003338 312.0
1.00600004196 -0.0710000023246 0.133000001311 993.0
0.998000025749 -0.0759999975562 0.131999999285 303.0
0.971000015736 -0.0790000036359 0.128999993205 157.0
0.976999998093 -0.0860000029206 0.129999995232 151.0
0.978999972343 -0.0920000001788 0.129999995232 156.0
0.972000002861 -0.097000002861 0.128999993205 161.0
0.959999978542 -0.101000003517 0.12800000608 153.0
0.981000006199 -0.108999997377 0.130999997258 158.0
0.957000017166 -0.112000003457 0.12800000608 153.0
0.966000020504 -0.119000002742 0.128999993205 155.0
0.954999983311 -0.123000003397 0.12800000608 158.0
0.973999977112 -0.130999997258 0.129999995232 154.0
0.95300000906 -0.134000003338 0.127000004053 159.0
0.966000020504 -0.141000002623 0.128999993205 173.0
0.976000010967 -0.149000003934 0.130999997258 205.0
0.980000019073 -0.155000001192 0.130999997258 961.0
0.981000006199 -0.16099999845 0.131999999285 1307.0
0.981000006199 -0.166999995708 0.131999999285 1315.0
0.977999985218 -0.172000005841 0.131999999285 1318.0
0.973999977112 -0.177000001073 0.130999997258 1335.0
0.980000019073 -0.184000000358 0.131999999285 1348.0
0.976000010967 -0.189999997616 0.131999999285 1340.0
0.96899998188 -0.194000005722 0.130999997258 1354.0
0.97000002861 -0.20000000298 0.130999997258 1363.0
0.966000020504 -0.204999998212 0.130999997258 1372.0
0.964999973774 -0.21099999547 0.130999997258 1387.0
0.96899998188 -0.217999994755 0.131999999285 1385.0
0.962999999523 -0.222000002861 0.130999997258 1398.0
0.962000012398 -0.228000000119 0.130999997258 1411.0
0.954999983311 -0.231999993324 0.129999995232 1015.0
0.944000005722 -0.234999999404 0.128999993205 262.0
0.938000023365 -0.239999994636 0.12800000608 187.0
0.938000023365 -0.246000006795 0.128999993205 189.0
0.930999994278 -0.248999997973 0.12800000608 195.0
0.902999997139 -0.247999995947 0.123999997973 195.0
0.913999974728 -0.256000012159 0.126000002027 192.0
0.916000008583 -0.263000011444 0.126000002027 189.0
0.917999982834 -0.268999993801 0.127000004053 189.0
0.927999973297 -0.277999997139 0.12800000608 191.0
0.901000022888 -0.275999993086 0.125 193.0
0.916000008583 -0.286000013351 0.127000004053 196.0
0.912000000477 -0.291000008583 0.127000004053 205.0
0.917999982834 -0.298999994993 0.12800000608 201.0
0.913999974728 -0.303999990225 0.12800000608 226.0
0.927999973297 -0.314999997616 0.129999995232 1133.0
0.929000020027 -0.321000009775 0.129999995232 1517.0
0.929000020027 -0.326999992132 0.130999997258 1525.0
0.925000011921 -0.331999987364 0.129999995232 1533.0
0.924000024796 -0.337999999523 0.129999995232 1551.0
0.92199999094 -0.342999994755 0.129999995232 1542.0
0.917999982834 -0.349000006914 0.129999995232 1550.0
0.920000016689 -0.354999989271 0.130999997258 1549.0
0.916000008583 -0.360000014305 0.129999995232 1555.0
0.913999974728 -0.365999996662 0.129999995232 1560.0
0.912000000477 -0.370999991894 0.129999995232 1562.0
0.912999987602 -0.377999991179 0.130999997258 1579.0
0.903999984264 -0.381000012159 0.129999995232 1576.0
0.90499997139 -0.388000011444 0.129999995232 1572.0
0.903999984264 -0.393999993801 0.130999997258 823.0
0.874000012875 -0.386999994516 0.126000002027 260.0
0.873000025749 -0.393000006676 0.127000004053 211.0
0.869000017643 -0.398000001907 0.126000002027 215.0
0.874000012875 -0.405999988317 0.12800000608 208.0
0.879000008106 -0.416000008583 0.128999993205 206.0
0.851999998093 -0.409000009298 0.125 209.0
0.850000023842 -0.41400000453 0.125 211.0
0.865999996662 -0.428999990225 0.12800000608 211.0
0.837999999523 -0.421000003815 0.123999997973 208.0
0.860000014305 -0.43900001049 0.12800000608 210.0
0.841000020504 -0.43599998951 0.125 209.0
0.84399998188 -0.444000005722 0.126000002027 211.0
0.860000014305 -0.460000008345 0.128999993205 302.0
0.869000017643 -0.472000002861 0.130999997258 1315.0
0.875 -0.481999993324 0.131999999285 1617.0
0.871999979019 -0.486999988556 0.131999999285 1618.0
0.935000002384 0.541000008583 0.130999997258 793.0
0.931999981403 0.53100001812 0.129999995232 824.0
0.936999976635 0.526000022888 0.130999997258 843.0
0.93900001049 0.519999980927 0.130999997258 859.0
0.936999976635 0.510999977589 0.129999995232 870.0
0.936999976635 0.504000008106 0.129999995232 858.0
0.935000002384 0.495000004768 0.128999993205 867.0
0.948000013828 0.495000004768 0.129999995232 890.0
0.935000002384 0.479999989271 0.12800000608 897.0
0.943000018597 0.476999998093 0.128999993205 921.0
0.944999992847 0.470999985933 0.128999993205 910.0
0.95300000906 0.467000007629 0.129999995232 908.0
0.944999992847 0.456000000238 0.12800000608 941.0
0.938000023365 0.446000009775 0.127000004053 945.0
0.945999979973 0.442999988794 0.12800000608 947.0
0.940999984741 0.433999985456 0.127000004053 948.0
0.944000005722 0.428000003099 0.127000004053 961.0
0.944999992847 0.421000003815 0.127000004053 975.0
0.945999979973 0.414999991655 0.127000004053 989.0
0.944000005722 0.407000005245 0.126000002027 986.0
0.948000013828 0.402000010014 0.126000002027 1001.0
0.948000013828 0.395999997854 0.126000002027 1017.0
0.944000005722 0.386999994516 0.125 1019.0
0.949000000954 0.38299998641 0.126000002027 1041.0
0.944000005722 0.374000012875 0.125 1036.0
0.939999997616 0.365999996662 0.123999997973 1056.0
0.952000021935 0.363999992609 0.125 1065.0
0.948000013828 0.356000006199 0.125 1074.0
0.949000000954 0.34999999404 0.125 1077.0
0.949000000954 0.344000011683 0.123999997973 1102.0
0.947000026703 0.337000012398 0.123999997973 1108.0
0.95300000906 0.331999987364 0.125 1116.0
0.949000000954 0.324999988079 0.123999997973 1119.0
0.949999988079 0.319000005722 0.123999997973 1134.0
0.952000021935 0.312999993563 0.123999997973 1137.0
0.954999983311 0.307999998331 0.123999997973 1144.0
0.95300000906 0.300999999046 0.123999997973 1158.0
0.95300000906 0.294999986887 0.123000003397 1165.0
0.948000013828 0.287000000477 0.123000003397 1186.0
0.952000021935 0.282000005245 0.123000003397 1183.0
0.95300000906 0.275999993086 0.123000003397 1205.0
0.955999970436 0.270999997854 0.123000003397 1232.0
0.953999996185 0.263999998569 0.123000003397 1250.0
0.953999996185 0.259000003338 0.123000003397 1249.0
0.955999970436 0.252999991179 0.123000003397 1239.0
0.953999996185 0.246000006795 0.122000001371 1240.0
0.953999996185 0.240999996662 0.122000001371 1243.0
0.955999970436 0.234999999404 0.122000001371 1227.0
0.953999996185 0.229000002146 0.122000001371 1235.0
0.957000017166 0.224000006914 0.122000001371 1250.0
0.957000017166 0.217999994755 0.122000001371 1267.0
0.955999970436 0.211999997497 0.122000001371 1266.0
0.958000004292 0.206000000238 0.122000001371 1274.0
0.958999991417 0.201000005007 0.122000001371 1280.0
0.955999970436 0.194000005722 0.122000001371 1290.0
0.958000004292 0.188999995589 0.122000001371 1303.0
0.958000004292 0.182999998331 0.122000001371 1315.0
0.955999970436 0.177000001073 0.120999999344 1354.0
0.959999978542 0.172000005841 0.122000001371 1378.0
0.962000012398 0.165999993682 0.122000001371 1383.0
0.966000020504 0.16099999845 0.122000001371 1374.0
0.964999973774 0.155000001192 0.122000001371 1367.0
0.963999986649 0.149000003934 0.122000001371 1375.0
0.966000020504 0.143999993801 0.122000001371 1388.0
0.959999978542 0.136999994516 0.120999999344 1410.0
0.962000012398 0.131999999285 0.122000001371 1454.0
0.963999986649 0.127000004053 0.122000001371 1492.0
0.962000012398 0.120999999344 0.120999999344 1490.0
0.962000012398 0.115000002086 0.122000001371 1506.0
0.961000025272 0.108999997377 0.120999999344 1538.0
0.963999986649 0.104000002146 0.122000001371 1546.0
0.963999986649 0.0989999994636 0.122000001371 1549.0
0.964999973774 0.0930000022054 0.122000001371 1566.0
0.962999999523 0.0869999974966 0.120999999344 1593.0
0.964999973774 0.082000002265 0.122000001371 1586.0
0.967000007629 0.0759999975562 0.122000001371 1579.0
0.966000020504 0.0710000023246 0.122000001371 1609.0
0.967000007629 0.0649999976158 0.122000001371 1654.0
0.964999973774 0.0590000003576 0.122000001371 1739.0
0.967000007629 0.0540000014007 0.122000001371 1811.0
0.964999973774 0.0480000004172 0.122000001371 1822.0
0.97000002861 0.0430000014603 0.122000001371 1798.0
0.964999973774 0.0370000004768 0.122000001371 1834.0
0.964999973774 0.0309999994934 0.122000001371 1831.0
0.964999973774 0.0260000005364 0.122000001371 1550.0
0.98299998045 0.0209999997169 0.123999997973 282.0
1.01699995995 -0.0659999996424 0.128999993205 321.0
1.00899994373 -0.0710000023246 0.12800000608 984.0
0.999000012875 -0.0759999975562 0.127000004053 303.0
0.961000025272 -0.0790000036359 0.122000001371 155.0
0.976000010967 -0.0860000029206 0.123999997973 150.0
0.949999988079 -0.0890000015497 0.120999999344 153.0
0.976000010967 -0.097000002861 0.123999997973 156.0
0.958000004292 -0.101000003517 0.122000001371 150.0
0.97000002861 -0.108000002801 0.123000003397 150.0
0.972000002861 -0.11400000006 0.123999997973 162.0
0.936999976635 -0.115000002086 0.119000002742 162.0
0.959999978542 -0.123000003397 0.123000003397 162.0
0.96899998188 -0.129999995232 0.123999997973 154.0
0.967999994755 -0.136000007391 0.123999997973 164.0
0.939999997616 -0.136999994516 0.119999997318 167.0
0.972000002861 -0.148000001907 0.125 209.0
0.986000001431 -0.156000003219 0.127000004053 972.0
0.98400002718 -0.162000000477 0.126000002027 1316.0
0.981999993324 -0.166999995708 0.126000002027 1321.0
0.981000006199 -0.172999992967 0.126000002027 1324.0
0.977999985218 -0.178000003099 0.126000002027 1332.0
0.976000010967 -0.182999998331 0.126000002027 1350.0
0.975000023842 -0.188999995589 0.126000002027 1351.0
0.97000002861 -0.194000005722 0.125 1359.0
0.973999977112 -0.201000005007 0.126000002027 1368.0
0.966000020504 -0.204999998212 0.125 1377.0
0.964999973774 -0.21099999547 0.125 1389.0
0.962000012398 -0.216000005603 0.125 1400.0
0.962999999523 -0.222000002861 0.125 1389.0
0.963999986649 -0.228000000119 0.126000002027 1405.0
0.957000017166 -0.232999995351 0.125 1022.0
0.961000025272 -0.238999992609 0.126000002027 260.0
0.908999979496 -0.231999993324 0.119000002742 189.0
0.902999997139 -0.236000001431 0.118000000715 195.0
0.912000000477 -0.244000002742 0.119999997318 196.0
0.930999994278 -0.254999995232 0.122000001371 198.0
0.922999978065 -0.259000003338 0.120999999344 188.0
0.910000026226 -0.261000007391 0.119999997318 196.0
0.919000029564 -0.268999993801 0.120999999344 195.0
0.913999974728 -0.273999989033 0.120999999344 194.0
0.903999984264 -0.277000010014 0.119999997318 197.0
0.90600001812 -0.282999992371 0.119999997318 198.0
0.910000026226 -0.289999991655 0.120999999344 198.0
0.90499997139 -0.294999986887 0.120999999344 201.0
0.911000013351 -0.303000003099 0.122000001371 227.0
0.926999986172 -0.31400001049 0.123999997973 1118.0
0.930999994278 -0.321999996901 0.125 1503.0
0.927999973297 -0.326999992132 0.125 1527.0
0.926999986172 -0.333000004292 0.125 1540.0
0.925999999046 -0.337999999523 0.125 1553.0
0.921000003815 -0.342999994755 0.123999997973 1545.0
0.92199999094 -0.34999999404 0.125 1547.0
0.915000021458 -0.352999985218 0.123999997973 1552.0
0.916999995708 -0.360000014305 0.125 1571.0
0.912999987602 -0.365000009537 0.125 1572.0
0.912000000477 -0.370999991894 0.125 1556.0
0.910000026226 -0.377000004053 0.125 1580.0
0.907000005245 -0.381999999285 0.125 1593.0
0.907999992371 -0.388999998569 0.125 1585.0
0.902999997139 -0.393000006676 0.125 860.0
0.875999987125 -0.388000011444 0.120999999344 264.0
0.860000014305 -0.386999994516 0.119000002742 213.0
0.865999996662 -0.395999997854 0.119999997318 211.0
0.847999989986 -0.393999993801 0.118000000715 215.0
0.864000022411 -0.407999992371 0.120999999344 209.0
0.860000014305 -0.412000000477 0.119999997318 216.0
0.85799998045 -0.418000012636 0.120999999344 206.0
0.865999996662 -0.428999990225 0.122000001371 205.0
0.861000001431 -0.432999998331 0.122000001371 207.0
0.855000019073 -0.43599998951 0.120999999344 216.0
0.839999973774 -0.435000002384 0.119999997318 205.0
0.841000020504 -0.442000001669 0.119999997318 214.0
0.850000023842 -0.453999996185 0.122000001371 273.0
0.870999991894 -0.472000002861 0.125 1278.0
0.878000020981 -0.483000010252 0.127000004053 1605.0
0.879999995232 -0.49200001359 0.127000004053 1630.0
0.939999997616 0.542999982834 0.126000002027 965.0
0.939999997616 0.536000013351 0.125 980.0
0.93900001049 0.527000010014 0.125 983.0
0.93900001049 0.518999993801 0.123999997973 989.0
0.93900001049 0.512000024319 0.123999997973 994.0
0.939999997616 0.504999995232 0.123999997973 1009.0
0.944999992847 0.5 0.123999997973 1021.0
0.939999997616 0.490000009537 0.123000003397 1034.0
0.950999975204 0.488000005484 0.123999997973 1017.0
0.949999988079 0.479999989271 0.123999997973 1035.0
0.949000000954 0.472999989986 0.123000003397 1037.0
0.944999992847 0.462999999523 0.122000001371 1042.0
0.944000005722 0.456000000238 0.122000001371 1064.0
0.938000023365 0.446000009775 0.120999999344 1065.0
0.945999979973 0.442000001669 0.122000001371 1072.0
0.944999992847 0.435000002384 0.120999999344 1072.0
0.948000013828 0.428999990225 0.120999999344 1073.0
0.947000026703 0.42199999094 0.120999999344 1080.0
0.945999979973 0.414999991655 0.120999999344 1085.0
0.949000000954 0.409000009298 0.120999999344 1088.0
0.949000000954 0.402999997139 0.120999999344 1097.0
0.950999975204 0.397000014782 0.120999999344 1107.0
0.944000005722 0.386999994516 0.119999997318 1129.0
0.949999988079 0.38299998641 0.119999997318 1110.0
0.948000013828 0.375 0.119000002742 1143.0
0.948000013828 0.368999987841 0.119000002742 1136.0
0.95300000906 0.363999992609 0.119999997318 1156.0
0.949000000954 0.356000006199 0.119000002742 1160.0
0.948000013828 0.349000006914 0.119000002742 1155.0
0.947000026703 0.342999994755 0.118000000715 1154.0
0.947000026703 0.33599999547 0.118000000715 1162.0
0.949999988079 0.331000000238 0.118000000715 1177.0
0.949999988079 0.324999988079 0.118000000715 1182.0
0.950999975204 0.319000005722 0.118000000715 1178.0
0.950999975204 0.312000006437 0.118000000715 1159.0
0.953999996185 0.307000011206 0.118000000715 1161.0
0.958000004292 0.301999986172 0.118000000715 1164.0
0.954999983311 0.294999986887 0.118000000715 1169.0
0.959999978542 0.289999991655 0.118000000715 1170.0
0.954999983311 0.282999992371 0.118000000715 1178.0
0.958999991417 0.277999997139 0.118000000715 1177.0
0.953999996185 0.270000010729 0.116999998689 1193.0
0.949999988079 0.263000011444 0.116999998689 1202.0
0.959999978542 0.259999990463 0.118000000715 1225.0
0.954999983311 0.252999991179 0.116999998689 1250.0
0.962000012398 0.247999995947 0.118000000715 1238.0
0.950999975204 0.238999992609 0.115999996662 1247.0
0.957000017166 0.234999999404 0.116999998689 1253.0
0.954999983311 0.229000002146 0.115999996662 1281.0
0.963999986649 0.22499999404 0.116999998689 1314.0
0.958000004292 0.217999994755 0.116999998689 1333.0
0.958000004292 0.211999997497 0.116999998689 1321.0
0.957000017166 0.206000000238 0.115999996662 1369.0
0.954999983311 0.20000000298 0.115999996662 1383.0
0.954999983311 0.194000005722 0.115999996662 1408.0
0.961000025272 0.188999995589 0.115999996662 1426.0
0.961000025272 0.182999998331 0.115999996662 1419.0
0.955999970436 0.177000001073 0.115999996662 1423.0
0.958000004292 0.171000003815 0.115999996662 1516.0
0.959999978542 0.165999993682 0.115999996662 1484.0
0.958999991417 0.159999996424 0.115999996662 1419.0
0.959999978542 0.153999999166 0.115999996662 1433.0
0.961000025272 0.149000003934 0.115999996662 1437.0
0.963999986649 0.143999993801 0.115999996662 1434.0
0.964999973774 0.137999996543 0.115999996662 1435.0
0.962000012398 0.131999999285 0.115999996662 1512.0
0.964999973774 0.127000004053 0.115999996662 1514.0
0.964999973774 0.120999999344 0.115999996662 1527.0
0.963999986649 0.115000002086 0.115999996662 1568.0
0.962999999523 0.109999999404 0.115999996662 1585.0
0.966000020504 0.104000002146 0.115999996662 1629.0
0.964999973774 0.097999997437 0.115999996662 1620.0
0.966000020504 0.0930000022054 0.115999996662 1640.0
0.967999994755 0.0879999995232 0.115999996662 1684.0
0.967000007629 0.082000002265 0.115999996662 1686.0
0.967999994755 0.0759999975562 0.115999996662 1653.0
0.964999973774 0.070000000298 0.115999996662 1687.0
0.96899998188 0.0649999976158 0.115999996662 1735.0
0.967000007629 0.0590000003576 0.115999996662 1773.0
0.967999994755 0.0540000014007 0.115999996662 1818.0
0.964999973774 0.0480000004172 0.115999996662 1847.0
0.964999973774 0.0430000014603 0.115999996662 1847.0
0.96899998188 0.0370000004768 0.115999996662 1851.0
0.967999994755 0.0320000015199 0.115999996662 1832.0
0.963999986649 0.0260000005364 0.115999996662 1621.0
0.986999988556 0.0209999997169 0.119000002742 324.0
1.01300001144 -0.0649999976158 0.123000003397 338.0
1.01300001144 -0.0710000023246 0.123000003397 976.0
0.989000022411 -0.0750000029802 0.119999997318 292.0
0.975000023842 -0.0799999982119 0.118000000715 160.0
0.996999979019 -0.0869999974966 0.120999999344 161.0
0.967000007629 -0.0900000035763 0.116999998689 162.0
0.992999970913 -0.0989999994636 0.120999999344 166.0
0.986999988556 -0.104000002146 0.119999997318 157.0
0.971000015736 -0.108000002801 0.118000000715 171.0
0.947000026703 -0.111000001431 0.115000002086 168.0
0.959999978542 -0.118000000715 0.116999998689 175.0
0.981000006199 -0.126000002027 0.119000002742 171.0
0.963999986649 -0.129999995232 0.118000000715 166.0
0.973999977112 -0.136999994516 0.119000002742 175.0
0.959999978542 -0.140000000596 0.116999998689 176.0
0.97000002861 -0.148000001907 0.119000002742 212.0
0.990000009537 -0.157000005245 0.120999999344 968.0
0.978999972343 -0.16099999845 0.119999997318 1304.0
0.981000006199 -0.166999995708 0.119999997318 1304.0
0.981999993324 -0.172999992967 0.119999997318 1311.0
0.976000010967 -0.178000003099 0.119999997318 1316.0
0.972999989986 -0.182999998331 0.119999997318 1332.0
0.975000023842 -0.188999995589 0.119999997318 1333.0
0.96899998188 -0.194000005722 0.119000002742 1332.0
0.971000015736 -0.20000000298 0.119999997318 1353.0
0.962999999523 -0.203999996185 0.119000002742 1372.0
0.972000002861 -0.211999997497 0.119999997318 1368.0
0.962999999523 -0.216000005603 0.119000002742 1374.0
0.962000012398 -0.222000002861 0.119000002742 1385.0
0.957000017166 -0.225999996066 0.119000002742 1402.0
0.95300000906 -0.231000006199 0.119000002742 1029.0
0.944000005722 -0.234999999404 0.118000000715 273.0
0.925999999046 -0.236000001431 0.115000002086 213.0
0.934000015259 -0.244000002742 0.116999998689 207.0
0.936999976635 -0.250999987125 0.116999998689 210.0
0.930999994278 -0.254999995232 0.116999998689 212.0
0.933000028133 -0.261999994516 0.116999998689 216.0
0.916000008583 -0.263000011444 0.115000002086 215.0
0.921000003815 -0.270000010729 0.115999996662 215.0
0.922999978065 -0.275999993086 0.115999996662 216.0
0.915000021458 -0.280000001192 0.115999996662 215.0
0.931999981403 -0.291000008583 0.118000000715 212.0
0.936999976635 -0.298999994993 0.119000002742 222.0
0.888000011444 -0.28900000453 0.112999998033 213.0
0.927999973297 -0.307999998331 0.118000000715 239.0
0.934000015259 -0.316000014544 0.119000002742 1097.0
0.930000007153 -0.321000009775 0.119000002742 1492.0
0.930000007153 -0.326999992132 0.119000002742 1515.0
0.925000011921 -0.331999987364 0.119000002742 1515.0
0.926999986172 -0.338999986649 0.119000002742 1530.0
0.92199999094 -0.342999994755 0.119000002742 1533.0
0.920000016689 -0.349000006914 0.119000002742 1537.0
0.915000021458 -0.352999985218 0.119000002742 1540.0
0.912999987602 -0.358999997377 0.118000000715 1552.0
0.916000008583 -0.365999996662 0.119000002742 1554.0
0.907000005245 -0.368999987841 0.118000000715 1553.0
0.912999987602 -0.377999991179 0.119000002742 1564.0
0.910000026226 -0.38299998641 0.119000002742 1573.0
0.90499997139 -0.386999994516 0.119000002742 1569.0
0.901000022888 -0.391999989748 0.119000002742 902.0
0.893000006676 -0.395000010729 0.118000000715 274.0
0.870999991894 -0.391000002623 0.115000002086 215.0
0.876999974251 -0.400999993086 0.115999996662 216.0
0.848999977112 -0.393999993801 0.112999998033 216.0
0.850000023842 -0.400999993086 0.112999998033 218.0
0.879000008106 -0.421000003815 0.118000000715 209.0
0.847999989986 -0.412999987602 0.11400000006 212.0
0.84399998188 -0.416999995708 0.11400000006 207.0
0.869000017643 -0.43599998951 0.116999998689 215.0
0.846000015736 -0.430999994278 0.11400000006 216.0
0.84500002861 -0.437000006437 0.115000002086 221.0
0.865999996662 -0.455000013113 0.118000000715 221.0
0.867999970913 -0.462999999523 0.119000002742 257.0
0.875999987125 -0.47499999404 0.119999997318 1243.0
0.870000004768 -0.479000002146 0.119999997318 1606.0
0.873000025749 -0.486999988556 0.120999999344 1626.0
0.93900001049 0.541999995708 0.119000002742 1049.0
0.943000018597 0.537000000477 0.119000002742 1062.0
0.938000023365 0.526000022888 0.118000000715 1052.0
0.945999979973 0.523000001907 0.119000002742 1046.0
0.93900001049 0.510999977589 0.118000000715 1051.0
0.945999979973 0.508000016212 0.118000000715 1063.0
0.936999976635 0.495999991894 0.116999998689 1048.0
0.941999971867 0.490000009537 0.116999998689 1038.0
0.948000013828 0.486999988556 0.118000000715 1050.0
0.945999979973 0.477999985218 0.116999998689 1053.0
0.944000005722 0.469999998808 0.116999998689 1056.0
0.948000013828 0.463999986649 0.116999998689 1044.0
0.948000013828 0.456999987364 0.116999998689 1064.0
0.938000023365 0.444999992847 0.115000002086 1077.0
0.949000000954 0.444000005722 0.115999996662 1069.0
0.945999979973 0.435000002384 0.115999996662 1068.0
0.940999984741 0.425999999046 0.115000002086 1067.0
0.950999975204 0.423999994993 0.115999996662 1082.0
0.949000000954 0.416000008583 0.115000002086 1078.0
0.950999975204 0.409999996424 0.115000002086 1080.0
0.944999992847 0.400999993086 0.11400000006 1075.0
0.95300000906 0.397000014782 0.115000002086 1087.0
0.949000000954 0.388999998569 0.11400000006 1087.0
0.949999988079 0.381999999285 0.11400000006 1102.0
0.945999979973 0.374000012875 0.112999998033 1105.0
0.95300000906 0.370000004768 0.11400000006 1099.0
0.949999988079 0.363000005484 0.112999998033 1106.0
0.950999975204 0.356999993324 0.112999998033 1095.0
0.95300000906 0.351000010967 0.112999998033 1108.0
0.954999983311 0.344999998808 0.11400000006 1106.0
0.952000021935 0.337999999523 0.112999998033 1113.0
0.952000021935 0.331000000238 0.112999998033 1116.0
0.957000017166 0.326999992132 0.112999998033 1119.0
0.958000004292 0.321000009775 0.112999998033 1135.0
0.954999983311 0.312999993563 0.112999998033 1123.0
0.955999970436 0.307999998331 0.112999998033 1127.0
0.95300000906 0.300000011921 0.112000003457 1138.0
0.958999991417 0.296000003815 0.112999998033 1135.0
0.959999978542 0.289999991655 0.112999998033 1135.0
0.958999991417 0.284000009298 0.112000003457 1137.0
0.955999970436 0.277000010014 0.112000003457 1139.0
0.955999970436 0.270999997854 0.112000003457 1144.0
0.958999991417 0.264999985695 0.112000003457 1157.0
0.958000004292 0.259000003338 0.112000003457 1165.0
0.959999978542 0.254000008106 0.112000003457 1184.0
0.964999973774 0.248999997973 0.112000003457 1197.0
0.955999970436 0.240999996662 0.111000001431 1223.0
0.958999991417 0.236000001431 0.111000001431 1246.0
0.957000017166 0.229000002146 0.111000001431 1253.0
0.961000025272 0.224000006914 0.111000001431 1281.0
0.97000002861 0.219999998808 0.112000003457 1262.0
0.961000025272 0.211999997497 0.111000001431 1265.0
0.958000004292 0.206000000238 0.111000001431 1280.0
0.962000012398 0.201000005007 0.111000001431 1297.0
0.961000025272 0.194999992847 0.111000001431 1306.0
0.962000012398 0.188999995589 0.111000001431 1298.0
0.961000025272 0.182999998331 0.111000001431 1273.0
