ply
format ascii 1.0
element vertex 926
property float x
property float y
property float z
property float intensity
end_header
0.884999990463 -0.456999987364 0.103000000119 1579.0
0.879999995232 -0.462000012398 0.103000000119 1580.0
0.879000008106 -0.467999994755 0.103000000119 1563.0
0.876999974251 -0.474000006914 0.103000000119 685.0
0.869000017643 -0.476999998093 0.101999998093 323.0
0.84399998188 -0.469999998808 0.10000000149 300.0
0.955999970436 0.550999999046 0.101999998093 757.0
0.95300000906 0.541000008583 0.101999998093 747.0
0.953999996185 0.533999979496 0.101999998093 747.0
0.954999983311 0.527000010014 0.101000003517 731.0
0.959999978542 0.521000027657 0.101999998093 718.0
0.953999996185 0.510999977589 0.101000003517 701.0
0.958999991417 0.505999982357 0.101000003517 695.0
0.95300000906 0.495000004768 0.10000000149 679.0
0.958000004292 0.490999996662 0.10000000149 664.0
0.957000017166 0.481999993324 0.10000000149 661.0
0.957000017166 0.47499999404 0.10000000149 660.0
0.958999991417 0.469000011683 0.10000000149 630.0
0.957000017166 0.46099999547 0.0989999994636 633.0
0.967999994755 0.458999991417 0.10000000149 618.0
0.97000002861 0.451999992132 0.10000000149 600.0
0.971000015736 0.446000009775 0.10000000149 594.0
0.966000020504 0.43599998951 0.0989999994636 567.0
0.972999989986 0.432000011206 0.10000000149 574.0
0.964999973774 0.42199999094 0.0989999994636 571.0
0.963999986649 0.414999991655 0.0989999994636 545.0
0.967999994755 0.409000009298 0.0989999994636 550.0
0.972000002861 0.404000014067 0.0989999994636 526.0
0.966000020504 0.395000010729 0.097999997437 512.0
0.95300000906 0.38299998641 0.097000002861 501.0
0.961000025272 0.379000008106 0.097000002861 485.0
0.966000020504 0.375 0.097999997437 465.0
0.945999979973 0.360000014305 0.0949999988079 443.0
0.963999986649 0.361000001431 0.097000002861 419.0
0.958000004292 0.351999998093 0.0960000008345 409.0
0.953999996185 0.344000011683 0.0960000008345 406.0
0.962999999523 0.340999990702 0.097000002861 388.0
0.944999992847 0.32800000906 0.0949999988079 368.0
0.944999992847 0.321999996901 0.0939999967813 347.0
0.924000024796 0.308999985456 0.0920000001788 340.0
0.93900001049 0.307999998331 0.0939999967813 323.0
0.948000013828 0.303999990225 0.0939999967813 318.0
0.93599998951 0.294999986887 0.0930000022054 303.0
0.930999994278 0.287000000477 0.0920000001788 291.0
0.925000011921 0.279000014067 0.0920000001788 288.0
0.931999981403 0.27500000596 0.0920000001788 280.0
0.916000008583 0.264999985695 0.0900000035763 270.0
0.917999982834 0.259000003338 0.0909999981523 265.0
0.93599998951 0.259000003338 0.0920000001788 261.0
0.920000016689 0.247999995947 0.0909999981523 253.0
0.902999997139 0.238000005484 0.0890000015497 249.0
0.911000013351 0.233999997377 0.0890000015497 244.0
0.902000010014 0.226999998093 0.0890000015497 234.0
0.887000024319 0.216999992728 0.0869999974966 207.0
0.89200001955 0.212999999523 0.0869999974966 204.0
0.894999980927 0.208000004292 0.0879999995232 215.0
0.882000029087 0.20000000298 0.0860000029206 211.0
0.93599998951 0.206000000238 0.0909999981523 247.0
0.903999984264 0.187999993563 0.0879999995232 246.0
0.911000013351 0.184000000358 0.0890000015497 233.0
0.995000004768 0.188999995589 0.097000002861 333.0
0.999000012875 0.184000000358 0.097000002861 200.0
0.995000004768 0.177000001073 0.097000002861 229.0
0.989000022411 0.170000001788 0.0960000008345 328.0
0.996999979019 0.165999993682 0.097000002861 228.0
1.00100004673 0.16099999845 0.097000002861 305.0
1.0039999485 0.155000001192 0.097999997437 306.0
0.986000001431 0.146999999881 0.0960000008345 293.0
0.990000009537 0.141000002623 0.0960000008345 300.0
1.00699996948 0.137999996543 0.097999997437 295.0
1.01199996471 0.131999999285 0.097999997437 296.0
0.981000006199 0.123000003397 0.0949999988079 294.0
0.991999983788 0.118000000715 0.0960000008345 306.0
1.00800001621 0.11400000006 0.097999997437 302.0
1.00600004196 0.0960000008345 0.097999997437 310.0
1.00199997425 0.0900000035763 0.097000002861 305.0
0.991999983788 0.0839999988675 0.0960000008345 314.0
0.995000004768 0.0780000016093 0.0960000008345 300.0
1.00600004196 0.0729999989271 0.097999997437 302.0
1.00300002098 0.0670000016689 0.097000002861 306.0
0.986000001431 0.0599999986589 0.0960000008345 308.0
1.01100003719 0.0560000017285 0.097999997437 297.0
0.989000022411 0.0489999987185 0.0960000008345 303.0
0.998000025749 0.0439999997616 0.097000002861 307.0
1.01699995995 0.0390000008047 0.0989999994636 178.0
1.02600002289 0.0329999998212 0.10000000149 214.0
1.00499999523 0.0270000007004 0.097000002861 252.0
1.01999998093 -0.0659999996424 0.0989999994636 414.0
1.00699996948 -0.0710000023246 0.097999997437 1150.0
1.00899994373 -0.0769999995828 0.0989999994636 1192.0
1.00800001621 -0.082999996841 0.0989999994636 1195.0
1.00499999523 -0.0879999995232 0.097999997437 1201.0
1.00800001621 -0.0939999967813 0.0989999994636 1222.0
0.995999991894 -0.0989999994636 0.097999997437 1224.0
1.0039999485 -0.104999996722 0.097999997437 1223.0
0.999000012875 -0.111000001431 0.097999997437 1228.0
0.995999991894 -0.115999996662 0.097999997437 1256.0
0.995000004768 -0.122000001371 0.097999997437 1250.0
0.991999983788 -0.127000004053 0.097999997437 1265.0
0.992999970913 -0.133000001311 0.097999997437 1262.0
0.991999983788 -0.138999998569 0.097999997437 1287.0
0.986999988556 -0.143999993801 0.097000002861 1285.0
0.986999988556 -0.15000000596 0.097000002861 1247.0
0.977999985218 -0.153999999166 0.097000002861 453.0
0.949999988079 -0.155000001192 0.0939999967813 175.0
0.93599998951 -0.158999994397 0.0930000022054 173.0
0.940999984741 -0.165000006557 0.0930000022054 170.0
0.944999992847 -0.172000005841 0.0939999967813 168.0
0.964999973774 -0.180999994278 0.0960000008345 185.0
0.940999984741 -0.181999996305 0.0939999967813 176.0
0.935000002384 -0.186000004411 0.0930000022054 177.0
0.958000004292 -0.196999996901 0.0960000008345 182.0
0.947000026703 -0.201000005007 0.0949999988079 181.0
0.936999976635 -0.203999996185 0.0939999967813 181.0
0.916000008583 -0.204999998212 0.0920000001788 191.0
0.93900001049 -0.216000005603 0.0939999967813 188.0
0.929000020027 -0.218999996781 0.0930000022054 193.0
0.958000004292 -0.231999993324 0.0960000008345 525.0
0.959999978542 -0.238999992609 0.097000002861 1342.0
0.953999996185 -0.243000000715 0.0960000008345 1453.0
0.952000021935 -0.248999997973 0.0960000008345 1451.0
0.948000013828 -0.252999991179 0.0960000008345 1458.0
0.948000013828 -0.259000003338 0.0960000008345 1457.0
0.944000005722 -0.263999998569 0.0960000008345 1482.0
0.945999979973 -0.270999997854 0.0960000008345 1492.0
0.945999979973 -0.277000010014 0.0960000008345 1473.0
0.944000005722 -0.282000005245 0.0960000008345 1490.0
0.936999976635 -0.286000013351 0.0960000008345 1511.0
0.940999984741 -0.293000012636 0.0960000008345 1507.0
0.935000002384 -0.298000007868 0.0960000008345 1521.0
0.93599998951 -0.303999990225 0.0960000008345 1522.0
0.933000028133 -0.308999985456 0.0960000008345 1505.0
0.916000008583 -0.310000002384 0.0949999988079 656.0
0.939999997616 -0.324000000954 0.097000002861 233.0
0.907999992371 -0.319000005722 0.0939999967813 206.0
0.903999984264 -0.323000013828 0.0939999967813 204.0
0.893999993801 -0.326000005007 0.0930000022054 206.0
0.901000022888 -0.335000008345 0.0939999967813 204.0
0.901000022888 -0.340999990702 0.0939999967813 204.0
0.912000000477 -0.351000010967 0.0960000008345 209.0
0.875999987125 -0.342999994755 0.0920000001788 216.0
0.885999977589 -0.352999985218 0.0930000022054 217.0
0.898999989033 -0.365000009537 0.0949999988079 207.0
0.889999985695 -0.36700001359 0.0939999967813 212.0
0.870999991894 -0.365999996662 0.0920000001788 214.0
0.879000008106 -0.375 0.0930000022054 208.0
0.898999989033 -0.391000002623 0.0960000008345 740.0
0.903999984264 -0.398999989033 0.097000002861 1515.0
0.902000010014 -0.405000001192 0.097000002861 1598.0
0.897000014782 -0.409000009298 0.0960000008345 1621.0
0.899999976158 -0.416999995708 0.097000002861 1590.0
0.893999993801 -0.421000003815 0.097000002861 1627.0
0.887000024319 -0.423999994993 0.0960000008345 1631.0
0.888999998569 -0.432000011206 0.097000002861 1628.0
0.884999990463 -0.437000006437 0.0960000008345 1640.0
0.887000024319 -0.444000005722 0.097000002861 1625.0
0.89099997282 -0.45300000906 0.097999997437 1637.0
0.885999977589 -0.458000004292 0.097000002861 1643.0
0.882000029087 -0.462000012398 0.097000002861 1626.0
0.876999974251 -0.467000007629 0.097000002861 1633.0
0.865999996662 -0.467999994755 0.0960000008345 724.0
0.84399998188 -0.462000012398 0.0939999967813 263.0
0.85799998045 -0.477999985218 0.0960000008345 216.0
0.991999983788 0.570999979973 0.10000000149 391.0
1.01400005817 0.574999988079 0.101999998093 366.0
1.01300001144 0.566999971867 0.101000003517 335.0
0.973999977112 0.537000000477 0.097000002861 318.0
0.978999972343 0.532000005245 0.097000002861 307.0
0.978999972343 0.523999989033 0.097000002861 286.0
0.976000010967 0.514999985695 0.097000002861 256.0
0.986999988556 0.513000011444 0.097000002861 235.0
0.994000017643 0.508000016212 0.097999997437 212.0
0.935000002384 0.470999985933 0.0920000001788 256.0
0.953999996185 0.472999989986 0.0930000022054 306.0
0.973999977112 0.476000010967 0.0949999988079 294.0
0.957000017166 0.45300000906 0.0930000022054 253.0
0.961000025272 0.448000013828 0.0930000022054 218.0
0.978999972343 0.442000001669 0.0949999988079 168.0
0.967000007629 0.428999990225 0.0930000022054 155.0
0.931999981403 0.40000000596 0.0890000015497 120.0
0.945999979973 0.40000000596 0.0909999981523 102.0
1.01100003719 0.419999986887 0.097000002861 81.0
0.873000025749 0.351000010967 0.082999996841 68.0
4.41599988937 1.53299999237 0.423000007868 62.0
4.35300016403 1.48199999332 0.416000008583 67.0
4.35699987411 1.45500004292 0.416000008583 64.0
4.37200021744 1.43099999428 0.416999995708 62.0
4.34000015259 1.39199995995 0.412999987602 62.0
4.36800003052 1.37300002575 0.414999991655 64.0
4.43200016022 1.36399996281 0.421000003815 63.0
4.28200006485 1.29100000858 0.405999988317 64.0
4.36299991608 1.28699994087 0.412999987602 62.0
4.38700008392 1.26600003242 0.414999991655 59.0
4.33500003815 1.22300004959 0.409999996424 65.0
4.40500020981 1.21500003338 0.416000008583 62.0
4.30399990082 1.15999996662 0.405999988317 59.0
4.42399978638 1.16400003433 0.416999995708 60.0
4.42199993134 1.13600003719 0.416000008583 61.0
4.34700012207 1.09000003338 0.409000009298 60.0
4.41900014877 1.08000004292 0.414999991655 55.0
4.3220000267 1.02999997139 0.405999988317 62.0
4.3140001297 1.00199997425 0.405000001192 63.0
4.34700012207 0.955999970436 0.407000005245 60.0
4.31300020218 0.92199999094 0.402999997139 59.0
4.3140001297 0.896000027657 0.402999997139 62.0
4.31300020218 0.870000004768 0.402999997139 62.0
4.32899999619 0.847000002861 0.404000014067 62.0
1.00600004196 -0.0649999976158 0.0920000001788 425.0
1.01100003719 -0.0710000023246 0.0930000022054 1152.0
1.00899994373 -0.0769999995828 0.0930000022054 1189.0
1.00800001621 -0.082999996841 0.0930000022054 1196.0
1.0039999485 -0.0879999995232 0.0920000001788 1207.0
1.00800001621 -0.0939999967813 0.0930000022054 1219.0
1.00600004196 -0.10000000149 0.0930000022054 1224.0
1.0039999485 -0.104999996722 0.0930000022054 1228.0
0.996999979019 -0.111000001431 0.0920000001788 1245.0
0.995000004768 -0.115999996662 0.0920000001788 1259.0
0.999000012875 -0.122000001371 0.0920000001788 1254.0
0.990000009537 -0.127000004053 0.0920000001788 1280.0
0.987999975681 -0.133000001311 0.0909999981523 1275.0
0.990000009537 -0.138999998569 0.0920000001788 1280.0
0.981000006199 -0.143000006676 0.0909999981523 1290.0
0.986000001431 -0.15000000596 0.0920000001788 1251.0
0.976000010967 -0.153999999166 0.0909999981523 452.0
0.948000013828 -0.155000001192 0.0879999995232 176.0
0.963999986649 -0.16400000453 0.0900000035763 177.0
0.959999978542 -0.168999999762 0.0890000015497 167.0
0.944000005722 -0.171000003815 0.0879999995232 177.0
0.959999978542 -0.180000007153 0.0900000035763 180.0
0.955999970436 -0.185000002384 0.0890000015497 181.0
0.952000021935 -0.189999997616 0.0890000015497 179.0
0.939999997616 -0.193000003695 0.0879999995232 177.0
0.940999984741 -0.199000000954 0.0879999995232 183.0
0.945999979973 -0.206000000238 0.0890000015497 180.0
0.940999984741 -0.21099999547 0.0890000015497 189.0
0.939999997616 -0.216000005603 0.0890000015497 192.0
0.944999992847 -0.223000004888 0.0890000015497 193.0
0.955999970436 -0.231999993324 0.0900000035763 522.0
0.958000004292 -0.238000005484 0.0909999981523 1353.0
0.955999970436 -0.244000002742 0.0909999981523 1449.0
0.952000021935 -0.247999995947 0.0900000035763 1463.0
0.952000021935 -0.254000008106 0.0909999981523 1472.0
0.947000026703 -0.259000003338 0.0900000035763 1481.0
0.945999979973 -0.264999985695 0.0900000035763 1478.0
0.947000026703 -0.270999997854 0.0909999981523 1493.0
0.944999992847 -0.275999993086 0.0909999981523 1489.0
0.941999971867 -0.280999988317 0.0900000035763 1492.0
0.943000018597 -0.287999987602 0.0909999981523 1495.0
0.93599998951 -0.291999995708 0.0900000035763 1521.0
0.935000002384 -0.29699999094 0.0900000035763 1523.0
0.930999994278 -0.301999986172 0.0900000035763 1529.0
0.93599998951 -0.310000002384 0.0909999981523 1514.0
0.925999999046 -0.312999993563 0.0900000035763 668.0
0.902000010014 -0.31099998951 0.0879999995232 234.0
0.908999979496 -0.319000005722 0.0890000015497 205.0
0.883000016212 -0.316000014544 0.0860000029206 208.0
0.884000003338 -0.321999996901 0.0860000029206 212.0
0.874000012875 -0.324000000954 0.0860000029206 205.0
0.893999993801 -0.337999999523 0.0879999995232 208.0
0.888000011444 -0.342000007629 0.0869999974966 207.0
0.903999984264 -0.354000002146 0.0890000015497 212.0
0.902000010014 -0.358999997377 0.0890000015497 214.0
0.887000024319 -0.360000014305 0.0879999995232 211.0
0.869000017643 -0.358000010252 0.0860000029206 207.0
0.878000020981 -0.368000000715 0.0879999995232 220.0
0.873000025749 -0.372999995947 0.0869999974966 218.0
0.898000001907 -0.389999985695 0.0900000035763 714.0
0.90499997139 -0.398999989033 0.0909999981523 1505.0
0.898000001907 -0.402999997139 0.0909999981523 1612.0
0.899999976158 -0.409999996424 0.0909999981523 1618.0
0.894999980927 -0.414999991655 0.0909999981523 1609.0
0.898999989033 -0.423000007868 0.0909999981523 1627.0
0.896000027657 -0.428000003099 0.0909999981523 1636.0
0.89200001955 -0.432999998331 0.0909999981523 1640.0
0.89099997282 -0.439999997616 0.0909999981523 1625.0
0.884999990463 -0.442999988794 0.0909999981523 1627.0
0.888999998569 -0.451999992132 0.0920000001788 1648.0
0.884000003338 -0.456000000238 0.0909999981523 1652.0
0.878000020981 -0.460000008345 0.0909999981523 1639.0
0.880999982357 -0.469000011683 0.0920000001788 1647.0
0.867999970913 -0.469000011683 0.0909999981523 756.0
0.847999989986 -0.463999986649 0.0890000015497 260.0
0.846000015736 -0.470999985933 0.0890000015497 215.0
1.95299994946 1.125 0.186000004411 88.0
2.07299995422 1.17700004578 0.196999996901 125.0
1.78199994564 0.996999979019 0.167999997735 81.0
3.91100001335 1.51600003242 0.354000002146 63.0
3.92600011826 1.49500000477 0.354000002146 61.0
3.992000103 1.49300003052 0.360000014305 71.0
4.22599983215 1.4659999609 0.379000008106 68.0
4.24100017548 1.44299995899 0.379999995232 69.0
4.26999998093 1.42499995232 0.381999999285 67.0
4.242000103 1.38800001144 0.379000008106 66.0
4.25500011444 1.36399996281 0.379000008106 68.0
4.3220000267 1.35800004005 0.384999990463 74.0
4.27500009537 1.31500005722 0.379999995232 62.0
4.27799987793 1.2879999876 0.379999995232 65.0
4.24499988556 1.25100004673 0.375999987125 71.0
4.30800008774 1.24199998379 0.381999999285 71.0
4.34299993515 1.22500002384 0.384000003338 69.0
4.30999994278 1.18799996376 0.381000012159 67.0
4.18699979782 1.12800002098 0.370000004768 63.0
4.34299993515 1.14300000668 0.38299998641 66.0
4.3060002327 1.10599994659 0.379999995232 65.0
4.29300022125 1.0759999752 0.377999991179 71.0
4.27199983597 1.04400002956 0.375999987125 73.0
4.32800006866 1.03100001812 0.379999995232 65.0
4.29699993134 0.996999979019 0.377000004053 72.0
4.25400018692 0.961000025272 0.372999995947 67.0
4.26700019836 0.938000023365 0.374000012875 68.0
4.23299980164 0.903999984264 0.370999991894 65.0
4.29799985886 0.89200001955 0.375999987125 64.0
4.33699989319 0.874000012875 0.379999995232 62.0
4.38700008392 0.856999993324 0.384000003338 58.0
1.02100002766 -0.0659999996424 0.0879999995232 444.0
1.01499998569 -0.0710000023246 0.0869999974966 1160.0
1.00600004196 -0.0769999995828 0.0869999974966 1187.0
1.00999999046 -0.082999996841 0.0869999974966 1197.0
1.00600004196 -0.0879999995232 0.0869999974966 1202.0
1.00300002098 -0.0939999967813 0.0860000029206 1221.0
0.996999979019 -0.0989999994636 0.0860000029206 1224.0
1.00300002098 -0.104999996722 0.0869999974966 1228.0
0.995000004768 -0.109999999404 0.0860000029206 1235.0
1.0 -0.116999998689 0.0860000029206 1262.0
0.990000009537 -0.120999999344 0.0860000029206 1261.0
0.989000022411 -0.127000004053 0.0860000029206 1262.0
0.986000001431 -0.131999999285 0.0860000029206 1271.0
0.986000001431 -0.137999996543 0.0860000029206 1288.0
0.990000009537 -0.144999995828 0.0860000029206 1292.0
0.986000001431 -0.15000000596 0.0860000029206 1237.0
0.976000010967 -0.153999999166 0.0850000008941 444.0
0.952000021935 -0.156000003219 0.082999996841 180.0
0.943000018597 -0.159999996424 0.082000002265 178.0
0.958000004292 -0.167999997735 0.0839999988675 176.0
0.949999988079 -0.172000005841 0.082999996841 177.0
0.955999970436 -0.179000005126 0.0839999988675 179.0
0.945999979973 -0.182999998331 0.082999996841 183.0
0.93900001049 -0.187000006437 0.082000002265 184.0
0.920000016689 -0.188999995589 0.0810000002384 176.0
0.927999973297 -0.195999994874 0.082000002265 181.0
0.944000005722 -0.204999998212 0.082999996841 188.0
0.925999999046 -0.207000002265 0.082000002265 183.0
0.93599998951 -0.215000003576 0.082999996841 183.0
0.945999979973 -0.223000004888 0.0839999988675 190.0
0.95300000906 -0.231000006199 0.0839999988675 528.0
0.958999991417 -0.238000005484 0.0850000008941 1347.0
0.955999970436 -0.243000000715 0.0850000008941 1456.0
0.954999983311 -0.248999997973 0.0850000008941 1458.0
0.949999988079 -0.254000008106 0.0850000008941 1482.0
0.949000000954 -0.259000003338 0.0850000008941 1483.0
0.948000013828 -0.264999985695 0.0850000008941 1479.0
0.945999979973 -0.270999997854 0.0850000008941 1491.0
0.944999992847 -0.275999993086 0.0850000008941 1493.0
0.944999992847 -0.282000005245 0.0850000008941 1503.0
0.939999997616 -0.287000000477 0.0850000008941 1515.0
0.939999997616 -0.293000012636 0.0850000008941 1517.0
0.93599998951 -0.298000007868 0.0850000008941 1533.0
0.931999981403 -0.303000003099 0.0850000008941 1542.0
0.933000028133 -0.308999985456 0.0850000008941 1528.0
0.926999986172 -0.312999993563 0.0839999988675 683.0
0.90600001812 -0.312000006437 0.082999996841 232.0
0.894999980927 -0.31400001049 0.082000002265 204.0
0.912999987602 -0.326999992132 0.0839999988675 215.0
0.910000026226 -0.331999987364 0.0839999988675 210.0
0.907000005245 -0.33599999547 0.082999996841 211.0
0.884999990463 -0.333999991417 0.0810000002384 219.0
0.893999993801 -0.344000011683 0.082999996841 210.0
0.894999980927 -0.34999999404 0.082999996841 216.0
0.90600001812 -0.361000001431 0.0839999988675 211.0
0.873000025749 -0.354000002146 0.0810000002384 211.0
0.910000026226 -0.375 0.0850000008941 216.0
0.883000016212 -0.370000004768 0.082999996841 211.0
0.896000027657 -0.381999999285 0.0839999988675 219.0
0.893999993801 -0.388000011444 0.0839999988675 702.0
0.902999997139 -0.398000001907 0.0850000008941 1515.0
0.898999989033 -0.402999997139 0.0850000008941 1615.0
0.902999997139 -0.411000013351 0.0860000029206 1612.0
0.90499997139 -0.418999999762 0.0860000029206 1616.0
0.897000014782 -0.42199999094 0.0860000029206 1630.0
0.89200001955 -0.425999999046 0.0850000008941 1626.0
0.887000024319 -0.430999994278 0.0850000008941 1649.0
0.89099997282 -0.43900001049 0.0860000029206 1649.0
0.888000011444 -0.444999992847 0.0860000029206 1642.0
0.884999990463 -0.449999988079 0.0860000029206 1651.0
0.884000003338 -0.456000000238 0.0860000029206 1647.0
0.878000020981 -0.460000008345 0.0860000029206 1643.0
0.882000029087 -0.469000011683 0.0860000029206 1644.0
0.875 -0.472000002861 0.0860000029206 797.0
0.850000023842 -0.465999990702 0.0839999988675 265.0
0.830999970436 -0.462000012398 0.082000002265 218.0
2.17499995232 1.25300002098 0.193000003695 139.0
2.20399999619 1.25100004673 0.194999992847 173.0
2.19499993324 1.22699999809 0.194000005722 99.0
2.19600009918 1.21099996567 0.193000003695 81.0
3.3900001049 1.40799999237 0.287000000477 77.0
3.5 1.40499997139 0.296000003815 65.0
3.98699998856 1.5720000267 0.337000012398 71.0
3.83599996567 1.48599994183 0.323000013828 82.0
3.84599995613 1.46399998665 0.323000013828 91.0
3.84400010109 1.43599998951 0.323000013828 84.0
4.29600000381 1.49000000954 0.358999997377 74.0
4.1939997673 1.42700004578 0.34999999404 89.0
4.22800016403 1.40999996662 0.351999998093 94.0
4.24900007248 1.38900005817 0.352999985218 89.0
4.22100019455 1.35300004482 0.351000010967 90.0
4.25099992752 1.33500003815 0.352999985218 84.0
4.1810002327 1.28499996662 0.345999985933 87.0
4.18800020218 1.26100003719 0.347000002861 88.0
4.23799991608 1.24800002575 0.34999999404 90.0
4.21199989319 1.21399998665 0.347999989986 92.0
4.22900009155 1.19200003147 0.349000006914 92.0
4.18499994278 1.15299999714 0.344999998808 90.0
4.24800014496 1.14300000668 0.34999999404 95.0
4.20200014114 1.10500001907 0.344999998808 91.0
4.18499994278 1.07400000095 0.344000011683 92.0
4.22200012207 1.05700004101 0.347000002861 89.0
4.24800014496 1.0379999876 0.347999989986 92.0
4.28900003433 1.02100002766 0.351000010967 95.0
4.26900005341 0.990000009537 0.349000006914 97.0
4.27099990845 0.963999986649 0.349000006914 91.0
4.23600006104 0.930000007153 0.345999985933 91.0
4.22499990463 0.902000010014 0.344999998808 101.0
4.20399999619 0.871999979019 0.342999994755 96.0
4.28399991989 0.862999975681 0.34999999404 94.0
4.3189997673 0.84399998188 0.351999998093 73.0
1.01199996471 -0.0649999976158 0.0810000002384 455.0
1.01600003242 -0.0710000023246 0.082000002265 1159.0
1.00499999523 -0.0759999975562 0.0810000002384 1194.0
1.00800001621 -0.082999996841 0.0810000002384 1203.0
1.00300002098 -0.0879999995232 0.0810000002384 1201.0
1.0 -0.0930000022054 0.0799999982119 1213.0
1.00199997425 -0.0989999994636 0.0810000002384 1233.0
0.999000012875 -0.104999996722 0.0799999982119 1235.0
0.995999991894 -0.109999999404 0.0799999982119 1245.0
0.992999970913 -0.115999996662 0.0799999982119 1239.0
0.995999991894 -0.122000001371 0.0799999982119 1262.0
0.995000004768 -0.12800000608 0.0799999982119 1268.0
0.989000022411 -0.133000001311 0.0799999982119 1280.0
0.985000014305 -0.137999996543 0.0799999982119 1301.0
0.990000009537 -0.143999993801 0.0799999982119 1295.0
0.987999975681 -0.15000000596 0.0799999982119 1237.0
0.972000002861 -0.152999997139 0.0790000036359 437.0
0.967000007629 -0.158000007272 0.0790000036359 177.0
0.950999975204 -0.16099999845 0.0769999995828 175.0
0.948000013828 -0.165999993682 0.0769999995828 172.0
0.962999999523 -0.17499999702 0.0780000016093 175.0
0.925000011921 -0.172999992967 0.0750000029802 180.0
0.959999978542 -0.186000004411 0.0780000016093 181.0
0.938000023365 -0.187000006437 0.0769999995828 184.0
0.940999984741 -0.193000003695 0.0769999995828 177.0
0.944000005722 -0.20000000298 0.0769999995828 182.0
0.940999984741 -0.204999998212 0.0769999995828 190.0
0.945999979973 -0.211999997497 0.0780000016093 188.0
0.941999971867 -0.216000005603 0.0780000016093 192.0
0.949000000954 -0.224000006914 0.0780000016093 195.0
0.943000018597 -0.228000000119 0.0780000016093 527.0
0.958000004292 -0.238000005484 0.0790000036359 1353.0
0.95300000906 -0.243000000715 0.0790000036359 1453.0
0.95300000906 -0.247999995947 0.0790000036359 1475.0
0.950999975204 -0.254000008106 0.0790000036359 1480.0
0.944999992847 -0.25799998641 0.0790000036359 1488.0
0.945999979973 -0.264999985695 0.0790000036359 1488.0
0.945999979973 -0.270000010729 0.0790000036359 1494.0
0.941999971867 -0.27500000596 0.0790000036359 1496.0
0.943000018597 -0.282000005245 0.0790000036359 1495.0
0.941999971867 -0.287000000477 0.0790000036359 1513.0
0.93599998951 -0.291999995708 0.0790000036359 1522.0
0.935000002384 -0.29699999094 0.0790000036359 1529.0
0.929000020027 -0.301999986172 0.0790000036359 1534.0
0.936999976635 -0.310000002384 0.0790000036359 1514.0
0.929000020027 -0.31400001049 0.0790000036359 688.0
0.908999979496 -0.312999993563 0.0769999995828 233.0
0.902000010014 -0.316000014544 0.0769999995828 212.0
0.913999974728 -0.326999992132 0.0780000016093 206.0
0.882000029087 -0.321000009775 0.0750000029802 210.0
0.898999989033 -0.333000004292 0.0769999995828 209.0
0.915000021458 -0.345999985933 0.0790000036359 209.0
0.901000022888 -0.345999985933 0.0780000016093 212.0
0.899999976158 -0.351999998093 0.0780000016093 214.0
0.90600001812 -0.361000001431 0.0790000036359 212.0
0.865000009537 -0.34999999404 0.0750000029802 219.0
0.878000020981 -0.361999988556 0.0759999975562 217.0
0.885999977589 -0.370999991894 0.0769999995828 215.0
0.873000025749 -0.372000008821 0.0759999975562 222.0
0.899999976158 -0.389999985695 0.0790000036359 674.0
0.898000001907 -0.395999997854 0.0790000036359 1517.0
0.898999989033 -0.402999997139 0.0790000036359 1616.0
0.898999989033 -0.409000009298 0.0799999982119 1616.0
0.899999976158 -0.416000008583 0.0799999982119 1622.0
0.887000024319 -0.416999995708 0.0790000036359 1625.0
0.894999980927 -0.428000003099 0.0799999982119 1640.0
0.89099997282 -0.432000011206 0.0799999982119 1644.0
0.889999985695 -0.43900001049 0.0799999982119 1644.0
0.888999998569 -0.444999992847 0.0799999982119 1653.0
0.884000003338 -0.449000000954 0.0799999982119 1664.0
0.884000003338 -0.456000000238 0.0799999982119 1654.0
0.882000029087 -0.462000012398 0.0799999982119 1645.0
0.876999974251 -0.465999990702 0.0799999982119 1659.0
0.874000012875 -0.472000002861 0.0799999982119 819.0
0.847999989986 -0.463999986649 0.0780000016093 265.0
0.842999994755 -0.467999994755 0.0780000016093 211.0
2.19099998474 1.26100003719 0.180000007153 184.0
2.23799991608 1.26900005341 0.182999998331 233.0
2.22799992561 1.24500000477 0.181999996305 128.0
2.30599999428 1.26999998093 0.187999993563 99.0
3.38000011444 1.40299999714 0.264999985695 84.0
3.39800000191 1.38600003719 0.266000002623 83.0
4.1970000267 1.65400004387 0.32800000906 66.0
3.86599993706 1.49699997902 0.301999986172 111.0
3.86100006104 1.46899998188 0.300999999046 99.0
3.90499997139 1.45899999142 0.303999990225 86.0
4.03299999237 1.47899997234 0.312999993563 60.0
4.21500015259 1.51699995995 0.326999992132 60.0
4.22200012207 1.46399998665 0.326999992132 97.0
4.18200016022 1.42200005054 0.323000013828 107.0
4.1970000267 1.39900004864 0.324000000954 108.0
4.20599985123 1.375 0.324000000954 101.0
4.22700023651 1.35399997234 0.326000005007 106.0
4.23199987411 1.32799994946 0.324999988079 100.0
4.24900007248 1.30599999428 0.326000005007 98.0
4.2389998436 1.27499997616 0.324999988079 101.0
4.22399997711 1.24399995804 0.324000000954 96.0
4.28299999237 1.23399996758 0.32800000906 102.0
4.25099992752 1.19799995422 0.324999988079 100.0
4.22599983215 1.16400003433 0.323000013828 102.0
4.27400016785 1.14999997616 0.326000005007 99.0
4.28599977493 1.12600004673 0.326999992132 95.0
4.22100019455 1.08299994469 0.321999996901 102.0
4.30100011826 1.07700002193 0.326999992132 98.0
4.23400020599 1.03299999237 0.321999996901 101.0
4.26599979401 1.01499998569 0.324000000954 88.0
4.23699998856 0.981999993324 0.321999996901 91.0
4.20300006866 0.948000013828 0.319000005722 98.0
4.24900007248 0.933000028133 0.321999996901 94.0
4.26200008392 0.908999979496 0.323000013828 103.0
4.30499982834 0.893000006676 0.326000005007 100.0
4.23600006104 0.852999985218 0.321000009775 104.0
4.32100009918 0.84399998188 0.326999992132 72.0
1.01600003242 -0.0659999996424 0.0750000029802 478.0
1.00999999046 -0.0710000023246 0.0750000029802 1171.0
1.00800001621 -0.0769999995828 0.0750000029802 1198.0
1.00999999046 -0.082999996841 0.0750000029802 1196.0
1.0039999485 -0.0879999995232 0.0750000029802 1207.0
1.00600004196 -0.0939999967813 0.0750000029802 1231.0
1.00499999523 -0.10000000149 0.0750000029802 1231.0
1.00199997425 -0.104999996722 0.0750000029802 1230.0
1.0 -0.111000001431 0.0750000029802 1236.0
0.994000017643 -0.115999996662 0.0740000009537 1256.0
0.992999970913 -0.122000001371 0.0740000009537 1264.0
0.992999970913 -0.127000004053 0.0740000009537 1264.0
0.995000004768 -0.134000003338 0.0750000029802 1284.0
0.990999996662 -0.138999998569 0.0740000009537 1301.0
0.977999985218 -0.143000006676 0.0740000009537 1309.0
0.98299998045 -0.149000003934 0.0740000009537 1243.0
0.990000009537 -0.156000003219 0.0750000029802 422.0
0.973999977112 -0.158999994397 0.0729999989271 178.0
0.930999994278 -0.158000007272 0.070000000298 175.0
0.950999975204 -0.166999995708 0.0719999969006 178.0
0.949999988079 -0.172000005841 0.0719999969006 177.0
0.949000000954 -0.178000003099 0.0719999969006 180.0
0.938000023365 -0.180999994278 0.0710000023246 180.0
0.936999976635 -0.187000006437 0.0710000023246 186.0
0.910000026226 -0.187000006437 0.0689999982715 178.0
0.939999997616 -0.199000000954 0.0719999969006 188.0
0.935000002384 -0.202999994159 0.0710000023246 194.0
0.939999997616 -0.209999993443 0.0719999969006 189.0
0.938000023365 -0.215000003576 0.0719999969006 188.0
0.936999976635 -0.221000000834 0.0719999969006 196.0
0.954999983311 -0.231000006199 0.0729999989271 532.0
0.954999983311 -0.237000003457 0.0729999989271 1372.0
0.955999970436 -0.243000000715 0.0740000009537 1461.0
0.952000021935 -0.247999995947 0.0729999989271 1474.0
0.949000000954 -0.252999991179 0.0729999989271 1485.0
0.952000021935 -0.259999990463 0.0740000009537 1492.0
0.945999979973 -0.263999998569 0.0729999989271 1488.0
0.945999979973 -0.270000010729 0.0729999989271 1508.0
0.944000005722 -0.275999993086 0.0729999989271 1507.0
0.944999992847 -0.282000005245 0.0740000009537 1501.0
0.939999997616 -0.287000000477 0.0729999989271 1507.0
0.936999976635 -0.291999995708 0.0729999989271 1530.0
0.934000015259 -0.29699999094 0.0729999989271 1523.0
0.933000028133 -0.303000003099 0.0729999989271 1540.0
0.929000020027 -0.307000011206 0.0729999989271 1529.0
0.929000020027 -0.312999993563 0.0729999989271 700.0
0.907999992371 -0.312000006437 0.0719999969006 235.0
0.902000010014 -0.316000014544 0.0710000023246 214.0
0.89099997282 -0.317999988794 0.0710000023246 215.0
0.90600001812 -0.330000013113 0.0719999969006 212.0
0.894999980927 -0.331999987364 0.0710000023246 210.0
0.887000024319 -0.335000008345 0.0710000023246 214.0
0.893000006676 -0.342999994755 0.0710000023246 207.0
0.897000014782 -0.351000010967 0.0719999969006 218.0
0.879000008106 -0.34999999404 0.0710000023246 219.0
0.903999984264 -0.365999996662 0.0729999989271 223.0
0.880999982357 -0.363000005484 0.0710000023246 219.0
0.884000003338 -0.370000004768 0.0719999969006 213.0
0.879000008106 -0.375 0.0710000023246 221.0
0.893999993801 -0.386999994516 0.0729999989271 665.0
0.901000022888 -0.397000014782 0.0740000009537 1505.0
0.898000001907 -0.402000010014 0.0740000009537 1628.0
0.894999980927 -0.407000005245 0.0740000009537 1632.0
0.896000027657 -0.41400000453 0.0740000009537 1633.0
0.894999980927 -0.421000003815 0.0740000009537 1641.0
0.889999985695 -0.425000011921 0.0740000009537 1635.0
0.889999985695 -0.432000011206 0.0740000009537 1645.0
0.889999985695 -0.437999993563 0.0740000009537 1646.0
0.894999980927 -0.448000013828 0.0750000029802 1645.0
0.882000029087 -0.448000013828 0.0740000009537 1664.0
0.882000029087 -0.455000013113 0.0740000009537 1647.0
0.882000029087 -0.462000012398 0.0750000029802 1643.0
0.876999974251 -0.465999990702 0.0740000009537 1639.0
0.875 -0.472000002861 0.0740000009537 857.0
0.865000009537 -0.474000006914 0.0740000009537 281.0
0.822000026703 -0.456000000238 0.070000000298 223.0
2.23200011253 1.2840000391 0.168999999762 201.0
2.22099995613 1.25899994373 0.166999995708 234.0
2.23799991608 1.25 0.167999997735 126.0
2.3220000267 1.27799999714 0.173999994993 86.0
3.38499999046 1.40400004387 0.245000004768 73.0
3.88000011444 1.50199997425 0.279000014067 79.0
3.98099994659 1.51400005817 0.286000013351 77.0
4.02299976349 1.50199997425 0.28900000453 73.0
4.30999994278 1.49300003052 0.307000011206 75.0
4.28999996185 1.45799994469 0.305999994278 78.0
4.32000017166 1.43900001049 0.307000011206 74.0
4.26599979401 1.39300000668 0.303000003099 72.0
4.29099988937 1.37399995327 0.305000007153 75.0
4.40999984741 1.38300001621 0.312999993563 76.0
4.39300012589 1.34899997711 0.31099998951 69.0
4.34999990463 1.30799996853 0.307999998331 70.0
4.36199998856 1.2840000391 0.307999998331 64.0
4.35500001907 1.2539999485 0.307000011206 70.0
4.27199983597 1.20299994946 0.300999999046 69.0
4.31300020218 1.18700003624 0.303999990225 66.0
4.4279999733 1.19099998474 0.312000006437 67.0
4.42399978638 1.16199994087 0.31099998951 69.0
4.37799978256 1.12300002575 0.307999998331 68.0
4.36199998856 1.0909999609 0.305999994278 65.0
4.32600021362 1.05499994755 0.303000003099 67.0
4.32000017166 1.02699995041 0.303000003099 68.0
4.40799999237 1.02100002766 0.308999985456 68.0
4.45499992371 1.00499999523 0.312000006437 71.0
4.375 0.959999978542 0.305999994278 73.0
4.29899978638 0.916999995708 0.300000011921 65.0
4.41099977493 0.913999974728 0.307999998331 67.0
4.36000013351 0.876999974251 0.303999990225 64.0
4.22800016403 0.824999988079 0.294999986887 58.0
1.01499998569 -0.0659999996424 0.070000000298 502.0
1.01100003719 -0.0710000023246 0.0689999982715 1168.0
1.00600004196 -0.0769999995828 0.0689999982715 1191.0
1.00699996948 -0.082000002265 0.0689999982715 1206.0
1.00499999523 -0.0879999995232 0.0689999982715 1214.0
0.998000025749 -0.0930000022054 0.0689999982715 1231.0
1.00199997425 -0.0989999994636 0.0689999982715 1219.0
1.0039999485 -0.104999996722 0.0689999982715 1233.0
0.995000004768 -0.109999999404 0.0689999982715 1244.0
0.995999991894 -0.115999996662 0.0689999982715 1262.0
0.996999979019 -0.122000001371 0.0689999982715 1272.0
0.994000017643 -0.12800000608 0.0689999982715 1270.0
0.990999996662 -0.133000001311 0.0689999982715 1281.0
0.992999970913 -0.138999998569 0.0689999982715 1298.0
0.981000006199 -0.143000006676 0.0680000036955 1301.0
0.986999988556 -0.15000000596 0.0689999982715 1251.0
0.981999993324 -0.155000001192 0.0680000036955 432.0
0.948000013828 -0.155000001192 0.0659999996424 179.0
0.958000004292 -0.162000000477 0.0670000016689 177.0
0.958999991417 -0.167999997735 0.0670000016689 176.0
0.953999996185 -0.172999992967 0.0670000016689 178.0
0.975000023842 -0.182999998331 0.0680000036955 183.0
0.957000017166 -0.185000002384 0.0670000016689 184.0
0.944999992847 -0.187999993563 0.0659999996424 182.0
0.966000020504 -0.199000000954 0.0680000036955 179.0
0.961000025272 -0.202999994159 0.0680000036955 188.0
0.962999999523 -0.209000006318 0.0680000036955 191.0
0.921000003815 -0.206000000238 0.0649999976158 188.0
0.955999970436 -0.219999998808 0.0680000036955 190.0
0.936999976635 -0.221000000834 0.0659999996424 196.0
0.948000013828 -0.229000002146 0.0670000016689 546.0
0.953999996185 -0.237000003457 0.0680000036955 1366.0
0.952000021935 -0.241999998689 0.0680000036955 1464.0
0.953999996185 -0.248999997973 0.0680000036955 1466.0
0.945999979973 -0.252000004053 0.0670000016689 1490.0
0.948000013828 -0.259000003338 0.0680000036955 1488.0
0.950999975204 -0.266000002623 0.0680000036955 1491.0
0.943000018597 -0.270000010729 0.0680000036955 1520.0
0.948000013828 -0.277000010014 0.0680000036955 1509.0
0.93900001049 -0.280000001192 0.0680000036955 1501.0
0.939999997616 -0.287000000477 0.0680000036955 1523.0
0.941999971867 -0.293000012636 0.0680000036955 1521.0
0.93599998951 -0.29699999094 0.0680000036955 1531.0
0.939999997616 -0.305000007153 0.0680000036955 1546.0
0.931999981403 -0.307999998331 0.0680000036955 1536.0
0.927999973297 -0.312999993563 0.0680000036955 703.0
0.885999977589 -0.303999990225 0.0649999976158 238.0
0.911000013351 -0.319000005722 0.0670000016689 214.0
0.888000011444 -0.317000001669 0.0649999976158 209.0
0.888000011444 -0.323000013828 0.0649999976158 215.0
0.879999995232 -0.326000005007 0.0649999976158 215.0
0.878000020981 -0.331000000238 0.0649999976158 218.0
0.897000014782 -0.344999998808 0.0659999996424 212.0
0.883000016212 -0.344999998808 0.0649999976158 215.0
0.89200001955 -0.354999989271 0.0659999996424 218.0
0.889999985695 -0.360000014305 0.0659999996424 213.0
0.897000014782 -0.370000004768 0.0670000016689 222.0
0.864000022411 -0.361999988556 0.0649999976158 222.0
0.876999974251 -0.372999995947 0.0659999996424 220.0
0.899999976158 -0.389999985695 0.0680000036955 651.0
0.899999976158 -0.395999997854 0.0680000036955 1519.0
0.899999976158 -0.402999997139 0.0680000036955 1636.0
0.90499997139 -0.412000000477 0.0689999982715 1643.0
0.896000027657 -0.41400000453 0.0680000036955 1624.0
0.894999980927 -0.419999986887 0.0680000036955 1649.0
0.889999985695 -0.425000011921 0.0680000036955 1654.0
0.885999977589 -0.430000007153 0.0680000036955 1636.0
0.893000006676 -0.439999997616 0.0689999982715 1645.0
0.884999990463 -0.442999988794 0.0680000036955 1639.0
0.884000003338 -0.449000000954 0.0689999982715 1648.0
0.880999982357 -0.453999996185 0.0689999982715 1661.0
0.880999982357 -0.46099999547 0.0689999982715 1637.0
0.879000008106 -0.467000007629 0.0689999982715 1652.0
0.876999974251 -0.472999989986 0.0689999982715 876.0
0.855000019073 -0.467999994755 0.0670000016689 277.0
0.834999978542 -0.463999986649 0.0659999996424 215.0
2.2349998951 1.28499996662 0.153999999166 160.0
2.23200011253 1.26499998569 0.153999999166 180.0
2.26399993896 1.26400005817 0.155000001192 112.0
4.13199996948 1.59899997711 0.272000014782 64.0
4.07700014114 1.5490000248 0.268000006676 70.0
4.30499982834 1.49100005627 0.280999988317 70.0
4.40000009537 1.49399995804 0.287000000477 62.0
4.31799983978 1.43799996376 0.280999988317 66.0
4.29300022125 1.40199995041 0.279000014067 68.0
4.36299991608 1.39600002766 0.282999992371 64.0
4.40399980545 1.38100004196 0.286000013351 65.0
4.34299993515 1.33299994469 0.280999988317 65.0
4.38899993896 1.31900000572 0.284000009298 63.0
4.33900022507 1.27600002289 0.280000001192 61.0
4.41499996185 1.27100002766 0.284999996424 63.0
4.47300004959 1.25899994373 0.28900000453 64.0
4.42899990082 1.21800005436 0.284999996424 62.0
4.382999897 1.1779999733 0.282000005245 68.0
4.43200016022 1.16400003433 0.284999996424 62.0
4.41499996185 1.13100004196 0.284000009298 64.0
4.47200012207 1.11800003052 0.287000000477 59.0
4.46000003815 1.08800005913 0.286000013351 62.0
4.45300006866 1.05900001526 0.286000013351 63.0
4.43499994278 1.02699995041 0.284000009298 57.0
4.44099998474 0.973999977112 0.284000009298 61.0
4.46400022507 0.952000021935 0.286000013351 63.0
4.53299999237 0.93900001049 0.289999991655 64.0
4.48600006104 0.902000010014 0.287000000477 67.0
4.51000022888 0.879999995232 0.287999987602 51.0
1.01499998569 -0.0659999996424 0.0640000030398 510.0
1.00999999046 -0.0710000023246 0.0630000010133 1177.0
1.00699996948 -0.0769999995828 0.0630000010133 1202.0
1.00600004196 -0.082000002265 0.0630000010133 1201.0
1.00600004196 -0.0879999995232 0.0630000010133 1212.0
1.0039999485 -0.0939999967813 0.0630000010133 1222.0
0.999000012875 -0.0989999994636 0.0630000010133 1232.0
1.00100004673 -0.104999996722 0.0630000010133 1235.0
0.994000017643 -0.109999999404 0.0630000010133 1246.0
0.995999991894 -0.115999996662 0.0630000010133 1254.0
0.996999979019 -0.122000001371 0.0630000010133 1264.0
0.994000017643 -0.12800000608 0.0630000010133 1283.0
0.986999988556 -0.131999999285 0.0630000010133 1288.0
0.990999996662 -0.138999998569 0.0630000010133 1300.0
0.990000009537 -0.143999993801 0.0630000010133 1296.0
0.98299998045 -0.149000003934 0.0630000010133 1237.0
0.977999985218 -0.153999999166 0.0619999989867 416.0
0.973999977112 -0.158999994397 0.0619999989867 178.0
0.954999983311 -0.162000000477 0.0610000006855 177.0
0.949000000954 -0.165999993682 0.0610000006855 182.0
0.944999992847 -0.171000003815 0.0599999986589 175.0
0.931999981403 -0.17499999702 0.0599999986589 175.0
0.92199999094 -0.178000003099 0.0590000003576 184.0
0.921000003815 -0.182999998331 0.0590000003576 186.0
0.92199999094 -0.188999995589 0.0590000003576 189.0
0.953999996185 -0.202000007033 0.0610000006855 189.0
0.944000005722 -0.204999998212 0.0610000006855 183.0
0.940999984741 -0.209999993443 0.0610000006855 190.0
0.921000003815 -0.21099999547 0.0599999986589 190.0
0.930999994278 -0.219999998808 0.0599999986589 199.0
0.949999988079 -0.230000004172 0.0619999989867 539.0
0.954999983311 -0.237000003457 0.0619999989867 1378.0
0.955999970436 -0.243000000715 0.0619999989867 1468.0
0.955999970436 -0.248999997973 0.0619999989867 1483.0
0.949000000954 -0.252999991179 0.0619999989867 1481.0
0.950999975204 -0.259999990463 0.0619999989867 1485.0
0.944999992847 -0.263999998569 0.0619999989867 1498.0
0.940999984741 -0.268999993801 0.0619999989867 1511.0
0.944000005722 -0.27500000596 0.0619999989867 1492.0
0.944999992847 -0.282000005245 0.0619999989867 1521.0
0.941999971867 -0.287000000477 0.0619999989867 1525.0
0.939999997616 -0.291999995708 0.0619999989867 1536.0
0.934000015259 -0.29699999094 0.0619999989867 1543.0
0.935000002384 -0.303000003099 0.0619999989867 1544.0
0.930000007153 -0.307999998331 0.0619999989867 1532.0
0.930999994278 -0.31400001049 0.0619999989867 714.0
0.916999995708 -0.314999997616 0.0610000006855 237.0
0.913999974728 -0.319999992847 0.0610000006855 210.0
0.898000001907 -0.321000009775 0.0599999986589 218.0
0.907999992371 -0.330000013113 0.0610000006855 213.0
0.883000016212 -0.326999992132 0.0599999986589 211.0
0.884999990463 -0.333999991417 0.0599999986589 219.0
0.875999987125 -0.33599999547 0.0590000003576 212.0
0.893999993801 -0.34999999404 0.0610000006855 214.0
0.884000003338 -0.351999998093 0.0599999986589 211.0
0.874000012875 -0.354000002146 0.0599999986589 207.0
0.899999976158 -0.370999991894 0.0619999989867 214.0
0.878000020981 -0.368000000715 0.0599999986589 223.0
0.884999990463 -0.377000004053 0.0610000006855 224.0
0.901000022888 -0.389999985695 0.0619999989867 637.0
0.901000022888 -0.397000014782 0.0619999989867 1509.0
0.899999976158 -0.402999997139 0.0630000010133 1639.0
0.901000022888 -0.409999996424 0.0630000010133 1647.0
0.894999980927 -0.41400000453 0.0630000010133 1637.0
0.896000027657 -0.421000003815 0.0630000010133 1643.0
0.893999993801 -0.426999986172 0.0630000010133 1653.0
0.889999985695 -0.430999994278 0.0630000010133 1650.0
0.888999998569 -0.437000006437 0.0630000010133 1645.0
0.884999990463 -0.442000001669 0.0630000010133 1654.0
0.883000016212 -0.448000013828 0.0630000010133 1656.0
0.879999995232 -0.453999996185 0.0630000010133 1652.0
0.880999982357 -0.46099999547 0.0630000010133 1635.0
0.879999995232 -0.467000007629 0.0630000010133 1634.0
0.875999987125 -0.472000002861 0.0630000010133 897.0
0.850000023842 -0.465000003576 0.0610000006855 279.0
0.834999978542 -0.462999999523 0.0610000006855 217.0
2.14800000191 1.23399996758 0.134000003338 101.0
2.16400003433 1.22599995136 0.135000005364 125.0
2.16100001335 1.20599997044 0.134000003338 78.0
1.01800000668 0.472999989986 0.0599999986589 85.0
0.925999999046 0.377000004053 0.0540000014007 123.0
0.860000014305 0.344000011683 0.0500000007451 155.0
0.898999989033 0.340999990702 0.0520000010729 150.0
0.89099997282 0.331999987364 0.0520000010729 167.0
0.921000003815 0.331000000238 0.0529999993742 200.0
0.910000026226 0.321000009775 0.0520000010729 209.0
0.805000007153 0.279000014067 0.0460000000894 164.0
0.768000006676 0.261000007391 0.0439999997616 135.0
0.740000009537 0.246000006795 0.0419999994338 140.0
0.824000000954 0.268999993801 0.0469999983907 172.0
0.839999973774 0.268999993801 0.0480000004172 177.0
0.839999973774 0.263000011444 0.0480000004172 151.0
0.820999979973 0.252000004053 0.0469999983907 162.0
0.816999971867 0.246000006795 0.0460000000894 166.0
0.832000017166 0.245000004768 0.0469999983907 165.0
0.856999993324 0.24699999392 0.0489999987185 175.0
0.838999986649 0.236000001431 0.0480000004172 179.0
0.855000019073 0.234999999404 0.0480000004172 182.0
0.899999976158 0.241999998689 0.0509999990463 217.0
0.883000016212 0.231999993324 0.0500000007451 189.0
0.860000014305 0.221000000834 0.0489999987185 187.0
0.861999988556 0.216000005603 0.0489999987185 187.0
0.902999997139 0.219999998808 0.0509999990463 243.0
0.847999989986 0.202000007033 0.0480000004172 199.0
0.885999977589 0.204999998212 0.0500000007451 204.0
0.875 0.197999998927 0.0489999987185 204.0
0.885999977589 0.194999992847 0.0500000007451 199.0
0.861000001431 0.184000000358 0.0480000004172 198.0
0.888999998569 0.185000002384 0.0500000007451 208.0
0.855000019073 0.172000005841 0.0480000004172 202.0
0.89099997282 0.173999994993 0.0500000007451 203.0
1.00300002098 0.189999997616 0.0570000000298 222.0
1.00600004196 0.185000002384 0.0570000000298 236.0
0.98400002718 0.17499999702 0.054999999702 237.0
1.0 0.172000005841 0.0560000017285 230.0
0.989000022411 0.16400000453 0.0560000017285 229.0
1.00699996948 0.16099999845 0.0570000000298 227.0
1.00600004196 0.155000001192 0.0570000000298 239.0
0.98400002718 0.145999997854 0.054999999702 239.0
0.990000009537 0.141000002623 0.0560000017285 229.0
0.98299998045 0.134000003338 0.054999999702 222.0
1.00100004673 0.129999995232 0.0560000017285 214.0
0.987999975681 0.123000003397 0.0560000017285 200.0
0.994000017643 0.118000000715 0.0560000017285 204.0
0.998000025749 0.112999998033 0.0560000017285 210.0
1.0039999485 0.108000002801 0.0570000000298 267.0
1.01699995995 0.103000000119 0.0570000000298 252.0
1.04499995708 0.10000000149 0.0590000003576 200.0
1.00999999046 0.0909999981523 0.0570000000298 194.0
0.998000025749 0.0839999988675 0.0560000017285 198.0
1.00899994373 0.0790000036359 0.0570000000298 199.0
1.00300002098 0.0729999989271 0.0560000017285 331.0
0.998000025749 0.0659999996424 0.0560000017285 238.0
1.02799999714 0.0619999989867 0.0579999983311 218.0
0.985000014305 0.0540000014007 0.054999999702 281.0
1.02600002289 0.0509999990463 0.0579999983311 258.0
1.00300002098 0.0439999997616 0.0570000000298 238.0
1.01400005817 0.0379999987781 0.0570000000298 210.0
1.03699994087 0.0329999998212 0.0590000003576 193.0
1.01800000668 -0.0659999996424 0.0579999983311 537.0
1.00499999523 -0.0710000023246 0.0570000000298 1184.0
1.00800001621 -0.0769999995828 0.0579999983311 1193.0
1.00800001621 -0.082999996841 0.0579999983311 1206.0
1.00199997425 -0.0879999995232 0.0570000000298 1219.0
1.00300002098 -0.0939999967813 0.0570000000298 1223.0
1.00199997425 -0.0989999994636 0.0570000000298 1229.0
1.0 -0.104999996722 0.0570000000298 1227.0
0.998000025749 -0.111000001431 0.0570000000298 1245.0
0.995999991894 -0.115999996662 0.0570000000298 1261.0
0.999000012875 -0.122000001371 0.0570000000298 1258.0
0.986999988556 -0.127000004053 0.0570000000298 1272.0
0.990000009537 -0.133000001311 0.0570000000298 1286.0
0.987999975681 -0.137999996543 0.0570000000298 1307.0
0.98299998045 -0.143000006676 0.0570000000298 1293.0
0.986999988556 -0.15000000596 0.0570000000298 1230.0
0.981000006199 -0.155000001192 0.0570000000298 408.0
0.952000021935 -0.156000003219 0.054999999702 180.0
0.978999972343 -0.165999993682 0.0570000000298 177.0
0.944000005722 -0.165999993682 0.054999999702 178.0
0.966000020504 -0.17499999702 0.0560000017285 177.0
0.933000028133 -0.17499999702 0.0540000014007 179.0
0.901000022888 -0.173999994993 0.0520000010729 181.0
0.944000005722 -0.187999993563 0.054999999702 189.0
0.939999997616 -0.193000003695 0.054999999702 184.0
0.949999988079 -0.201000005007 0.0560000017285 185.0
0.943000018597 -0.204999998212 0.054999999702 187.0
0.934000015259 -0.209000006318 0.054999999702 194.0
0.929000020027 -0.212999999523 0.054999999702 189.0
0.944000005722 -0.223000004888 0.0560000017285 199.0
0.949999988079 -0.230000004172 0.0560000017285 556.0
0.95300000906 -0.236000001431 0.0560000017285 1373.0
0.953999996185 -0.243000000715 0.0560000017285 1468.0
0.952000021935 -0.247999995947 0.0560000017285 1481.0
0.950999975204 -0.254000008106 0.0570000000298 1487.0
