ply
format ascii 1.0
element vertex 990
property float x
property float y
property float z
property float intensity
end_header
4.16300010681 0.42199999094 1.55200004578 118.0
4.1970000267 0.40000000596 1.56400001049 122.0
4.25 0.379000008106 1.58299994469 122.0
4.25099992752 0.352999985218 1.58299994469 126.0
4.22599983215 0.324999988079 1.57299995422 127.0
4.21099996567 0.298000007868 1.56700003147 137.0
4.242000103 0.273999989033 1.57799994946 132.0
4.1939997673 0.245000004768 1.55900001526 125.0
4.20499992371 0.221000000834 1.56299996376 134.0
4.22499990463 0.195999994874 1.57000005245 131.0
4.24100017548 0.171000003815 1.5759999752 133.0
4.20499992371 0.143999993801 1.56299996376 126.0
4.20100021362 0.118000000715 1.56099998951 123.0
4.2389998436 0.0930000022054 1.57500004768 123.0
4.24599981308 0.0680000036955 1.57799994946 128.0
4.22599983215 0.0419999994338 1.57000005245 124.0
4.23999977112 0.01600000076 1.57500004768 117.0
4.22200012207 -0.00800000037998 1.56900000572 120.0
4.23199987411 -0.0340000018477 1.57299995422 113.0
4.23799991608 -0.0599999986589 1.57500004768 113.0
4.25600004196 -0.0860000029206 1.58200001717 119.0
4.23099994659 -0.111000001431 1.57299995422 112.0
4.18400001526 -0.135000005364 1.55599999428 121.0
4.29099988937 -0.165000006557 1.59599995613 112.0
4.22200012207 -0.187999993563 1.57099997997 112.0
4.25400018692 -0.215000003576 1.58399999142 114.0
4.26599979401 -0.241999998689 1.58899998665 112.0
4.20499992371 -0.263999998569 1.56700003147 111.0
4.22499990463 -0.291000008583 1.57500004768 111.0
4.24300003052 -0.317999988794 1.58200001717 107.0
4.25099992752 -0.344999998808 1.58599996567 110.0
4.27699995041 -0.372999995947 1.59599995613 97.0
4.27400016785 -0.398999989033 1.59599995613 104.0
4.25400018692 -0.423000007868 1.59000003338 110.0
4.19199991226 -0.442999988794 1.56700003147 94.0
4.22399997711 -0.472000002861 1.58099997044 97.0
4.24700021744 -0.500999987125 1.59000003338 94.0
4.29400014877 -0.532999992371 1.60899996758 104.0
4.25199985504 -0.554000020027 1.59399998188 103.0
4.27299976349 -0.583000004292 1.60300004482 102.0
4.26499986649 -0.60900002718 1.60199999809 97.0
4.27600002289 -0.637000024319 1.60699999332 101.0
4.24700021744 -0.658999979496 1.59800004959 107.0
4.22399997711 -0.681999981403 1.5909999609 95.0
4.30700016022 -0.722999989986 1.62300002575 96.0
4.25600004196 -0.740999996662 1.60599994659 104.0
4.30700016022 -0.777000010014 1.62699997425 95.0
4.26599979401 -0.79699999094 1.61300003529 100.0
4.3220000267 -0.834999978542 1.63600003719 102.0
4.25500011444 -0.848999977112 1.61199998856 94.0
4.26800012589 -0.879000008106 1.61899995804 103.0
4.29799985886 -0.912000000477 1.63199996948 106.0
4.28900003433 -0.938000023365 1.63100004196 99.0
4.28800010681 -0.964999973774 1.63199996948 93.0
4.32800006866 -1.00300002098 1.64999997616 98.0
4.3189997673 -1.02900004387 1.64900004864 91.0
4.23400020599 -1.03600001335 1.61800003052 95.0
4.30499982834 -1.08099997044 1.64800000191 98.0
4.28100013733 -1.10300004482 1.64100003242 95.0
4.34399986267 -1.14900004864 1.66799998283 89.0
4.37099981308 -1.18499994278 1.67999994755 91.0
4.28000020981 -1.18799996376 1.64800000191 94.0
4.33300018311 -1.23199999332 1.67100000381 100.0
4.29400014877 -1.25 1.6590000391 99.0
4.34299993515 -1.29400002956 1.68099999428 84.0
4.31500005722 -1.31400001049 1.67200005054 89.0
4.31799983978 -1.34500002861 1.67700004578 93.0
4.28100013733 -1.36300003529 1.66499996185 99.0
4.35599994659 -1.41700005531 1.69799995422 94.0
4.31699991226 -1.43400001526 1.68499994278 97.0
4.29699993134 -1.45700001717 1.68099999428 97.0
4.32499980927 -1.49699997902 1.69500005245 100.0
4.27600002289 -1.50999999046 1.67900002003 94.0
4.30200004578 -1.54999995232 1.69299995899 91.0
4.29899978638 -1.57899999619 1.69500005245 89.0
4.28800010681 -1.60599994659 1.69400000572 92.0
4.24800014496 -1.62199997902 1.68200004101 88.0
4.30499982834 -1.67499995232 1.70899999142 92.0
4.35900020599 -1.72699999809 1.73399996758 80.0
4.31300020218 -1.74100005627 1.71899998188 92.0
4.30200004578 -1.76800000668 1.71899998188 91.0
4.34499979019 -1.81799995899 1.74000000954 98.0
4.28299999237 -1.82400000095 1.72000002861 88.0
4.29300022125 -1.86099994183 1.72800004482 87.0
4.22499990463 -1.86300003529 1.70500004292 95.0
4.23799991608 -1.90199995041 1.71399998665 94.0
4.33500003815 -1.97899997234 1.75800001621 90.0
4.22900009155 -1.96300005913 1.72000002861 101.0
4.29199981689 -2.02600002289 1.75 95.0
4.257999897 -2.04399991035 1.74100005627 90.0
4.28700017929 -2.09100008011 1.75699996948 90.0
0.0209999997169 -0.00499999988824 0.00499999988824 101.0
0.0850000008941 -0.0379999987781 0.0320000015199 86.0
0.0599999986589 -0.0260000005364 0.0209999997169 87.0
0.0689999982715 -0.0299999993294 0.0250000003725 93.0
0.0579999983311 -0.0250000003725 0.0209999997169 90.0
0.0890000015497 -0.0419999994338 0.0329999998212 100.0
0.0769999995828 -0.0370000004768 0.0289999991655 100.0
0.141000002623 -0.0729999989271 0.0560000017285 90.0
0.148000001907 -0.0780000016093 0.0590000003576 99.0
2.14899992943 1.32299995422 0.89099997282 240.0
2.12400007248 1.2879999876 0.878000020981 238.0
2.16100001335 1.29100000858 0.889999985695 228.0
2.16100001335 1.27199995518 0.888000011444 163.0
2.20799994469 1.27999997139 0.903999984264 96.0
2.30500006676 1.31700003147 0.940999984741 126.0
2.24799990654 1.26499998569 0.915000021458 227.0
2.34200000763 1.29799997807 0.949999988079 145.0
2.48000001907 1.35399997234 1.0039999485 100.0
3.8180000782 1.54499995708 1.47899997234 79.0
3.96099996567 1.54499995708 1.52699995041 80.0
4.05200004578 1.52199995518 1.55700004101 82.0
4.07100009918 1.5 1.56099998951 77.0
4.12099981308 1.48899996281 1.57700002193 76.0
4.16800022125 1.47699999809 1.59200000763 80.0
4.12799978256 1.43400001526 1.57400000095 90.0
4.20399999619 1.43099999428 1.60000002384 104.0
4.12099981308 1.37399995327 1.56599998474 124.0
4.12099981308 1.34500002861 1.56299996376 124.0
4.18499994278 1.3370000124 1.58500003815 116.0
4.16099977493 1.30099999905 1.57299995422 119.0
4.15999984741 1.27300000191 1.57000005245 114.0
4.19500017166 1.25499999523 1.58099997044 116.0
4.17199993134 1.22000002861 1.57000005245 110.0
4.18200016022 1.19500005245 1.5720000267 119.0
4.16099977493 1.16100001335 1.56200003624 109.0
4.1970000267 1.14300000668 1.57299995422 122.0
4.21299982071 1.12000000477 1.57700002193 121.0
4.14499998093 1.07400000095 1.5490000248 115.0
4.23099994659 1.06900000572 1.57899999619 114.0
4.18400001526 1.02900004387 1.55999994278 124.0
4.15899991989 0.995999991894 1.5490000248 107.0
4.19999980927 0.978999972343 1.56200003624 120.0
4.25099992752 0.962999999523 1.57899999619 119.0
4.19600009918 0.924000024796 1.55700004101 119.0
4.17700004578 0.893000006676 1.5490000248 126.0
4.21099996567 0.873000025749 1.55900001526 113.0
4.25 0.853999972343 1.57299995422 112.0
4.22800016403 0.823000013828 1.56299996376 115.0
4.16900014877 0.785000026226 1.53900003433 104.0
4.22900009155 0.768999993801 1.55999994278 110.0
4.21700000763 0.740999996662 1.55499994755 107.0
4.22599983215 0.716000020504 1.55700004101 111.0
4.23199987411 0.689999997616 1.55799996853 109.0
4.24599981308 0.666000008583 1.56200003624 111.0
4.21600008011 0.634999990463 1.54999995232 111.0
4.20900011063 0.60799998045 1.54600000381 104.0
4.21199989319 0.582000017166 1.54600000381 106.0
4.1810002327 0.551999986172 1.5340000391 109.0
4.28200006485 0.537999987602 1.57000005245 106.0
4.23999977112 0.507000029087 1.5529999733 104.0
4.20599985123 0.476999998093 1.53999996185 105.0
4.257999897 0.456999987364 1.55900001526 100.0
4.25199985504 0.430000007153 1.55599999428 103.0
4.21299982071 0.40000000596 1.54100000858 106.0
4.28499984741 0.381000012159 1.56700003147 105.0
4.20300006866 0.347999989986 1.53600001335 108.0
4.25 0.326000005007 1.5529999733 110.0
4.23600006104 0.298999994993 1.54700005054 108.0
4.23199987411 0.273000001907 1.54499995708 104.0
4.23099994659 0.24699999392 1.54499995708 107.0
4.24100017548 0.222000002861 1.54799997807 107.0
4.21600008011 0.194999992847 1.5379999876 105.0
4.23199987411 0.170000001788 1.54400002956 95.0
4.1890001297 0.143000006676 1.52799999714 98.0
4.25299978256 0.119000002742 1.55099999905 100.0
4.25 0.0930000022054 1.54999995232 102.0
4.22399997711 0.0670000016689 1.54100000858 108.0
4.25299978256 0.0419999994338 1.55099999905 109.0
4.27400016785 0.01600000076 1.55900001526 100.0
4.23299980164 -0.00899999961257 1.54400002956 107.0
4.30900001526 -0.035000000149 1.5720000267 99.0
4.21000003815 -0.0590000003576 1.53600001335 102.0
4.23600006104 -0.0860000029206 1.54600000381 109.0
4.25600004196 -0.112000003457 1.55400002003 102.0
4.24100017548 -0.136999994516 1.5490000248 104.0
4.242000103 -0.163000002503 1.5490000248 101.0
4.27500009537 -0.189999997616 1.56200003624 103.0
4.24100017548 -0.21400000155 1.54999995232 107.0
4.27199983597 -0.241999998689 1.56200003624 106.0
4.21999979019 -0.264999985695 1.54299998283 100.0
4.25299978256 -0.291999995708 1.55599999428 108.0
4.27899980545 -0.319999992847 1.56599998474 103.0
4.25299978256 -0.344000011683 1.55799996853 105.0
4.28800010681 -0.372999995947 1.57099997997 105.0
4.31799983978 -0.402999997139 1.58299994469 103.0
4.27899980545 -0.425000011921 1.57000005245 103.0
4.25600004196 -0.449000000954 1.56200003624 107.0
4.28700017929 -0.479000002146 1.57500004768 107.0
4.27099990845 -0.503000020981 1.57000005245 109.0
4.21999979019 -0.523000001907 1.55200004578 106.0
4.27199983597 -0.555999994278 1.5720000267 102.0
4.257999897 -0.579999983311 1.56900000572 104.0
4.28000020981 -0.610000014305 1.57799994946 106.0
4.31199979782 -0.64099997282 1.5909999609 106.0
4.28299999237 -0.663999974728 1.58200001717 104.0
4.29699993134 -0.693000018597 1.58800005913 98.0
4.28100013733 -0.717000007629 1.58399999142 101.0
4.27799987793 -0.742999970913 1.58399999142 101.0
4.32499980927 -0.778999984264 1.60300004482 102.0
4.28299999237 -0.797999978065 1.59000003338 98.0
4.32999992371 -0.834999978542 1.60899996758 105.0
4.32100009918 -0.860000014305 1.60699999332 99.0
4.29899978638 -0.883000016212 1.60099995136 101.0
4.33599996567 -0.919000029564 1.61699998379 98.0
4.28700017929 -0.93599998951 1.60000002384 99.0
4.33400011063 -0.973999977112 1.62000000477 93.0
4.28399991989 -0.990000009537 1.60300004482 93.0
4.28999996185 -1.01999998093 1.60699999332 107.0
4.34800004959 -1.06200003624 1.63199996948 97.0
4.27199983597 -1.07099997997 1.60500001907 97.0
4.30200004578 -1.10699999332 1.61899995804 96.0
4.30000019073 -1.13499999046 1.62000000477 100.0
4.30700016022 -1.16499996185 1.62600004673 89.0
4.32499980927 -1.19900000095 1.63499999046 89.0
4.30999994278 -1.22300004959 1.63199996948 93.0
4.29099988937 -1.24699997902 1.62699997425 101.0
4.30200004578 -1.27900004387 1.63399994373 104.0
4.31500005722 -1.31200003624 1.64199995995 90.0
4.3060002327 -1.33899998665 1.64100003242 95.0
4.242000103 -1.34800004959 1.62000000477 89.0
4.3060002327 -1.39800000191 1.64699995518 96.0
4.31500005722 -1.42999994755 1.65400004387 94.0
4.32100009918 -1.4620000124 1.6590000391 88.0
4.30200004578 -1.48599994183 1.65499997139 92.0
4.29500007629 -1.51400005817 1.65600001812 98.0
4.33500003815 -1.55900001526 1.6740000248 92.0
4.29899978638 -1.5759999752 1.66400003433 95.0
4.29400014877 -1.60500001907 1.66600000858 89.0
4.30000019073 -1.63800001144 1.67100000381 92.0
4.29300022125 -1.66700005531 1.67200005054 93.0
4.3109998703 -1.70500004292 1.68299996853 98.0
4.30900001526 -1.73599994183 1.68599998951 90.0
4.33400011063 -1.77799999714 1.70000004768 89.0
4.28700017929 -1.78999996185 1.68499994278 87.0
4.22300004959 -1.79499995708 1.66400003433 83.0
4.28999996185 -1.85599994659 1.69500005245 85.0
4.27199983597 -1.87999999523 1.69200003147 89.0
4.32000017166 -1.93499994278 1.71500003338 92.0
4.27400016785 -1.9470000267 1.7009999752 97.0
4.24700021744 -1.96700000763 1.69500005245 91.0
4.26399993896 -2.007999897 1.70599997044 88.0
4.25699996948 -2.03800010681 1.70799994469 92.0
0.01600000076 -0.00300000002608 0.00300000002608 96.0
4.27799987793 -2.117000103 1.72599995136 97.0
4.23600006104 -2.13000011444 1.71399998665 96.0
0.0619999989867 -0.0260000005364 0.0209999997169 99.0
0.0340000018477 -0.0120000001043 0.00999999977648 94.0
0.0140000004321 -0.00200000009499 0.00200000009499 95.0
0.0769999995828 -0.0359999984503 0.0280000008643 88.0
0.0670000016689 -0.0309999994934 0.0240000002086 93.0
2.13199996948 1.30900001526 0.866999983788 233.0
2.12400007248 1.28499996662 0.861000001431 238.0
2.11999988556 1.26400005817 0.856999993324 229.0
2.15400004387 1.26499998569 0.867999970913 146.0
2.27699995041 1.31799995899 0.915000021458 97.0
2.23600006104 1.27499997616 0.896000027657 131.0
2.26399993896 1.27100002766 0.903999984264 232.0
2.35800004005 1.30400002003 0.93900001049 135.0
3.58699989319 1.44799995422 1.36300003529 84.0
3.86100006104 1.53100001812 1.46399998665 86.0
4.02899980545 1.50999999046 1.51900005341 74.0
4.01900005341 1.47800004482 1.51199996471 79.0
4.19500017166 1.48300004005 1.5720000267 76.0
4.19099998474 1.45200002193 1.56799995899 86.0
4.16800022125 1.41499996185 1.55700004101 113.0
4.16699981689 1.38600003719 1.55400002003 120.0
4.18400001526 1.36300003529 1.55700004101 122.0
4.13999986649 1.32000005245 1.5379999876 114.0
4.15600013733 1.29700005054 1.54200005531 128.0
4.15399980545 1.26800000668 1.53900003433 118.0
4.20399999619 1.25499999523 1.55499994755 119.0
4.20599985123 1.22699999809 1.5529999733 122.0
4.19500017166 1.19599997997 1.54700005054 116.0
4.16800022125 1.15999996662 1.53499996662 123.0
4.20300006866 1.14199995995 1.54600000381 116.0
4.17500019073 1.10699999332 1.53299999237 122.0
4.15399980545 1.07400000095 1.52300000191 120.0
4.23000001907 1.06599998474 1.54999995232 119.0
4.20699977875 1.03299999237 1.53900003433 126.0
4.18499994278 1.0 1.52900004387 110.0
4.1970000267 0.976000010967 1.53199994564 125.0
4.17100000381 0.943000018597 1.52100002766 122.0
4.17299985886 0.916999995708 1.51999998093 120.0
4.20599985123 0.897000014782 1.52999997139 115.0
4.19299983978 0.867999970913 1.52400004864 119.0
4.21000003815 0.84399998188 1.52900004387 118.0
4.23099994659 0.822000026703 1.53499996662 112.0
4.21199989319 0.791000008583 1.52699995041 100.0
4.257999897 0.773000001907 1.54200005531 97.0
4.26900005341 0.748000025749 1.54499995708 90.0
4.22499990463 0.713999986649 1.52699995041 84.0
4.25 0.690999984741 1.53499996662 81.0
4.27799987793 0.669000029564 1.54400002956 91.0
4.22800016403 0.634999990463 1.52499997616 84.0
4.24599981308 0.611999988556 1.53100001812 95.0
4.23199987411 0.583000004292 1.52499997616 85.0
4.25400018692 0.560000002384 1.53199994564 84.0
4.27699995041 0.537000000477 1.53900003433 92.0
4.22300004959 0.504000008106 1.51900005341 88.0
4.30200004578 0.486999988556 1.54600000381 86.0
4.29899978638 0.460000008345 1.54400002956 87.0
4.28900003433 0.432999998331 1.53999996185 83.0
4.30700016022 0.407999992371 1.54600000381 83.0
4.29799985886 0.381000012159 1.54200005531 93.0
4.25 0.351000010967 1.52400004864 87.0
4.28200006485 0.326999992132 1.53499996662 86.0
4.26200008392 0.300000011921 1.52799999714 91.0
4.21899986267 0.270999997854 1.51199996471 91.0
4.29400014877 0.25 1.53900003433 93.0
4.28700017929 0.224000006914 1.53600001335 89.0
4.26000022888 0.195999994874 1.52600002289 88.0
4.26000022888 0.171000003815 1.52600002289 96.0
4.25500011444 0.144999995828 1.52300000191 94.0
4.20800018311 0.118000000715 1.50699996948 88.0
4.25099992752 0.0930000022054 1.52199995518 100.0
4.23299980164 0.0670000016689 1.51499998569 98.0
4.36600017548 0.0430000014603 1.56299996376 88.0
4.28900003433 0.01600000076 1.53600001335 99.0
4.28499984741 -0.00899999961257 1.5340000391 90.0
4.20800018311 -0.0340000018477 1.50699996948 103.0
4.24100017548 -0.0599999986589 1.51900005341 95.0
4.30999994278 -0.0869999974966 1.54400002956 95.0
4.28200006485 -0.112000003457 1.5340000391 98.0
4.22900009155 -0.136999994516 1.51499998569 94.0
4.23999977112 -0.163000002503 1.51999998093 101.0
4.31300020218 -0.192000001669 1.54700005054 97.0
4.28000020981 -0.216000005603 1.53499996662 91.0
4.26200008392 -0.240999996662 1.52900004387 96.0
4.30999994278 -0.270000010729 1.54700005054 91.0
4.23799991608 -0.291000008583 1.52199995518 96.0
4.28000020981 -0.319999992847 1.5379999876 99.0
4.29899978638 -0.347999989986 1.54499995708 96.0
4.29799985886 -0.374000012875 1.54600000381 98.0
4.34600019455 -0.404000014067 1.56400001049 98.0
4.24700021744 -0.421000003815 1.52900004387 102.0
4.24300003052 -0.446999996901 1.52900004387 99.0
4.25699996948 -0.474000006914 1.53499996662 97.0
4.25899982452 -0.500999987125 1.53699994087 104.0
4.28599977493 -0.52999997139 1.54700005054 100.0
4.26599979401 -0.554000020027 1.54100000858 106.0
4.26800012589 -0.580999970436 1.54299998283 102.0
4.23699998856 -0.602999985218 1.53299999237 100.0
4.29300022125 -0.638000011444 1.55499994755 102.0
4.27500009537 -0.661000013351 1.54999995232 97.0
4.28900003433 -0.689999997616 1.55599999428 94.0
4.28200006485 -0.716000020504 1.55499994755 100.0
4.26399993896 -0.740000009537 1.54999995232 107.0
4.30700016022 -0.773999989033 1.56700003147 99.0
4.27500009537 -0.795000016689 1.55700004101 103.0
4.26399993896 -0.819999992847 1.55499994755 112.0
4.26499986649 -0.847999989986 1.55700004101 106.0
4.30200004578 -0.882000029087 1.5720000267 105.0
4.32700014114 -0.915000021458 1.58299994469 103.0
4.31599998474 -0.939999997616 1.58099997044 98.0
4.25899982452 -0.954999983311 1.56200003624 111.0
4.29400014877 -0.990999996662 1.57700002193 100.0
4.29400014877 -1.01900005341 1.57899999619 103.0
4.34899997711 -1.05999994278 1.60199999809 102.0
4.27500009537 -1.07000005245 1.57700002193 99.0
4.27600002289 -1.09800004959 1.57899999619 95.0
4.27699995041 -1.12699997425 1.58200001717 94.0
4.29300022125 -1.1590000391 1.59000003338 103.0
4.3189997673 -1.19500005245 1.60199999809 102.0
4.26999998093 -1.21000003815 1.5870000124 94.0
4.28200006485 -1.24199998379 1.59399998188 94.0
4.27899980545 -1.26999998093 1.59500002861 94.0
4.32000017166 -1.31099998951 1.61300003529 97.0
4.32700014114 -1.34300005436 1.61899995804 95.0
4.30399990082 -1.36500000954 1.61300003529 96.0
4.26499986649 -1.38199996948 1.60099995136 101.0
4.3109998703 -1.42599999905 1.62199997902 84.0
4.257999897 -1.43799996376 1.60500001907 95.0
4.33500003815 -1.49500000477 1.63699996471 97.0
4.25699996948 -1.49699997902 1.61000001431 94.0
4.3109998703 -1.54700005054 1.63399994373 90.0
4.32999992371 -1.58399999142 1.64499998093 90.0
4.30000019073 -1.60399997234 1.63699996471 87.0
4.31300020218 -1.63999998569 1.64499998093 89.0
4.25 -1.64600002766 1.625 88.0
4.30200004578 -1.69799995422 1.64800000191 96.0
4.31500005722 -1.73500001431 1.65699994564 90.0
4.29899978638 -1.75999999046 1.65499997139 91.0
4.28499984741 -1.78600001335 1.65299999714 90.0
4.26000022888 -1.80700004101 1.64800000191 89.0
4.30700016022 -1.86000001431 1.66999995708 92.0
4.27099990845 -1.87600004673 1.65999996662 94.0
4.30999994278 -1.92599999905 1.67900002003 95.0
4.34700012207 -1.97599995136 1.69799995422 91.0
4.30399990082 -1.99000000954 1.68599998951 101.0
4.33400011063 -2.03699994087 1.70200002193 92.0
4.30499982834 -2.0569999218 1.69500005245 87.0
4.27199983597 -2.07500004768 1.68700003624 95.0
4.24499988556 -2.09599995613 1.68099999428 96.0
4.27699995041 -2.14599990845 1.69799995422 94.0
0.0570000000298 -0.0240000002086 0.0189999993891 93.0
0.0120000001043 -0.0010000000475 0.0010000000475 95.0
0.0329999998212 -0.0120000001043 0.00999999977648 90.0
2.132999897 1.30599999428 0.851000010967 236.0
2.11599993706 1.27699995041 0.841000020504 233.0
2.13700008392 1.27100002766 0.847000002861 226.0
2.20399999619 1.29200005531 0.870999991894 119.0
2.18899989128 1.26400005817 0.861999988556 107.0
2.24300003052 1.27499997616 0.880999982357 171.0
2.2539999485 1.26300001144 0.883000016212 227.0
2.32299995422 1.28100001812 0.907000005245 122.0
3.59500002861 1.47500002384 1.34300005436 81.0
3.56900000572 1.43799996376 1.33000004292 82.0
3.77300000191 1.49300003052 1.40299999714 79.0
4.09800004959 1.56200003624 1.51800000668 75.0
4.04699993134 1.51400005817 1.4960000515 76.0
4.16800022125 1.52900004387 1.5379999876 76.0
4.19299983978 1.50899994373 1.54499995708 80.0
4.12699985504 1.45599997044 1.51800000668 82.0
4.24700021744 1.46899998188 1.55900001526 87.0
4.14200019836 1.40299999714 1.51699995995 112.0
4.12400007248 1.36899995804 1.50899994373 127.0
4.17899990082 1.35899996758 1.52600002289 124.0
4.1779999733 1.32899999619 1.52300000191 121.0
4.19000005722 1.30499994755 1.52499997616 113.0
4.16200017929 1.26800000668 1.51199996471 115.0
4.14900016785 1.23599994183 1.50600004196 119.0
4.17199993134 1.21500003338 1.51199996471 119.0
4.19899988174 1.19500005245 1.51900005341 109.0
4.21099996567 1.16999995708 1.52100002766 123.0
4.20100021362 1.13900005817 1.51600003242 123.0
4.22800016403 1.11899995804 1.52400004864 129.0
4.23099994659 1.09200000763 1.52199995518 121.0
4.16599988937 1.04799997807 1.49699997902 119.0
4.23099994659 1.03699994087 1.51900005341 118.0
4.21799993515 1.00600004196 1.51199996471 111.0
4.242000103 0.98400002718 1.51900005341 120.0
4.21099996567 0.949999988079 1.50600004196 120.0
4.16699981689 0.912999987602 1.48899996281 121.0
4.1939997673 0.893000006676 1.49699997902 118.0
4.20499992371 0.867999970913 1.5 110.0
4.25299978256 0.851000010967 1.51499998569 113.0
4.23099994659 0.819999992847 1.50600004196 105.0
4.30399990082 0.806999981403 1.53100001812 87.0
4.21099996567 -0.16099999845 1.48099994659 66.0
4.3639998436 -0.219999998808 1.53600001335 62.0
4.31699991226 -0.244000002742 1.51999998093 82.0
4.27099990845 -0.266999989748 1.50499999523 78.0
4.26399993896 -0.317999988794 1.50300002098 89.0
4.23600006104 -0.342000007629 1.49399995804 81.0
4.18699979782 -0.363999992609 1.47800004482 88.0
4.29199981689 -0.398999989033 1.51600003242 90.0
4.34399986267 -0.430000007153 1.53499996662 80.0
4.30200004578 -0.451999992132 1.52100002766 81.0
4.34999990463 -0.483999997377 1.53900003433 84.0
4.28900003433 -0.504000008106 1.51800000668 80.0
4.21099996567 -0.519999980927 1.49199998379 85.0
4.27699995041 -0.555000007153 1.51600003242 90.0
4.29699993134 -0.583999991417 1.52499997616 93.0
4.31699991226 -0.612999975681 1.53299999237 88.0
4.30000019073 -0.638000011444 1.52799999714 92.0
4.28499984741 -0.662000000477 1.52400004864 90.0
4.31199979782 -0.693000018597 1.53499996662 88.0
4.32600021362 -0.722000002861 1.54200005531 94.0
4.30700016022 -0.745999991894 1.53600001335 91.0
4.3060002327 -0.773000001907 1.5379999876 92.0
4.29600000381 -0.797999978065 1.53600001335 98.0
4.28200006485 -0.822000026703 1.53199994564 92.0
4.32299995422 -0.85799998045 1.54799997807 98.0
4.28299999237 -0.876999974251 1.53600001335 92.0
4.27500009537 -0.902999997139 1.53499996662 105.0
4.23999977112 -0.92199999094 1.52400004864 97.0
4.28100013733 -0.958999991417 1.54100000858 97.0
4.3220000267 -0.995999991894 1.55799996853 104.0
4.29699993134 -1.01800000668 1.55099999905 105.0
4.28599977493 -1.04299998283 1.5490000248 98.0
4.3140001297 -1.07799994946 1.56099998951 97.0
4.30800008774 -1.10399997234 1.56099998951 100.0
4.3109998703 -1.13399994373 1.56500005722 97.0
4.25600004196 -1.14699995518 1.54700005054 95.0
4.29300022125 -1.18499994278 1.56299996376 95.0
4.33400011063 -1.22599995136 1.58000004292 104.0
4.31300020218 -1.24800002575 1.57500004768 98.0
4.26900005341 -1.26400005817 1.56099998951 105.0
4.27400016785 -1.29499995708 1.56599998474 99.0
4.31300020218 -1.33599996567 1.58299994469 90.0
4.34299993515 -1.375 1.59700000286 99.0
4.28000020981 -1.38399994373 1.57700002193 101.0
4.30800008774 -1.42299997807 1.59000003338 97.0
4.31300020218 -1.45399999619 1.59500002861 95.0
4.28700017929 -1.47500002384 1.58800005913 93.0
4.30700016022 -1.51199996471 1.59899997711 97.0
4.22200012207 -1.51199996471 1.57000005245 104.0
4.36199998856 -1.59300005436 1.62600004673 92.0
4.34700012207 -1.61800003052 1.62300002575 88.0
4.28499984741 -1.62600004673 1.60399997234 85.0
4.24900007248 -1.64300000668 1.59399998188 88.0
4.37699985504 -1.72399997711 1.64499998093 85.0
4.33300018311 -1.73800003529 1.63199996948 85.0
4.27699995041 -1.74699997902 1.61500000954 92.0
4.27299976349 -1.77699995041 1.61699998379 94.0
4.29799985886 -1.82000005245 1.63100004196 93.0
4.31300020218 -1.85800004005 1.63999998569 95.0
4.22800016403 -1.85300004482 1.61199998856 86.0
4.26399993896 -1.90100002289 1.62999999523 88.0
4.33900022507 -1.96800005436 1.6629999876 86.0
4.25099992752 -1.96099996567 1.63300001621 88.0
4.25899982452 -1.99800002575 1.64100003242 92.0
4.28999996185 -2.07999992371 1.66199994087 90.0
4.24300003052 -2.09100008011 1.64800000191 95.0
4.25899982452 -2.132999897 1.6590000391 89.0
0.0109999999404 0.0 0.0010000000475 95.0
0.0340000018477 -0.0120000001043 0.00999999977648 93.0
0.140000000596 -0.0689999982715 0.0520000010729 86.0
2.14499998093 1.31099998951 0.838999986649 251.0
2.11599993706 1.27400004864 0.824999988079 237.0
2.12400007248 1.25999999046 0.824999988079 217.0
2.1289999485 1.24500000477 0.824999988079 120.0
2.18899989128 1.26100003719 0.846000015736 102.0
2.26300001144 1.2840000391 0.870999991894 187.0
2.2349998951 1.24899995327 0.85799998045 209.0
2.33699989319 1.28600001335 0.894999980927 120.0
3.50600004196 1.43499994278 1.2840000391 90.0
3.66700005531 1.47500002384 1.34000003338 85.0
3.68799996376 1.45599997044 1.34500002861 90.0
3.99900007248 1.52100002766 1.45299994946 73.0
4.14400005341 1.54700005054 1.50300002098 76.0
4.15299987793 1.52100002766 1.50300002098 79.0
4.20599985123 1.51100003719 1.51999998093 78.0
4.17899990082 1.47099995613 1.50699996948 79.0
4.21899986267 1.45599997044 1.51900005341 90.0
4.16800022125 1.4090000391 1.49800002575 115.0
4.15100002289 1.375 1.48899996281 129.0
4.16800022125 1.35199999809 1.49300003052 123.0
4.15700006485 1.32000005245 1.48599994183 118.0
4.17500019073 1.29799997807 1.49100005627 119.0
4.16900014877 1.26699995995 1.48599994183 124.0
4.20499992371 1.25 1.49699997902 119.0
4.20900011063 1.22300004959 1.4960000515 117.0
4.1810002327 1.18700003624 1.48399996758 114.0
4.21700000763 1.16900002956 1.49500000477 119.0
4.20599985123 1.13900005817 1.48899996281 118.0
4.19799995422 1.10899996758 1.48399996758 123.0
4.17999982834 1.07700002193 1.47500002384 118.0
4.17100000381 1.04700005054 1.47000002861 120.0
4.21600008011 1.03100001812 1.48399996758 120.0
4.26000022888 1.01400005817 1.49800002575 126.0
4.23199987411 0.980000019073 1.48699998856 116.0
4.25 0.957000017166 1.49100005627 116.0
4.26399993896 0.933000028133 1.49500000477 126.0
4.19600009918 0.89099997282 1.46899998188 119.0
4.24900007248 0.875 1.48599994183 115.0
4.23000001907 0.84500002861 1.47800004482 115.0
4.23699998856 0.819000005722 1.47899997234 95.0
4.44299983978 0.830999970436 1.54999995232 66.0
0.375999987125 0.0280000008643 0.127000004053 58.0
4.37400007248 -0.675000011921 1.52600002289 69.0
4.33300018311 -0.694999992847 1.51300001144 83.0
4.28299999237 -0.713999986649 1.49699997902 81.0
4.36999988556 -0.755999982357 1.52900004387 85.0
4.30000019073 -0.771000027657 1.50600004196 75.0
4.40299987793 -0.816999971867 1.54400002956 88.0
4.34999990463 -0.833999991417 1.52699995041 73.0
4.30000019073 -0.851999998093 1.51100003719 92.0
4.35300016403 -0.889999985695 1.53199994564 85.0
4.31699991226 -0.910000026226 1.52100002766 88.0
4.29600000381 -0.933000028133 1.51499998569 90.0
4.34399986267 -0.971000015736 1.5340000391 91.0
4.3189997673 -0.992999970913 1.52699995041 92.0
4.3639998436 -1.03199994564 1.54499995708 93.0
4.32000017166 -1.0490000248 1.53100001812 96.0
4.30999994278 -1.07500004768 1.52999997139 92.0
4.27199983597 -1.09300005436 1.51900005341 90.0
4.29300022125 -1.12699997425 1.52799999714 97.0
4.23500013351 -1.13900005817 1.50999999046 98.0
4.26200008392 -1.17499995232 1.52199995518 93.0
4.27600002289 -1.20700001717 1.52900004387 98.0
4.33599996567 -1.25300002098 1.5529999733 97.0
4.31500005722 -1.27600002289 1.54799997807 99.0
4.28999996185 -1.29700005054 1.54200005531 95.0
4.32100009918 -1.33599996567 1.55599999428 98.0
4.30200004578 -1.35899996758 1.55200004578 99.0
4.30999994278 -1.39100003242 1.55700004101 98.0
4.29699993134 -1.41600000858 1.55599999428 103.0
4.3109998703 -1.4509999752 1.56400001049 110.0
4.30200004578 -1.47699999809 1.56299996376 103.0
4.3060002327 -1.50899994373 1.56799995899 99.0
4.27099990845 -1.52699995041 1.55799996853 93.0
4.3220000267 -1.57500004768 1.58000004292 99.0
4.34100008011 -1.61300003529 1.59000003338 91.0
4.30999994278 -1.63199996948 1.58200001717 93.0
4.25 -1.63999998569 1.56400001049 89.0
4.29500007629 -1.68900001049 1.58399999142 87.0
4.30499982834 -1.72399997711 1.5909999609 91.0
4.34100008011 -1.76999998093 1.60800004005 84.0
4.28800010681 -1.77999997139 1.59200000763 92.0
4.28100013733 -1.80900001526 1.59300005436 89.0
4.21000003815 -1.80999994278 1.57099997997 88.0
4.24800014496 -1.85800004005 1.58800005913 88.0
4.28599977493 -1.90799999237 1.60699999332 95.0
4.32000017166 -1.95599997044 1.62399995327 86.0
4.30000019073 -1.97899997234 1.62000000477 88.0
4.24399995804 -1.98699998856 1.60399997234 96.0
4.28499984741 -2.03900003433 1.62300002575 87.0
4.3140001297 -2.08699989319 1.63900005817 94.0
4.30499982834 -2.117000103 1.63999998569 89.0
4.28800010681 -2.17700004578 1.64300000668 94.0
0.0740000009537 -0.0329999998212 0.0250000003725 86.0
4.22200012207 -2.21199989319 1.62699997425 87.0
2.15400004387 1.31299996376 0.825999975204 238.0
2.13599991798 1.2840000391 0.815999984741 247.0
2.13800001144 1.26600003242 0.814999997616 204.0
2.24699997902 1.31099998951 0.853999972343 107.0
2.20499992371 1.26699995995 0.834999978542 109.0
2.25600004196 1.27699995041 0.851999998093 200.0
2.28099989891 1.27199995518 0.85799998045 188.0
2.32899999619 1.27900004387 0.874000012875 110.0
3.49000000954 1.42599999905 1.25300002098 97.0
3.60400009155 1.44599997997 1.29100000858 80.0
4.00899982452 1.52199995518 1.4279999733 72.0
4.08599996567 1.52199995518 1.45299994946 75.0
4.17500019073 1.52499997616 1.48199999332 74.0
4.17899990082 1.49800002575 1.48000001907 81.0
4.22200012207 1.48300004005 1.49300003052 89.0
4.17999982834 1.44000005722 1.47500002384 86.0
4.16400003433 1.40499997139 1.46700000763 116.0
4.20900011063 1.39199995995 1.48099994659 125.0
4.17000007629 1.35000002384 1.46399998665 123.0
4.1970000267 1.33000004292 1.47099995613 123.0
4.18499994278 1.29799997807 1.46500003338 121.0
4.16800022125 1.26499998569 1.45700001717 124.0
4.17299985886 1.23800003529 1.45599997044 111.0
4.17199993134 1.21000003815 1.45399999619 119.0
4.16499996185 1.17999994755 1.44900000095 123.0
4.16400003433 1.15199995041 1.4470000267 119.0
4.21500015259 1.13900005817 1.46300005913 117.0
4.22100019455 1.11300003529 1.46300005913 119.0
4.1970000267 1.07899999619 1.45299994946 116.0
4.19899988174 1.05200004578 1.4509999752 116.0
4.26000022888 1.03999996185 1.47099995613 118.0
4.16699981689 0.990000009537 1.43700003624 109.0
4.21299982071 0.973999977112 1.4509999752 117.0
4.20900011063 0.945999979973 1.44799995422 116.0
4.23199987411 0.924000024796 1.45500004292 121.0
4.242000103 0.898999989033 1.45700001717 117.0
4.19799995422 0.862999975681 1.44000005722 109.0
4.2389998436 0.84500002861 1.45299994946 117.0
4.26900005341 0.824000000954 1.4620000124 100.0
0.705999970436 0.0120000001043 0.236000001431 60.0
4.47800016403 -0.999000012875 1.55099999905 74.0
4.38899993896 -1.00800001621 1.52199995518 70.0
4.31599998474 -1.04700005054 1.50100004673 81.0
4.34499979019 -1.08200001717 1.51300001144 76.0
4.32899999619 -1.10599994659 1.50899994373 86.0
4.3639998436 -1.14300000668 1.52400004864 82.0
4.26800012589 -1.14600002766 1.49199998379 84.0
4.34600019455 -1.19599997997 1.52199995518 83.0
4.31199979782 -1.21500003338 1.51199996471 80.0
4.3029999733 -1.24100005627 1.51199996471 81.0
4.3029999733 -1.26999998093 1.51400005817 96.0
4.32000017166 -1.30400002003 1.52300000191 92.0
4.29300022125 -1.32500004768 1.51600003242 93.0
4.33199977875 -1.36600005627 1.53199994564 94.0
4.35699987411 -1.40400004387 1.54400002956 93.0
4.31699991226 -1.41999995708 1.53299999237 95.0
4.28000020981 -1.43799996376 1.52199995518 104.0
4.257999897 -1.46000003815 1.51699995995 95.0
4.28999996185 -1.50100004673 1.53199994564 96.0
4.30999994278 -1.5379999876 1.54200005531 88.0
4.27400016785 -1.55499994755 1.53199994564 88.0
4.30399990082 -1.59599995613 1.54600000381 85.0
4.23299980164 -1.62999999523 1.52699995041 91.0
4.28499984741 -1.68099999428 1.5490000248 81.0
4.31599998474 -1.72500002384 1.56400001049 82.0
4.3189997673 -1.75800001621 1.56900000572 85.0
4.34100008011 -1.79799997807 1.58000004292 90.0
4.34000015259 -1.83000004292 1.58399999142 90.0
4.32999992371 -1.85800004005 1.58399999142 83.0
4.36199998856 -1.90499997139 1.60000002384 91.0
4.30499982834 -1.91199994087 1.58299994469 81.0
4.27899980545 -1.93299996853 1.57700002193 90.0
4.3029999733 -2.00999999046 1.59399998188 82.0
4.30700016022 -2.04600000381 1.60000002384 90.0
4.29400014877 -2.07299995422 1.60000002384 93.0
4.23999977112 -2.07999992371 1.58399999142 100.0
0.0579999983311 -0.0240000002086 0.0179999992251 93.0
4.28299999237 -2.17000007629 1.60899996758 87.0
2.1210000515 1.29100000858 0.79699999094 239.0
2.13400006294 1.27999997139 0.799000024796 248.0
2.13199996948 1.25999999046 0.796000003815 187.0
2.24499988556 1.30700004101 0.836000025272 105.0
2.20900011063 1.26699995995 0.819000005722 117.0
2.24900007248 1.27100002766 0.832000017166 226.0
2.27500009537 1.26600003242 0.838999986649 164.0
2.27300000191 1.2460000515 0.836000025272 118.0
3.45300006866 1.43299996853 1.21800005436 84.0
3.46700000763 1.41400003433 1.22000002861 91.0
3.65100002289 1.4620000124 1.28199994564 80.0
4.05200004578 1.53499996662 1.41499996185 73.0
4.03200006485 1.49899995327 1.40499997139 75.0
4.10699987411 1.49800002575 1.42900002003 77.0
4.15299987793 1.48500001431 1.44200003147 76.0
4.20499992371 1.47399997711 1.45700001717 75.0
4.17299985886 1.43400001526 1.44400000572 91.0
4.14400005341 1.39600002766 1.43099999428 115.0
4.17899990082 1.3789999485 1.44099998474 129.0
4.17700004578 1.34899997711 1.43799996376 124.0
4.20499992371 1.33000004292 1.44500005245 126.0
4.18800020218 1.29600000381 1.43700003624 116.0
4.24700021744 1.28600001335 1.45500004292 112.0
4.20499992371 1.24500000477 1.43799996376 116.0
4.23000001907 1.22399997711 1.44500005245 112.0
4.16900014877 1.17900002003 1.42200005054 118.0
4.16400003433 1.14999997616 1.41900002956 114.0
4.24399995804 1.14400005341 1.44400000572 113.0
4.1890001297 1.10199999809 1.42299997807 118.0
4.17899990082 1.0720000267 1.41799998283 118.0
4.20800018311 1.05200004578 1.42599999905 113.0
4.14400005341 1.00899994373 1.40299999714 112.0
4.19799995422 0.995000004768 1.41900002956 112.0
4.25600004196 0.981999993324 1.43700003624 111.0
4.1779999733 0.936999976635 1.4090000391 116.0
4.21400022507 0.917999982834 1.41999995708 113.0
4.2610001564 0.901000022888 1.43400001526 114.0
4.22499990463 0.866999983788 1.42100000381 113.0
4.16200017929 0.82800000906 1.39800000191 115.0
4.27600002289 0.824000000954 1.43499994278 90.0
0.386000007391 -0.0520000010729 0.126000002027 60.0
4.42700004578 -1.24500000477 1.52199995518 72.0
4.36600017548 -1.28600001335 1.50600004196 80.0
4.38399982452 -1.32099997997 1.51499998569 73.0
4.32600021362 -1.33299994469 1.49800002575 81.0
4.38000011444 -1.3789999485 1.51900005341 83.0
4.32499980927 -1.39100003242 1.50300002098 76.0
4.36800003052 -1.43499994278 1.51999998093 82.0
4.32499980927 -1.45000004768 1.50800001621 79.0
4.35799980164 -1.49100005627 1.52199995518 89.0
4.34299993515 -1.51600003242 1.51999998093 82.0
4.33500003815 -1.54400002956 1.51999998093 87.0
4.42500019073 -1.60699999332 1.55499994755 78.0
4.33500003815 -1.60500001907 1.52699995041 75.0
4.33300018311 -1.63499999046 1.52900004387 85.0
4.26999998093 -1.64199995995 1.50999999046 83.0
4.32299995422 -1.72399997711 1.53600001335 82.0
4.29300022125 -1.90299999714 1.54700005054 76.0
4.28399991989 -1.93200004101 1.54799997807 82.0
4.32499980927 -1.98300004005 1.56700003147 79.0
0.0799999982119 -0.0320000015199 0.0260000005364 81.0
4.33699989319 -2.05599999428 1.57899999619 81.0
4.34299993515 -2.09299993515 1.58599996567 94.0
4.28499984741 -2.132999897 1.57400000095 90.0
0.930999994278 -0.536000013351 0.34999999404 91.0
0.959999978542 -0.56099998951 0.361999988556 106.0
2.15300011635 1.30700004101 0.791999995708 235.0
2.11199998856 1.26400005817 0.774999976158 236.0
2.16700005531 1.27799999714 0.792999982834 157.0
2.17499995232 1.26300001144 0.792999982834 98.0
2.21199989319 1.26600003242 0.804000020027 130.0
2.24399995804 1.26499998569 0.813000023365 228.0
2.26300001144 1.25699996948 0.818000018597 159.0
2.39800000191 1.31099998951 0.864000022411 107.0
3.43799996376 1.39900004864 1.18499994278 84.0
3.93099999428 1.51400005817 1.34800004959 74.0
4.07299995422 1.53999996185 1.39300000668 82.0
4.02699995041 1.49399995804 1.375 83.0
4.13500022888 1.50499999523 1.40999996662 74.0
4.19199991226 1.4960000515 1.42599999905 78.0
4.18200016022 1.46399998665 1.41999995708 79.0
4.1859998703 1.43599998951 1.41900002956 98.0
4.19999980927 1.41199994087 1.42200005054 124.0
4.20100021362 1.38399994373 1.41999995708 128.0
4.17000007629 1.34500002861 1.40699994564 117.0
4.21400022507 1.33000004292 1.41900002956 114.0
4.16400003433 1.28699994087 1.39999997616 114.0
4.21199989319 1.27300000191 1.41400003433 118.0
4.18400001526 1.23699998856 1.40299999714 119.0
4.17700004578 1.20700001717 1.39800000191 116.0
4.15999984741 1.1740000248 1.38999998569 116.0
4.14400005341 1.14199995995 1.38300001621 118.0
4.18200016022 1.125 1.39400005341 119.0
4.19299983978 1.10099995136 1.39600002766 119.0
4.21099996567 1.07799994946 1.39999997616 116.0
4.22499990463 1.05400002003 1.40299999714 119.0
4.1939997673 1.01999998093 1.39100003242 117.0
4.21799993515 0.998000025749 1.39699995518 121.0
4.19600009918 0.966000020504 1.38900005817 115.0
4.22499990463 0.945999979973 1.39699995518 111.0
4.21899986267 0.917999982834 1.39300000668 113.0
4.21700000763 0.889999985695 1.39100003242 114.0
4.12599992752 0.84500002861 1.36000001431 112.0
4.21099996567 0.836000025272 1.38699996471 112.0
4.24499988556 0.815999984741 1.39699995518 90.0
0.611999988556 -0.0320000015199 0.195999994874 57.0
0.722000002861 -0.104000002146 0.234999999404 61.0
4.45300006866 -1.49100005627 1.52199995518 70.0
4.33799982071 -1.48199999332 1.48500001431 75.0
4.35799980164 -1.51900005341 1.49500000477 73.0
4.47599983215 -1.5909999609 1.53900003433 80.0
4.41099977493 -1.59899997711 1.51900005341 72.0
4.34100008011 -2.01999998093 1.54499995708 86.0
0.948000013828 -0.537000000477 0.347999989986 102.0
0.978999972343 -0.563000023365 0.360000014305 111.0
0.971000015736 -0.566999971867 0.358999997377 113.0
2.14100003242 1.29700005054 0.772000014782 232.0
2.12199997902 1.26699995995 0.762000024319 236.0
2.14100003242 1.25999999046 0.76700001955 149.0
2.26999998093 1.31599998474 0.81099998951 101.0
2.26699995995 1.29400002956 0.806999981403 147.0
2.22499990463 1.25199997425 0.790000021458 236.0
2.30100011826 1.27499997616 0.81400001049 140.0
3.46300005913 1.43099999428 1.17200005054 103.0
3.48900008202 1.41700005531 1.1779999733 95.0
3.50900006294 1.39900004864 1.18299996853 82.0
4.01800012589 1.51600003242 1.34700000286 76.0
4.15399980545 1.5379999876 1.38999998569 77.0
4.15299987793 1.50899994373 1.38699996471 75.0
4.1779999733 1.48899996281 1.39300000668 75.0
4.1810002327 1.46099996567 1.39100003242 77.0
4.18699979782 1.43400001526 1.39100003242 99.0
4.17399978638 1.39999997616 1.38399994373 124.0
4.21299982071 1.38499999046 1.39499998093 123.0
4.18800020218 1.34800004959 1.38399994373 127.0
4.21199989319 1.32700002193 1.38999998569 113.0
4.15899991989 1.28299999237 1.37000000477 116.0
4.1779999733 1.25999999046 1.37399995327 111.0
4.20800018311 1.24100005627 1.38199996948 113.0
4.21799993515 1.2159999609 1.38300001621 113.0
4.19000005722 1.18099999428 1.37199997902 124.0
4.23600006104 1.16600000858 1.38600003719 125.0
4.24499988556 1.13999998569 1.38699996471 115.0
4.1939997673 1.09899997711 1.36800003052 114.0
4.21799993515 1.07799994946 1.37399995327 115.0
4.16900014877 1.03900003433 1.35699999332 116.0
4.15299987793 1.00800001621 1.35000002384 117.0
4.21400022507 0.995000004768 1.36800003052 115.0
4.22800016403 0.972000002861 1.3710000515 105.0
4.23600006104 0.947000026703 1.37199997902 117.0
4.24100017548 0.921000003815 1.37199997902 117.0
4.15399980545 0.875999987125 1.34300005436 114.0
4.22200012207 0.862999975681 1.36300003529 114.0
4.19799995422 0.832000017166 1.35399997234 121.0
4.21999979019 0.810000002384 1.36000001431 92.0
0.597000002861 -0.224000006914 0.20000000298 70.0
0.644999980927 -0.252000004053 0.216999992728 80.0
0.708000004292 -0.282999992371 0.238999992609 87.0
0.723999977112 -0.293999999762 0.245000004768 96.0
0.612999975681 -0.261999994516 0.209000006318 89.0
0.662999987602 -0.28900000453 0.226999998093 92.0
0.963999986649 -0.528999984264 0.344000011683 101.0
0.953999996185 -0.53100001812 0.342000007629 104.0
1.04299998283 -0.589999973774 0.375 118.0
0.994000017643 -0.570999979973 0.358999997377 110.0
0.999000012875 -0.583000004292 0.361999988556 100.0
2.13199996948 1.28900003433 0.751999974251 242.0
2.13400006294 1.27100002766 0.75 221.0
2.13000011444 1.25100004673 0.746999979019 132.0
2.1970000267 1.27100002766 0.768000006676 97.0
2.25200009346 1.28299999237 0.785000026226 165.0
2.25300002098 1.26499998569 0.782999992371 221.0
2.27900004387 1.25999999046 0.788999974728 125.0
3.40799999237 1.40600001812 1.1289999485 95.0
3.52300000191 1.4279999733 1.16499996185 86.0
3.71000003815 1.47699999809 1.22500002384 74.0
3.94899988174 1.48699998856 1.29600000381 82.0
3.99699997902 1.47699999809 1.30900001526 81.0
4.19199991226 1.51999998093 1.3710000515 74.0
4.19500017166 1.49199998379 1.36899995804 75.0
4.1970000267 1.46300005913 1.36800003052 90.0
4.17899990082 1.4279999733 1.35899996758 104.0
4.15299987793 1.39100003242 1.34899997711 118.0
4.19500017166 1.37600004673 1.36000001431 124.0
4.21099996567 1.35300004482 1.36300003529 118.0
4.14300012589 1.3029999733 1.33899998665 119.0
4.18200016022 1.28699994087 1.34899997711 119.0
4.15299987793 1.25 1.33800005913 119.0
4.16200017929 1.22500002384 1.33899998665 116.0
4.14599990845 1.19299995899 1.33200001717 117.0
4.19999980927 1.18099999428 1.34700000286 117.0
4.22200012207 1.15999996662 1.35199999809 121.0
4.19799995422 1.125 1.34300005436 112.0
4.22900009155 1.10599994659 1.35099995136 112.0
4.19099998474 1.06900000572 1.3370000124 119.0
4.22499990463 1.05099999905 1.34599995613 121.0
4.20599985123 1.01900005341 1.33899998665 118.0
4.30000019073 1.01400005817 1.36699998379 113.0
4.24399995804 0.973999977112 1.34800004959 108.0
4.21500015259 0.939999997616 1.3370000124 116.0
4.21799993515 0.913999974728 1.3370000124 114.0
4.18300008774 0.879999995232 1.32400000095 105.0
4.20499992371 0.85799998045 1.33000004292 113.0
4.23600006104 0.837999999523 1.33899998665 113.0
4.3029999733 0.824000000954 1.35899996758 82.0
0.827000021935 -0.294999986887 0.270999997854 88.0
0.749000012875 -0.272000014782 0.245000004768 87.0
0.847999989986 -0.31400001049 0.279000014067 89.0
0.805999994278 -0.303999990225 0.264999985695 126.0
0.828999996185 -0.319000005722 0.273999989033 140.0
0.870999991894 -0.342000007629 0.287999987602 160.0
0.879999995232 -0.351999998093 0.291999995708 210.0
0.898999989033 -0.365999996662 0.298999994993 286.0
0.893000006676 -0.370000004768 0.298000007868 247.0
0.852999985218 -0.360000014305 0.284999996424 209.0
0.84500002861 -0.361999988556 0.282999992371 202.0
0.855000019073 -0.372999995947 0.287000000477 182.0
0.830999970436 -0.368999987841 0.280000001192 161.0
0.808000028133 -0.363999992609 0.273000001907 144.0
0.773000001907 -0.354000002146 0.261000007391 124.0
0.740999996662 -0.344999998808 0.250999987125 130.0
0.794000029564 -0.375999987125 0.270000010729 148.0
0.81099998951 -0.397000014782 0.277000010014 92.0
1.0039999485 -0.550000011921 0.351999998093 96.0
1.0039999485 -0.559000015259 0.352999985218 114.0
1.01199996471 -0.570999979973 0.356999993324 111.0
0.981000006199 -0.561999976635 0.347000002861 106.0
1.02400004864 -0.596000015736 0.363000005484 98.0
2.10299992561 1.26900005341 0.726000010967 236.0
2.14199995995 1.27400004864 0.736999988556 217.0
2.16000008583 1.26499998569 0.740999996662 117.0
2.21700000763 1.27999997139 0.759000003338 103.0
2.23900008202 1.27300000191 0.763999998569 185.0
2.24000000954 1.25499999523 0.762000024319 211.0
2.36199998856 1.30400002003 0.800999999046 113.0
3.41199994087 1.40499997139 1.10699999332 89.0
3.4960000515 1.41400003433 1.13199996948 84.0
3.60299992561 1.43200004101 1.16400003433 81.0
3.90199995041 1.46700000763 1.2539999485 112.0
3.97300004959 1.4659999609 1.27400004864 109.0
4.12200021744 1.49199998379 1.31900000572 75.0
4.28200006485 1.51999998093 1.36899995804 78.0
4.15299987793 1.44500005245 1.32500004768 78.0
4.16499996185 1.42100000381 1.3259999752 113.0
4.16499996185 1.39199995995 1.32400000095 126.0
4.18200016022 1.36899995804 1.32700002193 126.0
4.13100004196 1.32500004768 1.30900001526 119.0
4.18300008774 1.31299996376 1.32299995422 122.0
4.18699979782 1.28600001335 1.32299995422 116.0
4.18699979782 1.25800001621 1.32000005245 121.0
4.21700000763 1.23899996281 1.32799994946 116.0
4.17199993134 1.19900000095 1.31200003624 114.0
4.16800022125 1.16999995708 1.30900001526 116.0
4.20399999619 1.15299999714 1.31799995899 113.0
4.18800020218 1.1210000515 1.31200003624 115.0
4.20100021362 1.09700000286 1.31400001049 115.0
4.21999979019 1.07500004768 1.31799995899 120.0
4.25400018692 1.05599999428 1.32700002193 118.0
4.22499990463 1.02199995518 1.31700003147 109.0
4.19299983978 0.986999988556 1.30499994755 109.0
4.21099996567 0.963999986649 1.30999994278 119.0
4.22100019455 0.939999997616 1.31099998951 120.0
4.14300012589 0.896000027657 1.28499996662 115.0
4.19799995422 0.882000029087 1.30099999905 116.0
4.14900016785 0.84500002861 1.28499996662 112.0
4.21500015259 0.832000017166 1.30400002003 110.0
4.257999897 0.81400001049 1.31599998474 80.0
0.792999982834 -0.259999990463 0.252000004053 82.0
0.806999981403 -0.270999997854 0.256999999285 93.0
0.902000010014 -0.308999985456 0.287999987602 108.0
0.89099997282 -0.312000006437 0.284999996424 114.0
0.875 -0.312000006437 0.280999988317 122.0
0.882000029087 -0.321000009775 0.284000009298 135.0
0.830999970436 -0.307999998331 0.268000006676 141.0
0.871999979019 -0.328999996185 0.282000005245 141.0
0.885999977589 -0.340999990702 0.287000000477 147.0
0.888000011444 -0.347999989986 0.287999987602 215.0
0.911000013351 -0.363999992609 0.296000003815 660.0
0.912000000477 -0.370999991894 0.29699999094 1037.0
0.903999984264 -0.374000012875 0.294999986887 536.0
0.883000016212 -0.372000008821 0.28900000453 330.0
0.888000011444 -0.379999995232 0.291000008583 289.0
0.875 -0.381000012159 0.287999987602 262.0
0.856999993324 -0.379999995232 0.282000005245 210.0
0.860000014305 -0.386999994516 0.284000009298 183.0
0.855000019073 -0.391999989748 0.282999992371 185.0
0.883000016212 -0.411000013351 0.293000012636 207.0
0.874000012875 -0.41400000453 0.291000008583 218.0
0.879000008106 -0.423000007868 0.293999999762 210.0
0.84399998188 -0.412999987602 0.282999992371 192.0
0.852999985218 -0.423999994993 0.287000000477 187.0
0.875 -0.442000001669 0.294999986887 140.0
1.02699995041 -0.552999973297 0.351000010967 111.0
1.00800001621 -0.550999999046 0.344999998808 118.0
1.00899994373 -0.560000002384 0.347000002861 118.0
1.03100001812 -0.580999970436 0.354999989271 105.0
1.01699995995 -0.582000017166 0.351999998093 117.0
0.971000015736 -0.56400001049 0.337000012398 112.0
2.13000011444 1.28299999237 0.72000002861 245.0
2.13199996948 1.26499998569 0.717999994755 212.0
2.18700003624 1.27900004387 0.73400002718 111.0
2.22900009155 1.2840000391 0.745999991894 102.0
2.25600004196 1.28100001812 0.753000020981 222.0
2.25 1.25800001621 0.749000012875 194.0
2.4279999733 1.33800005913 0.805999994278 116.0
3.43899989128 1.41400003433 1.09200000763 84.0
3.54500007629 1.43200004101 1.12300002575 77.0
3.59500002861 1.42599999905 1.13699996471 81.0
