ply
format ascii 1.0
element vertex 988
property float x
property float y
property float z
property float intensity
end_header
4.31500005722 -1.14100003242 1.65699994564 93.0
4.20900011063 -1.14100003242 1.61800003052 85.0
4.30200004578 -1.19500005245 1.65699994564 97.0
4.29400014877 -1.22099995613 1.65600001812 96.0
4.28900003433 -1.24800002575 1.65699994564 88.0
4.3220000267 -1.28699994087 1.67200005054 99.0
4.27899980545 -1.3029999733 1.65799999237 90.0
4.26399993896 -1.32799994946 1.65600001812 95.0
4.30499982834 -1.37000000477 1.67499995232 87.0
4.29699993134 -1.39699995518 1.6740000248 90.0
4.26399993896 -1.41600000858 1.66499996185 90.0
4.29699993134 -1.45700001717 1.68099999428 95.0
4.31599998474 -1.49399995804 1.69200003147 91.0
4.28299999237 -1.51199996471 1.68200004101 88.0
4.34600019455 -1.56599998474 1.71000003815 93.0
4.29300022125 -1.57700002193 1.69299995899 99.0
4.25500011444 -1.59399998188 1.68099999428 95.0
4.3060002327 -1.64400005341 1.70500004292 91.0
4.29699993134 -1.67200005054 1.70500004292 88.0
4.26700019836 -1.69099998474 1.6970000267 92.0
4.26999998093 -1.72300004959 1.70200002193 94.0
4.27899980545 -1.75899994373 1.71000003815 92.0
4.3060002327 -1.80200004578 1.72399997711 89.0
4.25500011444 -1.81200003624 1.70799994469 89.0
4.22399997711 -1.83099997044 1.70000004768 93.0
4.242000103 -1.8710000515 1.7120000124 94.0
4.23400020599 -1.89999997616 1.7120000124 104.0
4.24900007248 -1.93900001049 1.72300004959 85.0
0.0299999993294 -0.00899999961257 0.00800000037998 94.0
4.23099994659 -1.99699997902 1.72500002384 99.0
4.24300003052 -2.03600001335 1.73399996758 91.0
4.28499984741 -2.08999991417 1.75699996948 95.0
4.25299978256 -2.10899996758 1.74800002575 93.0
4.22599983215 -2.1289999485 1.74199998379 97.0
4.21600008011 -2.15899991989 1.74300003052 92.0
0.0489999987185 -0.019999999553 0.01600000076 98.0
0.0230000000447 -0.00700000021607 0.00600000005215 95.0
0.0189999993891 -0.00499999988824 0.00400000018999 98.0
0.0410000011325 -0.0170000009239 0.0130000002682 96.0
0.158999994397 -0.082999996841 0.0630000010133 91.0
0.136999994516 -0.0719999969006 0.0540000014007 91.0
2.15100002289 1.32400000095 0.89200001955 234.0
2.15100002289 1.30400002003 0.888999998569 227.0
2.15199995041 1.28600001335 0.887000024319 230.0
2.14700007439 1.26400005817 0.882000029087 169.0
2.23300004005 1.29499995708 0.913999974728 105.0
2.26099991798 1.29200005531 0.922999978065 119.0
2.25200009346 1.26699995995 0.916999995708 240.0
2.29200005531 1.27100002766 0.930000007153 162.0
2.34999990463 1.28199994564 0.950999975204 101.0
3.632999897 1.49699997902 1.40999996662 76.0
3.882999897 1.51499998569 1.49699997902 75.0
3.90599989891 1.46700000763 1.5 79.0
3.91799998283 1.44400000572 1.50199997425 77.0
4.132999897 1.49300003052 1.58200001717 80.0
4.15199995041 1.44200003147 1.58299994469 82.0
4.13399982452 1.40699994564 1.57400000095 99.0
4.17299985886 1.39100003242 1.58599996567 119.0
4.23199987411 1.38100004196 1.60500001907 125.0
4.1779999733 1.33500003815 1.58200001717 119.0
4.16099977493 1.30099999905 1.57299995422 121.0
4.15399980545 1.27100002766 1.56799995899 115.0
4.17600011826 1.24899995327 1.57400000095 122.0
4.17999982834 1.22200000286 1.57299995422 113.0
4.18800020218 1.19599997997 1.57400000095 119.0
4.22300004959 1.1779999733 1.58500003815 112.0
4.17500019073 1.13699996471 1.56500005722 122.0
4.1859998703 1.11199998856 1.56700003147 119.0
4.20900011063 1.0909999609 1.57299995422 115.0
4.20699977875 1.06299996376 1.57099997997 116.0
4.21700000763 1.0379999876 1.5720000267 117.0
4.25299978256 1.01900005341 1.58399999142 122.0
4.1890001297 0.976000010967 1.55799996853 120.0
4.2389998436 0.959999978542 1.57500004768 115.0
4.26300001144 0.938000023365 1.58200001717 122.0
4.21799993515 0.901000022888 1.56400001049 116.0
4.20100021362 0.870999991894 1.55599999428 110.0
4.15999984741 0.836000025272 1.53900003433 113.0
4.26599979401 0.829999983311 1.57700002193 114.0
4.30900001526 0.81099998951 1.5909999609 116.0
4.24300003052 0.772000014782 1.56599998474 119.0
4.21899986267 0.740999996662 1.55499994755 113.0
4.17199993134 0.705999970436 1.53699994087 110.0
4.20800018311 0.68599998951 1.5490000248 109.0
4.25299978256 0.666999995708 1.56400001049 106.0
4.23799991608 0.638000011444 1.55799996853 107.0
4.22300004959 0.60900002718 1.55099999905 114.0
4.23999977112 0.586000025272 1.55599999428 112.0
4.23000001907 0.558000028133 1.55200004578 103.0
4.27099990845 0.537000000477 1.56599998474 107.0
4.21400022507 0.504000008106 1.54400002956 103.0
4.21400022507 0.477999985218 1.54299998283 109.0
4.21799993515 0.451999992132 1.54400002956 112.0
4.23699998856 0.428000003099 1.54999995232 106.0
4.21299982071 0.40000000596 1.54100000858 103.0
4.22700023651 0.375999987125 1.54499995708 104.0
4.20800018311 0.347999989986 1.5379999876 111.0
4.21299982071 0.323000013828 1.53900003433 106.0
4.26499986649 0.300999999046 1.55799996853 105.0
4.26200008392 0.27500000596 1.55599999428 111.0
4.23500013351 0.24699999392 1.54600000381 106.0
4.29199981689 0.224000006914 1.56599998474 109.0
4.26200008392 0.196999996901 1.55499994755 109.0
4.22399997711 0.170000001788 1.54100000858 104.0
4.26399993896 0.144999995828 1.55599999428 104.0
4.24300003052 0.119000002742 1.54799997807 103.0
4.23699998856 0.0930000022054 1.54600000381 102.0
4.21999979019 0.0670000016689 1.53900003433 103.0
4.22800016403 0.0419999994338 1.54200005531 99.0
4.25500011444 0.01600000076 1.55200004578 105.0
4.23000001907 -0.00899999961257 1.54299998283 103.0
4.25199985504 -0.0340000018477 1.55200004578 104.0
4.28299999237 -0.0610000006855 1.56299996376 104.0
4.29899978638 -0.0869999974966 1.56900000572 108.0
4.30399990082 -0.112999998033 1.57099997997 106.0
4.1859998703 -0.135000005364 1.52799999714 103.0
4.23500013351 -0.163000002503 1.54700005054 102.0
4.26200008392 -0.188999995589 1.55700004101 105.0
4.28399991989 -0.216000005603 1.56599998474 99.0
4.26200008392 -0.240999996662 1.55799996853 102.0
4.29199981689 -0.268999993801 1.57000005245 104.0
4.26300001144 -0.293000012636 1.55999994278 106.0
4.25400018692 -0.317999988794 1.55700004101 96.0
4.21600008011 -0.340999990702 1.54400002956 106.0
4.26800012589 -0.372000008821 1.56400001049 101.0
4.242000103 -0.395000010729 1.55499994755 104.0
4.26900005341 -0.423999994993 1.56599998474 102.0
4.24499988556 -0.448000013828 1.55799996853 102.0
4.26599979401 -0.476000010967 1.56700003147 107.0
4.25699996948 -0.500999987125 1.56500005722 99.0
4.26200008392 -0.527999997139 1.56799995899 107.0
4.32399988174 -0.563000023365 1.59200000763 101.0
4.26900005341 -0.582000017166 1.57299995422 105.0
4.27600002289 -0.60900002718 1.57700002193 108.0
4.27500009537 -0.635999977589 1.57799994946 103.0
4.31199979782 -0.667999982834 1.59300005436 112.0
4.26900005341 -0.688000023365 1.57799994946 106.0
4.27199983597 -0.714999973774 1.58000004292 103.0
4.29899978638 -0.746999979019 1.59200000763 103.0
4.23799991608 -0.763000011444 1.57099997997 106.0
4.29300022125 -0.800000011921 1.59300005436 98.0
4.31199979782 -0.830999970436 1.60199999809 97.0
4.26300001144 -0.848999977112 1.58500003815 106.0
4.28499984741 -0.879999995232 1.59599995613 105.0
4.29300022125 -0.910000026226 1.60099995136 99.0
4.28700017929 -0.93599998951 1.60000002384 104.0
4.27799987793 -0.961000025272 1.59899997711 105.0
4.27699995041 -0.989000022411 1.60099995136 98.0
4.3029999733 -1.02300000191 1.61300003529 94.0
4.32399988174 -1.05599999428 1.62300002575 96.0
4.30800008774 -1.08000004292 1.61899995804 99.0
4.30200004578 -1.10699999332 1.61899995804 106.0
4.28299999237 -1.12999999523 1.61399996281 101.0
4.30200004578 -1.16400003433 1.62399995327 100.0
4.28299999237 -1.18700003624 1.61899995804 97.0
4.3109998703 -1.22399997711 1.63199996948 94.0
4.26700019836 -1.24000000954 1.61800003052 98.0
4.31300020218 -1.28199994564 1.63800001144 90.0
4.29600000381 -1.30599999428 1.63499999046 95.0
4.26800012589 -1.32700002193 1.62699997425 100.0
4.3109998703 -1.37000000477 1.64600002766 99.0
4.35500001907 -1.41400003433 1.66600000858 92.0
4.30200004578 -1.42599999905 1.64900004864 93.0
4.30200004578 -1.45599997044 1.65199995041 93.0
4.31199979782 -1.48899996281 1.6590000391 85.0
4.31500005722 -1.52100002766 1.6629999876 96.0
4.26999998093 -1.53499996662 1.64900004864 93.0
4.28499984741 -1.57099997997 1.65799999237 90.0
4.25199985504 -1.58899998665 1.64900004864 90.0
4.27699995041 -1.6289999485 1.66199994087 86.0
4.32299995422 -1.6779999733 1.68400001526 77.0
4.29500007629 -1.69900000095 1.67700004578 88.0
4.25600004196 -1.71399998665 1.66499996185 89.0
4.28399991989 -1.75699996948 1.67999994755 90.0
4.24399995804 -1.77199995518 1.66900002956 95.0
4.31500005722 -1.83399999142 1.70000004768 101.0
4.27699995041 -1.85000002384 1.68900001049 90.0
4.26399993896 -1.87699997425 1.68900001049 96.0
4.25600004196 -1.90600001812 1.69000005722 85.0
4.27400016785 -1.9470000267 1.7009999752 91.0
4.27500009537 -1.98000001907 1.70599997044 88.0
4.24800014496 -2.00099992752 1.70000004768 91.0
4.28999996185 -2.05399990082 1.72099995613 97.0
4.25699996948 -2.0720000267 1.71300005913 93.0
4.27400016785 -2.11500000954 1.72399997711 94.0
0.0230000000447 -0.00600000005215 0.00499999988824 99.0
4.25199985504 -2.17199993134 1.72500002384 90.0
0.0289999991655 -0.00999999977648 0.00800000037998 101.0
0.035000000149 -0.0130000002682 0.0109999999404 92.0
0.0240000002086 -0.00800000037998 0.00600000005215 96.0
0.143000006676 -0.0729999989271 0.054999999702 95.0
0.10000000149 -0.0500000007451 0.0370000004768 98.0
2.13599991798 1.31099998951 0.869000017643 246.0
2.14199995995 1.29600000381 0.869000017643 231.0
2.1210000515 1.26400005817 0.856999993324 230.0
2.11999988556 1.24500000477 0.853999972343 154.0
2.27800011635 1.31799995899 0.915000021458 98.0
2.26099991798 1.28900003433 0.90499997139 132.0
2.22399997711 1.24899995327 0.888000011444 235.0
2.30800008774 1.27600002289 0.919000029564 132.0
3.74499988556 1.51199996471 1.42299997807 87.0
3.66100001335 1.45200002193 1.38800001144 77.0
4.01800012589 1.50600004196 1.51499998569 77.0
4.1139998436 1.51300001144 1.54799997807 73.0
4.07299995422 1.46899998188 1.52900004387 77.0
4.14599990845 1.4659999609 1.55400002003 82.0
4.16900014877 1.44500005245 1.55999994278 83.0
4.1890001297 1.42299997807 1.56500005722 112.0
4.19299983978 1.39499998093 1.56400001049 125.0
4.16499996185 1.35699999332 1.54999995232 117.0
4.14300012589 1.32099997997 1.53999996185 125.0
4.14499998093 1.29400002956 1.5379999876 126.0
4.19199991226 1.27999997139 1.5529999733 118.0
4.23799991608 1.26499998569 1.56799995899 118.0
4.20699977875 1.22800004482 1.55400002003 120.0
4.242000103 1.20899999142 1.56500005722 120.0
4.15700006485 1.15699994564 1.53100001812 119.0
4.23199987411 1.14999997616 1.55599999428 119.0
4.21199989319 1.11699998379 1.54700005054 126.0
4.17700004578 1.08000004292 1.53199994564 120.0
4.14799976349 1.04499995708 1.51900005341 119.0
4.22300004959 1.03699994087 1.54499995708 114.0
4.23500013351 1.01199996471 1.54799997807 122.0
4.20100021362 0.976999998093 1.53299999237 114.0
4.1890001297 0.947000026703 1.52699995041 124.0
4.24700021744 0.933000028133 1.54700005054 123.0
4.19500017166 0.894999980927 1.52600002289 123.0
4.22200012207 0.873000025749 1.53499996662 107.0
4.19899988174 0.842000007629 1.52499997616 121.0
4.2389998436 0.823000013828 1.5379999876 122.0
4.25299978256 0.799000024796 1.54200005531 105.0
4.22700023651 0.76700001955 1.53100001812 97.0
4.22499990463 0.740000009537 1.52900004387 86.0
4.23199987411 0.714999973774 1.52999997139 84.0
4.29400014877 0.699000000954 1.55099999905 91.0
4.28399991989 0.670000016689 1.54700005054 87.0
4.26000022888 0.639999985695 1.53699994087 84.0
4.25899982452 0.612999975681 1.53499996662 88.0
4.20399999619 0.578999996185 1.51400005817 85.0
4.32499980927 0.569000005722 1.55700004101 84.0
4.33699989319 0.544000029564 1.56099998951 88.0
4.30399990082 0.513999998569 1.54799997807 80.0
4.3029999733 0.486999988556 1.54700005054 81.0
4.26900005341 0.456999987364 1.5340000391 88.0
4.19199991226 0.423000007868 1.50499999523 105.0
4.28800010681 0.405999988317 1.53900003433 84.0
4.29600000381 0.381000012159 1.54200005531 89.0
4.34299993515 0.358999997377 1.55799996853 84.0
4.27099990845 0.326999992132 1.53199994564 83.0
4.28499984741 0.301999986172 1.53600001335 89.0
4.27899980545 0.27500000596 1.5340000391 82.0
4.25500011444 0.247999995947 1.52499997616 90.0
4.25 0.222000002861 1.52300000191 88.0
4.28299999237 0.196999996901 1.5340000391 93.0
4.29699993134 0.172000005841 1.53900003433 88.0
4.26700019836 0.144999995828 1.52799999714 91.0
4.26700019836 0.119000002742 1.52799999714 86.0
4.26999998093 0.0930000022054 1.52900004387 88.0
4.32100009918 0.0680000036955 1.54700005054 92.0
4.21400022507 0.0410000011325 1.50899994373 90.0
4.19099998474 0.01600000076 1.50100004673 93.0
4.30499982834 -0.00899999961257 1.54200005531 97.0
4.27899980545 -0.035000000149 1.53299999237 96.0
4.24499988556 -0.0599999986589 1.52100002766 92.0
4.27799987793 -0.0860000029206 1.53299999237 98.0
4.3189997673 -0.112999998033 1.54799997807 91.0
4.21099996567 -0.136000007391 1.50899994373 88.0
4.23799991608 -0.162000000477 1.51900005341 97.0
4.2610001564 -0.188999995589 1.52799999714 98.0
4.2389998436 -0.21400000155 1.52100002766 96.0
4.33699989319 -0.245000004768 1.55599999428 92.0
4.3029999733 -0.268999993801 1.54499995708 94.0
4.26300001144 -0.293000012636 1.53100001812 102.0
4.257999897 -0.317999988794 1.52999997139 93.0
4.29500007629 -0.347000002861 1.54400002956 97.0
4.30100011826 -0.374000012875 1.54700005054 91.0
4.29099988937 -0.398999989033 1.54400002956 100.0
4.25600004196 -0.42199999094 1.53199994564 89.0
4.31599998474 -0.455000013113 1.55499994755 101.0
4.26200008392 -0.47499999404 1.53699994087 100.0
4.27400016785 -0.503000020981 1.54200005531 97.0
4.28700017929 -0.53100001812 1.54799997807 105.0
4.31199979782 -0.560000002384 1.55799996853 102.0
4.28399991989 -0.583000004292 1.5490000248 92.0
4.29899978638 -0.611999988556 1.55599999428 101.0
4.27799987793 -0.634999990463 1.5490000248 104.0
4.3109998703 -0.666999995708 1.56299996376 99.0
4.25299978256 -0.685000002384 1.54299998283 98.0
4.28999996185 -0.717000007629 1.55799996853 107.0
4.29699993134 -0.745000004768 1.56200003624 102.0
4.25099992752 -0.763999998569 1.54700005054 107.0
4.26700019836 -0.794000029564 1.55400002003 101.0
4.23500013351 -0.814999997616 1.54400002956 99.0
4.3109998703 -0.856999993324 1.57400000095 105.0
4.28900003433 -0.879999995232 1.56799995899 104.0
4.32700014114 -0.915000021458 1.58299994469 107.0
4.3109998703 -0.93900001049 1.57899999619 96.0
4.25699996948 -0.954999983311 1.56200003624 106.0
4.25699996948 -0.981999993324 1.56299996376 98.0
4.27699995041 -1.01499998569 1.57299995422 92.0
4.30900001526 -1.04999995232 1.5870000124 105.0
4.31199979782 -1.07899999619 1.59000003338 100.0
4.28900003433 -1.10199999809 1.58399999142 99.0
4.28299999237 -1.12800002098 1.58399999142 105.0
4.29799985886 -1.15999996662 1.59200000763 99.0
4.28599977493 -1.18599998951 1.59000003338 100.0
4.37300014496 -1.23899996281 1.625 100.0
4.23199987411 -1.22699999809 1.57500004768 103.0
4.31799983978 -1.28100001812 1.61000001431 97.0
4.32999992371 -1.31400001049 1.61699998379 93.0
4.29600000381 -1.33299994469 1.60699999332 95.0
4.32399988174 -1.3710000515 1.62000000477 99.0
4.30900001526 -1.39600002766 1.61800003052 85.0
4.31500005722 -1.4279999733 1.62300002575 99.0
4.26800012589 -1.44099998474 1.60800004005 94.0
4.30999994278 -1.48599994183 1.62699997425 93.0
4.29699993134 -1.51100003719 1.625 96.0
4.29199981689 -1.53999996185 1.62699997425 94.0
4.29600000381 -1.5720000267 1.63199996948 98.0
4.30700016022 -1.60699999332 1.63900005817 90.0
4.26700019836 -1.62199997902 1.62800002098 86.0
4.3189997673 -1.67299997807 1.65100002289 99.0
4.28800010681 -1.69299995899 1.64300000668 86.0
4.32299995422 -1.73800003529 1.65999996662 84.0
4.28800010681 -1.75499999523 1.64999997616 98.0
4.35099983215 -1.81299996376 1.67900002003 90.0
4.28399991989 -1.81700003147 1.65699994564 93.0
4.242000103 -1.83099997044 1.64400005341 93.0
4.29400014877 -1.88600003719 1.66900002956 86.0
4.28700017929 -1.91600000858 1.66999995708 93.0
4.28000020981 -1.94599997997 1.67200005054 88.0
4.31699991226 -1.9960000515 1.69099998474 93.0
4.26999998093 -2.00699996948 1.67700004578 94.0
4.25899982452 -2.03500008583 1.67700004578 99.0
4.30100011826 -2.08899998665 1.69799995422 91.0
4.25400018692 -2.09999990463 1.68400001526 89.0
4.26700019836 -2.14100003242 1.69400000572 93.0
0.00600000005215 0.0010000000475 0.0 85.0
0.0270000007004 -0.00899999961257 0.00700000021607 89.0
4.23099994659 -2.22699999809 1.69500005245 92.0
0.0920000001788 -0.0439999997616 0.0329999998212 87.0
0.0599999986589 -0.0270000007004 0.0209999997169 88.0
2.12700009346 1.3029999733 0.848999977112 247.0
2.14499998093 1.29400002956 0.852999985218 233.0
2.13199996948 1.26800000668 0.84500002861 227.0
2.1740000248 1.27400004864 0.85900002718 143.0
2.19099998474 1.26499998569 0.862999975681 102.0
2.26099991798 1.28600001335 0.888000011444 153.0
2.27500009537 1.27400004864 0.89099997282 227.0
2.29200005531 1.26400005817 0.894999980927 124.0
3.61999988556 1.48500001431 1.35199999809 80.0
3.50300002098 1.41100001335 1.30499994755 82.0
3.85800004005 1.49800002575 1.43200004101 73.0
4.12900018692 1.54400002956 1.52699995041 82.0
4.08900022507 1.5 1.50899994373 88.0
4.17500019073 1.50199997425 1.5379999876 77.0
4.14200019836 1.46099996567 1.52300000191 79.0
4.21000003815 1.45599997044 1.54499995708 77.0
4.17600011826 1.41499996185 1.52999997139 116.0
4.13999986649 1.37399995327 1.51400005817 129.0
4.14599990845 1.34800004959 1.51400005817 123.0
4.15600013733 1.32299995422 1.51499998569 121.0
4.21199989319 1.31200003624 1.53299999237 118.0
4.18300008774 1.27400004864 1.51999998093 121.0
4.1859998703 1.24699997902 1.51900005341 113.0
4.17399978638 1.21500003338 1.51199996471 123.0
4.22200012207 1.2009999752 1.52799999714 122.0
4.1970000267 1.16600000858 1.51600003242 117.0
4.18699979782 1.13600003719 1.51100003719 116.0
4.1970000267 1.11099994183 1.51199996471 115.0
4.16599988937 1.07500004768 1.49899995327 125.0
4.16499996185 1.04799997807 1.49699997902 125.0
4.19199991226 1.02699995041 1.50499999523 119.0
4.19500017166 1.00100004673 1.5039999485 117.0
4.22399997711 0.980000019073 1.51300001144 119.0
4.21299982071 0.950999975204 1.50699996948 117.0
4.19600009918 0.920000016689 1.49899995327 123.0
4.1939997673 0.893000006676 1.49699997902 116.0
4.21500015259 0.870000004768 1.50300002098 107.0
4.15500020981 0.830999970436 1.48000001907 114.0
4.17999982834 0.810000002384 1.48800003529 99.0
4.28900003433 0.804000020027 1.52499997616 83.0
4.40899991989 -0.168999999762 1.55099999905 65.0
4.3860001564 -0.194999992847 1.54299998283 64.0
4.32700014114 -0.270999997854 1.52400004864 83.0
4.32299995422 -0.29699999094 1.52300000191 79.0
4.3220000267 -0.323000013828 1.52400004864 93.0
4.26599979401 -0.344000011683 1.50499999523 90.0
4.34299993515 -0.377000004053 1.53299999237 91.0
4.28299999237 -0.398000001907 1.51199996471 80.0
4.25500011444 -0.421000003815 1.50300002098 78.0
4.27699995041 -0.449999988079 1.51199996471 86.0
4.32000017166 -0.481000006199 1.52799999714 87.0
4.31500005722 -0.507000029087 1.52699995041 88.0
4.28800010681 -0.52999997139 1.51900005341 89.0
4.34800004959 -0.56400001049 1.54200005531 86.0
4.37400007248 -0.59399998188 1.55200004578 91.0
4.34600019455 -0.616999983788 1.54299998283 89.0
4.27400016785 -0.634000003338 1.51900005341 91.0
4.27799987793 -0.661000013351 1.52199995518 86.0
4.31699991226 -0.694000005722 1.53699994087 93.0
4.34600019455 -0.726000010967 1.5490000248 87.0
4.26800012589 -0.739000022411 1.52199995518 92.0
4.28900003433 -0.769999980927 1.53100001812 102.0
4.28800010681 -0.79699999094 1.53299999237 96.0
4.32999992371 -0.832000017166 1.5490000248 97.0
4.27799987793 -0.848999977112 1.53299999237 99.0
4.29799985886 -0.879999995232 1.54100000858 93.0
4.33699989319 -0.916000008583 1.55700004101 101.0
4.31300020218 -0.938000023365 1.55099999905 101.0
4.22399997711 -0.945999979973 1.51999998093 101.0
4.28200006485 -0.986000001431 1.54299998283 101.0
4.27500009537 -1.01199996471 1.54299998283 103.0
4.26399993896 -1.0379999876 1.54100000858 106.0
4.31599998474 -1.07799994946 1.56200003624 105.0
4.29899978638 -1.10199999809 1.55799996853 103.0
4.3140001297 -1.13399994373 1.56599998474 99.0
4.257999897 -1.14800000191 1.54799997807 94.0
4.26900005341 -1.17900002003 1.55400002003 97.0
4.29500007629 -1.21500003338 1.56599998474 104.0
4.26800012589 -1.23599994183 1.55900001526 99.0
4.32000017166 -1.27999997139 1.58000004292 99.0
4.29400014877 -1.30099999905 1.57299995422 94.0
4.27799987793 -1.32500004768 1.57000005245 102.0
4.24800014496 -1.34500002861 1.56200003624 90.0
4.27400016785 -1.38199996948 1.57400000095 101.0
4.29799985886 -1.41900002956 1.58599996567 97.0
4.32299995422 -1.45700001717 1.59800004959 90.0
4.25199985504 -1.46300005913 1.57500004768 96.0
4.31799983978 -1.51600003242 1.60300004482 97.0
4.26000022888 -1.52600002289 1.58399999142 98.0
4.3220000267 -1.57799994946 1.61099994183 90.0
4.3140001297 -1.60599994659 1.61099994183 84.0
4.26200008392 -1.61699998379 1.59500002861 92.0
4.30499982834 -1.66400003433 1.61500000954 91.0
4.30000019073 -1.69400000572 1.61600005627 89.0
4.27799987793 -1.7159999609 1.61199998856 83.0
4.27199983597 -1.74500000477 1.61300003529 98.0
4.29199981689 -1.78499996662 1.62399995327 89.0
4.29699993134 -1.81900000572 1.62999999523 95.0
4.28999996185 -1.84800004959 1.63199996948 94.0
4.23799991608 -1.85800004005 1.61600005627 82.0
4.29400014877 -1.91499996185 1.64100003242 83.0
4.28499984741 -1.94400000572 1.64199995995 89.0
4.28700017929 -1.97800004482 1.64699995518 100.0
4.3109998703 -2.05599999428 1.66499996185 93.0
4.28499984741 -2.07699990273 1.65999996662 87.0
0.0179999992251 -0.00400000018999 0.00300000002608 88.0
4.28999996185 -2.14800000191 1.67100000381 85.0
0.00899999961257 0.0 0.0 91.0
0.104000002146 -0.0500000007451 0.0370000004768 93.0
2.125 1.2990000248 0.830999970436 234.0
2.17300009727 1.30799996853 0.847000002861 232.0
2.15799999237 1.27999997139 0.838999986649 210.0
2.16300010681 1.26499998569 0.837999999523 118.0
2.30200004578 1.3259999752 0.888999998569 114.0
2.2539999485 1.27900004387 0.867999970913 186.0
2.25300002098 1.25899994373 0.865000009537 206.0
2.34699988365 1.29200005531 0.898000001907 100.0
3.55500006676 1.45500004292 1.30200004578 94.0
3.55900001526 1.43099999428 1.30099999905 83.0
3.65000009537 1.44099998474 1.33099997044 77.0
3.85899996758 1.4960000515 1.40499997139 78.0
4.11999988556 1.56700003147 1.49699997902 74.0
4.08099985123 1.52300000191 1.48000001907 78.0
4.07600021362 1.49199998379 1.47500002384 74.0
4.14200019836 1.48699998856 1.4960000515 82.0
4.15199995041 1.4620000124 1.49699997902 78.0
4.17199993134 1.44000005722 1.50199997425 86.0
4.13100004196 1.39699995518 1.48500001431 121.0
4.15999984741 1.37800002098 1.49199998379 126.0
4.18499994278 1.35800004005 1.49899995327 120.0
4.16900014877 1.32400000095 1.49100005627 121.0
4.16900014877 1.29600000381 1.48800003529 115.0
4.13899993896 1.25800001621 1.47500002384 117.0
4.17500019073 1.24100005627 1.48599994183 117.0
4.18300008774 1.21500003338 1.48599994183 118.0
4.1810002327 1.18700003624 1.48399996758 117.0
4.19199991226 1.16199994087 1.48599994183 117.0
4.19600009918 1.13600003719 1.48500001431 122.0
4.20399999619 1.11000001431 1.48599994183 122.0
4.20800018311 1.08399999142 1.48500001431 124.0
4.22300004959 1.05999994278 1.48899996281 114.0
4.23000001907 1.0340000391 1.48899996281 117.0
4.23099994659 1.00699996948 1.48800003529 120.0
4.21999979019 0.976999998093 1.48300004005 120.0
4.18699979782 0.943000018597 1.46899998188 118.0
4.21700000763 0.92199999094 1.47800004482 125.0
4.22700023651 0.898000001907 1.48000001907 117.0
4.1970000267 0.865000009537 1.46800005436 105.0
4.25400018692 0.848999977112 1.48699998856 112.0
4.22499990463 0.816999971867 1.47500002384 97.0
4.38800001144 0.820999979973 1.53100001812 69.0
0.624000012875 0.0149999996647 0.211999997497 60.0
4.28800010681 -0.60799998045 1.49399995804 63.0
4.37200021744 -0.674000024796 1.52600002289 77.0
4.35099983215 -0.725000023842 1.52100002766 86.0
4.29099988937 -0.741999983788 1.50199997425 83.0
4.39699983597 -0.814999997616 1.54200005531 75.0
4.30800008774 -0.825999975204 1.51199996471 84.0
4.33699989319 -0.85900002718 1.52400004864 86.0
4.35400009155 -0.889999985695 1.53199994564 88.0
4.28200006485 -0.902999997139 1.50800001621 91.0
4.30800008774 -0.935000002384 1.51900005341 91.0
4.32700014114 -0.967000007629 1.52799999714 94.0
4.33699989319 -0.996999979019 1.53299999237 84.0
4.3060002327 -1.01800000668 1.52400004864 92.0
4.32100009918 -1.04999995232 1.53199994564 91.0
4.3029999733 -1.07299995422 1.52699995041 91.0
4.32899999619 -1.10800004005 1.53900003433 95.0
4.30100011826 -1.1289999485 1.53100001812 94.0
4.30499982834 -1.15799999237 1.53499996662 97.0
4.30399990082 -1.18700003624 1.53699994087 95.0
4.30200004578 -1.21399998665 1.53900003433 96.0
4.26300001144 -1.23199999332 1.52699995041 88.0
4.28599977493 -1.26699995995 1.5379999876 99.0
4.27099990845 -1.29100000858 1.53499996662 93.0
4.25400018692 -1.31500005722 1.53199994564 100.0
4.26900005341 -1.34899997711 1.53999996185 104.0
4.31300020218 -1.39199995995 1.55799996853 94.0
4.30999994278 -1.42100000381 1.55999994278 98.0
4.30999994278 -1.45000004768 1.56299996376 98.0
4.23199987411 -1.45299994946 1.5379999876 102.0
4.31599998474 -1.51199996471 1.57099997997 99.0
4.29300022125 -1.5340000391 1.56599998474 104.0
4.26200008392 -1.55400002003 1.55799996853 94.0
4.30900001526 -1.60099995136 1.57899999619 80.0
4.33300018311 -1.64100003242 1.5909999609 88.0
4.34999990463 -1.67900002003 1.60000002384 90.0
4.36199998856 -1.71500003338 1.60800004005 88.0
4.31599998474 -1.72800004482 1.59500002861 88.0
4.3060002327 -1.75600004196 1.59500002861 86.0
4.2389998436 -1.75899994373 1.57400000095 90.0
4.26399993896 -1.83299994469 1.5909999609 88.0
4.29300022125 -1.87800002098 1.60500001907 88.0
4.32700014114 -1.95899999142 1.62699997425 86.0
4.3060002327 -1.98300004005 1.62300002575 93.0
4.29099988937 -2.00900006294 1.6210000515 85.0
4.29699993134 -2.04500007629 1.62800002098 101.0
0.01600000076 -0.00300000002608 0.00200000009499 97.0
4.3029999733 -2.11599993706 1.63900005817 90.0
4.27400016785 -2.13599991798 1.63300001621 93.0
4.26800012589 -2.16700005531 1.63499999046 86.0
0.0370000004768 -0.0140000004321 0.0109999999404 95.0
2.16599988937 1.32099997997 0.829999983311 242.0
2.16400003433 1.29999995232 0.827000021935 227.0
2.15300011635 1.27499997616 0.819999992847 220.0
2.15899991989 1.25999999046 0.819999992847 102.0
2.19899988174 1.26400005817 0.833000004292 111.0
2.25300002098 1.27499997616 0.850000023842 203.0
2.29699993134 1.28100001812 0.865000009537 189.0
2.38899993896 1.31200003624 0.897000014782 96.0
3.47699999809 1.42100000381 1.24899995327 94.0
3.49300003052 1.40199995041 1.25100004673 83.0
4.00500011444 1.52100002766 1.42700004578 74.0
4.0529999733 1.50999999046 1.44099998474 77.0
4.14699983597 1.51600003242 1.47200000286 80.0
4.15999984741 1.49100005627 1.47399997711 77.0
4.16200017929 1.4620000124 1.47200000286 76.0
4.21500015259 1.45200002193 1.48800003529 96.0
4.14699983597 1.39900004864 1.46099996567 118.0
4.16200017929 1.37600004673 1.46399998665 130.0
4.1970000267 1.35899996758 1.47399997711 117.0
4.14099979401 1.31200003624 1.45200002193 115.0
4.17600011826 1.29499995708 1.4620000124 121.0
4.15799999237 1.26199996471 1.45299994946 121.0
4.15000009537 1.23099994659 1.44799995422 125.0
4.17000007629 1.20899999142 1.45299994946 117.0
4.21500015259 1.19400000572 1.46700000763 116.0
4.16900014877 1.15400004387 1.44900000095 115.0
4.21899986267 1.13999998569 1.46399998665 121.0
4.1859998703 1.10300004482 1.4509999752 115.0
4.22200012207 1.08500003815 1.46099996567 119.0
4.22800016403 1.05900001526 1.4620000124 120.0
4.22399997711 1.03100001812 1.45899999142 113.0
4.22300004959 1.00300002098 1.45599997044 116.0
4.23999977112 0.980000019073 1.46099996567 116.0
4.19000005722 0.941999971867 1.44200003147 113.0
4.23000001907 0.924000024796 1.45399999619 120.0
4.25 0.901000022888 1.46000003815 119.0
4.22300004959 0.867999970913 1.44900000095 115.0
4.21299982071 0.839999973774 1.44400000572 118.0
4.28000020981 0.825999975204 1.4659999609 101.0
4.41599988937 -0.957000017166 1.52699995041 64.0
4.34399986267 -1.02499997616 1.50800001621 65.0
4.31599998474 -1.04700005054 1.50100004673 76.0
4.38500022888 -1.09200000763 1.52699995041 87.0
4.35300016403 -1.11199998856 1.51800000668 77.0
4.32299995422 -1.13300001621 1.50899994373 73.0
4.30000019073 -1.15499997139 1.5039999485 81.0
4.3220000267 -1.18900001049 1.51400005817 87.0
4.26399993896 -1.2009999752 1.4960000515 89.0
4.33799982071 -1.25100004673 1.52400004864 85.0
4.30999994278 -1.27199995518 1.51699995995 89.0
4.31199979782 -1.30200004578 1.51999998093 88.0
4.28599977493 -1.3220000267 1.51300001144 105.0
4.31300020218 -1.36000001431 1.52600002289 93.0
4.34899997711 -1.40100002289 1.54100000858 93.0
4.30100011826 -1.41499996185 1.52699995041 100.0
4.28399991989 -1.43900001049 1.52400004864 102.0
4.23999977112 -1.45399999619 1.51100003719 99.0
4.30200004578 -1.50499999523 1.53600001335 96.0
4.34399986267 -1.54999995232 1.55400002003 91.0
4.31300020218 -1.56900000572 1.54600000381 88.0
4.30700016022 -1.59700000286 1.54700005054 87.0
4.32600021362 -1.63499999046 1.55700004101 87.0
4.28399991989 -1.64999997616 1.54600000381 88.0
4.33599996567 -1.70200002193 1.56799995899 89.0
4.23000001907 -1.69000005722 1.53299999237 90.0
4.32600021362 -1.76100003719 1.57099997997 93.0
4.30399990082 -1.78299999237 1.56700003147 83.0
4.29199981689 -1.80999994278 1.56599998474 83.0
4.32299995422 -1.85500001907 1.58099997044 90.0
4.39200019836 -1.91799998283 1.61099994183 77.0
4.30000019073 -1.90999996662 1.58099997044 84.0
4.30000019073 -1.94299995899 1.58500003815 85.0
4.31599998474 -1.98300004005 1.59500002861 86.0
4.32399988174 -2.01999998093 1.60199999809 86.0
4.25699996948 -2.02200007439 1.58099997044 84.0
4.3029999733 -2.07699990273 1.60300004482 89.0
4.27799987793 -2.09899997711 1.59800004959 95.0
0.0410000011325 -0.0149999996647 0.0120000001043 85.0
4.27899980545 -2.16799998283 1.60699999332 89.0
2.12299990654 1.29200005531 0.797999978065 225.0
2.13800001144 1.28199994564 0.800999999046 242.0
2.13400006294 1.26100003719 0.79699999094 193.0
2.26999998093 1.30200004578 0.842000007629 129.0
2.23099994659 1.26100003719 0.824999988079 217.0
2.27999997139 1.26900005341 0.841000020504 161.0
2.36500000954 1.29600000381 0.870000004768 95.0
3.51600003242 1.45899999142 1.24000000954 89.0
3.42600011826 1.39699995518 1.20599997044 87.0
3.57999992371 1.43400001526 1.25699996948 80.0
3.99799990654 1.54299998283 1.39900004864 75.0
4.20100021362 1.5909999609 1.46700000763 73.0
4.17600011826 1.49300003052 1.45000004768 76.0
4.17000007629 1.4620000124 1.44500005245 80.0
4.22399997711 1.45200002193 1.4620000124 95.0
4.17999982834 1.40799999237 1.44400000572 120.0
4.14400005341 1.36699998379 1.42900002003 128.0
4.12400007248 1.33299994469 1.41999995708 129.0
4.17100000381 1.31900000572 1.43299996853 127.0
4.19299983978 1.29799997807 1.43900001049 123.0
4.19099998474 1.26900005341 1.43599998951 116.0
4.18699979782 1.24000000954 1.43200004101 117.0
4.17899990082 1.21000003815 1.4279999733 117.0
4.19500017166 1.18599998951 1.43099999428 115.0
4.20200014114 1.16100001335 1.43200004101 113.0
4.1810002327 1.12699997425 1.42200005054 118.0
4.22800016403 1.11199998856 1.43599998951 111.0
4.17500019073 1.07099997997 1.41700005531 112.0
4.24399995804 1.06099998951 1.43799996376 119.0
4.1970000267 1.02199995518 1.42100000381 115.0
4.22300004959 1.00100004673 1.4279999733 115.0
4.23199987411 0.976000010967 1.42900002003 116.0
4.25099992752 0.953999996185 1.43400001526 114.0
4.20300006866 0.916000008583 1.41600000858 116.0
4.18200016022 0.884999990463 1.40799999237 112.0
4.14699983597 0.851000010967 1.39499998093 111.0
4.19299983978 0.833999991417 1.4090000391 118.0
4.21799993515 0.811999976635 1.41600000858 91.0
0.342999994755 -0.0540000014007 0.112000003457 64.0
4.44099998474 -1.27900004387 1.52999997139 77.0
4.38700008392 -1.29299998283 1.51400005817 71.0
4.36899995804 -1.31599998474 1.50999999046 77.0
4.32899999619 -1.33399999142 1.49899995327 86.0
4.37799978256 -1.37800002098 1.51800000668 78.0
4.36600017548 -1.40400004387 1.51699995995 77.0
4.35500001907 -1.42999994755 1.51600003242 82.0
4.33199977875 -1.45200002193 1.50999999046 87.0
4.33900022507 -1.48500001431 1.51600003242 88.0
4.34600019455 -1.51699995995 1.52100002766 87.0
4.31699991226 -1.53699994087 1.51400005817 80.0
4.25199985504 -1.54400002956 1.49399995804 79.0
4.26900005341 -1.61099994183 1.50699996948 79.0
4.38500022888 -1.71700000763 1.55400002003 81.0
4.27199983597 -1.70399999619 1.51800000668 75.0
4.37900018692 -1.77900004387 1.55900001526 77.0
4.36600017548 -1.80599999428 1.55799996853 80.0
0.0359999984503 -0.00999999977648 0.00899999961257 82.0
4.20399999619 -1.89600002766 1.51900005341 81.0
4.367000103 -2.00300002098 1.58200001717 78.0
4.29099988937 -2.00099992752 1.55799996853 82.0
4.29899978638 -2.03800010681 1.56599998474 88.0
0.00899999961257 0.0 0.0 86.0
0.957000017166 -0.560000002384 0.361000001431 116.0
2.12800002098 1.29200005531 0.782999992371 245.0
2.10599994659 1.25999999046 0.773000001907 243.0
2.14800000191 1.26600003242 0.785000026226 164.0
2.21300005913 1.28600001335 0.806999981403 96.0
2.2539999485 1.28999996185 0.819000005722 124.0
2.26999998093 1.27900004387 0.822000026703 230.0
2.25999999046 1.25499999523 0.816999971867 151.0
3.45499992371 1.43099999428 1.19400000572 89.0
3.46399998665 1.40999996662 1.19400000572 90.0
3.4470000267 1.37800002098 1.18599998951 87.0
3.90700006485 1.53299999237 1.34200000763 72.0
4.01700019836 1.54799997807 1.37699997425 72.0
3.90000009537 1.47500002384 1.33399999142 71.0
4.10200023651 1.49300003052 1.39800000191 72.0
4.19600009918 1.49800002575 1.4279999733 76.0
4.19199991226 1.46700000763 1.4240000248 81.0
4.16200017929 1.4279999733 1.41100001335 94.0
4.13000011444 1.38800001144 1.39800000191 125.0
4.15100002289 1.36699998379 1.40199995041 122.0
4.17100000381 1.34500002861 1.40699994564 117.0
4.17899990082 1.31900000572 1.40699994564 115.0
4.20599985123 1.2990000248 1.41400003433 115.0
4.15999984741 1.25699996948 1.39699995518 116.0
4.18300008774 1.23599994183 1.40199995041 126.0
4.16699981689 1.20399999619 1.39499998093 112.0
4.25400018692 1.2009999752 1.42200005054 114.0
4.23099994659 1.16600000858 1.41199994087 121.0
4.21700000763 1.13499999046 1.40600001812 120.0
4.21199989319 1.10599994659 1.40199995041 112.0
4.24599981308 1.0870000124 1.41199994087 116.0
4.17399978638 1.04200005531 1.38600003719 110.0
4.18699979782 1.01800000668 1.38900005817 111.0
4.17600011826 0.987999975681 1.38399994373 117.0
4.1859998703 0.963999986649 1.38499999046 113.0
4.19600009918 0.93900001049 1.38699996471 116.0
4.1859998703 0.910000026226 1.38199996948 117.0
4.18800020218 0.884000003338 1.38199996948 116.0
4.23600006104 0.867999970913 1.39600002766 115.0
4.21099996567 0.836000025272 1.38699996471 111.0
4.24700021744 0.816999971867 1.39699995518 87.0
0.672999978065 0.00800000037998 0.216000005603 58.0
0.644999980927 -0.00700000021607 0.207000002265 64.0
4.37400007248 -1.46399998665 1.49500000477 76.0
4.38199996948 -1.49699997902 1.50100004673 80.0
4.37900018692 -1.52600002289 1.50199997425 70.0
0.0430000014603 -0.0109999999404 0.0120000001043 71.0
0.0839999988675 -0.0299999993294 0.0260000005364 73.0
0.929000020027 -0.526000022888 0.340999990702 104.0
1.01600003242 -0.584999978542 0.374000012875 112.0
0.991999983788 -0.578999996185 0.36700001359 100.0
2.12599992752 1.2879999876 0.76599997282 238.0
2.13599991798 1.27499997616 0.76700001955 242.0
2.17199993134 1.27799999714 0.777999997139 135.0
2.24300003052 1.29999995232 0.800999999046 91.0
2.20399999619 1.25899994373 0.783999979496 147.0
2.25500011444 1.26900005341 0.800000011921 244.0
2.29500007629 1.27199995518 0.811999976635 140.0
3.40100002289 1.40600001812 1.15100002289 92.0
3.52699995041 1.40699994564 1.18900001049 82.0
3.8029999733 1.43499994278 1.27400004864 82.0
4.04199981689 1.49699997902 1.35199999809 76.0
4.13800001144 1.50300002098 1.38199996948 75.0
4.07999992371 1.45299994946 1.36000001431 77.0
4.24499988556 1.48300004005 1.41199994087 74.0
4.18300008774 1.43200004101 1.38900005817 101.0
4.16499996185 1.39699995518 1.38100004196 124.0
4.17100000381 1.3710000515 1.38100004196 122.0
4.16200017929 1.34000003338 1.375 120.0
4.16900014877 1.31400001049 1.375 122.0
4.13899993896 1.27600002289 1.36300003529 120.0
4.19099998474 1.26400005817 1.3789999485 117.0
4.19000005722 1.23599994183 1.37600004673 122.0
4.19199991226 1.20899999142 1.375 114.0
4.17100000381 1.17499995232 1.36600005627 122.0
4.21000003815 1.15799999237 1.37699997425 117.0
4.27099990845 1.14699995518 1.39499998093 114.0
4.22499990463 1.10699999332 1.37800002098 116.0
4.23600006104 1.08299994469 1.37999999523 116.0
4.20699977875 1.04799997807 1.36899995804 117.0
4.27299976349 1.03699994087 1.38900005817 115.0
4.19000005722 0.990000009537 1.36000001431 115.0
4.21899986267 0.97000002861 1.36800003052 105.0
4.18699979782 0.93599998951 1.35599994659 112.0
4.21500015259 0.915000021458 1.36399996281 123.0
4.22200012207 0.889999985695 1.36500000954 110.0
4.19799995422 0.85799998045 1.35599994659 113.0
4.18800020218 0.829999983311 1.35099995136 111.0
4.27600002289 0.819999992847 1.37800002098 89.0
0.800999999046 0.0140000004321 0.252000004053 57.0
4.32499980927 -1.53499996662 1.45700001717 77.0
0.509999990463 -0.190999999642 0.170000001788 72.0
0.602999985218 -0.234999999404 0.202999994159 75.0
0.549000024796 -0.217999994755 0.185000002384 93.0
0.705999970436 -0.287000000477 0.238999992609 88.0
0.679000020027 -0.280999988317 0.230000004172 100.0
0.680999994278 -0.286000013351 0.231999993324 101.0
0.619000017643 -0.264999985695 0.21099999547 87.0
0.957000017166 -0.524999976158 0.342000007629 99.0
1.04299998283 -0.580999970436 0.374000012875 98.0
0.967999994755 -0.547999978065 0.347999989986 115.0
1.02699995041 -0.589999973774 0.370999991894 110.0
0.987999975681 -0.575999975204 0.358000010252 100.0
2.11299991608 1.27699995041 0.745999991894 241.0
2.09999990463 1.25100004673 0.739000022411 232.0
2.16199994087 1.26900005341 0.758000016212 120.0
2.21900010109 1.28299999237 0.776000022888 105.0
2.21900010109 1.26499998569 0.773000001907 170.0
2.22099995613 1.24699997902 0.772000014782 226.0
2.33699989319 1.29299998283 0.810000002384 120.0
3.43099999428 1.41600000858 1.13699996471 93.0
3.48900008202 1.41400003433 1.15400004387 84.0
3.66199994087 1.45799994469 1.20899999142 89.0
3.97399997711 1.49699997902 1.30400002003 81.0
4.02400016785 1.48699998856 1.31799995899 81.0
4.08599996567 1.48199999332 1.33599996567 79.0
4.16099977493 1.48000001907 1.35800004005 74.0
4.17600011826 1.45599997044 1.36099994183 75.0
4.1779999733 1.4279999733 1.35899996758 102.0
4.14499998093 1.38800001144 1.34599995613 121.0
4.13899993896 1.35800004005 1.34200000763 122.0
4.19500017166 1.34800004959 1.35800004005 120.0
4.1939997673 1.31900000572 1.35500001907 116.0
4.17500019073 1.28499996662 1.34700000286 114.0
4.20499992371 1.26600003242 1.35500001907 110.0
4.15600013733 1.22399997711 1.3370000124 115.0
4.20800018311 1.21099996567 1.35199999809 117.0
4.18800020218 1.1779999733 1.34300005436 115.0
4.20499992371 1.15499997139 1.34700000286 113.0
4.21799993515 1.13100004196 1.34899997711 117.0
4.23500013351 1.10800004005 1.35300004482 111.0
4.21199989319 1.07500004768 1.34399998188 120.0
4.21400022507 1.04799997807 1.34300005436 122.0
4.20800018311 1.01900005341 1.33899998665 119.0
4.19099998474 0.987999975681 1.33200001717 119.0
4.26000022888 0.976999998093 1.35300004482 109.0
4.22800016403 0.943000018597 1.34200000763 118.0
4.22200012207 0.915000021458 1.33800005913 117.0
4.132999897 0.870000004768 1.30900001526 108.0
4.1779999733 0.852999985218 1.3220000267 113.0
4.1970000267 0.829999983311 1.3259999752 109.0
4.26499986649 0.816999971867 1.34700000286 83.0
0.456999987364 -0.155000001192 0.148000001907 69.0
0.790000021458 -0.280999988317 0.25799998641 87.0
0.757000029087 -0.27500000596 0.247999995947 94.0
0.773999989033 -0.287000000477 0.254000008106 95.0
0.819000005722 -0.310000002384 0.270000010729 125.0
0.89200001955 -0.344000011683 0.294999986887 147.0
0.869000017643 -0.340999990702 0.287999987602 159.0
0.838999986649 -0.335000008345 0.277999997139 208.0
0.876999974251 -0.356999993324 0.291999995708 290.0
0.851000010967 -0.351999998093 0.284000009298 248.0
0.865000009537 -0.363999992609 0.28900000453 196.0
0.851999998093 -0.365000009537 0.284999996424 194.0
0.846000015736 -0.368999987841 0.284000009298 184.0
0.818000018597 -0.363000005484 0.27500000596 158.0
0.759999990463 -0.342999994755 0.256000012159 146.0
0.777000010014 -0.356000006199 0.263000011444 126.0
0.760999977589 -0.354000002146 0.25799998641 126.0
0.830999970436 -0.393999993801 0.282999992371 152.0
0.786000013351 -0.384000003338 0.268000006676 79.0
1.04700005054 -0.574000000954 0.36700001359 109.0
0.998000025749 -0.555000007153 0.34999999404 114.0
1.02199995518 -0.577000021935 0.360000014305 112.0
1.00999999046 -0.578999996185 0.356999993324 101.0
1.00800001621 -0.587000012398 0.358000010252 108.0
2.12599992752 1.28299999237 0.73400002718 232.0
2.132999897 1.26800000668 0.73400002718 214.0
2.14100003242 1.2539999485 0.735000014305 134.0
2.21799993515 1.28100001812 0.759000003338 102.0
2.22699999809 1.26699995995 0.759999990463 184.0
2.23699998856 1.25300002098 0.760999977589 224.0
2.34299993515 1.29299998283 0.795000016689 109.0
3.43499994278 1.41499996185 1.11399996281 97.0
3.49099993706 1.4129999876 1.12999999523 85.0
3.85400009155 1.44900000095 1.23800003529 115.0
3.992000103 1.47300004959 1.27999997139 109.0
4.15299987793 1.50300002098 1.32899999619 70.0
4.16400003433 1.47800004482 1.33099997044 77.0
4.1970000267 1.46099996567 1.33899998665 86.0
4.18699979782 1.4279999733 1.33299994469 111.0
4.1810002327 1.39800000191 1.32899999619 126.0
4.18400001526 1.37000000477 1.32799994946 119.0
4.20499992371 1.34899997711 1.33299994469 124.0
4.15700006485 1.30499994755 1.31500005722 114.0
4.19899988174 1.28999996185 1.3259999752 115.0
4.15500020981 1.24899995327 1.30999994278 116.0
4.21799993515 1.24000000954 1.32799994946 119.0
4.20499992371 1.20799994469 1.3220000267 112.0
4.20300006866 1.17999994755 1.32000005245 113.0
4.19799995422 1.15100002289 1.31700003147 116.0
4.23699998856 1.13399994373 1.32700002193 121.0
4.21199989319 1.10000002384 1.31799995899 115.0
4.20599985123 1.07099997997 1.31400001049 111.0
4.18699979782 1.03900003433 1.30700004101 117.0
4.1810002327 1.01100003719 1.3029999733 121.0
4.18800020218 0.986000001431 1.30400002003 106.0
4.22300004959 0.967000007629 1.31299996376 115.0
4.20499992371 0.93599998951 1.30599999428 114.0
4.15000009537 0.898000001907 1.2879999876 114.0
4.16599988937 0.875 1.29100000858 111.0
4.15799999237 0.847000002861 1.2879999876 107.0
4.17999982834 0.824999988079 1.29299998283 112.0
4.26599979401 0.815999984741 1.31900000572 95.0
0.907000005245 -0.291999995708 0.287999987602 94.0
0.810000002384 -0.266000002623 0.256999999285 77.0
0.830999970436 -0.279000014067 0.264999985695 93.0
0.837000012398 -0.287000000477 0.266999989748 112.0
0.85799998045 -0.300000011921 0.27500000596 117.0
0.865999996662 -0.308999985456 0.277999997139 127.0
0.839999973774 -0.305000007153 0.270000010729 128.0
0.867999970913 -0.321999996901 0.280000001192 145.0
0.862999975681 -0.326000005007 0.279000014067 138.0
0.860000014305 -0.331000000238 0.277999997139 144.0
0.864000022411 -0.338999986649 0.280000001192 214.0
0.912999987602 -0.363999992609 0.29699999094 654.0
0.907000005245 -0.368999987841 0.296000003815 1028.0
0.898000001907 -0.370999991894 0.293000012636 527.0
0.880999982357 -0.370999991894 0.287999987602 333.0
0.875999987125 -0.375 0.287000000477 287.0
0.871999979019 -0.379999995232 0.287000000477 263.0
0.879000008106 -0.389999985695 0.289999991655 214.0
0.856999993324 -0.386000007391 0.282999992371 195.0
0.867999970913 -0.398000001907 0.287999987602 189.0
0.879999995232 -0.409999996424 0.293000012636 204.0
0.84399998188 -0.40000000596 0.280999988317 219.0
0.861999988556 -0.414999991655 0.287999987602 210.0
0.873000025749 -0.426999986172 0.293000012636 194.0
0.879999995232 -0.437999993563 0.296000003815 198.0
0.896000027657 -0.451999992132 0.301999986172 137.0
0.981000006199 -0.527999997139 0.335000008345 103.0
1.02999997139 -0.563000023365 0.352999985218 109.0
1.00800001621 -0.559000015259 0.345999985933 112.0
1.00100004673 -0.56400001049 0.344999998808 100.0
0.986999988556 -0.564999997616 0.340999990702 99.0
0.961000025272 -0.558000028133 0.333000004292 106.0
2.11500000954 1.27400004864 0.714999973774 243.0
2.14400005341 1.27199995518 0.722000002861 203.0
2.16799998283 1.26800000668 0.727999985218 102.0
2.30900001526 1.33099997044 0.773000001907 103.0
2.24900007248 1.27699995041 0.750999987125 212.0
2.25699996948 1.26199996471 0.750999987125 196.0
2.30100011826 1.26699995995 0.763000011444 133.0
3.4279999733 1.4090000391 1.08800005913 91.0
3.53500008583 1.42700004578 1.12000000477 84.0
3.67899990082 1.45899999142 1.1629999876 74.0
3.81699991226 1.45899999142 1.20200002193 79.0
3.89199995995 1.46099996567 1.22399997711 121.0
3.83100008965 1.41100001335 1.20200002193 102.0
4.16499996185 1.50499999523 1.30499994755 69.0
4.15500020981 1.47200000286 1.2990000248 76.0
4.22599983215 1.46800005436 1.31900000572 84.0
4.16400003433 1.41799998283 1.29700005054 109.0
4.17999982834 1.39499998093 1.30099999905 120.0
4.16800022125 1.36199998856 1.29400002956 116.0
4.17100000381 1.33500003815 1.29299998283 119.0
4.20599985123 1.31799995899 1.30200004578 115.0
4.18800020218 1.2840000391 1.29499995708 112.0
4.21400022507 1.26400005817 1.30099999905 113.0
4.22100019455 1.23899996281 1.30099999905 117.0
4.17500019073 1.1970000267 1.28499996662 120.0
4.22800016403 1.18499994278 1.2990000248 115.0
4.18400001526 1.14499998093 1.2840000391 116.0
4.1970000267 1.1210000515 1.28699994087 120.0
4.16400003433 1.08500003815 1.27499997616 114.0
4.19199991226 1.06599998474 1.28199994564 109.0
4.18499994278 1.03699994087 1.27799999714 117.0
4.19299983978 1.01199996471 1.27900004387 118.0
4.2389998436 0.995999991894 1.29200005531 114.0
4.19899988174 0.959999978542 1.27799999714 111.0
4.1970000267 0.933000028133 1.27600002289 119.0
4.19199991226 0.90499997139 1.27300000191 115.0
4.23699998856 0.888000011444 1.28600001335 114.0
4.17500019073 0.848999977112 1.26499998569 106.0
4.19299983978 0.825999975204 1.26999998093 107.0
4.06300020218 0.776000022888 1.22899997234 78.0
0.776000022888 -0.233999997377 0.239999994636 70.0
0.92199999094 -0.284000009298 0.286000013351 87.0
0.89200001955 -0.280999988317 0.277000010014 102.0
0.897000014782 -0.28900000453 0.279000014067 126.0
0.893999993801 -0.293999999762 0.279000014067 122.0
0.911000013351 -0.305999994278 0.284000009298 123.0
0.874000012875 -0.298999994993 0.273000001907 144.0
0.907999992371 -0.317000001669 0.284999996424 141.0
0.885999977589 -0.314999997616 0.277999997139 136.0
0.879999995232 -0.319000005722 0.277000010014 126.0
0.90499997139 -0.335000008345 0.284999996424 132.0
0.875999987125 -0.330000013113 0.277000010014 141.0
0.879000008106 -0.337000012398 0.277999997139 150.0
0.902000010014 -0.352999985218 0.286000013351 233.0
0.90600001812 -0.361000001431 0.287999987602 611.0
0.90499997139 -0.36700001359 0.28900000453 1455.0
0.902000010014 -0.372999995947 0.287999987602 745.0
0.893000006676 -0.375 0.286000013351 384.0
0.884999990463 -0.377999991179 0.284000009298 271.0
0.875999987125 -0.381000012159 0.282000005245 216.0
0.856999993324 -0.379000008106 0.275999993086 182.0
0.89099997282 -0.400999993086 0.287999987602 157.0
0.819999992847 -0.375 0.266000002623 151.0
0.866999983788 -0.402999997139 0.282000005245 158.0
0.82800000906 -0.391000002623 0.270000010729 164.0
0.866999983788 -0.416999995708 0.284000009298 183.0
0.842000007629 -0.411000013351 0.275999993086 221.0
