ply
format ascii 1.0
element vertex 929
property float x
property float y
property float z
property float intensity
end_header
0.949000000954 -0.115999996662 0.127000004053 157.0
0.959999978542 -0.123000003397 0.12800000608 155.0
0.943000018597 -0.127000004053 0.126000002027 158.0
0.958000004292 -0.135000005364 0.12800000608 169.0
0.96899998188 -0.142000004649 0.129999995232 165.0
0.967000007629 -0.146999999881 0.129999995232 206.0
0.973999977112 -0.153999999166 0.130999997258 963.0
0.986999988556 -0.162000000477 0.133000001311 1307.0
0.981999993324 -0.166999995708 0.131999999285 1310.0
0.98400002718 -0.172999992967 0.131999999285 1324.0
0.980000019073 -0.178000003099 0.131999999285 1333.0
0.973999977112 -0.182999998331 0.130999997258 1348.0
0.972999989986 -0.188999995589 0.130999997258 1349.0
0.972999989986 -0.194999992847 0.131999999285 1349.0
0.973999977112 -0.201000005007 0.131999999285 1364.0
0.966000020504 -0.204999998212 0.130999997258 1376.0
0.964999973774 -0.21099999547 0.130999997258 1387.0
0.963999986649 -0.216999992728 0.130999997258 1401.0
0.963999986649 -0.222000002861 0.130999997258 1403.0
0.962999999523 -0.228000000119 0.130999997258 1397.0
0.958000004292 -0.232999995351 0.130999997258 1015.0
0.945999979973 -0.236000001431 0.128999993205 263.0
0.899999976158 -0.230000004172 0.123000003397 184.0
0.915000021458 -0.238999992609 0.125 186.0
0.945999979973 -0.254000008106 0.129999995232 189.0
0.924000024796 -0.252999991179 0.127000004053 194.0
0.935000002384 -0.261999994516 0.128999993205 185.0
0.902000010014 -0.259000003338 0.123999997973 198.0
0.922999978065 -0.270999997854 0.127000004053 191.0
0.912999987602 -0.273999989033 0.126000002027 192.0
0.907000005245 -0.277999997139 0.126000002027 196.0
0.922999978065 -0.28900000453 0.12800000608 190.0
0.924000024796 -0.294999986887 0.128999993205 194.0
0.925000011921 -0.300999999046 0.128999993205 199.0
0.925000011921 -0.307999998331 0.128999993205 234.0
0.930999994278 -0.316000014544 0.129999995232 1144.0
0.931999981403 -0.321999996901 0.130999997258 1516.0
0.929000020027 -0.326999992132 0.129999995232 1509.0
0.925999999046 -0.333000004292 0.129999995232 1528.0
0.92199999094 -0.337000012398 0.129999995232 1532.0
0.92199999094 -0.344000011683 0.129999995232 1540.0
0.920000016689 -0.349000006914 0.129999995232 1554.0
0.921000003815 -0.356000006199 0.130999997258 1552.0
0.913999974728 -0.360000014305 0.129999995232 1558.0
0.916999995708 -0.36700001359 0.130999997258 1567.0
0.911000013351 -0.370999991894 0.129999995232 1556.0
0.912000000477 -0.377999991179 0.130999997258 1581.0
0.912999987602 -0.384999990463 0.130999997258 1579.0
0.907000005245 -0.388999998569 0.130999997258 1565.0
0.90600001812 -0.395000010729 0.130999997258 824.0
0.865999996662 -0.38299998641 0.125 260.0
0.885999977589 -0.398999989033 0.128999993205 206.0
0.884999990463 -0.405000001192 0.128999993205 209.0
0.865999996662 -0.402999997139 0.126000002027 204.0
0.851000010967 -0.402000010014 0.123999997973 211.0
0.837999999523 -0.402000010014 0.123000003397 209.0
0.853999972343 -0.416000008583 0.126000002027 213.0
0.860000014305 -0.425999999046 0.127000004053 210.0
0.853999972343 -0.430000007153 0.126000002027 209.0
0.825999975204 -0.42199999094 0.122000001371 210.0
0.839999973774 -0.43599998951 0.125 207.0
0.828999996185 -0.43599998951 0.123999997973 209.0
0.856000006199 -0.458000004292 0.12800000608 299.0
0.870000004768 -0.472000002861 0.130999997258 1305.0
0.878000020981 -0.483000010252 0.131999999285 1608.0
0.871999979019 -0.486999988556 0.131999999285 1633.0
0.934000015259 0.540000021458 0.130999997258 798.0
0.944999992847 0.538999974728 0.131999999285 817.0
0.93599998951 0.526000022888 0.129999995232 844.0
0.943000018597 0.522000014782 0.130999997258 836.0
0.930000007153 0.507000029087 0.128999993205 851.0
0.939999997616 0.504999995232 0.129999995232 864.0
0.940999984741 0.497999995947 0.129999995232 869.0
0.944999992847 0.493000000715 0.129999995232 891.0
0.940999984741 0.483000010252 0.128999993205 890.0
0.93900001049 0.47499999404 0.12800000608 903.0
0.938000023365 0.467000007629 0.12800000608 918.0
0.941999971867 0.462000012398 0.12800000608 916.0
0.944000005722 0.456000000238 0.12800000608 941.0
0.939999997616 0.446999996901 0.127000004053 942.0
0.944999992847 0.442000001669 0.12800000608 953.0
0.945999979973 0.43599998951 0.127000004053 964.0
0.93599998951 0.423999994993 0.126000002027 964.0
0.943000018597 0.421000003815 0.127000004053 979.0
0.945999979973 0.414999991655 0.127000004053 986.0
0.939999997616 0.405000001192 0.126000002027 1005.0
0.948000013828 0.402999997139 0.126000002027 1018.0
0.948000013828 0.395999997854 0.126000002027 1021.0
0.948000013828 0.388999998569 0.126000002027 1027.0
0.945999979973 0.381000012159 0.125 1037.0
0.944000005722 0.374000012875 0.125 1044.0
0.952000021935 0.370999991894 0.126000002027 1052.0
0.952000021935 0.363999992609 0.126000002027 1073.0
0.952000021935 0.358000010252 0.125 1065.0
0.952000021935 0.351000010967 0.125 1074.0
0.950999975204 0.344000011683 0.125 1101.0
0.953999996185 0.338999986649 0.125 1111.0
0.948000013828 0.330000013113 0.123999997973 1103.0
0.954999983311 0.326999992132 0.125 1124.0
0.944999992847 0.317000001669 0.123000003397 1131.0
0.952000021935 0.312999993563 0.123999997973 1147.0
0.950999975204 0.305999994278 0.123999997973 1136.0
0.95300000906 0.300999999046 0.123999997973 1148.0
0.954999983311 0.294999986887 0.123999997973 1169.0
0.950999975204 0.287999987602 0.123000003397 1187.0
0.95300000906 0.282000005245 0.123000003397 1187.0
0.958000004292 0.277999997139 0.123999997973 1218.0
0.950999975204 0.270000010729 0.123000003397 1230.0
0.95300000906 0.263999998569 0.123000003397 1249.0
0.954999983311 0.259000003338 0.123000003397 1247.0
0.955999970436 0.252999991179 0.123000003397 1234.0
0.955999970436 0.24699999392 0.123000003397 1257.0
0.962999999523 0.243000000715 0.123000003397 1248.0
0.957000017166 0.234999999404 0.123000003397 1231.0
0.955999970436 0.229000002146 0.122000001371 1227.0
0.958000004292 0.224000006914 0.123000003397 1250.0
0.955999970436 0.216999992728 0.122000001371 1262.0
0.958000004292 0.211999997497 0.122000001371 1255.0
0.959999978542 0.207000002265 0.122000001371 1262.0
0.95300000906 0.199000000954 0.120999999344 1280.0
0.958000004292 0.194999992847 0.122000001371 1289.0
0.958999991417 0.188999995589 0.122000001371 1301.0
0.963999986649 0.184000000358 0.123000003397 1312.0
0.962000012398 0.178000003099 0.122000001371 1353.0
0.955999970436 0.171000003815 0.120999999344 1391.0
0.958999991417 0.165999993682 0.122000001371 1381.0
0.962000012398 0.16099999845 0.122000001371 1366.0
0.962999999523 0.155000001192 0.122000001371 1368.0
0.967000007629 0.15000000596 0.122000001371 1374.0
0.962999999523 0.143999993801 0.122000001371 1398.0
0.962999999523 0.137999996543 0.122000001371 1398.0
0.962999999523 0.131999999285 0.122000001371 1458.0
0.962000012398 0.126000002027 0.122000001371 1483.0
0.959999978542 0.120999999344 0.120999999344 1485.0
0.964999973774 0.115999996662 0.122000001371 1509.0
0.963999986649 0.109999999404 0.122000001371 1533.0
0.967999994755 0.104999996722 0.122000001371 1537.0
0.963999986649 0.097999997437 0.122000001371 1553.0
0.966000020504 0.0930000022054 0.122000001371 1564.0
0.964999973774 0.0869999974966 0.122000001371 1589.0
0.967999994755 0.082000002265 0.122000001371 1591.0
0.966000020504 0.0759999975562 0.122000001371 1587.0
0.966000020504 0.0710000023246 0.122000001371 1604.0
0.959999978542 0.0649999976158 0.120999999344 1654.0
0.967000007629 0.0590000003576 0.122000001371 1736.0
0.96899998188 0.0540000014007 0.122000001371 1804.0
0.962999999523 0.0480000004172 0.120999999344 1824.0
0.96899998188 0.0430000014603 0.122000001371 1809.0
0.964999973774 0.0370000004768 0.122000001371 1830.0
0.967999994755 0.0320000015199 0.122000001371 1841.0
0.966000020504 0.0260000005364 0.122000001371 1544.0
0.98400002718 0.0209999997169 0.123999997973 274.0
1.02900004387 -0.0659999996424 0.130999997258 324.0
1.01300001144 -0.0710000023246 0.128999993205 982.0
0.996999979019 -0.0759999975562 0.126000002027 298.0
0.967999994755 -0.0790000036359 0.123000003397 152.0
0.981999993324 -0.0860000029206 0.125 147.0
0.976000010967 -0.0909999981523 0.123999997973 153.0
0.962000012398 -0.0949999988079 0.122000001371 158.0
0.949000000954 -0.10000000149 0.120999999344 150.0
0.957000017166 -0.105999998748 0.122000001371 154.0
0.958000004292 -0.112000003457 0.122000001371 153.0
0.95300000906 -0.116999998689 0.120999999344 156.0
0.953999996185 -0.123000003397 0.122000001371 158.0
0.959999978542 -0.128999993205 0.123000003397 161.0
0.944999992847 -0.133000001311 0.120999999344 163.0
0.972000002861 -0.142000004649 0.123999997973 166.0
0.977999985218 -0.149000003934 0.125 201.0
0.980000019073 -0.155000001192 0.126000002027 958.0
0.981999993324 -0.16099999845 0.126000002027 1317.0
0.978999972343 -0.166999995708 0.126000002027 1334.0
0.980000019073 -0.172999992967 0.126000002027 1326.0
0.977999985218 -0.178000003099 0.126000002027 1331.0
0.972000002861 -0.182999998331 0.125 1353.0
0.972000002861 -0.188999995589 0.125 1352.0
0.976999998093 -0.195999994874 0.126000002027 1350.0
0.972000002861 -0.20000000298 0.126000002027 1370.0
0.96899998188 -0.206000000238 0.126000002027 1376.0
0.962999999523 -0.209999993443 0.125 1383.0
0.963999986649 -0.216000005603 0.125 1395.0
0.959999978542 -0.221000000834 0.125 1399.0
0.959999978542 -0.226999998093 0.125 1402.0
0.953999996185 -0.231999993324 0.123999997973 1030.0
0.948000013828 -0.236000001431 0.123999997973 263.0
0.916999995708 -0.233999997377 0.119999997318 192.0
0.920000016689 -0.240999996662 0.119999997318 195.0
0.915000021458 -0.245000004768 0.119999997318 191.0
0.93900001049 -0.256999999285 0.123000003397 192.0
0.925000011921 -0.259000003338 0.122000001371 190.0
0.910000026226 -0.261000007391 0.119999997318 196.0
0.924000024796 -0.270999997854 0.122000001371 196.0
0.908999979496 -0.272000014782 0.119999997318 200.0
0.893000006676 -0.273000001907 0.118000000715 195.0
0.921000003815 -0.287999987602 0.122000001371 206.0
0.897000014782 -0.286000013351 0.119000002742 197.0
0.90499997139 -0.294999986887 0.120999999344 201.0
0.929000020027 -0.308999985456 0.123999997973 233.0
0.930000007153 -0.314999997616 0.123999997973 1115.0
0.930000007153 -0.321000009775 0.125 1518.0
0.925000011921 -0.326000005007 0.123999997973 1520.0
0.925999999046 -0.331999987364 0.125 1533.0
0.920000016689 -0.33599999547 0.123999997973 1538.0
0.92199999094 -0.342999994755 0.125 1548.0
0.917999982834 -0.347999989986 0.123999997973 1535.0
0.920000016689 -0.354999989271 0.125 1556.0
0.916999995708 -0.360000014305 0.125 1560.0
0.913999974728 -0.365000009537 0.125 1557.0
0.913999974728 -0.372000008821 0.125 1562.0
0.912000000477 -0.377999991179 0.125 1579.0
0.911000013351 -0.384000003338 0.125 1584.0
0.908999979496 -0.388999998569 0.125 1574.0
0.899999976158 -0.391999989748 0.123999997973 862.0
0.878000020981 -0.388999998569 0.120999999344 263.0
0.875999987125 -0.393999993801 0.120999999344 211.0
0.869000017643 -0.397000014782 0.120999999344 217.0
0.867999970913 -0.402999997139 0.120999999344 210.0
0.870999991894 -0.411000013351 0.122000001371 214.0
0.865999996662 -0.414999991655 0.120999999344 214.0
0.865000009537 -0.42199999094 0.122000001371 209.0
0.842000007629 -0.416999995708 0.119000002742 217.0
0.847000002861 -0.425999999046 0.119999997318 206.0
0.861999988556 -0.439999997616 0.122000001371 209.0
0.836000025272 -0.432999998331 0.119000002742 214.0
0.833999991417 -0.437999993563 0.119000002742 207.0
0.865000009537 -0.462000012398 0.123999997973 276.0
0.876999974251 -0.476000010967 0.126000002027 1280.0
0.876999974251 -0.481999993324 0.126000002027 1619.0
0.870999991894 -0.486999988556 0.126000002027 1626.0
0.93900001049 0.541999995708 0.125 957.0
0.938000023365 0.533999979496 0.125 976.0
0.93900001049 0.527000010014 0.125 986.0
0.931999981403 0.51599997282 0.123000003397 978.0
0.944000005722 0.514999985695 0.125 1002.0
0.939999997616 0.504999995232 0.123999997973 1005.0
0.938000023365 0.495999991894 0.123000003397 1028.0
0.943000018597 0.490999996662 0.123000003397 1019.0
0.939999997616 0.481999993324 0.123000003397 1027.0
0.943000018597 0.476999998093 0.123000003397 1038.0
0.936999976635 0.465999990702 0.122000001371 1040.0
0.944999992847 0.462999999523 0.122000001371 1045.0
0.944999992847 0.456000000238 0.122000001371 1049.0
0.940999984741 0.446999996901 0.120999999344 1060.0
0.944000005722 0.441000014544 0.122000001371 1059.0
0.943000018597 0.433999985456 0.120999999344 1074.0
0.950999975204 0.430999994278 0.122000001371 1067.0
0.945999979973 0.42199999094 0.120999999344 1083.0
0.948000013828 0.416000008583 0.120999999344 1089.0
0.944000005722 0.407000005245 0.119999997318 1095.0
0.940999984741 0.398999989033 0.119999997318 1103.0
0.93900001049 0.391000002623 0.119000002742 1118.0
0.949000000954 0.388999998569 0.119999997318 1110.0
0.949999988079 0.38299998641 0.119999997318 1117.0
0.949000000954 0.375999987125 0.119999997318 1125.0
0.944000005722 0.36700001359 0.119000002742 1139.0
0.954999983311 0.365000009537 0.119999997318 1151.0
0.949000000954 0.356000006199 0.119000002742 1154.0
0.941999971867 0.347000002861 0.118000000715 1152.0
0.948000013828 0.342999994755 0.118000000715 1159.0
0.947000026703 0.33599999547 0.118000000715 1162.0
0.945999979973 0.330000013113 0.118000000715 1174.0
0.950999975204 0.324999988079 0.118000000715 1167.0
0.952000021935 0.319000005722 0.118000000715 1174.0
0.950999975204 0.312000006437 0.118000000715 1166.0
0.953999996185 0.307000011206 0.118000000715 1156.0
0.950999975204 0.300000011921 0.118000000715 1168.0
0.950999975204 0.293999999762 0.116999998689 1170.0
0.95300000906 0.287999987602 0.116999998689 1178.0
0.955999970436 0.282999992371 0.118000000715 1175.0
0.955999970436 0.277000010014 0.118000000715 1187.0
0.958000004292 0.272000014782 0.118000000715 1182.0
0.957000017166 0.264999985695 0.116999998689 1206.0
0.957000017166 0.259000003338 0.116999998689 1225.0
0.954999983311 0.252999991179 0.116999998689 1254.0
0.957000017166 0.24699999392 0.116999998689 1246.0
0.959999978542 0.241999998689 0.116999998689 1251.0
0.958999991417 0.236000001431 0.116999998689 1254.0
0.958000004292 0.229000002146 0.116999998689 1276.0
0.958999991417 0.224000006914 0.116999998689 1316.0
0.958000004292 0.217999994755 0.116999998689 1343.0
0.953999996185 0.21099999547 0.115999996662 1314.0
0.959999978542 0.206000000238 0.116999998689 1367.0
0.958999991417 0.20000000298 0.115999996662 1393.0
0.954999983311 0.194000005722 0.115999996662 1394.0
0.955999970436 0.187999993563 0.115999996662 1432.0
0.958999991417 0.182999998331 0.115999996662 1412.0
0.959999978542 0.177000001073 0.115999996662 1421.0
0.959999978542 0.172000005841 0.115999996662 1518.0
0.957000017166 0.165000006557 0.115999996662 1497.0
0.958999991417 0.159999996424 0.115999996662 1428.0
0.963999986649 0.155000001192 0.115999996662 1425.0
0.962999999523 0.149000003934 0.115999996662 1434.0
0.966000020504 0.143999993801 0.115999996662 1440.0
0.967000007629 0.137999996543 0.116999998689 1450.0
0.961000025272 0.131999999285 0.115999996662 1492.0
0.963999986649 0.127000004053 0.115999996662 1508.0
0.962000012398 0.120999999344 0.115999996662 1522.0
0.964999973774 0.115000002086 0.115999996662 1572.0
0.962999999523 0.109999999404 0.115999996662 1582.0
0.962000012398 0.104000002146 0.115999996662 1620.0
0.962000012398 0.097999997437 0.115999996662 1602.0
0.967000007629 0.0930000022054 0.115999996662 1644.0
0.963999986649 0.0869999974966 0.115999996662 1674.0
0.967999994755 0.082000002265 0.115999996662 1662.0
0.967999994755 0.0759999975562 0.115999996662 1663.0
0.967000007629 0.0710000023246 0.115999996662 1684.0
0.966000020504 0.0649999976158 0.115999996662 1729.0
0.967000007629 0.0590000003576 0.115999996662 1767.0
0.972999989986 0.0540000014007 0.116999998689 1819.0
0.966000020504 0.0480000004172 0.115999996662 1840.0
0.97000002861 0.0430000014603 0.116999998689 1852.0
0.972000002861 0.0370000004768 0.116999998689 1846.0
0.97000002861 0.0320000015199 0.116999998689 1826.0
0.963999986649 0.0260000005364 0.115999996662 1611.0
0.990999996662 0.0209999997169 0.119000002742 322.0
1.02100002766 -0.0659999996424 0.123000003397 339.0
1.00899994373 -0.0710000023246 0.122000001371 985.0
1.01400005817 -0.0769999995828 0.123000003397 289.0
0.976999998093 -0.0799999982119 0.118000000715 154.0
0.98400002718 -0.0860000029206 0.119000002742 158.0
0.991999983788 -0.0930000022054 0.119999997318 157.0
0.975000023842 -0.097000002861 0.118000000715 165.0
0.973999977112 -0.101999998093 0.118000000715 160.0
0.966000020504 -0.107000000775 0.116999998689 164.0
0.962000012398 -0.112000003457 0.116999998689 167.0
0.939999997616 -0.115000002086 0.11400000006 162.0
0.962000012398 -0.123999997973 0.116999998689 164.0
0.962999999523 -0.128999993205 0.116999998689 171.0
0.962000012398 -0.135000005364 0.116999998689 179.0
0.962000012398 -0.141000002623 0.116999998689 176.0
0.97000002861 -0.148000001907 0.119000002742 215.0
0.977999985218 -0.155000001192 0.119999997318 967.0
0.978999972343 -0.16099999845 0.119999997318 1299.0
0.981999993324 -0.166999995708 0.119999997318 1307.0
0.98299998045 -0.172999992967 0.120999999344 1313.0
0.976000010967 -0.178000003099 0.119999997318 1315.0
0.972000002861 -0.182999998331 0.119999997318 1336.0
0.973999977112 -0.188999995589 0.119999997318 1332.0
0.975000023842 -0.194999992847 0.119999997318 1339.0
0.967000007629 -0.199000000954 0.119000002742 1351.0
0.97000002861 -0.206000000238 0.119999997318 1359.0
0.964999973774 -0.21099999547 0.119000002742 1360.0
0.958000004292 -0.215000003576 0.119000002742 1370.0
0.959999978542 -0.221000000834 0.119000002742 1385.0
0.962000012398 -0.228000000119 0.119999997318 1388.0
0.958000004292 -0.232999995351 0.119000002742 1026.0
0.96899998188 -0.240999996662 0.120999999344 276.0
0.936999976635 -0.238999992609 0.116999998689 210.0
0.941999971867 -0.246000006795 0.118000000715 209.0
0.933000028133 -0.25 0.116999998689 211.0
0.931999981403 -0.254999995232 0.116999998689 208.0
0.940999984741 -0.263999998569 0.118000000715 215.0
0.920000016689 -0.263999998569 0.115999996662 211.0
0.920000016689 -0.268999993801 0.115999996662 216.0
0.912000000477 -0.273000001907 0.115000002086 212.0
0.925999999046 -0.282999992371 0.116999998689 215.0
0.907000005245 -0.282999992371 0.115000002086 222.0
0.935000002384 -0.298000007868 0.119000002742 217.0
0.919000029564 -0.298999994993 0.116999998689 210.0
0.926999986172 -0.307999998331 0.118000000715 240.0
0.925999999046 -0.31400001049 0.118000000715 1102.0
0.930999994278 -0.321000009775 0.119000002742 1495.0
0.925000011921 -0.326000005007 0.119000002742 1511.0
0.930000007153 -0.333000004292 0.119000002742 1515.0
0.921000003815 -0.337000012398 0.119000002742 1525.0
0.919000029564 -0.342000007629 0.118000000715 1537.0
0.919000029564 -0.347999989986 0.119000002742 1540.0
0.916999995708 -0.354000002146 0.119000002742 1551.0
0.919000029564 -0.361000001431 0.119000002742 1560.0
0.916999995708 -0.36700001359 0.119000002742 1553.0
0.908999979496 -0.370000004768 0.119000002742 1552.0
0.912000000477 -0.377000004053 0.119000002742 1576.0
0.90600001812 -0.381000012159 0.119000002742 1584.0
0.907000005245 -0.388000011444 0.119000002742 1568.0
0.903999984264 -0.393999993801 0.119000002742 903.0
0.887000024319 -0.391999989748 0.116999998689 267.0
0.878000020981 -0.395000010729 0.115999996662 213.0
0.867999970913 -0.395999997854 0.115000002086 210.0
0.878000020981 -0.407999992371 0.116999998689 216.0
0.873000025749 -0.412000000477 0.116999998689 213.0
0.848999977112 -0.407000005245 0.112999998033 216.0
0.876999974251 -0.426999986172 0.118000000715 212.0
0.855000019073 -0.423000007868 0.115000002086 212.0
0.847999989986 -0.425999999046 0.11400000006 214.0
0.862999975681 -0.439999997616 0.116999998689 222.0
0.839999973774 -0.435000002384 0.11400000006 220.0
0.856000006199 -0.449999988079 0.116999998689 219.0
0.851999998093 -0.455000013113 0.115999996662 264.0
0.873000025749 -0.472999989986 0.119999997318 1251.0
0.875 -0.481000006199 0.119999997318 1597.0
0.874000012875 -0.488000005484 0.120999999344 1621.0
0.948000013828 0.547999978065 0.119999997318 1034.0
0.938000023365 0.533999979496 0.119000002742 1058.0
0.944000005722 0.52999997139 0.119000002742 1064.0
0.947000026703 0.523000001907 0.119000002742 1046.0
0.938000023365 0.510999977589 0.118000000715 1051.0
0.948000013828 0.509000003338 0.119000002742 1046.0
0.944999992847 0.499000012875 0.118000000715 1054.0
0.939999997616 0.490000009537 0.116999998689 1049.0
0.945999979973 0.485000014305 0.116999998689 1061.0
0.949000000954 0.479000002146 0.118000000715 1061.0
0.940999984741 0.467999994755 0.115999996662 1047.0
0.941999971867 0.462000012398 0.115999996662 1043.0
0.944999992847 0.456000000238 0.115999996662 1058.0
0.948000013828 0.449999988079 0.115999996662 1083.0
0.952000021935 0.444999992847 0.116999998689 1068.0
0.944000005722 0.433999985456 0.115000002086 1062.0
0.949999988079 0.430000007153 0.115999996662 1072.0
0.944999992847 0.421000003815 0.115000002086 1078.0
0.949000000954 0.416000008583 0.115000002086 1088.0
0.944999992847 0.407000005245 0.11400000006 1086.0
0.949000000954 0.402000010014 0.115000002086 1086.0
0.948000013828 0.395000010729 0.11400000006 1091.0
0.950999975204 0.389999985695 0.11400000006 1092.0
0.948000013828 0.381999999285 0.11400000006 1095.0
0.95300000906 0.377000004053 0.11400000006 1089.0
0.95300000906 0.370000004768 0.11400000006 1096.0
0.949000000954 0.361999988556 0.112999998033 1113.0
0.948000013828 0.354999989271 0.112999998033 1103.0
0.955999970436 0.351999998093 0.11400000006 1104.0
0.954999983311 0.344999998808 0.112999998033 1110.0
0.949000000954 0.33599999547 0.112999998033 1103.0
0.952000021935 0.331000000238 0.112999998033 1110.0
0.949999988079 0.324000000954 0.112000003457 1120.0
0.957000017166 0.319999992847 0.112999998033 1135.0
0.953999996185 0.312999993563 0.112000003457 1137.0
0.958000004292 0.307999998331 0.112999998033 1121.0
0.957000017166 0.301999986172 0.112999998033 1140.0
0.959999978542 0.296000003815 0.112999998033 1134.0
0.954999983311 0.28900000453 0.112000003457 1139.0
0.958999991417 0.284000009298 0.112000003457 1135.0
0.962999999523 0.279000014067 0.112999998033 1135.0
0.962000012398 0.272000014782 0.112000003457 1135.0
0.958000004292 0.264999985695 0.112000003457 1153.0
0.962999999523 0.259999990463 0.112000003457 1155.0
0.958000004292 0.252999991179 0.112000003457 1183.0
0.962000012398 0.247999995947 0.112000003457 1196.0
0.958999991417 0.240999996662 0.111000001431 1231.0
0.961000025272 0.236000001431 0.112000003457 1251.0
0.959999978542 0.230000004172 0.111000001431 1254.0
0.958000004292 0.223000004888 0.111000001431 1273.0
0.958999991417 0.217999994755 0.111000001431 1259.0
0.961000025272 0.211999997497 0.111000001431 1258.0
0.958999991417 0.206000000238 0.111000001431 1295.0
0.957000017166 0.20000000298 0.109999999404 1308.0
0.962999999523 0.194999992847 0.111000001431 1299.0
0.964999973774 0.189999997616 0.111000001431 1298.0
0.961000025272 0.182999998331 0.111000001431 1281.0
0.967999994755 0.179000005126 0.112000003457 1282.0
0.961000025272 0.172000005841 0.111000001431 1296.0
0.966000020504 0.166999995708 0.111000001431 1289.0
0.963999986649 0.16099999845 0.111000001431 1278.0
0.967999994755 0.156000003219 0.111000001431 1280.0
0.967000007629 0.15000000596 0.111000001431 1287.0
0.964999973774 0.143999993801 0.111000001431 1303.0
0.97000002861 0.138999998569 0.111000001431 1326.0
0.967000007629 0.133000001311 0.111000001431 1361.0
0.966000020504 0.127000004053 0.111000001431 1380.0
0.966000020504 0.120999999344 0.111000001431 1409.0
0.96899998188 0.115999996662 0.111000001431 1408.0
0.96899998188 0.109999999404 0.111000001431 1408.0
0.96899998188 0.104000002146 0.111000001431 1429.0
0.96899998188 0.0989999994636 0.111000001431 1465.0
0.967999994755 0.0930000022054 0.111000001431 1458.0
0.971000015736 0.0879999995232 0.111000001431 1462.0
0.966000020504 0.082000002265 0.109999999404 1434.0
0.96899998188 0.0759999975562 0.111000001431 1443.0
0.971000015736 0.0710000023246 0.111000001431 1465.0
0.973999977112 0.0649999976158 0.111000001431 1491.0
0.971000015736 0.0599999986589 0.111000001431 1535.0
0.971000015736 0.0540000014007 0.111000001431 1559.0
0.973999977112 0.0489999987185 0.111000001431 1589.0
0.97000002861 0.0430000014603 0.111000001431 1595.0
0.96899998188 0.0370000004768 0.111000001431 1596.0
0.97000002861 0.0320000015199 0.111000001431 1583.0
0.97000002861 0.0260000005364 0.111000001431 1433.0
0.986999988556 0.0209999997169 0.112999998033 316.0
1.02199995518 -0.0659999996424 0.118000000715 350.0
1.00800001621 -0.0710000023246 0.115999996662 1018.0
1.00199997425 -0.0759999975562 0.115000002086 541.0
0.998000025749 -0.082000002265 0.115000002086 469.0
1.00800001621 -0.0879999995232 0.115999996662 479.0
1.00499999523 -0.0939999967813 0.115999996662 498.0
1.00199997425 -0.10000000149 0.115999996662 504.0
0.992999970913 -0.104000002146 0.115000002086 510.0
0.995000004768 -0.109999999404 0.115000002086 525.0
0.985000014305 -0.115000002086 0.11400000006 540.0
0.991999983788 -0.122000001371 0.115000002086 548.0
0.986000001431 -0.127000004053 0.11400000006 563.0
0.98299998045 -0.131999999285 0.11400000006 569.0
0.985000014305 -0.137999996543 0.11400000006 582.0
0.996999979019 -0.145999997854 0.115999996662 599.0
0.98299998045 -0.15000000596 0.11400000006 598.0
0.978999972343 -0.155000001192 0.11400000006 750.0
0.98299998045 -0.16099999845 0.115000002086 829.0
0.986999988556 -0.167999997735 0.115000002086 821.0
0.971000015736 -0.171000003815 0.112999998033 832.0
0.972000002861 -0.177000001073 0.11400000006 839.0
0.978999972343 -0.184000000358 0.115000002086 832.0
0.972000002861 -0.188999995589 0.11400000006 844.0
0.967999994755 -0.194000005722 0.11400000006 842.0
0.964999973774 -0.199000000954 0.112999998033 857.0
0.963999986649 -0.203999996185 0.112999998033 864.0
0.962000012398 -0.209999993443 0.112999998033 861.0
0.961000025272 -0.215000003576 0.112999998033 873.0
0.962999999523 -0.222000002861 0.11400000006 876.0
0.961000025272 -0.226999998093 0.11400000006 885.0
0.955999970436 -0.231999993324 0.112999998033 838.0
0.950999975204 -0.237000003457 0.112999998033 684.0
0.948000013828 -0.241999998689 0.112999998033 686.0
0.955999970436 -0.25 0.11400000006 684.0
0.948000013828 -0.254000008106 0.112999998033 673.0
0.944999992847 -0.259000003338 0.112999998033 673.0
0.948000013828 -0.266000002623 0.112999998033 660.0
0.943000018597 -0.270000010729 0.112999998033 669.0
0.943000018597 -0.275999993086 0.112999998033 662.0
0.944999992847 -0.282999992371 0.11400000006 650.0
0.940999984741 -0.287999987602 0.112999998033 640.0
0.925999999046 -0.28900000453 0.112000003457 633.0
0.930999994278 -0.29699999094 0.112999998033 621.0
0.926999986172 -0.300999999046 0.112000003457 610.0
0.933000028133 -0.310000002384 0.112999998033 603.0
0.926999986172 -0.31400001049 0.112999998033 927.0
0.930000007153 -0.321000009775 0.112999998033 1104.0
0.925999999046 -0.326000005007 0.112999998033 1126.0
0.917999982834 -0.328999996185 0.112000003457 1155.0
0.922999978065 -0.337000012398 0.112999998033 1179.0
0.924000024796 -0.344000011683 0.112999998033 1189.0
0.919000029564 -0.347999989986 0.112999998033 1213.0
0.913999974728 -0.351999998093 0.112999998033 1234.0
0.913999974728 -0.358999997377 0.112999998033 1257.0
0.908999979496 -0.363000005484 0.112999998033 1270.0
0.907999992371 -0.368999987841 0.112999998033 1280.0
0.910000026226 -0.375999987125 0.112999998033 1295.0
0.90499997139 -0.381000012159 0.112999998033 1319.0
0.90499997139 -0.386999994516 0.112999998033 1319.0
0.903999984264 -0.393000006676 0.112999998033 890.0
0.893999993801 -0.395000010729 0.112000003457 454.0
0.898999989033 -0.404000014067 0.112999998033 417.0
0.898000001907 -0.409999996424 0.11400000006 408.0
0.893999993801 -0.414999991655 0.112999998033 395.0
0.888999998569 -0.418999999762 0.112999998033 388.0
0.865999996662 -0.414999991655 0.109999999404 375.0
0.880999982357 -0.428999990225 0.112999998033 368.0
0.885999977589 -0.437999993563 0.11400000006 361.0
0.879999995232 -0.442000001669 0.112999998033 342.0
0.865999996662 -0.441000014544 0.112000003457 336.0
0.864000022411 -0.446999996901 0.112000003457 324.0
0.853999972343 -0.448000013828 0.111000001431 319.0
0.861000001431 -0.458999991417 0.112000003457 332.0
0.878000020981 -0.476000010967 0.115000002086 1168.0
0.875 -0.481000006199 0.115000002086 1518.0
0.870999991894 -0.486000001431 0.11400000006 1563.0
0.939999997616 0.542999982834 0.112999998033 1026.0
0.943000018597 0.536000013351 0.112999998033 1042.0
0.941999971867 0.527999997139 0.112999998033 1020.0
0.943000018597 0.521000027657 0.112000003457 1022.0
0.943000018597 0.513000011444 0.112000003457 1022.0
0.938000023365 0.503000020981 0.111000001431 1023.0
0.943000018597 0.497999995947 0.112000003457 1012.0
0.943000018597 0.490000009537 0.111000001431 1003.0
0.945999979973 0.485000014305 0.111000001431 1003.0
0.949000000954 0.479000002146 0.111000001431 994.0
0.95300000906 0.474000006914 0.112000003457 986.0
0.950999975204 0.465999990702 0.111000001431 997.0
0.952000021935 0.458999991417 0.111000001431 988.0
0.949999988079 0.451000005007 0.111000001431 992.0
0.945999979973 0.442000001669 0.109999999404 998.0
0.948000013828 0.43599998951 0.109999999404 985.0
0.95300000906 0.430999994278 0.109999999404 1000.0
0.953999996185 0.423999994993 0.109999999404 1000.0
0.949999988079 0.416000008583 0.108999997377 1002.0
0.947000026703 0.407999992371 0.108999997377 993.0
0.95300000906 0.402999997139 0.108999997377 992.0
0.954999983311 0.398000001907 0.108999997377 997.0
0.949999988079 0.388999998569 0.108000002801 1015.0
0.953999996185 0.384000003338 0.108999997377 1000.0
0.954999983311 0.377000004053 0.108999997377 998.0
0.957000017166 0.372000008821 0.108999997377 1002.0
0.950999975204 0.363000005484 0.108000002801 993.0
0.958000004292 0.358999997377 0.108000002801 976.0
0.958999991417 0.352999985218 0.108000002801 987.0
0.961000025272 0.347000002861 0.108000002801 1004.0
0.958000004292 0.340000003576 0.108000002801 1004.0
0.964999973774 0.33599999547 0.108000002801 999.0
0.958999991417 0.326999992132 0.108000002801 992.0
0.954999983311 0.319999992847 0.107000000775 992.0
0.954999983311 0.312999993563 0.107000000775 996.0
0.957000017166 0.307999998331 0.107000000775 1001.0
0.962999999523 0.303000003099 0.107000000775 999.0
0.962999999523 0.29699999094 0.107000000775 1005.0
0.963999986649 0.291000008583 0.107000000775 994.0
0.964999973774 0.284999996424 0.107000000775 997.0
0.962999999523 0.279000014067 0.107000000775 980.0
0.967999994755 0.273999989033 0.107000000775 993.0
0.967999994755 0.268000006676 0.107000000775 1028.0
0.963999986649 0.261000007391 0.107000000775 1030.0
0.963999986649 0.254999995232 0.107000000775 1034.0
0.975000023842 0.250999987125 0.108000002801 1049.0
0.961000025272 0.241999998689 0.105999998748 1068.0
0.962999999523 0.236000001431 0.105999998748 1070.0
0.97000002861 0.231999993324 0.107000000775 1079.0
0.966000020504 0.22499999404 0.105999998748 1080.0
0.976000010967 0.221000000834 0.107000000775 1094.0
0.972000002861 0.215000003576 0.107000000775 1083.0
0.967999994755 0.208000004292 0.105999998748 1111.0
0.97000002861 0.202000007033 0.105999998748 1134.0
0.971000015736 0.196999996901 0.105999998748 1157.0
0.971000015736 0.190999999642 0.105999998748 1140.0
0.962000012398 0.182999998331 0.104999996722 1096.0
0.975000023842 0.180000007153 0.107000000775 1075.0
0.967000007629 0.172999992967 0.105999998748 1076.0
0.967999994755 0.166999995708 0.105999998748 1071.0
0.973999977112 0.162000000477 0.105999998748 1090.0
0.972000002861 0.156000003219 0.105999998748 1092.0
0.971000015736 0.15000000596 0.105999998748 1098.0
0.976000010967 0.144999995828 0.105999998748 1103.0
0.975000023842 0.138999998569 0.105999998748 1129.0
0.972000002861 0.133000001311 0.105999998748 1144.0
0.977999985218 0.12800000608 0.105999998748 1146.0
0.97000002861 0.122000001371 0.104999996722 1157.0
0.972999989986 0.115999996662 0.105999998748 1169.0
0.976000010967 0.111000001431 0.105999998748 1157.0
0.976999998093 0.104999996722 0.105999998748 1147.0
0.972000002861 0.0989999994636 0.105999998748 1160.0
0.977999985218 0.0939999967813 0.105999998748 1151.0
0.976999998093 0.0879999995232 0.105999998748 1161.0
0.976000010967 0.082000002265 0.105999998748 1153.0
0.981000006199 0.0769999995828 0.105999998748 1133.0
0.972999989986 0.0710000023246 0.105999998748 1117.0
0.972999989986 0.0649999976158 0.105999998748 1130.0
0.976999998093 0.0599999986589 0.105999998748 1160.0
0.98400002718 0.054999999702 0.107000000775 1173.0
0.980000019073 0.0489999987185 0.105999998748 1187.0
0.978999972343 0.0430000014603 0.105999998748 1206.0
0.978999972343 0.0370000004768 0.105999998748 1202.0
0.976000010967 0.0320000015199 0.105999998748 1167.0
0.976999998093 0.0260000005364 0.105999998748 1070.0
1.0039999485 0.0209999997169 0.108999997377 314.0
1.00899994373 -0.0649999976158 0.109999999404 368.0
1.00600004196 -0.0710000023246 0.109999999404 1130.0
1.01400005817 -0.0769999995828 0.111000001431 1160.0
1.00699996948 -0.082999996841 0.109999999404 1173.0
1.0039999485 -0.0879999995232 0.109999999404 1177.0
1.0039999485 -0.0939999967813 0.109999999404 1190.0
1.00199997425 -0.0989999994636 0.109999999404 1213.0
0.999000012875 -0.104999996722 0.109999999404 1203.0
0.999000012875 -0.111000001431 0.109999999404 1207.0
0.991999983788 -0.115999996662 0.108999997377 1235.0
0.995999991894 -0.122000001371 0.109999999404 1234.0
0.991999983788 -0.12800000608 0.108999997377 1243.0
0.990000009537 -0.133000001311 0.108999997377 1258.0
0.986999988556 -0.137999996543 0.108999997377 1272.0
0.987999975681 -0.143999993801 0.108999997377 1279.0
0.985000014305 -0.15000000596 0.108999997377 1234.0
0.975000023842 -0.153999999166 0.108000002801 467.0
0.986999988556 -0.162000000477 0.108999997377 186.0
0.949000000954 -0.16099999845 0.104999996722 185.0
0.957000017166 -0.167999997735 0.105999998748 185.0
0.955999970436 -0.173999994993 0.105999998748 190.0
0.97000002861 -0.181999996305 0.108000002801 181.0
0.939999997616 -0.181999996305 0.104000002146 191.0
0.950999975204 -0.189999997616 0.105999998748 187.0
0.936999976635 -0.193000003695 0.104999996722 190.0
0.958999991417 -0.202999994159 0.107000000775 196.0
0.940999984741 -0.204999998212 0.104999996722 200.0
0.955999970436 -0.21400000155 0.107000000775 201.0
0.943000018597 -0.216999992728 0.105999998748 198.0
0.944999992847 -0.223000004888 0.105999998748 202.0
0.961000025272 -0.232999995351 0.108000002801 533.0
0.961000025272 -0.238999992609 0.108000002801 1325.0
0.957000017166 -0.244000002742 0.108000002801 1415.0
0.949000000954 -0.247999995947 0.107000000775 1427.0
0.950999975204 -0.254000008106 0.108000002801 1430.0
0.95300000906 -0.261000007391 0.108000002801 1430.0
0.948000013828 -0.266000002623 0.108000002801 1453.0
0.945999979973 -0.270999997854 0.108000002801 1454.0
0.943000018597 -0.275999993086 0.107000000775 1452.0
0.943000018597 -0.282000005245 0.108000002801 1438.0
0.943000018597 -0.287999987602 0.108000002801 1443.0
0.938000023365 -0.293000012636 0.107000000775 1459.0
0.93599998951 -0.298000007868 0.107000000775 1439.0
0.931999981403 -0.303000003099 0.107000000775 1452.0
0.938000023365 -0.31099998951 0.108000002801 1428.0
0.929000020027 -0.31400001049 0.107000000775 620.0
0.934000015259 -0.321999996901 0.108000002801 298.0
0.935000002384 -0.328999996185 0.108000002801 277.0
0.90600001812 -0.324999988079 0.104999996722 293.0
0.907999992371 -0.331999987364 0.105999998748 296.0
0.926999986172 -0.344000011683 0.108000002801 312.0
0.897000014782 -0.338999986649 0.104999996722 309.0
0.910000026226 -0.351000010967 0.107000000775 320.0
0.915000021458 -0.358999997377 0.107000000775 338.0
0.916999995708 -0.365999996662 0.108000002801 345.0
0.912999987602 -0.370999991894 0.108000002801 358.0
0.908999979496 -0.375999987125 0.108000002801 387.0
0.902999997139 -0.379999995232 0.107000000775 395.0
0.897000014782 -0.38299998641 0.107000000775 416.0
0.907000005245 -0.393999993801 0.108000002801 853.0
0.899999976158 -0.398000001907 0.107000000775 1243.0
0.901000022888 -0.405000001192 0.108000002801 1277.0
0.897000014782 -0.409999996424 0.108000002801 1237.0
0.898999989033 -0.416999995708 0.108000002801 1212.0
0.89200001955 -0.419999986887 0.108000002801 1156.0
0.893999993801 -0.428000003099 0.108000002801 1149.0
0.89200001955 -0.433999985456 0.108000002801 1107.0
0.888000011444 -0.437999993563 0.108000002801 1074.0
0.887000024319 -0.444999992847 0.108000002801 1061.0
0.884999990463 -0.451000005007 0.108000002801 1021.0
0.879000008106 -0.455000013113 0.108000002801 999.0
0.875999987125 -0.460000008345 0.108000002801 967.0
0.887000024319 -0.472999989986 0.109999999404 943.0
0.875999987125 -0.474000006914 0.108999997377 870.0
0.873000025749 -0.479000002146 0.108999997377 947.0
0.866999983788 -0.483000010252 0.108000002801 962.0
0.949000000954 0.54699999094 0.108000002801 950.0
0.945999979973 0.537999987602 0.107000000775 947.0
0.949000000954 0.532000005245 0.107000000775 927.0
0.947000026703 0.523000001907 0.107000000775 911.0
0.945999979973 0.513999998569 0.105999998748 924.0
0.953999996185 0.510999977589 0.107000000775 920.0
0.952000021935 0.503000020981 0.107000000775 889.0
0.945999979973 0.49200001359 0.104999996722 897.0
0.944999992847 0.483999997377 0.104999996722 884.0
0.953999996185 0.481000006199 0.105999998748 888.0
0.953999996185 0.474000006914 0.105999998748 873.0
0.950999975204 0.465000003576 0.104999996722 870.0
0.952000021935 0.458000004292 0.104999996722 862.0
0.952000021935 0.451000005007 0.104999996722 881.0
0.954999983311 0.446000009775 0.104999996722 878.0
0.950999975204 0.437000006437 0.104000002146 874.0
0.963999986649 0.43599998951 0.104999996722 861.0
0.962000012398 0.428000003099 0.104999996722 858.0
0.958000004292 0.418999999762 0.104000002146 859.0
0.954999983311 0.411000013351 0.104000002146 854.0
0.955999970436 0.405000001192 0.104000002146 849.0
0.972000002861 0.404000014067 0.104999996722 856.0
0.961000025272 0.393000006676 0.104000002146 858.0
0.958000004292 0.384999990463 0.103000000119 863.0
0.958999991417 0.379000008106 0.103000000119 850.0
0.966000020504 0.375 0.104000002146 857.0
0.958999991417 0.365999996662 0.103000000119 836.0
0.963999986649 0.361000001431 0.103000000119 838.0
0.967000007629 0.356000006199 0.103000000119 834.0
0.971000015736 0.34999999404 0.103000000119 837.0
0.967000007629 0.342999994755 0.103000000119 827.0
0.966000020504 0.33599999547 0.103000000119 823.0
0.97000002861 0.331000000238 0.103000000119 810.0
0.967000007629 0.323000013828 0.101999998093 808.0
0.97000002861 0.317999988794 0.103000000119 795.0
0.973999977112 0.312999993563 0.103000000119 797.0
0.96899998188 0.305000007153 0.101999998093 794.0
0.973999977112 0.300000011921 0.103000000119 797.0
0.96899998188 0.293000012636 0.101999998093 798.0
0.978999972343 0.28900000453 0.103000000119 788.0
0.972000002861 0.280999988317 0.101999998093 771.0
0.971000015736 0.273999989033 0.101999998093 779.0
0.972999989986 0.268999993801 0.101999998093 771.0
0.96899998188 0.261999994516 0.101000003517 788.0
0.96899998188 0.256000012159 0.101000003517 778.0
0.975000023842 0.250999987125 0.101999998093 792.0
0.972000002861 0.244000002742 0.101000003517 798.0
0.975000023842 0.238999992609 0.101999998093 806.0
0.976000010967 0.232999995351 0.101999998093 828.0
0.967999994755 0.22499999404 0.101000003517 841.0
0.976000010967 0.221000000834 0.101000003517 837.0
0.980000019073 0.216000005603 0.101999998093 837.0
0.975000023842 0.209000006318 0.101000003517 829.0
0.97000002861 0.202000007033 0.10000000149 814.0
0.978999972343 0.197999998927 0.101000003517 799.0
0.98299998045 0.193000003695 0.101999998093 792.0
0.98400002718 0.187000006437 0.101999998093 769.0
0.977999985218 0.180000007153 0.101000003517 764.0
0.985000014305 0.175999999046 0.101999998093 756.0
0.987999975681 0.170000001788 0.101999998093 761.0
0.977999985218 0.163000002503 0.101000003517 765.0
0.980000019073 0.157000005245 0.101000003517 752.0
0.981000006199 0.151999995112 0.101000003517 744.0
0.985000014305 0.145999997854 0.101000003517 751.0
0.977999985218 0.140000000596 0.101000003517 747.0
0.980000019073 0.134000003338 0.101000003517 753.0
0.981999993324 0.128999993205 0.101000003517 759.0
0.98299998045 0.123000003397 0.101000003517 768.0
0.986000001431 0.118000000715 0.101000003517 773.0
0.98299998045 0.111000001431 0.101000003517 762.0
0.991999983788 0.107000000775 0.101999998093 758.0
0.987999975681 0.101000003517 0.101000003517 763.0
0.990999996662 0.0949999988079 0.101999998093 766.0
0.990000009537 0.0890000015497 0.101999998093 766.0
0.98400002718 0.082999996841 0.101000003517 773.0
0.985000014305 0.0769999995828 0.101000003517 757.0
0.986999988556 0.0719999969006 0.101000003517 756.0
0.987999975681 0.0659999996424 0.101999998093 742.0
0.991999983788 0.0610000006855 0.101999998093 744.0
0.991999983788 0.054999999702 0.101999998093 746.0
0.987999975681 0.0489999987185 0.101000003517 759.0
0.98299998045 0.0430000014603 0.101000003517 762.0
0.981000006199 0.0370000004768 0.101000003517 760.0
0.986999988556 0.0320000015199 0.101000003517 733.0
0.981000006199 0.0260000005364 0.101000003517 653.0
1.01999998093 -0.0659999996424 0.104999996722 385.0
1.00999999046 -0.0710000023246 0.104000002146 1136.0
1.00899994373 -0.0769999995828 0.104000002146 1194.0
1.00800001621 -0.082999996841 0.104000002146 1194.0
0.998000025749 -0.0869999974966 0.103000000119 1204.0
1.00300002098 -0.0939999967813 0.104000002146 1210.0
0.996999979019 -0.0989999994636 0.103000000119 1217.0
1.00300002098 -0.104999996722 0.104000002146 1222.0
1.00199997425 -0.111000001431 0.104000002146 1227.0
0.995999991894 -0.115999996662 0.104000002146 1253.0
0.995000004768 -0.122000001371 0.104000002146 1261.0
0.994000017643 -0.12800000608 0.104000002146 1263.0
0.990000009537 -0.133000001311 0.103000000119 1260.0
0.990999996662 -0.138999998569 0.103000000119 1281.0
0.986999988556 -0.143999993801 0.103000000119 1288.0
0.987999975681 -0.15000000596 0.103000000119 1246.0
0.98299998045 -0.155000001192 0.103000000119 460.0
0.948000013828 -0.155000001192 0.0989999994636 179.0
0.963999986649 -0.16400000453 0.101000003517 176.0
0.95300000906 -0.166999995708 0.10000000149 171.0
0.958999991417 -0.173999994993 0.101000003517 172.0
0.933000028133 -0.17499999702 0.097999997437 177.0
0.93900001049 -0.181999996305 0.0989999994636 178.0
0.930999994278 -0.186000004411 0.097999997437 181.0
0.931999981403 -0.192000001669 0.097999997437 171.0
0.933000028133 -0.197999998927 0.0989999994636 185.0
0.943000018597 -0.204999998212 0.10000000149 180.0
0.940999984741 -0.21099999547 0.10000000149 187.0
0.921000003815 -0.211999997497 0.097999997437 189.0
0.947000026703 -0.224000006914 0.101000003517 189.0
0.945999979973 -0.229000002146 0.101000003517 525.0
0.955999970436 -0.238000005484 0.101999998093 1345.0
0.958999991417 -0.244000002742 0.101999998093 1452.0
0.958000004292 -0.25 0.101999998093 1443.0
0.948000013828 -0.252999991179 0.101999998093 1453.0
0.949000000954 -0.259999990463 0.101999998093 1457.0
0.949000000954 -0.266000002623 0.101999998093 1470.0
0.940999984741 -0.268999993801 0.101000003517 1481.0
0.944000005722 -0.275999993086 0.101999998093 1497.0
0.944000005722 -0.282000005245 0.101999998093 1487.0
0.944000005722 -0.287999987602 0.101999998093 1501.0
0.938000023365 -0.293000012636 0.101999998093 1512.0
0.938000023365 -0.298999994993 0.101999998093 1507.0
0.934000015259 -0.303000003099 0.101999998093 1513.0
0.933000028133 -0.308999985456 0.101999998093 1501.0
0.929000020027 -0.31400001049 0.101999998093 643.0
0.916999995708 -0.316000014544 0.10000000149 231.0
0.898000001907 -0.314999997616 0.097999997437 210.0
0.882000029087 -0.316000014544 0.097000002861 212.0
0.901000022888 -0.328999996185 0.0989999994636 210.0
0.902999997139 -0.33599999547 0.10000000149 197.0
0.907999992371 -0.344000011683 0.101000003517 210.0
0.89200001955 -0.344000011683 0.0989999994636 209.0
0.884000003338 -0.345999985933 0.097999997437 214.0
0.915000021458 -0.365000009537 0.101999998093 207.0
0.884000003338 -0.358999997377 0.0989999994636 210.0
0.894999980927 -0.368999987841 0.10000000149 209.0
0.89099997282 -0.374000012875 0.10000000149 211.0
0.889999985695 -0.379999995232 0.10000000149 215.0
0.894999980927 -0.388999998569 0.101000003517 774.0
0.901000022888 -0.398000001907 0.101999998093 1524.0
0.897000014782 -0.402999997139 0.101999998093 1602.0
0.90499997139 -0.412999987602 0.103000000119 1615.0
0.898000001907 -0.416000008583 0.101999998093 1597.0
0.89200001955 -0.419999986887 0.101999998093 1602.0
0.896000027657 -0.428999990225 0.103000000119 1625.0
0.896000027657 -0.43599998951 0.103000000119 1602.0
0.889999985695 -0.43900001049 0.103000000119 1605.0
0.885999977589 -0.444000005722 0.103000000119 1602.0
0.883000016212 -0.449000000954 0.101999998093 1614.0
0.885999977589 -0.458000004292 0.103000000119 1583.0
0.883000016212 -0.462999999523 0.103000000119 1589.0
0.874000012875 -0.465000003576 0.101999998093 1562.0
0.879000008106 -0.47499999404 0.103000000119 679.0
0.865999996662 -0.47499999404 0.101999998093 315.0
0.851999998093 -0.474000006914 0.101000003517 297.0
0.958999991417 0.551999986172 0.103000000119 773.0
0.950999975204 0.540000021458 0.101999998093 746.0
0.964999973774 0.540000021458 0.103000000119 731.0
0.953999996185 0.526000022888 0.101000003517 731.0
0.955999970436 0.519999980927 0.101000003517 716.0
0.950999975204 0.509000003338 0.10000000149 711.0
0.957000017166 0.504999995232 0.101000003517 695.0
0.966000020504 0.501999974251 0.101999998093 685.0
0.961000025272 0.49200001359 0.101000003517 665.0
0.963999986649 0.486000001431 0.101000003517 668.0
0.955999970436 0.474000006914 0.10000000149 655.0
0.950999975204 0.465000003576 0.0989999994636 631.0
0.963999986649 0.463999986649 0.10000000149 623.0
0.959999978542 0.455000013113 0.0989999994636 611.0
0.958000004292 0.446999996901 0.0989999994636 609.0
0.96899998188 0.444999992847 0.10000000149 593.0
0.949999988079 0.428999990225 0.097999997437 589.0
0.959999978542 0.426999986172 0.0989999994636 582.0
0.957000017166 0.418999999762 0.097999997437 562.0
0.971000015736 0.416999995708 0.0989999994636 551.0
0.959999978542 0.405999988317 0.097999997437 542.0
0.964999973774 0.400999993086 0.097999997437 534.0
0.967999994755 0.395999997854 0.097999997437 526.0
0.97000002861 0.389999985695 0.097999997437 509.0
0.958999991417 0.377999991179 0.097000002861 479.0
0.953999996185 0.370000004768 0.0960000008345 464.0
0.962999999523 0.36700001359 0.097000002861 451.0
0.950999975204 0.356000006199 0.0960000008345 430.0
0.962999999523 0.354000002146 0.097000002861 420.0
0.972000002861 0.351000010967 0.097999997437 400.0
0.950999975204 0.337000012398 0.0949999988079 386.0
0.961000025272 0.333999991417 0.0960000008345 360.0
0.93599998951 0.319000005722 0.0939999967813 342.0
0.944999992847 0.316000014544 0.0939999967813 336.0
0.93900001049 0.307999998331 0.0939999967813 319.0
0.935000002384 0.300000011921 0.0930000022054 317.0
0.940999984741 0.296000003815 0.0930000022054 309.0
0.938000023365 0.28900000453 0.0930000022054 295.0
0.93900001049 0.282999992371 0.0930000022054 284.0
0.933000028133 0.275999993086 0.0920000001788 269.0
0.926999986172 0.268000006676 0.0920000001788 274.0
0.925999999046 0.261999994516 0.0909999981523 256.0
0.920000016689 0.254000008106 0.0909999981523 267.0
0.920000016689 0.247999995947 0.0909999981523 255.0
0.927999973297 0.245000004768 0.0909999981523 252.0
0.902000010014 0.231999993324 0.0890000015497 245.0
0.922999978065 0.231999993324 0.0909999981523 232.0
0.888000011444 0.217999994755 0.0869999974966 200.0
0.931999981403 0.223000004888 0.0909999981523 258.0
0.888000011444 0.207000002265 0.0869999974966 211.0
0.908999979496 0.206000000238 0.0890000015497 207.0
0.869000017643 0.192000001669 0.0850000008941 193.0
0.957000017166 0.204999998212 0.0939999967813 354.0
0.878000020981 0.182999998331 0.0860000029206 189.0
