ply
format ascii 1.0
element vertex 906
property float x
property float y
property float z
property float intensity
end_header
4.61999988556 0.680000007153 -0.677999973297 74.0
4.64900016785 0.657000005245 -0.681999981403 69.0
4.73000001907 0.639999985695 -0.693000018597 61.0
4.65100002289 0.601999998093 -0.680999994278 62.0
4.69799995422 0.579999983311 -0.686999976635 62.0
4.78800010681 0.563000023365 -0.699999988079 56.0
4.78100013733 0.533999979496 -0.699000000954 62.0
4.72399997711 0.5 -0.689999997616 58.0
4.8029999733 0.479999989271 -0.700999975204 61.0
4.80900001526 0.451999992132 -0.700999975204 60.0
4.75500011444 0.418999999762 -0.693000018597 60.0
4.77899980545 0.393999993801 -0.695999979973 59.0
4.83300018311 0.370000004768 -0.70300000906 66.0
4.8140001297 0.340000003576 -0.699999988079 63.0
4.82600021362 0.312999993563 -0.702000021935 65.0
4.88800001144 0.28900000453 -0.709999978542 66.0
4.87599992752 0.259000003338 -0.708000004292 67.0
4.90500020981 0.231999993324 -0.712000012398 66.0
4.89300012589 0.202999994159 -0.709999978542 64.0
4.89099979401 0.17499999702 -0.709999978542 63.0
0.908999979496 -0.0179999992251 -0.130999997258 795.0
0.908999979496 -0.0230000000447 -0.130999997258 1540.0
0.911000013351 -0.0280000008643 -0.131999999285 1628.0
0.911000013351 -0.0340000018477 -0.131999999285 1595.0
0.908999979496 -0.0390000008047 -0.130999997258 1625.0
0.908999979496 -0.0439999997616 -0.130999997258 1666.0
0.903999984264 -0.0489999987185 -0.130999997258 1675.0
0.912999987602 -0.054999999702 -0.131999999285 1679.0
0.90499997139 -0.0590000003576 -0.130999997258 1651.0
0.90499997139 -0.0649999976158 -0.130999997258 1631.0
0.911000013351 -0.0710000023246 -0.131999999285 1647.0
0.90600001812 -0.0750000029802 -0.130999997258 1634.0
0.907000005245 -0.0810000002384 -0.130999997258 1603.0
0.902000010014 -0.0850000008941 -0.130999997258 1594.0
0.907999992371 -0.0909999981523 -0.131999999285 1618.0
0.901000022888 -0.0960000008345 -0.130999997258 1626.0
0.90499997139 -0.101999998093 -0.130999997258 1614.0
0.901000022888 -0.105999998748 -0.130999997258 1591.0
0.902999997139 -0.112000003457 -0.130999997258 1584.0
0.903999984264 -0.118000000715 -0.130999997258 1591.0
0.899999976158 -0.122000001371 -0.130999997258 1557.0
0.899999976158 -0.12800000608 -0.130999997258 1556.0
0.902000010014 -0.133000001311 -0.130999997258 1557.0
0.898000001907 -0.137999996543 -0.130999997258 1581.0
0.898000001907 -0.143000006676 -0.130999997258 1640.0
0.897000014782 -0.149000003934 -0.130999997258 1666.0
0.896000027657 -0.153999999166 -0.130999997258 1668.0
0.894999980927 -0.158999994397 -0.129999995232 1704.0
0.898000001907 -0.165000006557 -0.130999997258 1804.0
0.894999980927 -0.170000001788 -0.130999997258 1797.0
0.893000006676 -0.17499999702 -0.129999995232 1799.0
0.894999980927 -0.180000007153 -0.130999997258 1774.0
0.893999993801 -0.186000004411 -0.130999997258 1781.0
0.89200001955 -0.190999999642 -0.130999997258 1777.0
0.893000006676 -0.195999994874 -0.130999997258 1775.0
0.89200001955 -0.202000007033 -0.130999997258 1779.0
0.89099997282 -0.207000002265 -0.130999997258 1768.0
0.893000006676 -0.212999999523 -0.130999997258 1729.0
0.889999985695 -0.217999994755 -0.130999997258 1755.0
0.89099997282 -0.223000004888 -0.130999997258 1744.0
0.894999980927 -0.230000004172 -0.131999999285 1754.0
0.89200001955 -0.234999999404 -0.131999999285 1799.0
0.888000011444 -0.238999992609 -0.130999997258 1795.0
0.885999977589 -0.244000002742 -0.130999997258 1759.0
0.893999993801 -0.252000004053 -0.131999999285 1791.0
0.889999985695 -0.256999999285 -0.131999999285 1835.0
0.89099997282 -0.263000011444 -0.131999999285 1775.0
0.888000011444 -0.268000006676 -0.131999999285 1725.0
0.884000003338 -0.272000014782 -0.131999999285 1753.0
0.884000003338 -0.277999997139 -0.131999999285 1749.0
0.884999990463 -0.284000009298 -0.131999999285 1726.0
0.884000003338 -0.28900000453 -0.131999999285 1715.0
0.882000029087 -0.294999986887 -0.131999999285 1722.0
0.883000016212 -0.300999999046 -0.131999999285 1729.0
0.876999974251 -0.305000007153 -0.131999999285 1789.0
0.879000008106 -0.31099998951 -0.131999999285 1823.0
0.880999982357 -0.317999988794 -0.133000001311 1817.0
0.875 -0.321999996901 -0.131999999285 1777.0
0.880999982357 -0.330000013113 -0.133000001311 1736.0
0.882000029087 -0.33599999547 -0.134000003338 1718.0
0.876999974251 -0.340000003576 -0.133000001311 1744.0
0.875999987125 -0.345999985933 -0.133000001311 1775.0
0.879000008106 -0.352999985218 -0.134000003338 1792.0
0.876999974251 -0.358999997377 -0.134000003338 1721.0
0.875 -0.363999992609 -0.134000003338 1784.0
0.870999991894 -0.368999987841 -0.133000001311 1812.0
0.873000025749 -0.375999987125 -0.134000003338 1763.0
0.875 -0.38299998641 -0.135000005364 1720.0
0.867999970913 -0.386000007391 -0.134000003338 1735.0
0.870000004768 -0.393000006676 -0.134000003338 1766.0
0.875 -0.402000010014 -0.136000007391 1795.0
0.869000017643 -0.405999988317 -0.135000005364 1788.0
0.865999996662 -0.411000013351 -0.135000005364 1723.0
0.870000004768 -0.419999986887 -0.136000007391 1711.0
0.870000004768 -0.425999999046 -0.136000007391 1700.0
0.866999983788 -0.430999994278 -0.136000007391 1735.0
0.870000004768 -0.439999997616 -0.136999994516 1732.0
0.866999983788 -0.444999992847 -0.136999994516 1749.0
0.867999970913 -0.451999992132 -0.136999994516 1694.0
0.867999970913 -0.458999991417 -0.136999994516 1700.0
0.864000022411 -0.463999986649 -0.136999994516 1666.0
0.862999975681 -0.469999998808 -0.136999994516 1625.0
0.864000022411 -0.477999985218 -0.137999996543 1597.0
0.860000014305 -0.483000010252 -0.137999996543 1575.0
2.08999991417 1.21000003815 -0.363000005484 89.0
2.06100010872 1.17599999905 -0.356000006199 122.0
2.13100004196 1.19900000095 -0.36700001359 227.0
2.16000008583 1.1970000267 -0.370999991894 130.0
2.36400008202 1.2159999609 -0.40000000596 77.0
3.16599988937 1.34399998188 -0.518999993801 120.0
3.23799991608 1.35099995136 -0.528999984264 96.0
3.27600002289 1.34399998188 -0.533999979496 83.0
3.74099993706 1.42999994755 -0.605000019073 64.0
3.84699988365 1.41700005531 -0.619000017643 66.0
3.49300003052 1.07700002193 -0.551999986172 62.0
3.53299999237 1.02100002766 -0.555999994278 61.0
3.60400009155 0.972999989986 -0.56400001049 56.0
4.03100013733 0.911000013351 -0.625 93.0
4.00299978256 0.879999995232 -0.620000004768 120.0
4.06599998474 0.869000017643 -0.629000008106 121.0
4.05000019073 0.841000020504 -0.625 118.0
4.11600017548 0.828999996185 -0.634999990463 77.0
4.55800008774 0.862999975681 -0.700999975204 65.0
4.53100013733 0.830999970436 -0.697000026703 82.0
4.58799982071 0.813000023365 -0.704999983311 74.0
4.53100013733 0.776000022888 -0.694999992847 72.0
4.59200000763 0.759000003338 -0.703999996185 67.0
4.58400011063 0.730000019073 -0.702000021935 74.0
4.61199998856 0.707000017166 -0.704999983311 73.0
4.66099977493 0.68599998951 -0.712000012398 66.0
4.65600013733 0.657999992371 -0.711000025272 68.0
4.74100017548 0.64200001955 -0.722999989986 65.0
4.6779999733 0.606000006199 -0.712999999523 56.0
4.72300004959 0.583000004292 -0.71899998188 62.0
4.59399986267 0.540000021458 -0.699000000954 65.0
4.83099985123 0.540000021458 -0.735000014305 60.0
4.79199981689 0.479000002146 -0.727999985218 59.0
4.75600004196 0.448000013828 -0.722000002861 58.0
4.76399993896 0.419999986887 -0.722999989986 63.0
4.84200000763 0.370999991894 -0.73400002718 56.0
4.91300010681 0.347000002861 -0.744000017643 66.0
4.92100000381 0.319000005722 -0.745000004768 61.0
4.87099981308 0.287999987602 -0.736999988556 59.0
4.87400007248 0.259000003338 -0.736999988556 51.0
4.91200017929 0.232999995351 -0.741999983788 54.0
4.88100004196 0.202999994159 -0.736999988556 58.0
5.01399993896 0.179000005126 -0.757000029087 58.0
0.913999974728 -0.0179999992251 -0.137999996543 838.0
0.912999987602 -0.0230000000447 -0.136999994516 1538.0
0.911000013351 -0.0280000008643 -0.136999994516 1592.0
0.911000013351 -0.0340000018477 -0.136999994516 1600.0
0.908999979496 -0.0390000008047 -0.136999994516 1608.0
0.90600001812 -0.0439999997616 -0.136000007391 1655.0
0.90499997139 -0.0489999987185 -0.136000007391 1661.0
0.90600001812 -0.0540000014007 -0.136000007391 1652.0
0.907000005245 -0.0599999986589 -0.136999994516 1632.0
0.907999992371 -0.0649999976158 -0.136999994516 1619.0
0.901000022888 -0.070000000298 -0.136000007391 1638.0
0.903999984264 -0.0750000029802 -0.136000007391 1640.0
0.90600001812 -0.0810000002384 -0.136999994516 1612.0
0.908999979496 -0.0860000029206 -0.136999994516 1604.0
0.90600001812 -0.0909999981523 -0.136999994516 1626.0
0.903999984264 -0.0960000008345 -0.136000007391 1629.0
0.902000010014 -0.101000003517 -0.136000007391 1595.0
0.90600001812 -0.107000000775 -0.136999994516 1562.0
0.90499997139 -0.112000003457 -0.136999994516 1551.0
0.899999976158 -0.116999998689 -0.136000007391 1582.0
0.902000010014 -0.123000003397 -0.136000007391 1527.0
0.898000001907 -0.127000004053 -0.136000007391 1543.0
0.898000001907 -0.133000001311 -0.136000007391 1554.0
0.898999989033 -0.137999996543 -0.136000007391 1573.0
0.898999989033 -0.143999993801 -0.136000007391 1624.0
0.896000027657 -0.148000001907 -0.136000007391 1665.0
0.899999976158 -0.153999999166 -0.136000007391 1678.0
0.896000027657 -0.158999994397 -0.136000007391 1728.0
0.894999980927 -0.16400000453 -0.136000007391 1785.0
0.894999980927 -0.170000001788 -0.136000007391 1811.0
0.896000027657 -0.17499999702 -0.136000007391 1797.0
0.898000001907 -0.180999994278 -0.136999994516 1737.0
0.89099997282 -0.185000002384 -0.136000007391 1782.0
0.899999976158 -0.193000003695 -0.136999994516 1768.0
0.894999980927 -0.196999996901 -0.136999994516 1755.0
0.893000006676 -0.202000007033 -0.136000007391 1755.0
0.893000006676 -0.208000004292 -0.136000007391 1772.0
0.89099997282 -0.212999999523 -0.136000007391 1737.0
0.888999998569 -0.217999994755 -0.136000007391 1772.0
0.89099997282 -0.224000006914 -0.136999994516 1768.0
0.888999998569 -0.229000002146 -0.136000007391 1742.0
0.888000011444 -0.233999997377 -0.136000007391 1780.0
0.889999985695 -0.239999994636 -0.136999994516 1809.0
0.889999985695 -0.246000006795 -0.136999994516 1764.0
0.889999985695 -0.250999987125 -0.136999994516 1797.0
0.887000024319 -0.256000012159 -0.136999994516 1832.0
0.889999985695 -0.263000011444 -0.137999996543 1808.0
0.885999977589 -0.266999989748 -0.136999994516 1737.0
0.879000008106 -0.270999997854 -0.136000007391 1763.0
0.884000003338 -0.277999997139 -0.136999994516 1744.0
0.880999982357 -0.282999992371 -0.136999994516 1737.0
0.880999982357 -0.28900000453 -0.136999994516 1712.0
0.879999995232 -0.293999999762 -0.136999994516 1708.0
0.884999990463 -0.301999986172 -0.137999996543 1690.0
0.884000003338 -0.307999998331 -0.137999996543 1749.0
0.875999987125 -0.31099998951 -0.136999994516 1789.0
0.883000016212 -0.319000005722 -0.138999998569 1810.0
0.879999995232 -0.324000000954 -0.137999996543 1759.0
0.878000020981 -0.328999996185 -0.137999996543 1765.0
0.879999995232 -0.33599999547 -0.138999998569 1725.0
0.879000008106 -0.340999990702 -0.138999998569 1731.0
0.876999974251 -0.347000002861 -0.138999998569 1756.0
0.878000020981 -0.352999985218 -0.138999998569 1773.0
0.880999982357 -0.361000001431 -0.140000000596 1715.0
0.875 -0.363999992609 -0.138999998569 1747.0
0.870999991894 -0.368999987841 -0.138999998569 1778.0
0.874000012875 -0.377000004053 -0.140000000596 1751.0
0.870000004768 -0.381000012159 -0.138999998569 1693.0
0.867999970913 -0.386999994516 -0.138999998569 1737.0
0.870000004768 -0.393999993801 -0.140000000596 1761.0
0.870000004768 -0.40000000596 -0.140000000596 1792.0
0.869000017643 -0.407000005245 -0.141000002623 1739.0
0.875 -0.416000008583 -0.142000004649 1724.0
0.866999983788 -0.418000012636 -0.141000002623 1709.0
0.867999970913 -0.425999999046 -0.141000002623 1706.0
0.870999991894 -0.433999985456 -0.142000004649 1731.0
0.870999991894 -0.439999997616 -0.143000006676 1732.0
0.865000009537 -0.444000005722 -0.142000004649 1742.0
0.85900002718 -0.448000013828 -0.141000002623 1677.0
0.865999996662 -0.458000004292 -0.143000006676 1669.0
0.862999975681 -0.463999986649 -0.143000006676 1645.0
0.869000017643 -0.474000006914 -0.143999993801 1600.0
0.865000009537 -0.479000002146 -0.143999993801 1595.0
0.85900002718 -0.483000010252 -0.143000006676 1586.0
1.02199995518 0.592000007629 -0.184000000358 160.0
1.77999997139 1.01699995995 -0.319999992847 99.0
2.03699994087 1.14699995518 -0.365000009537 171.0
2.12700009346 1.17999994755 -0.379999995232 129.0
3.24300003052 1.35399997234 -0.550999999046 79.0
3.29200005531 1.35099995136 -0.558000028133 87.0
3.57299995422 1.12600004673 -0.587999999523 60.0
3.48600006104 1.03100001812 -0.570999979973 60.0
3.58599996567 1.03699994087 -0.586000025272 67.0
3.5759999752 1.01100003719 -0.583999991417 62.0
3.54600000381 0.958000004292 -0.577000021935 61.0
3.67600011826 0.96899998188 -0.597000002861 56.0
4.03000020981 0.912000000477 -0.648999989033 97.0
4.02099990845 0.884999990463 -0.647000014782 119.0
4.05800008774 0.867999970913 -0.652000010014 120.0
4.04300022125 0.839999973774 -0.648999989033 122.0
4.11999988556 0.830999970436 -0.660000026226 79.0
4.68499994278 0.888000011444 -0.749000012875 66.0
4.5560002327 0.836000025272 -0.727999985218 69.0
4.54600000381 0.805999994278 -0.725000023842 70.0
4.72700023651 0.78100001812 -0.753000020981 55.0
4.60099983215 0.73299998045 -0.731999993324 51.0
4.9439997673 0.233999997377 -0.777000010014 50.0
0.912999987602 -0.0179999992251 -0.143000006676 851.0
0.912999987602 -0.0230000000447 -0.143000006676 1521.0
0.913999974728 -0.0280000008643 -0.143000006676 1581.0
0.910000026226 -0.0340000018477 -0.142000004649 1576.0
0.908999979496 -0.0390000008047 -0.142000004649 1579.0
0.907000005245 -0.0439999997616 -0.142000004649 1639.0
0.908999979496 -0.0489999987185 -0.142000004649 1657.0
0.902999997139 -0.0540000014007 -0.141000002623 1632.0
0.910000026226 -0.0599999986589 -0.142000004649 1615.0
0.899999976158 -0.0649999976158 -0.141000002623 1584.0
0.907999992371 -0.070000000298 -0.142000004649 1628.0
0.902000010014 -0.0750000029802 -0.141000002623 1657.0
0.90499997139 -0.0810000002384 -0.142000004649 1611.0
0.899999976158 -0.0860000029206 -0.141000002623 1621.0
0.90600001812 -0.0909999981523 -0.142000004649 1634.0
0.907000005245 -0.097000002861 -0.142000004649 1623.0
0.903999984264 -0.101999998093 -0.142000004649 1600.0
0.902000010014 -0.107000000775 -0.141000002623 1580.0
0.901000022888 -0.112000003457 -0.141000002623 1575.0
0.898999989033 -0.116999998689 -0.141000002623 1577.0
0.90499997139 -0.123000003397 -0.142000004649 1536.0
0.901000022888 -0.12800000608 -0.142000004649 1541.0
0.898999989033 -0.133000001311 -0.141000002623 1570.0
0.899999976158 -0.138999998569 -0.142000004649 1566.0
0.901000022888 -0.143999993801 -0.142000004649 1605.0
0.898000001907 -0.149000003934 -0.141000002623 1649.0
0.897000014782 -0.153999999166 -0.141000002623 1668.0
0.902000010014 -0.159999996424 -0.142000004649 1706.0
0.89099997282 -0.16400000453 -0.141000002623 1751.0
0.89200001955 -0.168999999762 -0.141000002623 1789.0
0.889999985695 -0.173999994993 -0.141000002623 1792.0
0.898999989033 -0.181999996305 -0.142000004649 1734.0
0.893999993801 -0.186000004411 -0.142000004649 1760.0
0.897000014782 -0.192000001669 -0.142000004649 1750.0
0.888000011444 -0.195999994874 -0.141000002623 1721.0
0.89099997282 -0.202000007033 -0.141000002623 1726.0
0.889999985695 -0.207000002265 -0.141000002623 1765.0
0.894999980927 -0.21400000155 -0.142000004649 1729.0
0.893000006676 -0.218999996781 -0.142000004649 1743.0
0.888000011444 -0.223000004888 -0.142000004649 1757.0
0.889999985695 -0.229000002146 -0.142000004649 1718.0
0.893999993801 -0.236000001431 -0.143000006676 1764.0
0.889999985695 -0.239999994636 -0.142000004649 1801.0
0.883000016212 -0.244000002742 -0.141000002623 1773.0
0.889999985695 -0.252000004053 -0.143000006676 1784.0
0.889999985695 -0.256999999285 -0.143000006676 1824.0
0.887000024319 -0.261999994516 -0.143000006676 1784.0
0.888000011444 -0.268000006676 -0.143000006676 1744.0
0.883000016212 -0.272000014782 -0.142000004649 1774.0
0.884000003338 -0.277999997139 -0.143000006676 1767.0
0.882000029087 -0.284000009298 -0.143000006676 1731.0
0.880999982357 -0.28900000453 -0.143000006676 1711.0
0.879000008106 -0.293999999762 -0.143000006676 1708.0
0.879000008106 -0.300000011921 -0.143000006676 1687.0
0.879999995232 -0.305999994278 -0.143000006676 1685.0
0.882000029087 -0.312999993563 -0.143999993801 1733.0
0.880999982357 -0.319000005722 -0.143999993801 1745.0
0.878000020981 -0.323000013828 -0.143000006676 1766.0
0.878000020981 -0.328999996185 -0.143999993801 1751.0
0.876999974251 -0.335000008345 -0.143999993801 1734.0
0.879000008106 -0.342000007629 -0.144999995828 1719.0
0.878000020981 -0.347999989986 -0.144999995828 1735.0
0.878000020981 -0.354000002146 -0.144999995828 1733.0
0.875 -0.358999997377 -0.144999995828 1670.0
0.870999991894 -0.363000005484 -0.143999993801 1725.0
0.875 -0.370999991894 -0.144999995828 1755.0
0.871999979019 -0.375999987125 -0.144999995828 1722.0
0.875999987125 -0.384000003338 -0.145999997854 1692.0
0.873000025749 -0.388999998569 -0.145999997854 1733.0
0.874000012875 -0.395999997854 -0.145999997854 1759.0
0.873000025749 -0.402000010014 -0.145999997854 1774.0
0.873000025749 -0.407999992371 -0.146999999881 1732.0
0.870999991894 -0.41400000453 -0.146999999881 1694.0
0.870999991894 -0.421000003815 -0.146999999881 1704.0
0.870999991894 -0.428000003099 -0.148000001907 1652.0
0.862999975681 -0.430000007153 -0.146999999881 1695.0
0.864000022411 -0.437000006437 -0.146999999881 1697.0
0.865999996662 -0.444999992847 -0.148000001907 1709.0
0.867999970913 -0.45300000906 -0.148000001907 1661.0
0.860000014305 -0.456000000238 -0.148000001907 1662.0
0.865000009537 -0.465000003576 -0.149000003934 1597.0
0.867999970913 -0.474000006914 -0.15000000596 1583.0
0.866999983788 -0.479999989271 -0.15000000596 1561.0
0.860000014305 -0.483000010252 -0.149000003934 1580.0
0.875 0.507000029087 -0.16400000453 743.0
0.884000003338 0.504999995232 -0.165000006557 646.0
0.930000007153 0.523000001907 -0.172999992967 531.0
0.938000023365 0.519999980927 -0.173999994993 438.0
0.902000010014 0.493000000715 -0.165999993682 355.0
0.894999980927 0.481999993324 -0.16400000453 263.0
0.896000027657 0.47499999404 -0.16400000453 244.0
0.913999974728 0.476999998093 -0.166999995708 260.0
0.954999983311 0.490999996662 -0.173999994993 155.0
3.35100007057 1.40100002289 -0.589999973774 68.0
3.52099990845 1.06500005722 -0.598999977112 59.0
3.49099993706 1.00999999046 -0.592000007629 68.0
3.51399993896 0.995000004768 -0.59500002861 57.0
3.6819999218 0.995000004768 -0.621999979019 56.0
4.02500009537 0.911000013351 -0.672999978065 100.0
4.05399990082 0.893000006676 -0.676999986172 117.0
4.08199977875 0.874000012875 -0.680999994278 119.0
4.007999897 0.833000004292 -0.666999995708 124.0
4.06300020218 0.819999992847 -0.675999999046 79.0
4.60599994659 0.84500002861 -0.763999998569 62.0
4.72700023651 0.838999986649 -0.782999992371 58.0
4.93800020218 0.204999998212 -0.805000007153 51.0
0.913999974728 -0.0179999992251 -0.148000001907 878.0
0.911000013351 -0.0230000000447 -0.148000001907 1527.0
0.908999979496 -0.0280000008643 -0.148000001907 1546.0
0.910000026226 -0.0340000018477 -0.148000001907 1545.0
0.911000013351 -0.0390000008047 -0.148000001907 1562.0
0.907999992371 -0.0439999997616 -0.146999999881 1613.0
0.911000013351 -0.0500000007451 -0.148000001907 1633.0
0.90499997139 -0.0540000014007 -0.146999999881 1604.0
0.907000005245 -0.0599999986589 -0.146999999881 1637.0
0.90600001812 -0.0649999976158 -0.146999999881 1590.0
0.907999992371 -0.070000000298 -0.146999999881 1608.0
0.90600001812 -0.0759999975562 -0.146999999881 1623.0
0.903999984264 -0.0810000002384 -0.146999999881 1589.0
0.90499997139 -0.0860000029206 -0.146999999881 1606.0
0.902999997139 -0.0909999981523 -0.146999999881 1620.0
0.90600001812 -0.097000002861 -0.146999999881 1614.0
0.901000022888 -0.101999998093 -0.146999999881 1582.0
0.90499997139 -0.107000000775 -0.146999999881 1544.0
0.90499997139 -0.112999998033 -0.146999999881 1549.0
0.899999976158 -0.116999998689 -0.146999999881 1564.0
0.902999997139 -0.123000003397 -0.146999999881 1523.0
0.894999980927 -0.127000004053 -0.145999997854 1545.0
0.903999984264 -0.134000003338 -0.146999999881 1598.0
0.898999989033 -0.137999996543 -0.146999999881 1599.0
0.901000022888 -0.143999993801 -0.146999999881 1618.0
0.901000022888 -0.15000000596 -0.146999999881 1644.0
0.896000027657 -0.153999999166 -0.146999999881 1654.0
0.896000027657 -0.158999994397 -0.146999999881 1700.0
0.896000027657 -0.165000006557 -0.146999999881 1729.0
0.898000001907 -0.171000003815 -0.146999999881 1748.0
0.898000001907 -0.175999999046 -0.146999999881 1761.0
0.896000027657 -0.180999994278 -0.146999999881 1750.0
0.893999993801 -0.186000004411 -0.146999999881 1747.0
0.894999980927 -0.192000001669 -0.146999999881 1736.0
0.894999980927 -0.196999996901 -0.146999999881 1703.0
0.898000001907 -0.203999996185 -0.148000001907 1717.0
0.893000006676 -0.208000004292 -0.146999999881 1753.0
0.89200001955 -0.212999999523 -0.146999999881 1731.0
0.894999980927 -0.218999996781 -0.148000001907 1737.0
0.89200001955 -0.224000006914 -0.146999999881 1739.0
0.893999993801 -0.230000004172 -0.148000001907 1712.0
0.889999985695 -0.234999999404 -0.148000001907 1745.0
0.893000006676 -0.240999996662 -0.148000001907 1784.0
0.894999980927 -0.247999995947 -0.149000003934 1755.0
0.885999977589 -0.250999987125 -0.146999999881 1758.0
0.882000029087 -0.254999995232 -0.146999999881 1790.0
0.887000024319 -0.261999994516 -0.148000001907 1759.0
0.885999977589 -0.268000006676 -0.148000001907 1712.0
0.883000016212 -0.273000001907 -0.148000001907 1744.0
0.884000003338 -0.279000014067 -0.148000001907 1775.0
0.888000011444 -0.286000013351 -0.149000003934 1733.0
0.880999982357 -0.28900000453 -0.148000001907 1726.0
0.887000024319 -0.29699999094 -0.149000003934 1724.0
0.884999990463 -0.301999986172 -0.149000003934 1696.0
0.880999982357 -0.307000011206 -0.149000003934 1706.0
0.879000008106 -0.312000006437 -0.149000003934 1732.0
0.879999995232 -0.317999988794 -0.149000003934 1734.0
0.876999974251 -0.323000013828 -0.149000003934 1732.0
0.878000020981 -0.330000013113 -0.149000003934 1741.0
0.874000012875 -0.333999991417 -0.149000003934 1747.0
0.874000012875 -0.340000003576 -0.149000003934 1751.0
0.879000008106 -0.347999989986 -0.15000000596 1738.0
0.878000020981 -0.354000002146 -0.15000000596 1715.0
0.876999974251 -0.360000014305 -0.150999993086 1669.0
0.873000025749 -0.365000009537 -0.15000000596 1734.0
0.875 -0.370999991894 -0.150999993086 1732.0
0.874000012875 -0.377000004053 -0.150999993086 1703.0
0.874000012875 -0.384000003338 -0.150999993086 1711.0
0.873000025749 -0.389999985695 -0.150999993086 1723.0
0.874000012875 -0.397000014782 -0.151999995112 1738.0
0.871999979019 -0.402000010014 -0.151999995112 1788.0
0.871999979019 -0.409000009298 -0.151999995112 1714.0
0.867999970913 -0.412999987602 -0.151999995112 1701.0
0.869000017643 -0.419999986887 -0.151999995112 1681.0
0.870999991894 -0.428000003099 -0.152999997139 1635.0
0.866999983788 -0.432999998331 -0.152999997139 1709.0
0.865999996662 -0.43900001049 -0.152999997139 1684.0
0.866999983788 -0.446000009775 -0.153999999166 1701.0
0.864000022411 -0.451999992132 -0.153999999166 1673.0
0.865000009537 -0.458999991417 -0.153999999166 1648.0
0.869000017643 -0.467999994755 -0.155000001192 1558.0
0.866999983788 -0.474000006914 -0.155000001192 1559.0
0.85799998045 -0.476000010967 -0.153999999166 1553.0
0.869000017643 -0.488999992609 -0.157000005245 1552.0
0.856999993324 0.497000008821 -0.165999993682 1167.0
0.848999977112 0.486000001431 -0.16400000453 1169.0
0.847999989986 0.477999985218 -0.163000002503 1159.0
0.852999985218 0.472999989986 -0.16400000453 1134.0
0.861999988556 0.472000002861 -0.165000006557 1096.0
0.852999985218 0.460000008345 -0.163000002503 1042.0
0.862999975681 0.458000004292 -0.16400000453 983.0
0.852999985218 0.446000009775 -0.16099999845 933.0
0.856000006199 0.441000014544 -0.162000000477 829.0
0.856999993324 0.435000002384 -0.16099999845 756.0
0.869000017643 0.433999985456 -0.163000002503 657.0
0.876999974251 0.430999994278 -0.16400000453 552.0
0.883000016212 0.426999986172 -0.165000006557 445.0
0.875999987125 0.418000012636 -0.163000002503 354.0
0.880999982357 0.412999987602 -0.16400000453 352.0
0.876999974251 0.405000001192 -0.162000000477 341.0
0.856000006199 0.388999998569 -0.158000007272 269.0
4.0609998703 0.920000016689 -0.703999996185 87.0
4.04799985886 0.89200001955 -0.699999988079 95.0
4.03399991989 0.864000022411 -0.697000026703 110.0
4.05900001526 0.84399998188 -0.700999975204 107.0
4.11499977112 0.830999970436 -0.708999991417 84.0
4.68200016022 0.860000014305 -0.805000007153 58.0
4.58400011063 0.81400001049 -0.787000000477 57.0
4.94799995422 0.206000000238 -0.836000025272 50.0
1.17100000381 -0.0170000009239 -0.196999996901 52.0
0.907000005245 -0.0179999992251 -0.152999997139 910.0
0.910000026226 -0.0230000000447 -0.152999997139 1517.0
0.910000026226 -0.0280000008643 -0.152999997139 1559.0
0.907999992371 -0.0340000018477 -0.152999997139 1542.0
0.910000026226 -0.0390000008047 -0.152999997139 1538.0
0.907000005245 -0.0439999997616 -0.152999997139 1600.0
0.907000005245 -0.0489999987185 -0.152999997139 1589.0
0.907999992371 -0.054999999702 -0.152999997139 1582.0
0.902999997139 -0.0599999986589 -0.151999995112 1641.0
0.903999984264 -0.0649999976158 -0.151999995112 1599.0
0.903999984264 -0.070000000298 -0.151999995112 1604.0
0.90499997139 -0.0759999975562 -0.151999995112 1626.0
0.902999997139 -0.0810000002384 -0.151999995112 1605.0
0.908999979496 -0.0869999974966 -0.152999997139 1612.0
0.902999997139 -0.0909999981523 -0.151999995112 1637.0
0.90600001812 -0.097000002861 -0.152999997139 1607.0
0.901000022888 -0.101999998093 -0.151999995112 1611.0
0.902000010014 -0.107000000775 -0.151999995112 1590.0
0.893999993801 -0.111000001431 -0.150999993086 1582.0
0.902999997139 -0.118000000715 -0.152999997139 1589.0
0.898999989033 -0.123000003397 -0.151999995112 1558.0
0.899999976158 -0.12800000608 -0.151999995112 1572.0
0.899999976158 -0.133000001311 -0.151999995112 1639.0
0.898000001907 -0.137999996543 -0.151999995112 1621.0
0.903999984264 -0.144999995828 -0.152999997139 1638.0
0.898999989033 -0.149000003934 -0.151999995112 1651.0
0.898000001907 -0.155000001192 -0.151999995112 1659.0
0.896000027657 -0.159999996424 -0.151999995112 1696.0
0.90499997139 -0.166999995708 -0.153999999166 1748.0
0.896000027657 -0.170000001788 -0.151999995112 1749.0
0.898999989033 -0.175999999046 -0.152999997139 1747.0
0.897000014782 -0.180999994278 -0.152999997139 1746.0
0.893999993801 -0.186000004411 -0.151999995112 1729.0
0.894999980927 -0.192000001669 -0.152999997139 1754.0
0.89099997282 -0.196999996901 -0.151999995112 1705.0
0.893000006676 -0.202999994159 -0.152999997139 1730.0
0.889999985695 -0.207000002265 -0.151999995112 1744.0
0.89200001955 -0.212999999523 -0.152999997139 1720.0
0.887000024319 -0.217999994755 -0.151999995112 1722.0
0.889999985695 -0.224000006914 -0.152999997139 1725.0
0.89099997282 -0.230000004172 -0.152999997139 1711.0
0.89200001955 -0.236000001431 -0.152999997139 1741.0
0.885999977589 -0.239999994636 -0.152999997139 1784.0
0.889999985695 -0.24699999392 -0.152999997139 1747.0
0.89099997282 -0.252000004053 -0.153999999166 1748.0
0.888000011444 -0.256999999285 -0.152999997139 1776.0
0.882000029087 -0.261000007391 -0.152999997139 1763.0
0.887000024319 -0.268000006676 -0.153999999166 1706.0
0.888000011444 -0.273999989033 -0.153999999166 1735.0
0.887000024319 -0.280000001192 -0.153999999166 1761.0
0.884999990463 -0.284999996424 -0.153999999166 1723.0
0.884000003338 -0.291000008583 -0.153999999166 1708.0
0.887000024319 -0.29699999094 -0.155000001192 1731.0
0.882000029087 -0.301999986172 -0.153999999166 1713.0
0.878000020981 -0.305999994278 -0.153999999166 1732.0
0.882000029087 -0.31400001049 -0.155000001192 1754.0
0.880999982357 -0.319000005722 -0.155000001192 1748.0
0.879000008106 -0.324000000954 -0.155000001192 1744.0
0.876999974251 -0.330000013113 -0.155000001192 1759.0
0.876999974251 -0.33599999547 -0.155000001192 1746.0
0.878000020981 -0.342000007629 -0.155000001192 1761.0
0.875 -0.347000002861 -0.155000001192 1744.0
0.875999987125 -0.352999985218 -0.156000003219 1722.0
0.875 -0.358999997377 -0.156000003219 1684.0
0.876999974251 -0.365999996662 -0.156000003219 1726.0
0.871999979019 -0.370999991894 -0.156000003219 1742.0
0.874000012875 -0.377999991179 -0.156000003219 1683.0
0.869000017643 -0.381999999285 -0.156000003219 1726.0
0.875 -0.391000002623 -0.157000005245 1739.0
0.870000004768 -0.395000010729 -0.157000005245 1752.0
0.875 -0.404000014067 -0.158000007272 1756.0
0.867999970913 -0.407000005245 -0.157000005245 1694.0
0.870999991894 -0.414999991655 -0.158000007272 1670.0
0.867999970913 -0.419999986887 -0.158000007272 1655.0
0.865999996662 -0.425999999046 -0.158000007272 1644.0
0.869000017643 -0.433999985456 -0.158999994397 1692.0
0.862999975681 -0.437999993563 -0.158000007272 1679.0
0.864000022411 -0.444999992847 -0.158999994397 1679.0
0.866999983788 -0.453999996185 -0.159999996424 1685.0
0.861999988556 -0.458000004292 -0.158999994397 1646.0
0.865000009537 -0.465999990702 -0.159999996424 1547.0
0.867999970913 -0.47499999404 -0.16099999845 1537.0
0.856999993324 -0.476000010967 -0.159999996424 1556.0
0.865000009537 -0.488000005484 -0.162000000477 1534.0
0.861000001431 0.5 -0.172999992967 974.0
0.862999975681 0.493999987841 -0.172000005841 1043.0
0.852999985218 0.481000006199 -0.170000001788 1103.0
0.851999998093 0.472999989986 -0.168999999762 1148.0
0.85900002718 0.469999998808 -0.170000001788 1189.0
0.856999993324 0.462000012398 -0.168999999762 1219.0
0.85799998045 0.456000000238 -0.168999999762 1237.0
0.851999998093 0.446000009775 -0.166999995708 1270.0
0.851999998093 0.43900001049 -0.165999993682 1268.0
0.848999977112 0.430999994278 -0.165000006557 1273.0
0.855000019073 0.428000003099 -0.165999993682 1271.0
0.856000006199 0.421000003815 -0.165999993682 1232.0
0.85799998045 0.416000008583 -0.165999993682 1210.0
0.856000006199 0.407999992371 -0.165000006557 1176.0
0.855000019073 0.402000010014 -0.16400000453 1103.0
0.855000019073 0.395000010729 -0.16400000453 1055.0
0.856999993324 0.389999985695 -0.16400000453 971.0
0.861000001431 0.384999990463 -0.16400000453 904.0
0.855000019073 0.375999987125 -0.163000002503 815.0
0.861999988556 0.372999995947 -0.163000002503 713.0
0.862999975681 0.36700001359 -0.163000002503 604.0
0.871999979019 0.365000009537 -0.165000006557 495.0
0.861999988556 0.354000002146 -0.162000000477 410.0
0.865000009537 0.34999999404 -0.163000002503 394.0
0.847999989986 0.337000012398 -0.158999994397 441.0
0.861999988556 0.33599999547 -0.16099999845 348.0
0.816999971867 0.312999993563 -0.151999995112 258.0
0.837000012398 0.314999997616 -0.156000003219 175.0
0.65600001812 0.238000005484 -0.122000001371 74.0
4.09899997711 0.929000020027 -0.735000014305 62.0
4.14099979401 0.912999987602 -0.741999983788 68.0
4.12900018692 0.884999990463 -0.739000022411 69.0
4.11100006104 0.856000006199 -0.735000014305 75.0
3.96000003815 0.800000011921 -0.707000017166 56.0
0.919000029564 -0.0179999992251 -0.159999996424 943.0
0.913999974728 -0.0230000000447 -0.158999994397 1538.0
0.910000026226 -0.0280000008643 -0.158000007272 1560.0
0.910000026226 -0.0340000018477 -0.158999994397 1541.0
0.908999979496 -0.0390000008047 -0.158000007272 1536.0
0.903999984264 -0.0439999997616 -0.157000005245 1578.0
0.910000026226 -0.0500000007451 -0.158999994397 1596.0
0.90499997139 -0.054999999702 -0.158000007272 1583.0
0.910000026226 -0.0599999986589 -0.158999994397 1642.0
0.907000005245 -0.0649999976158 -0.158000007272 1608.0
0.902999997139 -0.070000000298 -0.157000005245 1611.0
0.907999992371 -0.0759999975562 -0.158000007272 1627.0
0.907000005245 -0.0810000002384 -0.158000007272 1623.0
0.902000010014 -0.0860000029206 -0.157000005245 1631.0
0.901000022888 -0.0909999981523 -0.157000005245 1648.0
0.90600001812 -0.097000002861 -0.158000007272 1614.0
0.902999997139 -0.101999998093 -0.158000007272 1599.0
0.90600001812 -0.108000002801 -0.158000007272 1576.0
0.898999989033 -0.112000003457 -0.157000005245 1576.0
0.898999989033 -0.116999998689 -0.157000005245 1580.0
0.894999980927 -0.122000001371 -0.157000005245 1567.0
0.898000001907 -0.12800000608 -0.157000005245 1599.0
0.899999976158 -0.134000003338 -0.158000007272 1596.0
0.901000022888 -0.138999998569 -0.158000007272 1599.0
0.902000010014 -0.144999995828 -0.158000007272 1635.0
0.897000014782 -0.149000003934 -0.157000005245 1638.0
0.89200001955 -0.153999999166 -0.157000005245 1667.0
0.893000006676 -0.158999994397 -0.157000005245 1723.0
0.896000027657 -0.165000006557 -0.158000007272 1724.0
0.896000027657 -0.171000003815 -0.158000007272 1734.0
0.893000006676 -0.17499999702 -0.157000005245 1725.0
0.893000006676 -0.180999994278 -0.157000005245 1719.0
0.893000006676 -0.186000004411 -0.158000007272 1698.0
0.901000022888 -0.193000003695 -0.158999994397 1743.0
0.893000006676 -0.196999996901 -0.158000007272 1718.0
0.89099997282 -0.202000007033 -0.158000007272 1740.0
0.894999980927 -0.209000006318 -0.158000007272 1748.0
0.888000011444 -0.212999999523 -0.157000005245 1727.0
0.888000011444 -0.217999994755 -0.158000007272 1715.0
0.888999998569 -0.224000006914 -0.158000007272 1719.0
0.888999998569 -0.230000004172 -0.158000007272 1728.0
0.889999985695 -0.234999999404 -0.158000007272 1736.0
0.888000011444 -0.239999994636 -0.158000007272 1783.0
0.888000011444 -0.246000006795 -0.158999994397 1762.0
0.889999985695 -0.252000004053 -0.158999994397 1722.0
0.888000011444 -0.256999999285 -0.158999994397 1748.0
0.885999977589 -0.263000011444 -0.158999994397 1748.0
0.884000003338 -0.268000006676 -0.158999994397 1724.0
0.883000016212 -0.273000001907 -0.158999994397 1730.0
0.888000011444 -0.280999988317 -0.159999996424 1746.0
0.883000016212 -0.284999996424 -0.158999994397 1713.0
0.885999977589 -0.291000008583 -0.159999996424 1705.0
0.887000024319 -0.298000007868 -0.159999996424 1728.0
0.882000029087 -0.301999986172 -0.159999996424 1715.0
0.879999995232 -0.307000011206 -0.159999996424 1733.0
0.875999987125 -0.312000006437 -0.158999994397 1765.0
0.882000029087 -0.319999992847 -0.159999996424 1738.0
0.870000004768 -0.321000009775 -0.158999994397 1765.0
0.878000020981 -0.330000013113 -0.159999996424 1734.0
0.882000029087 -0.337999999523 -0.16099999845 1732.0
0.879000008106 -0.342999994755 -0.16099999845 1746.0
0.875 -0.347000002861 -0.16099999845 1751.0
0.874000012875 -0.352999985218 -0.16099999845 1727.0
0.873000025749 -0.358999997377 -0.16099999845 1710.0
0.873000025749 -0.365000009537 -0.16099999845 1729.0
0.873000025749 -0.372000008821 -0.162000000477 1711.0
0.873000025749 -0.377999991179 -0.162000000477 1677.0
0.865999996662 -0.381000012159 -0.16099999845 1704.0
0.862999975681 -0.386000007391 -0.16099999845 1720.0
0.871999979019 -0.395999997854 -0.163000002503 1748.0
0.870999991894 -0.402000010014 -0.163000002503 1752.0
0.875 -0.411000013351 -0.16400000453 1683.0
0.870000004768 -0.414999991655 -0.16400000453 1670.0
0.865999996662 -0.419999986887 -0.163000002503 1668.0
0.867999970913 -0.426999986172 -0.16400000453 1657.0
0.864000022411 -0.432000011206 -0.16400000453 1681.0
0.867999970913 -0.441000014544 -0.165000006557 1669.0
0.861000001431 -0.444000005722 -0.16400000453 1635.0
0.864000022411 -0.451999992132 -0.165000006557 1644.0
0.864000022411 -0.458999991417 -0.165000006557 1615.0
0.861999988556 -0.465000003576 -0.165999993682 1527.0
0.865999996662 -0.474000006914 -0.166999995708 1544.0
0.861000001431 -0.479000002146 -0.165999993682 1535.0
0.855000019073 -0.483000010252 -0.165999993682 1545.0
0.96899998188 0.563000023365 -0.201000005007 251.0
0.944000005722 0.541000008583 -0.194999992847 348.0
0.952000021935 0.537999987602 -0.195999994874 431.0
0.915000021458 0.509000003338 -0.187999993563 532.0
0.873000025749 0.479000002146 -0.179000005126 655.0
0.861000001431 0.465000003576 -0.175999999046 761.0
0.862999975681 0.458999991417 -0.17499999702 859.0
0.855000019073 0.448000013828 -0.172999992967 945.0
0.850000023842 0.43900001049 -0.172000005841 1028.0
0.85900002718 0.437000006437 -0.172999992967 1116.0
0.850000023842 0.425000011921 -0.171000003815 1185.0
0.852999985218 0.421000003815 -0.171000003815 1214.0
0.851999998093 0.412999987602 -0.170000001788 1264.0
0.842999994755 0.402999997139 -0.167999997735 1299.0
0.850000023842 0.398999989033 -0.168999999762 1332.0
0.853999972343 0.395000010729 -0.168999999762 1337.0
0.856000006199 0.388999998569 -0.168999999762 1327.0
0.850000023842 0.381000012159 -0.167999997735 1358.0
0.851000010967 0.375 -0.166999995708 1341.0
0.847999989986 0.36700001359 -0.165999993682 1326.0
0.852999985218 0.363000005484 -0.166999995708 1302.0
0.850000023842 0.356000006199 -0.165999993682 1290.0
0.853999972343 0.351000010967 -0.165999993682 1256.0
0.853999972343 0.344999998808 -0.165999993682 1221.0
0.855000019073 0.340000003576 -0.165999993682 1167.0
0.855000019073 0.333999991417 -0.165000006557 1102.0
0.85900002718 0.330000013113 -0.165999993682 1036.0
0.861000001431 0.324000000954 -0.165999993682 956.0
0.864000022411 0.319000005722 -0.165999993682 860.0
0.862999975681 0.312999993563 -0.165999993682 781.0
0.864000022411 0.307999998331 -0.165000006557 672.0
0.860000014305 0.300999999046 -0.16400000453 580.0
0.860000014305 0.294999986887 -0.16400000453 492.0
0.852999985218 0.287000000477 -0.162000000477 421.0
0.850000023842 0.280000001192 -0.16099999845 440.0
0.847000002861 0.273000001907 -0.159999996424 478.0
0.862999975681 0.273000001907 -0.163000002503 628.0
0.862999975681 0.266999989748 -0.163000002503 465.0
0.70300000906 0.203999996185 -0.131999999285 69.0
4.05499982834 0.920000016689 -0.751999974251 81.0
4.15999984741 0.917999982834 -0.771000027657 71.0
4.15600013733 0.89200001955 -0.768999993801 65.0
4.22599983215 0.879999995232 -0.78100001812 68.0
1.0 -0.0140000004321 -0.180000007153 50.0
0.916999995708 -0.0179999992251 -0.165000006557 980.0
0.908999979496 -0.0230000000447 -0.16400000453 1545.0
0.912000000477 -0.0289999991655 -0.16400000453 1555.0
0.910000026226 -0.0340000018477 -0.16400000453 1559.0
0.907999992371 -0.0390000008047 -0.16400000453 1553.0
0.908999979496 -0.0439999997616 -0.16400000453 1551.0
0.908999979496 -0.0500000007451 -0.16400000453 1586.0
0.907999992371 -0.054999999702 -0.16400000453 1589.0
0.911000013351 -0.0599999986589 -0.16400000453 1623.0
0.907999992371 -0.0649999976158 -0.16400000453 1608.0
0.902999997139 -0.070000000298 -0.163000002503 1622.0
0.903999984264 -0.0759999975562 -0.163000002503 1631.0
0.903999984264 -0.0810000002384 -0.163000002503 1610.0
0.907000005245 -0.0869999974966 -0.16400000453 1636.0
0.90499997139 -0.0920000001788 -0.163000002503 1635.0
0.903999984264 -0.097000002861 -0.163000002503 1608.0
0.90499997139 -0.101999998093 -0.163000002503 1589.0
0.893999993801 -0.105999998748 -0.162000000477 1584.0
0.902000010014 -0.112999998033 -0.163000002503 1551.0
0.901000022888 -0.118000000715 -0.163000002503 1550.0
0.898999989033 -0.123000003397 -0.163000002503 1542.0
0.902999997139 -0.128999993205 -0.16400000453 1582.0
0.902999997139 -0.134000003338 -0.16400000453 1588.0
0.893000006676 -0.137999996543 -0.162000000477 1584.0
0.897000014782 -0.143999993801 -0.163000002503 1624.0
0.898000001907 -0.15000000596 -0.163000002503 1645.0
0.893999993801 -0.153999999166 -0.162000000477 1673.0
0.89200001955 -0.158999994397 -0.162000000477 1703.0
0.903999984264 -0.166999995708 -0.16400000453 1697.0
0.898000001907 -0.171000003815 -0.163000002503 1733.0
0.89200001955 -0.17499999702 -0.162000000477 1709.0
0.89200001955 -0.180999994278 -0.163000002503 1717.0
0.893000006676 -0.186000004411 -0.163000002503 1686.0
0.893999993801 -0.192000001669 -0.163000002503 1712.0
0.893000006676 -0.196999996901 -0.163000002503 1711.0
0.888999998569 -0.202000007033 -0.163000002503 1721.0
0.888999998569 -0.208000004292 -0.163000002503 1729.0
0.884999990463 -0.211999997497 -0.162000000477 1739.0
0.888000011444 -0.218999996781 -0.163000002503 1711.0
0.893000006676 -0.22499999404 -0.16400000453 1695.0
0.887000024319 -0.229000002146 -0.163000002503 1725.0
0.888999998569 -0.234999999404 -0.16400000453 1737.0
0.888000011444 -0.240999996662 -0.16400000453 1729.0
0.89200001955 -0.24699999392 -0.165000006557 1737.0
0.888000011444 -0.252000004053 -0.16400000453 1713.0
0.885999977589 -0.256999999285 -0.16400000453 1740.0
0.888000011444 -0.263000011444 -0.165000006557 1740.0
0.883000016212 -0.268000006676 -0.16400000453 1715.0
0.878000020981 -0.272000014782 -0.163000002503 1725.0
0.884999990463 -0.280000001192 -0.165000006557 1704.0
0.884000003338 -0.284999996424 -0.165000006557 1715.0
0.888000011444 -0.293000012636 -0.165999993682 1669.0
0.880999982357 -0.296000003815 -0.165000006557 1687.0
0.883000016212 -0.303000003099 -0.165000006557 1705.0
0.882000029087 -0.307999998331 -0.165000006557 1724.0
0.878000020981 -0.312999993563 -0.165000006557 1749.0
0.884000003338 -0.321000009775 -0.165999993682 1766.0
0.880999982357 -0.326000005007 -0.165999993682 1750.0
0.876999974251 -0.330000013113 -0.165999993682 1738.0
0.875999987125 -0.33599999547 -0.165999993682 1747.0
0.875 -0.342000007629 -0.165999993682 1739.0
0.869000017643 -0.345999985933 -0.165000006557 1744.0
0.874000012875 -0.354000002146 -0.165999993682 1681.0
0.883000016212 -0.363000005484 -0.167999997735 1703.0
0.875 -0.365999996662 -0.166999995708 1721.0
0.870000004768 -0.370999991894 -0.166999995708 1712.0
0.870000004768 -0.377000004053 -0.166999995708 1677.0
0.874000012875 -0.384999990463 -0.167999997735 1697.0
0.869000017643 -0.388999998569 -0.167999997735 1744.0
0.871999979019 -0.397000014782 -0.168999999762 1722.0
0.871999979019 -0.402999997139 -0.168999999762 1734.0
0.866999983788 -0.407999992371 -0.167999997735 1677.0
0.869000017643 -0.414999991655 -0.168999999762 1684.0
0.865999996662 -0.419999986887 -0.168999999762 1669.0
0.867999970913 -0.428000003099 -0.170000001788 1696.0
0.862999975681 -0.432000011206 -0.168999999762 1697.0
0.85799998045 -0.43599998951 -0.168999999762 1649.0
0.861999988556 -0.444999992847 -0.170000001788 1612.0
0.862999975681 -0.451999992132 -0.171000003815 1607.0
0.864000022411 -0.460000008345 -0.171000003815 1560.0
0.85900002718 -0.463999986649 -0.171000003815 1533.0
0.861999988556 -0.472999989986 -0.172000005841 1543.0
0.861999988556 -0.479999989271 -0.172000005841 1530.0
0.861999988556 -0.486999988556 -0.172999992967 1539.0
2.0039999485 1.16799998283 -0.430000007153 81.0
1.95799994469 1.12399995327 -0.418000012636 100.0
2.04800009727 1.1590000391 -0.43599998951 170.0
2.02300000191 1.12800002098 -0.428999990225 143.0
1.5340000391 0.842999994755 -0.324999988079 91.0
1.00199997425 0.541999995708 -0.21099999547 155.0
0.888999998569 0.465999990702 -0.186000004411 315.0
0.898000001907 0.463999986649 -0.187000006437 316.0
0.884999990463 0.449999988079 -0.184000000358 354.0
0.874000012875 0.437999993563 -0.180999994278 449.0
0.883000016212 0.435000002384 -0.182999998331 542.0
0.866999983788 0.421000003815 -0.179000005126 662.0
0.862999975681 0.412999987602 -0.178000003099 772.0
0.866999983788 0.407999992371 -0.178000003099 885.0
0.855000019073 0.395999997854 -0.17499999702 955.0
0.865999996662 0.395000010729 -0.177000001073 1036.0
0.851999998093 0.381999999285 -0.172999992967 1138.0
0.853999972343 0.375999987125 -0.172999992967 1188.0
0.853999972343 0.370000004768 -0.172999992967 1240.0
0.855000019073 0.365000009537 -0.172999992967 1281.0
0.851999998093 0.356999993324 -0.172000005841 1335.0
0.851999998093 0.351000010967 -0.171000003815 1374.0
0.851000010967 0.344999998808 -0.171000003815 1400.0
0.850000023842 0.337999999523 -0.170000001788 1410.0
0.851999998093 0.333000004292 -0.170000001788 1442.0
0.851000010967 0.326999992132 -0.170000001788 1445.0
0.852999985218 0.321999996901 -0.170000001788 1436.0
0.851000010967 0.314999997616 -0.168999999762 1433.0
0.855000019073 0.31099998951 -0.168999999762 1422.0
0.852999985218 0.303999990225 -0.168999999762 1392.0
0.853999972343 0.298999994993 -0.168999999762 1376.0
0.856999993324 0.293999999762 -0.168999999762 1347.0
0.855000019073 0.287999987602 -0.167999997735 1315.0
0.861999988556 0.284000009298 -0.168999999762 1351.0
0.852999985218 0.275999993086 -0.166999995708 1352.0
0.856000006199 0.270999997854 -0.166999995708 1371.0
0.847999989986 0.263000011444 -0.165000006557 1297.0
0.848999977112 0.25799998641 -0.165000006557 1168.0
0.85799998045 0.254999995232 -0.166999995708 1005.0
0.851999998093 0.24699999392 -0.165000006557 880.0
0.856999993324 0.244000002742 -0.165999993682 830.0
0.851999998093 0.237000003457 -0.165000006557 776.0
0.848999977112 0.230000004172 -0.16400000453 686.0
0.856000006199 0.226999998093 -0.165000006557 652.0
0.852999985218 0.221000000834 -0.16400000453 605.0
0.866999983788 0.218999996781 -0.166999995708 406.0
0.866999983788 0.21400000155 -0.166999995708 317.0
0.870000004768 0.209000006318 -0.166999995708 451.0
0.707000017166 0.16099999845 -0.135000005364 193.0
0.462999999523 0.103000000119 -0.0879999995232 106.0
0.32800000906 0.0710000023246 -0.0619999989867 83.0
0.0270000007004 0.00600000005215 -0.00499999988824 62.0
0.509999990463 0.104000002146 -0.097000002861 80.0
0.850000023842 0.166999995708 -0.162000000477 59.0
0.938000023365 -0.0130000002682 -0.17499999702 60.0
0.911000013351 -0.0179999992251 -0.170000001788 982.0
0.910000026226 -0.0230000000447 -0.168999999762 1527.0
0.913999974728 -0.0289999991655 -0.170000001788 1538.0
0.90499997139 -0.0340000018477 -0.167999997735 1563.0
0.907999992371 -0.0390000008047 -0.168999999762 1571.0
0.908999979496 -0.0439999997616 -0.168999999762 1557.0
0.907999992371 -0.0500000007451 -0.168999999762 1574.0
0.907999992371 -0.054999999702 -0.168999999762 1583.0
0.902999997139 -0.0599999986589 -0.167999997735 1634.0
0.907999992371 -0.0649999976158 -0.168999999762 1622.0
0.90499997139 -0.0710000023246 -0.168999999762 1591.0
0.907999992371 -0.0759999975562 -0.168999999762 1615.0
0.90600001812 -0.0810000002384 -0.168999999762 1598.0
0.902000010014 -0.0860000029206 -0.167999997735 1615.0
0.90600001812 -0.0920000001788 -0.168999999762 1617.0
0.901000022888 -0.097000002861 -0.167999997735 1597.0
0.903999984264 -0.101999998093 -0.168999999762 1597.0
0.899999976158 -0.107000000775 -0.167999997735 1586.0
0.901000022888 -0.112999998033 -0.167999997735 1548.0
0.897000014782 -0.116999998689 -0.167999997735 1542.0
0.901000022888 -0.123000003397 -0.168999999762 1541.0
0.898000001907 -0.12800000608 -0.167999997735 1571.0
0.897000014782 -0.133000001311 -0.167999997735 1577.0
0.901000022888 -0.138999998569 -0.168999999762 1581.0
0.899999976158 -0.144999995828 -0.168999999762 1626.0
0.896000027657 -0.149000003934 -0.167999997735 1648.0
0.899999976158 -0.155000001192 -0.168999999762 1649.0
0.89200001955 -0.158999994397 -0.166999995708 1690.0
0.894999980927 -0.165000006557 -0.167999997735 1698.0
0.893999993801 -0.171000003815 -0.167999997735 1726.0
0.893000006676 -0.175999999046 -0.167999997735 1698.0
0.893000006676 -0.180999994278 -0.167999997735 1701.0
0.893999993801 -0.187000006437 -0.168999999762 1711.0
0.894999980927 -0.193000003695 -0.168999999762 1706.0
0.893999993801 -0.197999998927 -0.168999999762 1696.0
0.887000024319 -0.202000007033 -0.167999997735 1713.0
0.894999980927 -0.209000006318 -0.168999999762 1719.0
0.888999998569 -0.212999999523 -0.168999999762 1730.0
0.89200001955 -0.219999998808 -0.168999999762 1702.0
0.888000011444 -0.224000006914 -0.168999999762 1679.0
0.89099997282 -0.231000006199 -0.168999999762 1711.0
0.884000003338 -0.233999997377 -0.167999997735 1713.0
0.880999982357 -0.238999992609 -0.167999997735 1726.0
0.884000003338 -0.246000006795 -0.168999999762 1736.0
0.885999977589 -0.252000004053 -0.168999999762 1709.0
0.883000016212 -0.256999999285 -0.168999999762 1742.0
0.879000008106 -0.261000007391 -0.167999997735 1756.0
0.884000003338 -0.268000006676 -0.170000001788 1728.0
0.887000024319 -0.27500000596 -0.170000001788 1715.0
0.884999990463 -0.280000001192 -0.170000001788 1701.0
0.883000016212 -0.284999996424 -0.170000001788 1717.0
