ply
format ascii 1.0
element vertex 928
property float x
property float y
property float z
property float intensity
end_header
0.957000017166 -0.0949999988079 0.122000001371 151.0
0.958999991417 -0.101000003517 0.122000001371 153.0
0.957000017166 -0.105999998748 0.122000001371 157.0
0.958999991417 -0.112000003457 0.122000001371 160.0
0.940999984741 -0.115000002086 0.119999997318 157.0
0.949999988079 -0.122000001371 0.120999999344 165.0
0.975000023842 -0.130999997258 0.125 163.0
0.944999992847 -0.133000001311 0.120999999344 162.0
0.952000021935 -0.138999998569 0.122000001371 169.0
0.952000021935 -0.144999995828 0.122000001371 206.0
0.981000006199 -0.155000001192 0.126000002027 967.0
0.978999972343 -0.16099999845 0.126000002027 1315.0
0.981000006199 -0.166999995708 0.126000002027 1314.0
0.980000019073 -0.172000005841 0.126000002027 1328.0
0.972000002861 -0.177000001073 0.125 1321.0
0.976000010967 -0.184000000358 0.126000002027 1346.0
0.972999989986 -0.188999995589 0.126000002027 1351.0
0.972999989986 -0.194999992847 0.126000002027 1366.0
0.973999977112 -0.201000005007 0.126000002027 1366.0
0.971000015736 -0.206000000238 0.126000002027 1386.0
0.962000012398 -0.209999993443 0.125 1386.0
0.963999986649 -0.216000005603 0.125 1406.0
0.961000025272 -0.222000002861 0.125 1394.0
0.959999978542 -0.226999998093 0.125 1411.0
0.966000020504 -0.234999999404 0.126000002027 1028.0
0.938000023365 -0.233999997377 0.122000001371 265.0
0.92199999094 -0.234999999404 0.120999999344 193.0
0.916000008583 -0.238999992609 0.119999997318 195.0
0.929000020027 -0.248999997973 0.122000001371 192.0
0.935000002384 -0.256000012159 0.123000003397 195.0
0.920000016689 -0.25799998641 0.120999999344 192.0
0.930000007153 -0.266999989748 0.123000003397 200.0
0.916999995708 -0.268999993801 0.120999999344 194.0
0.888000011444 -0.266000002623 0.116999998689 194.0
0.911000013351 -0.279000014067 0.120999999344 198.0
0.915000021458 -0.286000013351 0.120999999344 197.0
0.922999978065 -0.293999999762 0.123000003397 196.0
0.89200001955 -0.289999991655 0.119000002742 199.0
0.912000000477 -0.303000003099 0.122000001371 228.0
0.931999981403 -0.316000014544 0.125 1113.0
0.933000028133 -0.321999996901 0.125 1512.0
0.929000020027 -0.326999992132 0.125 1521.0
0.927999973297 -0.333000004292 0.125 1544.0
0.92199999094 -0.337000012398 0.123999997973 1547.0
0.924000024796 -0.344000011683 0.125 1544.0
0.916000008583 -0.347000002861 0.123999997973 1554.0
0.920000016689 -0.354999989271 0.125 1549.0
0.919000029564 -0.361000001431 0.125 1568.0
0.912000000477 -0.365000009537 0.123999997973 1569.0
0.913999974728 -0.372000008821 0.125 1572.0
0.912999987602 -0.377999991179 0.125 1581.0
0.912999987602 -0.384999990463 0.125 1588.0
0.911000013351 -0.389999985695 0.125 1577.0
0.903999984264 -0.393999993801 0.125 862.0
0.873000025749 -0.386000007391 0.120999999344 267.0
0.860000014305 -0.386999994516 0.119000002742 209.0
0.871999979019 -0.398999989033 0.120999999344 211.0
0.865999996662 -0.402999997139 0.120999999344 201.0
0.870000004768 -0.411000013351 0.122000001371 214.0
0.871999979019 -0.418000012636 0.122000001371 205.0
0.867999970913 -0.423000007868 0.122000001371 204.0
0.834999978542 -0.412999987602 0.118000000715 220.0
0.861000001431 -0.432999998331 0.122000001371 216.0
0.851000010967 -0.433999985456 0.120999999344 213.0
0.850000023842 -0.439999997616 0.120999999344 209.0
0.836000025272 -0.43900001049 0.119000002742 208.0
0.855000019073 -0.456000000238 0.122000001371 279.0
0.873000025749 -0.472999989986 0.125 1279.0
0.875999987125 -0.481999993324 0.126000002027 1599.0
0.870000004768 -0.486000001431 0.126000002027 1646.0
0.93599998951 0.541000008583 0.125 966.0
0.93900001049 0.535000026226 0.125 982.0
0.940999984741 0.527999997139 0.125 1001.0
0.939999997616 0.519999980927 0.125 990.0
0.943000018597 0.513999998569 0.125 1003.0
0.934000015259 0.501999974251 0.123000003397 1017.0
0.943000018597 0.499000012875 0.123999997973 1014.0
0.944999992847 0.493000000715 0.123999997973 1021.0
0.949000000954 0.486999988556 0.123999997973 1026.0
0.949000000954 0.479999989271 0.123999997973 1031.0
0.945999979973 0.470999985933 0.123000003397 1028.0
0.945999979973 0.463999986649 0.123000003397 1051.0
0.938000023365 0.45300000906 0.120999999344 1052.0
0.943000018597 0.448000013828 0.122000001371 1062.0
0.941999971867 0.439999997616 0.120999999344 1067.0
0.943000018597 0.433999985456 0.120999999344 1078.0
0.944999992847 0.428000003099 0.120999999344 1078.0
0.948000013828 0.423000007868 0.120999999344 1087.0
0.948000013828 0.416000008583 0.120999999344 1085.0
0.944000005722 0.407000005245 0.119999997318 1106.0
0.947000026703 0.402000010014 0.119999997318 1114.0
0.948000013828 0.395000010729 0.119999997318 1106.0
0.947000026703 0.388000011444 0.119999997318 1114.0
0.943000018597 0.379999995232 0.119000002742 1132.0
0.940999984741 0.372999995947 0.119000002742 1148.0
0.949000000954 0.368999987841 0.119000002742 1150.0
0.949999988079 0.363000005484 0.119000002742 1147.0
0.945999979973 0.354999989271 0.119000002742 1149.0
0.95300000906 0.351000010967 0.119000002742 1155.0
0.949000000954 0.342999994755 0.119000002742 1166.0
0.949999988079 0.337000012398 0.119000002742 1167.0
0.949000000954 0.331000000238 0.118000000715 1173.0
0.948000013828 0.324000000954 0.118000000715 1175.0
0.95300000906 0.319000005722 0.118000000715 1177.0
0.949000000954 0.312000006437 0.118000000715 1171.0
0.952000021935 0.305999994278 0.118000000715 1164.0
0.957000017166 0.301999986172 0.118000000715 1160.0
0.957000017166 0.296000003815 0.118000000715 1170.0
0.95300000906 0.287999987602 0.118000000715 1170.0
0.953999996185 0.282000005245 0.116999998689 1170.0
0.958000004292 0.277000010014 0.118000000715 1188.0
0.958000004292 0.270999997854 0.118000000715 1195.0
0.955999970436 0.264999985695 0.116999998689 1204.0
0.952000021935 0.25799998641 0.116999998689 1232.0
0.952000021935 0.252000004053 0.116999998689 1259.0
0.954999983311 0.24699999392 0.116999998689 1244.0
0.959999978542 0.241999998689 0.116999998689 1241.0
0.961000025272 0.236000001431 0.116999998689 1271.0
0.957000017166 0.229000002146 0.116999998689 1280.0
0.961000025272 0.224000006914 0.116999998689 1322.0
0.961000025272 0.217999994755 0.116999998689 1337.0
0.958999991417 0.211999997497 0.116999998689 1320.0
0.958000004292 0.206000000238 0.115999996662 1363.0
0.958999991417 0.20000000298 0.115999996662 1387.0
0.959999978542 0.194999992847 0.116999998689 1398.0
0.958000004292 0.188999995589 0.115999996662 1428.0
0.957000017166 0.182999998331 0.115999996662 1422.0
0.957000017166 0.177000001073 0.115999996662 1433.0
0.957000017166 0.171000003815 0.115999996662 1522.0
0.958999991417 0.165999993682 0.115999996662 1484.0
0.957000017166 0.159999996424 0.115999996662 1434.0
0.957000017166 0.153999999166 0.115999996662 1426.0
0.963999986649 0.149000003934 0.115999996662 1427.0
0.959999978542 0.143000006676 0.115999996662 1432.0
0.967000007629 0.137999996543 0.116999998689 1452.0
0.962999999523 0.131999999285 0.115999996662 1516.0
0.967999994755 0.127000004053 0.116999998689 1512.0
0.964999973774 0.120999999344 0.115999996662 1533.0
0.964999973774 0.115000002086 0.115999996662 1555.0
0.966000020504 0.109999999404 0.115999996662 1589.0
0.963999986649 0.104000002146 0.115999996662 1625.0
0.964999973774 0.0989999994636 0.115999996662 1605.0
0.962000012398 0.0930000022054 0.115999996662 1628.0
0.963999986649 0.0869999974966 0.115999996662 1671.0
0.96899998188 0.082000002265 0.116999998689 1676.0
0.964999973774 0.0759999975562 0.115999996662 1653.0
0.967000007629 0.0710000023246 0.115999996662 1683.0
0.964999973774 0.0649999976158 0.115999996662 1733.0
0.967000007629 0.0590000003576 0.115999996662 1776.0
0.964999973774 0.0540000014007 0.115999996662 1821.0
0.967999994755 0.0480000004172 0.115999996662 1849.0
0.967000007629 0.0430000014603 0.115999996662 1854.0
0.97000002861 0.0370000004768 0.116999998689 1842.0
0.964999973774 0.0309999994934 0.115999996662 1825.0
0.967000007629 0.0260000005364 0.115999996662 1609.0
0.991999983788 0.0209999997169 0.119000002742 312.0
1.02900004387 -0.0659999996424 0.123999997973 336.0
1.00999999046 -0.0710000023246 0.122000001371 976.0
1.00999999046 -0.0769999995828 0.122000001371 295.0
0.976999998093 -0.0799999982119 0.118000000715 165.0
0.971000015736 -0.0850000008941 0.118000000715 153.0
0.985000014305 -0.0920000001788 0.119000002742 163.0
0.986000001431 -0.097999997437 0.119999997318 162.0
0.990000009537 -0.104000002146 0.119999997318 161.0
0.967999994755 -0.107000000775 0.118000000715 167.0
0.975000023842 -0.11400000006 0.118000000715 164.0
0.962999999523 -0.118000000715 0.116999998689 171.0
0.958000004292 -0.123000003397 0.116999998689 168.0
0.96899998188 -0.129999995232 0.118000000715 165.0
0.961000025272 -0.135000005364 0.116999998689 173.0
0.958000004292 -0.140000000596 0.116999998689 176.0
0.966000020504 -0.146999999881 0.118000000715 214.0
0.981000006199 -0.155000001192 0.119999997318 962.0
0.981000006199 -0.16099999845 0.119999997318 1300.0
0.981999993324 -0.166999995708 0.119999997318 1308.0
0.977999985218 -0.172000005841 0.119999997318 1317.0
0.973999977112 -0.177000001073 0.119999997318 1328.0
0.976000010967 -0.182999998331 0.119999997318 1339.0
0.971000015736 -0.187999993563 0.119999997318 1338.0
0.96899998188 -0.194000005722 0.119000002742 1350.0
0.972000002861 -0.20000000298 0.119999997318 1362.0
0.971000015736 -0.206000000238 0.119999997318 1371.0
0.966000020504 -0.21099999547 0.119000002742 1361.0
0.961000025272 -0.216000005603 0.119000002742 1372.0
0.962000012398 -0.222000002861 0.119000002742 1384.0
0.958000004292 -0.226999998093 0.119000002742 1403.0
0.953999996185 -0.231999993324 0.119000002742 1030.0
0.944999992847 -0.234999999404 0.118000000715 273.0
0.931999981403 -0.238000005484 0.115999996662 206.0
0.934000015259 -0.244000002742 0.116999998689 210.0
0.940999984741 -0.252000004053 0.118000000715 205.0
0.938000023365 -0.256999999285 0.118000000715 206.0
0.930999994278 -0.261000007391 0.116999998689 210.0
0.930000007153 -0.266999989748 0.116999998689 216.0
0.924000024796 -0.270999997854 0.115999996662 215.0
0.925999999046 -0.277000010014 0.116999998689 217.0
0.941999971867 -0.287999987602 0.119000002742 215.0
0.916999995708 -0.286000013351 0.115999996662 214.0
0.920000016689 -0.293000012636 0.116999998689 219.0
0.919000029564 -0.298999994993 0.116999998689 212.0
0.922999978065 -0.305999994278 0.118000000715 239.0
0.930000007153 -0.314999997616 0.119000002742 1101.0
0.930999994278 -0.321999996901 0.119000002742 1495.0
0.926999986172 -0.326000005007 0.119000002742 1507.0
0.927999973297 -0.333000004292 0.119000002742 1527.0
0.925999999046 -0.337999999523 0.119000002742 1545.0
0.920000016689 -0.342000007629 0.119000002742 1539.0
0.921000003815 -0.349000006914 0.119000002742 1540.0
0.913999974728 -0.352999985218 0.118000000715 1560.0
0.915000021458 -0.358999997377 0.119000002742 1547.0
0.907999992371 -0.363000005484 0.118000000715 1556.0
0.911000013351 -0.370999991894 0.119000002742 1560.0
0.915000021458 -0.379000008106 0.119999997318 1558.0
0.908999979496 -0.38299998641 0.119000002742 1578.0
0.911000013351 -0.389999985695 0.119999997318 1562.0
0.903999984264 -0.393999993801 0.119000002742 910.0
0.889999985695 -0.393999993801 0.118000000715 270.0
0.870999991894 -0.391999989748 0.115000002086 219.0
0.853999972343 -0.389999985695 0.112999998033 208.0
0.851999998093 -0.395000010729 0.112999998033 215.0
0.867999970913 -0.409000009298 0.115999996662 214.0
0.842999994755 -0.404000014067 0.112999998033 215.0
0.871999979019 -0.423999994993 0.116999998689 219.0
0.861000001431 -0.425000011921 0.115999996662 220.0
0.850000023842 -0.426999986172 0.115000002086 218.0
0.865000009537 -0.441000014544 0.116999998689 214.0
0.850000023842 -0.439999997616 0.115000002086 205.0
0.870999991894 -0.458000004292 0.119000002742 209.0
0.848999977112 -0.45300000906 0.115999996662 257.0
0.870999991894 -0.472000002861 0.119000002742 1240.0
0.875999987125 -0.481999993324 0.120999999344 1590.0
0.875 -0.488000005484 0.120999999344 1629.0
0.93900001049 0.541999995708 0.119000002742 1052.0
0.943000018597 0.537000000477 0.119000002742 1049.0
0.944000005722 0.52999997139 0.119000002742 1053.0
0.943000018597 0.521000027657 0.119000002742 1047.0
0.936999976635 0.509999990463 0.118000000715 1051.0
0.943000018597 0.505999982357 0.118000000715 1052.0
0.943000018597 0.497999995947 0.118000000715 1058.0
0.945999979973 0.493000000715 0.118000000715 1063.0
0.941999971867 0.483000010252 0.116999998689 1057.0
0.943000018597 0.476000010967 0.116999998689 1062.0
0.943000018597 0.469000011683 0.115999996662 1052.0
0.944999992847 0.462999999523 0.116999998689 1052.0
0.947000026703 0.456999987364 0.115999996662 1059.0
0.947000026703 0.449000000954 0.115999996662 1070.0
0.947000026703 0.442000001669 0.115999996662 1062.0
0.947000026703 0.435000002384 0.115999996662 1070.0
0.944000005722 0.426999986172 0.115000002086 1067.0
0.948000013828 0.42199999094 0.115000002086 1083.0
0.947000026703 0.414999991655 0.115000002086 1069.0
0.950999975204 0.409999996424 0.115000002086 1078.0
0.949000000954 0.402000010014 0.115000002086 1069.0
0.948000013828 0.395000010729 0.11400000006 1085.0
0.948000013828 0.388000011444 0.11400000006 1094.0
0.952000021935 0.38299998641 0.11400000006 1089.0
0.945999979973 0.374000012875 0.112999998033 1097.0
0.949000000954 0.368999987841 0.11400000006 1101.0
0.945999979973 0.361000001431 0.112999998033 1106.0
0.949999988079 0.356000006199 0.112999998033 1104.0
0.949999988079 0.34999999404 0.112999998033 1099.0
0.952000021935 0.344000011683 0.112999998033 1111.0
0.954999983311 0.338999986649 0.112999998033 1115.0
0.949000000954 0.330000013113 0.112000003457 1106.0
0.950999975204 0.324999988079 0.112000003457 1120.0
0.958000004292 0.321000009775 0.112999998033 1135.0
0.958000004292 0.314999997616 0.112999998033 1128.0
0.959999978542 0.308999985456 0.112999998033 1124.0
0.958000004292 0.301999986172 0.112999998033 1141.0
0.953999996185 0.294999986887 0.112000003457 1148.0
0.963999986649 0.291000008583 0.112999998033 1130.0
0.954999983311 0.282999992371 0.112000003457 1148.0
0.958999991417 0.277999997139 0.112000003457 1143.0
0.955999970436 0.270999997854 0.112000003457 1142.0
0.962000012398 0.266000002623 0.112000003457 1156.0
0.958000004292 0.259000003338 0.112000003457 1167.0
0.961000025272 0.254000008106 0.112000003457 1181.0
0.959999978542 0.247999995947 0.112000003457 1206.0
0.955999970436 0.240999996662 0.111000001431 1221.0
0.958999991417 0.234999999404 0.111000001431 1253.0
0.963999986649 0.231000006199 0.112000003457 1254.0
0.959999978542 0.224000006914 0.111000001431 1287.0
0.959999978542 0.217999994755 0.111000001431 1257.0
0.961000025272 0.211999997497 0.111000001431 1268.0
0.955999970436 0.204999998212 0.109999999404 1298.0
0.962000012398 0.201000005007 0.111000001431 1306.0
0.959999978542 0.194999992847 0.111000001431 1309.0
0.967000007629 0.189999997616 0.111000001431 1300.0
0.958999991417 0.182999998331 0.109999999404 1276.0
0.966000020504 0.178000003099 0.111000001431 1288.0
0.958999991417 0.171000003815 0.109999999404 1306.0
0.964999973774 0.166999995708 0.111000001431 1284.0
0.963999986649 0.16099999845 0.111000001431 1272.0
0.966000020504 0.155000001192 0.111000001431 1283.0
0.96899998188 0.15000000596 0.111000001431 1301.0
0.967999994755 0.143999993801 0.111000001431 1308.0
0.967000007629 0.137999996543 0.111000001431 1326.0
0.966000020504 0.131999999285 0.111000001431 1364.0
0.964999973774 0.127000004053 0.111000001431 1382.0
0.97000002861 0.122000001371 0.111000001431 1395.0
0.96899998188 0.115999996662 0.111000001431 1412.0
0.96899998188 0.109999999404 0.111000001431 1409.0
0.96899998188 0.104000002146 0.111000001431 1422.0
0.971000015736 0.0989999994636 0.111000001431 1470.0
0.96899998188 0.0930000022054 0.111000001431 1463.0
0.97000002861 0.0879999995232 0.111000001431 1464.0
0.96899998188 0.082000002265 0.111000001431 1438.0
0.97000002861 0.0759999975562 0.111000001431 1444.0
0.971000015736 0.0710000023246 0.111000001431 1470.0
0.975000023842 0.0649999976158 0.111000001431 1490.0
0.971000015736 0.0599999986589 0.111000001431 1543.0
0.971000015736 0.0540000014007 0.111000001431 1560.0
0.971000015736 0.0480000004172 0.111000001431 1590.0
0.967999994755 0.0430000014603 0.111000001431 1597.0
0.972999989986 0.0370000004768 0.111000001431 1589.0
0.971000015736 0.0320000015199 0.111000001431 1582.0
0.972000002861 0.0260000005364 0.111000001431 1436.0
0.987999975681 0.0209999997169 0.112999998033 321.0
1.01800000668 -0.0659999996424 0.116999998689 360.0
1.00300002098 -0.070000000298 0.115000002086 1021.0
1.01100003719 -0.0769999995828 0.115999996662 536.0
1.00899994373 -0.082999996841 0.115999996662 469.0
0.996999979019 -0.0869999974966 0.115000002086 472.0
1.00999999046 -0.0939999967813 0.116999998689 485.0
1.0 -0.0989999994636 0.115000002086 506.0
1.0039999485 -0.105999998748 0.115999996662 515.0
0.995999991894 -0.111000001431 0.115000002086 533.0
0.989000022411 -0.115999996662 0.11400000006 545.0
0.991999983788 -0.122000001371 0.115000002086 549.0
0.994000017643 -0.12800000608 0.115000002086 559.0
0.987999975681 -0.133000001311 0.115000002086 570.0
0.990999996662 -0.138999998569 0.115000002086 585.0
0.990000009537 -0.144999995828 0.115000002086 595.0
0.98299998045 -0.15000000596 0.11400000006 605.0
0.980000019073 -0.155000001192 0.11400000006 750.0
0.981000006199 -0.16099999845 0.11400000006 834.0
0.977999985218 -0.165999993682 0.11400000006 830.0
0.976000010967 -0.172000005841 0.11400000006 826.0
0.97000002861 -0.175999999046 0.112999998033 834.0
0.972000002861 -0.182999998331 0.11400000006 842.0
0.972000002861 -0.187999993563 0.11400000006 846.0
0.967999994755 -0.193000003695 0.11400000006 846.0
0.966000020504 -0.199000000954 0.112999998033 858.0
0.962000012398 -0.203999996185 0.112999998033 871.0
0.962999999523 -0.209999993443 0.112999998033 858.0
0.957000017166 -0.215000003576 0.112999998033 878.0
0.957000017166 -0.219999998808 0.112999998033 883.0
0.957000017166 -0.225999996066 0.112999998033 890.0
0.954999983311 -0.231999993324 0.112999998033 834.0
0.958999991417 -0.238999992609 0.11400000006 688.0
0.95300000906 -0.243000000715 0.112999998033 692.0
0.955999970436 -0.25 0.11400000006 684.0
0.93900001049 -0.250999987125 0.112000003457 671.0
0.940999984741 -0.25799998641 0.112000003457 669.0
0.947000026703 -0.264999985695 0.112999998033 658.0
0.949000000954 -0.272000014782 0.11400000006 675.0
0.940999984741 -0.275999993086 0.112999998033 665.0
0.944999992847 -0.282999992371 0.11400000006 655.0
0.939999997616 -0.287000000477 0.112999998033 647.0
0.935000002384 -0.291999995708 0.112999998033 630.0
0.927999973297 -0.296000003815 0.112000003457 624.0
0.936999976635 -0.305000007153 0.112999998033 618.0
0.929000020027 -0.307999998331 0.112999998033 609.0
0.922999978065 -0.312000006437 0.112000003457 932.0
0.929000020027 -0.321000009775 0.112999998033 1101.0
0.924000024796 -0.324999988079 0.112999998033 1126.0
0.922999978065 -0.331000000238 0.112999998033 1159.0
0.917999982834 -0.335000008345 0.112000003457 1180.0
0.916000008583 -0.340999990702 0.112000003457 1185.0
0.915000021458 -0.347000002861 0.112999998033 1225.0
0.916000008583 -0.352999985218 0.112999998033 1242.0
0.915000021458 -0.358999997377 0.112999998033 1259.0
0.913999974728 -0.365000009537 0.112999998033 1273.0
0.907999992371 -0.368999987841 0.112999998033 1285.0
0.907999992371 -0.375 0.112999998033 1301.0
0.907999992371 -0.381999999285 0.112999998033 1326.0
0.902999997139 -0.386000007391 0.112999998033 1326.0
0.902000010014 -0.391999989748 0.112999998033 900.0
0.896000027657 -0.395999997854 0.112999998033 457.0
0.888999998569 -0.40000000596 0.112000003457 425.0
0.89099997282 -0.407000005245 0.112999998033 413.0
0.89200001955 -0.41400000453 0.112999998033 396.0
0.89099997282 -0.419999986887 0.112999998033 394.0
0.888999998569 -0.425999999046 0.112999998033 378.0
0.880999982357 -0.428999990225 0.112999998033 375.0
0.884000003338 -0.437000006437 0.112999998033 349.0
0.864000022411 -0.433999985456 0.111000001431 346.0
0.875999987125 -0.446000009775 0.112999998033 333.0
0.870000004768 -0.449999988079 0.112000003457 324.0
0.869000017643 -0.456999987364 0.112999998033 307.0
0.865999996662 -0.462000012398 0.112999998033 339.0
0.871999979019 -0.472000002861 0.11400000006 1170.0
0.871999979019 -0.479000002146 0.11400000006 1511.0
0.875999987125 -0.488000005484 0.115000002086 1556.0
0.941999971867 0.544000029564 0.112999998033 1030.0
0.945999979973 0.537999987602 0.112999998033 1039.0
0.943000018597 0.527999997139 0.112999998033 1023.0
0.941999971867 0.519999980927 0.112000003457 1023.0
0.949000000954 0.51599997282 0.112999998033 1027.0
0.944000005722 0.505999982357 0.112000003457 1016.0
0.943000018597 0.497999995947 0.112000003457 1012.0
0.948000013828 0.493000000715 0.112000003457 993.0
0.949999988079 0.486999988556 0.112000003457 994.0
0.943000018597 0.476000010967 0.111000001431 999.0
0.949999988079 0.472000002861 0.111000001431 1009.0
0.949000000954 0.465000003576 0.111000001431 998.0
0.949000000954 0.458000004292 0.111000001431 999.0
0.945999979973 0.449000000954 0.109999999404 1008.0
0.949000000954 0.442999988794 0.109999999404 995.0
0.948000013828 0.43599998951 0.109999999404 995.0
0.944999992847 0.426999986172 0.108999997377 995.0
0.952000021935 0.423999994993 0.109999999404 996.0
0.95300000906 0.416999995708 0.109999999404 988.0
0.954999983311 0.411000013351 0.109999999404 991.0
0.955999970436 0.405000001192 0.108999997377 982.0
0.948000013828 0.395000010729 0.108000002801 1005.0
0.957000017166 0.391000002623 0.108999997377 1014.0
0.95300000906 0.38299998641 0.108999997377 1005.0
0.95300000906 0.377000004053 0.108000002801 995.0
0.958000004292 0.372000008821 0.108999997377 1006.0
0.954999983311 0.363999992609 0.108000002801 986.0
0.955999970436 0.358000010252 0.108000002801 977.0
0.962000012398 0.354000002146 0.108999997377 986.0
0.958000004292 0.345999985933 0.108000002801 1000.0
0.955999970436 0.338999986649 0.108000002801 1003.0
0.958000004292 0.333000004292 0.108000002801 1002.0
0.962999999523 0.32800000906 0.108000002801 997.0
0.962000012398 0.321999996901 0.108000002801 1004.0
0.964999973774 0.317000001669 0.108000002801 996.0
0.962000012398 0.308999985456 0.107000000775 994.0
0.958000004292 0.301999986172 0.107000000775 1000.0
0.966000020504 0.298000007868 0.108000002801 1003.0
0.964999973774 0.291999995708 0.107000000775 993.0
0.962999999523 0.284999996424 0.107000000775 999.0
0.964999973774 0.279000014067 0.107000000775 989.0
0.963999986649 0.273000001907 0.107000000775 997.0
0.96899998188 0.268000006676 0.107000000775 1030.0
0.963999986649 0.261000007391 0.107000000775 1032.0
0.964999973774 0.254999995232 0.107000000775 1026.0
0.96899998188 0.25 0.107000000775 1045.0
0.959999978542 0.240999996662 0.105999998748 1063.0
0.967000007629 0.237000003457 0.107000000775 1068.0
0.966000020504 0.231000006199 0.105999998748 1075.0
0.966000020504 0.22499999404 0.105999998748 1082.0
0.963999986649 0.218999996781 0.105999998748 1104.0
0.971000015736 0.21400000155 0.107000000775 1097.0
0.967999994755 0.208000004292 0.105999998748 1108.0
0.962000012398 0.201000005007 0.104999996722 1127.0
0.963999986649 0.194999992847 0.104999996722 1158.0
0.975000023842 0.192000001669 0.107000000775 1150.0
0.967999994755 0.184000000358 0.105999998748 1107.0
0.97000002861 0.179000005126 0.105999998748 1078.0
0.97000002861 0.172999992967 0.105999998748 1086.0
0.96899998188 0.166999995708 0.105999998748 1084.0
0.976000010967 0.163000002503 0.105999998748 1083.0
0.973999977112 0.156000003219 0.105999998748 1086.0
0.972999989986 0.150999993086 0.105999998748 1102.0
0.971000015736 0.143999993801 0.105999998748 1108.0
0.976000010967 0.138999998569 0.105999998748 1127.0
0.981999993324 0.135000005364 0.107000000775 1146.0
0.977999985218 0.12800000608 0.105999998748 1155.0
0.977999985218 0.122000001371 0.105999998748 1163.0
0.973999977112 0.115999996662 0.105999998748 1165.0
0.972000002861 0.109999999404 0.105999998748 1162.0
0.980000019073 0.105999998748 0.105999998748 1149.0
0.973999977112 0.0989999994636 0.105999998748 1165.0
0.973999977112 0.0939999967813 0.105999998748 1144.0
0.976999998093 0.0879999995232 0.105999998748 1164.0
0.977999985218 0.082999996841 0.105999998748 1144.0
0.978999972343 0.0769999995828 0.105999998748 1138.0
0.976000010967 0.0710000023246 0.105999998748 1123.0
0.972999989986 0.0649999976158 0.105999998748 1131.0
0.973999977112 0.0599999986589 0.105999998748 1159.0
0.980000019073 0.0540000014007 0.105999998748 1172.0
0.976000010967 0.0489999987185 0.105999998748 1191.0
0.976000010967 0.0430000014603 0.105999998748 1192.0
0.978999972343 0.0370000004768 0.105999998748 1191.0
0.98299998045 0.0320000015199 0.107000000775 1178.0
0.98400002718 0.0260000005364 0.107000000775 1082.0
1.00100004673 0.0209999997169 0.108999997377 248.0
1.01999998093 -0.0659999996424 0.111000001431 370.0
1.00899994373 -0.0710000023246 0.109999999404 1120.0
1.00999999046 -0.0769999995828 0.109999999404 1164.0
1.00199997425 -0.082000002265 0.109999999404 1168.0
1.00300002098 -0.0879999995232 0.109999999404 1171.0
1.00199997425 -0.0939999967813 0.109999999404 1186.0
1.00199997425 -0.10000000149 0.109999999404 1204.0
0.995999991894 -0.104999996722 0.108999997377 1199.0
0.995999991894 -0.109999999404 0.108999997377 1215.0
0.990999996662 -0.115999996662 0.108999997377 1230.0
0.998000025749 -0.122000001371 0.109999999404 1240.0
0.992999970913 -0.12800000608 0.108999997377 1242.0
0.987999975681 -0.133000001311 0.108999997377 1248.0
0.990999996662 -0.138999998569 0.108999997377 1265.0
0.990999996662 -0.144999995828 0.108999997377 1276.0
0.987999975681 -0.15000000596 0.108999997377 1228.0
0.992999970913 -0.157000005245 0.109999999404 474.0
0.967000007629 -0.158000007272 0.107000000775 189.0
0.97000002861 -0.165000006557 0.107000000775 188.0
0.944000005722 -0.165999993682 0.104999996722 186.0
0.940999984741 -0.171000003815 0.104000002146 184.0
0.953999996185 -0.179000005126 0.105999998748 183.0
0.949000000954 -0.184000000358 0.104999996722 193.0
0.944999992847 -0.188999995589 0.104999996722 189.0
0.954999983311 -0.196999996901 0.107000000775 192.0
0.972999989986 -0.206000000238 0.108999997377 198.0
0.93599998951 -0.203999996185 0.104999996722 197.0
0.940999984741 -0.21099999547 0.104999996722 197.0
0.93900001049 -0.216000005603 0.104999996722 200.0
0.952000021935 -0.22499999404 0.107000000775 210.0
0.95300000906 -0.231000006199 0.107000000775 539.0
0.952000021935 -0.237000003457 0.107000000775 1316.0
0.947000026703 -0.241999998689 0.107000000775 1424.0
0.950999975204 -0.247999995947 0.107000000775 1438.0
0.95300000906 -0.254999995232 0.108000002801 1427.0
0.950999975204 -0.259999990463 0.108000002801 1429.0
0.947000026703 -0.264999985695 0.107000000775 1448.0
0.941999971867 -0.270000010729 0.107000000775 1448.0
0.943000018597 -0.275999993086 0.107000000775 1440.0
0.93900001049 -0.280999988317 0.107000000775 1444.0
0.93599998951 -0.286000013351 0.107000000775 1449.0
0.939999997616 -0.293000012636 0.108000002801 1452.0
0.930000007153 -0.296000003815 0.107000000775 1448.0
0.935000002384 -0.303999990225 0.107000000775 1448.0
0.935000002384 -0.310000002384 0.108000002801 1434.0
0.921000003815 -0.312000006437 0.105999998748 623.0
0.920000016689 -0.317000001669 0.105999998748 299.0
0.929000020027 -0.326999992132 0.108000002801 281.0
0.916999995708 -0.328999996185 0.105999998748 287.0
0.902999997139 -0.328999996185 0.104999996722 298.0
0.915000021458 -0.340000003576 0.107000000775 304.0
0.931999981403 -0.352999985218 0.108999997377 315.0
0.916000008583 -0.352999985218 0.107000000775 323.0
0.913999974728 -0.358000010252 0.107000000775 331.0
0.902000010014 -0.360000014305 0.105999998748 354.0
0.898000001907 -0.365000009537 0.105999998748 358.0
0.910000026226 -0.375999987125 0.108000002801 384.0
0.901000022888 -0.379000008106 0.107000000775 396.0
0.908999979496 -0.388999998569 0.108000002801 413.0
0.897000014782 -0.389999985695 0.107000000775 869.0
0.899999976158 -0.398000001907 0.107000000775 1243.0
0.893999993801 -0.400999993086 0.107000000775 1276.0
0.897000014782 -0.409000009298 0.108000002801 1246.0
0.896000027657 -0.416000008583 0.108000002801 1219.0
0.893999993801 -0.42199999094 0.108000002801 1171.0
0.893000006676 -0.428000003099 0.108000002801 1140.0
0.884999990463 -0.430000007153 0.107000000775 1104.0
0.887000024319 -0.437999993563 0.108000002801 1088.0
0.883000016212 -0.442999988794 0.108000002801 1052.0
0.879000008106 -0.448000013828 0.108000002801 1024.0
0.879999995232 -0.455000013113 0.108000002801 1001.0
0.879999995232 -0.462000012398 0.108999997377 968.0
0.875999987125 -0.467000007629 0.108000002801 935.0
0.870999991894 -0.470999985933 0.108000002801 875.0
0.865000009537 -0.47499999404 0.108000002801 940.0
0.874000012875 -0.486999988556 0.108999997377 966.0
0.945999979973 0.545000016689 0.108000002801 950.0
0.950999975204 0.540000021458 0.108000002801 927.0
0.947000026703 0.52999997139 0.107000000775 929.0
0.949000000954 0.523999989033 0.107000000775 921.0
0.948000013828 0.51599997282 0.107000000775 923.0
0.948000013828 0.508000016212 0.105999998748 903.0
0.949000000954 0.500999987125 0.105999998748 903.0
0.945999979973 0.49200001359 0.104999996722 907.0
0.95300000906 0.488000005484 0.105999998748 890.0
0.958000004292 0.483000010252 0.105999998748 892.0
0.953999996185 0.474000006914 0.105999998748 876.0
0.950999975204 0.465000003576 0.104999996722 880.0
0.954999983311 0.460000008345 0.104999996722 867.0
0.958000004292 0.453999996185 0.104999996722 876.0
0.958000004292 0.446999996901 0.104999996722 877.0
0.955999970436 0.43900001049 0.104999996722 870.0
0.958000004292 0.432999998331 0.104999996722 857.0
0.957000017166 0.425999999046 0.104000002146 876.0
0.95300000906 0.416999995708 0.104000002146 872.0
0.958000004292 0.412000000477 0.104000002146 859.0
0.958000004292 0.405000001192 0.104000002146 859.0
0.962000012398 0.40000000596 0.104000002146 867.0
0.958999991417 0.391999989748 0.103000000119 863.0
0.962999999523 0.386999994516 0.104000002146 869.0
0.962999999523 0.379999995232 0.103000000119 855.0
0.963999986649 0.374000012875 0.103000000119 856.0
0.958999991417 0.365999996662 0.103000000119 836.0
0.962999999523 0.361000001431 0.103000000119 833.0
0.962000012398 0.354000002146 0.103000000119 829.0
0.97000002861 0.34999999404 0.103000000119 833.0
0.964999973774 0.342000007629 0.103000000119 838.0
0.959999978542 0.333999991417 0.101999998093 823.0
0.972999989986 0.331999987364 0.103000000119 807.0
0.966000020504 0.323000013828 0.101999998093 808.0
0.967000007629 0.317000001669 0.101999998093 791.0
0.972000002861 0.312000006437 0.103000000119 801.0
0.971000015736 0.305999994278 0.101999998093 791.0
0.972999989986 0.300000011921 0.103000000119 801.0
0.971000015736 0.293000012636 0.101999998093 787.0
0.967999994755 0.286000013351 0.101999998093 775.0
0.971000015736 0.280999988317 0.101999998093 775.0
0.977999985218 0.275999993086 0.101999998093 781.0
0.967000007629 0.266999989748 0.101000003517 773.0
0.978999972343 0.264999985695 0.101999998093 784.0
0.977999985218 0.25799998641 0.101999998093 786.0
0.975000023842 0.250999987125 0.101999998093 793.0
0.973999977112 0.245000004768 0.101999998093 803.0
0.973999977112 0.238999992609 0.101999998093 797.0
0.976000010967 0.232999995351 0.101999998093 822.0
0.972000002861 0.225999996066 0.101000003517 829.0
0.980000019073 0.222000002861 0.101999998093 834.0
0.975000023842 0.215000003576 0.101000003517 835.0
0.977999985218 0.209999993443 0.101000003517 850.0
0.973999977112 0.202999994159 0.101000003517 818.0
0.976999998093 0.197999998927 0.101000003517 793.0
0.98299998045 0.193000003695 0.101999998093 794.0
0.981999993324 0.187000006437 0.101999998093 766.0
0.986000001431 0.181999996305 0.101999998093 764.0
0.986000001431 0.175999999046 0.101999998093 754.0
0.980000019073 0.168999999762 0.101000003517 758.0
0.981999993324 0.163000002503 0.101000003517 775.0
0.981999993324 0.158000007272 0.101000003517 748.0
0.980000019073 0.150999993086 0.101000003517 745.0
0.98400002718 0.145999997854 0.101000003517 756.0
0.986999988556 0.141000002623 0.101999998093 753.0
0.981000006199 0.134000003338 0.101000003517 760.0
0.981000006199 0.128999993205 0.101000003517 757.0
0.986999988556 0.123000003397 0.101999998093 765.0
0.986000001431 0.118000000715 0.101000003517 775.0
0.987999975681 0.112000003457 0.101999998093 766.0
0.98400002718 0.105999998748 0.101000003517 758.0
0.986999988556 0.101000003517 0.101000003517 759.0
0.994000017643 0.0949999988079 0.101999998093 768.0
0.987999975681 0.0890000015497 0.101000003517 769.0
0.994000017643 0.0839999988675 0.101999998093 771.0
0.992999970913 0.0780000016093 0.101999998093 755.0
0.986999988556 0.0719999969006 0.101000003517 755.0
0.991999983788 0.0659999996424 0.101999998093 759.0
0.987999975681 0.0599999986589 0.101000003517 746.0
0.986000001431 0.054999999702 0.101000003517 754.0
0.985000014305 0.0489999987185 0.101000003517 767.0
0.987999975681 0.0430000014603 0.101000003517 759.0
0.981999993324 0.0370000004768 0.101000003517 764.0
0.986000001431 0.0320000015199 0.101000003517 737.0
0.98299998045 0.0260000005364 0.101000003517 659.0
1.01499998569 0.0209999997169 0.104000002146 243.0
1.02400004864 -0.0659999996424 0.105999998748 387.0
1.01499998569 -0.0710000023246 0.104999996722 1131.0
1.0039999485 -0.0759999975562 0.104000002146 1181.0
1.01100003719 -0.082999996841 0.104999996722 1197.0
1.00300002098 -0.0879999995232 0.104000002146 1200.0
1.00499999523 -0.0939999967813 0.104000002146 1225.0
0.999000012875 -0.0989999994636 0.104000002146 1216.0
0.999000012875 -0.104999996722 0.104000002146 1218.0
0.996999979019 -0.111000001431 0.104000002146 1236.0
0.999000012875 -0.116999998689 0.104000002146 1253.0
0.991999983788 -0.122000001371 0.103000000119 1255.0
0.986999988556 -0.127000004053 0.103000000119 1256.0
0.990000009537 -0.133000001311 0.103000000119 1268.0
0.986000001431 -0.137999996543 0.103000000119 1288.0
0.981999993324 -0.143999993801 0.103000000119 1287.0
0.986999988556 -0.15000000596 0.103000000119 1241.0
0.975000023842 -0.153999999166 0.101999998093 462.0
0.949999988079 -0.156000003219 0.0989999994636 174.0
0.93900001049 -0.158999994397 0.097999997437 167.0
0.957000017166 -0.167999997735 0.10000000149 174.0
0.954999983311 -0.173999994993 0.10000000149 178.0
0.963999986649 -0.180999994278 0.101000003517 182.0
0.947000026703 -0.182999998331 0.10000000149 175.0
0.935000002384 -0.187000006437 0.0989999994636 180.0
0.927999973297 -0.190999999642 0.097999997437 183.0
0.93900001049 -0.199000000954 0.0989999994636 181.0
0.957000017166 -0.209000006318 0.101000003517 184.0
0.954999983311 -0.21400000155 0.101000003517 189.0
0.949000000954 -0.217999994755 0.101000003517 193.0
0.939999997616 -0.222000002861 0.10000000149 197.0
0.962999999523 -0.233999997377 0.103000000119 519.0
0.958000004292 -0.238000005484 0.101999998093 1346.0
0.958000004292 -0.244000002742 0.101999998093 1436.0
0.957000017166 -0.25 0.101999998093 1467.0
0.952000021935 -0.254999995232 0.101999998093 1465.0
0.949999988079 -0.259999990463 0.101999998093 1469.0
0.949000000954 -0.266000002623 0.101999998093 1467.0
0.945999979973 -0.270999997854 0.101999998093 1485.0
0.944000005722 -0.275999993086 0.101999998093 1498.0
0.93900001049 -0.280999988317 0.101000003517 1492.0
0.941999971867 -0.287999987602 0.101999998093 1509.0
0.938000023365 -0.291999995708 0.101999998093 1510.0
0.93900001049 -0.298999994993 0.101999998093 1515.0
0.93599998951 -0.303999990225 0.101999998093 1514.0
0.933000028133 -0.308999985456 0.101999998093 1515.0
0.922999978065 -0.312000006437 0.101000003517 641.0
0.908999979496 -0.312999993563 0.10000000149 227.0
0.90499997139 -0.317999988794 0.0989999994636 206.0
0.897000014782 -0.321000009775 0.0989999994636 206.0
0.884999990463 -0.323000013828 0.097000002861 214.0
0.898999989033 -0.333999991417 0.0989999994636 209.0
0.907999992371 -0.344000011683 0.10000000149 216.0
0.883000016212 -0.340000003576 0.097999997437 210.0
0.89200001955 -0.34999999404 0.0989999994636 214.0
0.898000001907 -0.358000010252 0.10000000149 214.0
0.889999985695 -0.361000001431 0.0989999994636 216.0
0.867999970913 -0.358000010252 0.097000002861 211.0
0.875 -0.36700001359 0.097999997437 216.0
0.873000025749 -0.372999995947 0.097999997437 220.0
0.898999989033 -0.389999985695 0.101000003517 777.0
0.902999997139 -0.398999989033 0.101999998093 1532.0
0.898999989033 -0.402999997139 0.101999998093 1611.0
0.897000014782 -0.409000009298 0.101999998093 1603.0
0.896000027657 -0.416000008583 0.101999998093 1605.0
0.896000027657 -0.42199999094 0.101999998093 1609.0
0.894999980927 -0.428000003099 0.103000000119 1630.0
0.89200001955 -0.433999985456 0.103000000119 1607.0
0.887000024319 -0.437999993563 0.101999998093 1601.0
0.887000024319 -0.444999992847 0.103000000119 1600.0
0.884999990463 -0.449999988079 0.103000000119 1613.0
0.882000029087 -0.456000000238 0.103000000119 1596.0
0.884999990463 -0.463999986649 0.103000000119 1589.0
0.882000029087 -0.469999998808 0.103000000119 1569.0
0.874000012875 -0.472000002861 0.103000000119 675.0
0.851000010967 -0.467000007629 0.10000000149 324.0
0.861999988556 -0.479999989271 0.101999998093 302.0
0.952000021935 0.547999978065 0.101999998093 769.0
0.958999991417 0.545000016689 0.101999998093 741.0
0.953999996185 0.533999979496 0.101999998093 729.0
0.962000012398 0.53100001812 0.101999998093 731.0
0.958000004292 0.521000027657 0.101000003517 733.0
0.962999999523 0.51599997282 0.101999998093 705.0
0.961000025272 0.507000029087 0.101000003517 699.0
0.963999986649 0.500999987125 0.101000003517 677.0
0.953999996185 0.488000005484 0.10000000149 670.0
0.955999970436 0.481999993324 0.10000000149 663.0
0.954999983311 0.474000006914 0.10000000149 651.0
0.959999978542 0.469000011683 0.10000000149 638.0
0.966000020504 0.465000003576 0.10000000149 630.0
0.959999978542 0.455000013113 0.0989999994636 620.0
0.961000025272 0.448000013828 0.0989999994636 601.0
0.958000004292 0.439999997616 0.0989999994636 593.0
0.959999978542 0.433999985456 0.0989999994636 584.0
0.967000007629 0.430000007153 0.0989999994636 576.0
0.963999986649 0.42199999094 0.0989999994636 561.0
0.962000012398 0.41400000453 0.097999997437 556.0
0.955999970436 0.404000014067 0.097999997437 546.0
0.959999978542 0.398999989033 0.097999997437 530.0
0.971000015736 0.397000014782 0.0989999994636 511.0
0.97000002861 0.389999985695 0.097999997437 509.0
0.958999991417 0.379000008106 0.097000002861 488.0
0.959999978542 0.372000008821 0.097000002861 469.0
0.964999973774 0.368000000715 0.097000002861 437.0
0.958999991417 0.358999997377 0.097000002861 423.0
0.957000017166 0.351999998093 0.0960000008345 413.0
0.954999983311 0.344999998808 0.0960000008345 397.0
0.97000002861 0.342999994755 0.097000002861 389.0
0.941999971867 0.326999992132 0.0939999967813 364.0
0.953999996185 0.324999988079 0.0949999988079 342.0
0.947000026703 0.316000014544 0.0949999988079 337.0
0.943000018597 0.308999985456 0.0939999967813 320.0
0.958000004292 0.307999998331 0.0949999988079 310.0
0.929000020027 0.291999995708 0.0920000001788 297.0
0.93900001049 0.28900000453 0.0930000022054 293.0
0.934000015259 0.282000005245 0.0930000022054 290.0
0.939999997616 0.277999997139 0.0930000022054 280.0
0.929000020027 0.268000006676 0.0920000001788 269.0
0.925000011921 0.261000007391 0.0909999981523 268.0
0.907999992371 0.250999987125 0.0890000015497 264.0
0.930999994278 0.250999987125 0.0920000001788 252.0
0.935000002384 0.24699999392 0.0920000001788 250.0
0.907999992371 0.233999997377 0.0890000015497 242.0
0.910000026226 0.229000002146 0.0890000015497 236.0
0.899999976158 0.221000000834 0.0879999995232 207.0
0.898999989033 0.215000003576 0.0879999995232 205.0
0.903999984264 0.209999993443 0.0879999995232 213.0
0.894999980927 0.202999994159 0.0869999974966 210.0
0.925999999046 0.203999996185 0.0909999981523 241.0
0.875999987125 0.187999993563 0.0850000008941 194.0
0.888000011444 0.185000002384 0.0869999974966 192.0
0.95300000906 0.187000006437 0.0930000022054 336.0
0.98299998045 0.187000006437 0.0960000008345 235.0
0.986999988556 0.181999996305 0.0960000008345 199.0
0.981999993324 0.17499999702 0.0960000008345 200.0
0.986999988556 0.170000001788 0.0960000008345 230.0
0.990999996662 0.165000006557 0.0960000008345 318.0
0.999000012875 0.159999996424 0.097000002861 310.0
0.980000019073 0.150999993086 0.0949999988079 293.0
0.998000025749 0.148000001907 0.097000002861 301.0
0.991999983788 0.142000004649 0.0960000008345 295.0
0.987999975681 0.135000005364 0.0960000008345 287.0
1.00199997425 0.130999997258 0.097000002861 215.0
1.01100003719 0.126000002027 0.097999997437 286.0
0.995999991894 0.119000002742 0.097000002861 301.0
0.990999996662 0.112000003457 0.0960000008345 300.0
1.01900005341 0.109999999404 0.0989999994636 305.0
1.00899994373 0.103000000119 0.097999997437 294.0
0.990000009537 0.0949999988079 0.0960000008345 297.0
1.00100004673 0.0900000035763 0.097000002861 304.0
1.02699995041 0.0869999974966 0.10000000149 227.0
0.999000012875 0.0780000016093 0.097000002861 307.0
0.981999993324 0.0710000023246 0.0949999988079 303.0
1.03199994564 0.0570000000298 0.10000000149 299.0
0.987999975681 0.0489999987185 0.0960000008345 304.0
0.986000001431 0.0430000014603 0.0960000008345 312.0
1.01600003242 0.0390000008047 0.097999997437 223.0
1.01999998093 0.0329999998212 0.0989999994636 294.0
1.01400005817 0.0270000007004 0.097999997437 252.0
1.00800001621 -0.0649999976158 0.097999997437 406.0
1.01300001144 -0.0710000023246 0.0989999994636 1152.0
1.00600004196 -0.0769999995828 0.097999997437 1192.0
1.00300002098 -0.082000002265 0.097999997437 1191.0
1.0039999485 -0.0879999995232 0.097999997437 1202.0
1.00199997425 -0.0939999967813 0.097999997437 1201.0
1.0 -0.0989999994636 0.097999997437 1221.0
0.999000012875 -0.104999996722 0.097999997437 1224.0
0.995000004768 -0.109999999404 0.097999997437 1239.0
0.999000012875 -0.116999998689 0.097999997437 1256.0
0.991999983788 -0.122000001371 0.097000002861 1253.0
0.991999983788 -0.127000004053 0.097999997437 1268.0
0.987999975681 -0.133000001311 0.097000002861 1269.0
0.986999988556 -0.137999996543 0.097000002861 1283.0
0.990999996662 -0.144999995828 0.097999997437 1289.0
0.981000006199 -0.149000003934 0.097000002861 1239.0
0.98299998045 -0.155000001192 0.097000002861 455.0
0.944000005722 -0.155000001192 0.0930000022054 181.0
0.940999984741 -0.159999996424 0.0930000022054 175.0
0.975000023842 -0.171000003815 0.097000002861 170.0
0.950999975204 -0.172999992967 0.0939999967813 176.0
0.941999971867 -0.177000001073 0.0939999967813 174.0
0.944000005722 -0.182999998331 0.0939999967813 177.0
0.919000029564 -0.182999998331 0.0909999981523 177.0
0.935000002384 -0.192000001669 0.0930000022054 183.0
0.944999992847 -0.20000000298 0.0939999967813 182.0
0.949999988079 -0.207000002265 0.0949999988079 182.0
0.913999974728 -0.204999998212 0.0909999981523 189.0
0.912000000477 -0.209999993443 0.0909999981523 184.0
0.938000023365 -0.222000002861 0.0939999967813 187.0
0.959999978542 -0.232999995351 0.097000002861 524.0
0.958999991417 -0.238000005484 0.097000002861 1352.0
0.954999983311 -0.243000000715 0.0960000008345 1463.0
0.948000013828 -0.24699999392 0.0960000008345 1461.0
0.953999996185 -0.254999995232 0.0960000008345 1464.0
0.947000026703 -0.259000003338 0.0960000008345 1478.0
0.944999992847 -0.263999998569 0.0960000008345 1475.0
0.949000000954 -0.272000014782 0.0960000008345 1489.0
0.944999992847 -0.275999993086 0.0960000008345 1487.0
0.941999971867 -0.282000005245 0.0960000008345 1489.0
0.941999971867 -0.287999987602 0.0960000008345 1505.0
0.93900001049 -0.293000012636 0.0960000008345 1523.0
0.93599998951 -0.298000007868 0.0960000008345 1508.0
0.931999981403 -0.303000003099 0.0960000008345 1531.0
0.940999984741 -0.312000006437 0.097000002861 1506.0
0.930000007153 -0.31400001049 0.0960000008345 657.0
0.89099997282 -0.307000011206 0.0920000001788 225.0
0.907999992371 -0.319000005722 0.0939999967813 204.0
0.888000011444 -0.317999988794 0.0920000001788 209.0
0.896000027657 -0.326999992132 0.0930000022054 205.0
0.911000013351 -0.337999999523 0.0949999988079 208.0
0.893000006676 -0.337999999523 0.0930000022054 211.0
0.880999982357 -0.338999986649 0.0920000001788 210.0
0.888000011444 -0.347999989986 0.0930000022054 209.0
0.888999998569 -0.354000002146 0.0930000022054 205.0
0.879999995232 -0.356999993324 0.0930000022054 212.0
0.897000014782 -0.370000004768 0.0949999988079 219.0
0.85900002718 -0.361000001431 0.0909999981523 216.0
0.888999998569 -0.379999995232 0.0939999967813 220.0
0.888999998569 -0.386000007391 0.0949999988079 740.0
0.90499997139 -0.40000000596 0.097000002861 1512.0
0.901000022888 -0.404000014067 0.097000002861 1604.0
0.894999980927 -0.407999992371 0.0960000008345 1624.0
0.893000006676 -0.41400000453 0.0960000008345 1602.0
0.898000001907 -0.423000007868 0.097000002861 1635.0
0.889999985695 -0.425999999046 0.0960000008345 1627.0
0.89200001955 -0.432999998331 0.097000002861 1621.0
0.89200001955 -0.439999997616 0.097000002861 1630.0
0.884999990463 -0.442999988794 0.097000002861 1623.0
0.883000016212 -0.449000000954 0.097000002861 1641.0
0.880999982357 -0.455000013113 0.097000002861 1642.0
0.879999995232 -0.46099999547 0.097000002861 1631.0
0.880999982357 -0.469000011683 0.097999997437 1630.0
0.874000012875 -0.472000002861 0.097000002861 730.0
0.853999972343 -0.467999994755 0.0949999988079 254.0
0.839999973774 -0.467000007629 0.0939999967813 216.0
0.994000017643 0.572000026703 0.10000000149 400.0
1.01999998093 0.578999996185 0.101999998093 360.0
1.0039999485 0.561999976635 0.10000000149 339.0
0.977999985218 0.538999974728 0.097999997437 320.0
0.96899998188 0.526000022888 0.0960000008345 300.0
0.958000004292 0.513000011444 0.0949999988079 276.0
0.961000025272 0.505999982357 0.0949999988079 258.0
0.990000009537 0.513999998569 0.097999997437 235.0
0.980000019073 0.500999987125 0.0960000008345 216.0
0.976000010967 0.49200001359 0.0960000008345 252.0
0.949000000954 0.470999985933 0.0930000022054 317.0
0.957000017166 0.467999994755 0.0939999967813 300.0
0.959999978542 0.453999996185 0.0930000022054 246.0
0.939999997616 0.411000013351 0.0900000035763 132.0
0.947000026703 0.407000005245 0.0909999981523 116.0
4.03299999237 1.50899994373 0.388000011444 65.0
4.25400018692 1.47699999809 0.407000005245 72.0
4.38199996948 1.49199998379 0.418999999762 66.0
4.3140001297 1.44000005722 0.412000000477 65.0
4.41699981689 1.44599997997 0.421000003815 61.0
4.44199991226 1.36699998379 0.42199999094 63.0
4.38399982452 1.32099997997 0.416000008583 61.0
4.25199985504 1.2539999485 0.402999997139 63.0
4.32999992371 1.24899995327 0.409999996424 65.0
4.24100017548 1.1970000267 0.400999993086 61.0
4.46799993515 1.23199999332 0.42199999094 60.0
4.37200021744 1.1779999733 0.412000000477 60.0
4.38700008392 1.15499997139 0.412999987602 63.0
4.34200000763 1.11600005627 0.409000009298 65.0
4.41099977493 1.10599994659 0.414999991655 62.0
4.41599988937 1.08000004292 0.414999991655 59.0
4.37799978256 1.04299998283 0.411000013351 58.0
4.40000009537 1.02199995518 0.412999987602 65.0
4.4310002327 1.00100004673 0.414999991655 59.0
4.42100000381 0.972000002861 0.41400000453 62.0
4.35599994659 0.930999994278 0.407999992371 58.0
4.3639998436 0.90600001812 0.407999992371 58.0
4.36000013351 0.879000008106 0.407000005245 60.0
1.02100002766 -0.0659999996424 0.0939999967813 430.0
1.01400005817 -0.0710000023246 0.0930000022054 1152.0
1.00800001621 -0.0769999995828 0.0930000022054 1195.0
1.00800001621 -0.082999996841 0.0930000022054 1196.0
1.00899994373 -0.0879999995232 0.0930000022054 1201.0
1.00499999523 -0.0939999967813 0.0930000022054 1219.0
1.00199997425 -0.0989999994636 0.0920000001788 1226.0
0.991999983788 -0.104000002146 0.0909999981523 1231.0
0.995000004768 -0.109999999404 0.0920000001788 1237.0
0.992999970913 -0.115999996662 0.0920000001788 1254.0
0.995999991894 -0.122000001371 0.0920000001788 1246.0
0.989000022411 -0.127000004053 0.0909999981523 1271.0
0.986999988556 -0.131999999285 0.0909999981523 1277.0
0.98400002718 -0.137999996543 0.0909999981523 1292.0
