ply
format ascii 1.0
comment Author: CloudCompare (TELECOM PARISTECH/EDF R&D)
obj_info Generated by CloudCompare!
element vertex 1427
property float x
property float y
property float z
property float scalar_intensity
end_header
0.818 0.304 0.153 187 
0.833 0.299 0.156 246 
0.821 0.261 0.152 244 
0.825 0.257 0.152 265 
0.834 0.255 0.154 275 
0.852 0.255 0.157 298 
0.844 0.247 0.155 336 
0.839 0.24 0.154 362 
0.846 0.236 0.155 378 
0.835 0.228 0.153 395 
0.825 0.22 0.151 404 
0.851 0.222 0.156 421 
0.847 0.215 0.155 459 
0.841 0.209 0.153 482 
0.835 0.202 0.152 500 
0.835 0.197 0.152 523 
0.836 0.192 0.152 534 
0.845 0.189 0.153 541 
0.839 0.182 0.152 572 
0.834 0.176 0.151 570 
0.842 0.172 0.152 591 
0.836 0.166 0.151 601 
0.835 0.161 0.151 607 
0.858 0.16 0.155 593 
0.871 0.451 0.165 123 
0.823 0.388 0.153 222 
0.864 0.401 0.161 242 
0.851 0.383 0.158 313 
0.851 0.376 0.157 344 
0.864 0.375 0.159 373 
0.837 0.358 0.154 403 
0.854 0.359 0.157 439 
0.846 0.35 0.155 468 
0.839 0.341 0.153 491 
0.825 0.329 0.15 525 
0.84 0.329 0.153 553 
0.832 0.321 0.151 586 
0.848 0.321 0.154 619 
0.84 0.312 0.152 639 
0.835 0.304 0.151 668 
0.839 0.3 0.151 686 
0.833 0.293 0.15 698 
0.846 0.292 0.152 735 
0.838 0.283 0.15 760 
0.842 0.279 0.151 768 
0.831 0.27 0.149 784 
0.838 0.266 0.15 800 
0.824 0.257 0.147 839 
0.832 0.254 0.148 851 
0.838 0.25 0.149 880 
0.835 0.244 0.148 888 
0.835 0.239 0.148 910 
0.835 0.233 0.148 930 
0.838 0.229 0.148 952 
0.835 0.223 0.148 957 
0.828 0.216 0.146 988 
0.836 0.212 0.147 986 
0.834 0.207 0.147 993 
0.831 0.201 0.146 1000 
0.838 0.197 0.147 1027 
0.841 0.193 0.148 1033 
0.837 0.187 0.147 1035 
0.839 0.182 0.147 1037 
0.833 0.176 0.146 1047 
0.838 0.171 0.147 1055 
0.842 0.167 0.147 1071 
0.836 0.161 0.146 1071 
0.835 0.156 0.146 1027 
0.855 0.463 0.158 385 
0.841 0.448 0.154 435 
0.848 0.445 0.155 484 
0.845 0.437 0.154 527 
0.848 0.432 0.154 570 
0.837 0.42 0.152 621 
0.845 0.417 0.153 623 
0.829 0.403 0.15 668 
0.836 0.4 0.151 697 
0.842 0.397 0.151 712 
0.844 0.391 0.152 746 
0.832 0.38 0.149 783 
0.832 0.374 0.149 828 
0.832 0.368 0.148 849 
0.832 0.361 0.148 856 
0.837 0.358 0.149 881 
0.834 0.35 0.148 905 
0.83 0.343 0.147 913 
0.834 0.338 0.147 929 
0.839 0.335 0.148 952 
0.832 0.326 0.146 980 
0.835 0.321 0.146 1006 
0.832 0.315 0.146 1019 
0.831 0.308 0.145 1038 
0.831 0.303 0.145 1074 
0.839 0.3 0.146 1083 
0.824 0.289 0.143 1089 
0.831 0.286 0.144 1104 
0.839 0.283 0.145 1137 
0.834 0.276 0.144 1153 
0.837 0.271 0.145 1145 
0.837 0.266 0.144 1180 
0.836 0.26 0.144 1198 
0.835 0.254 0.144 1206 
0.83 0.248 0.143 1214 
0.83 0.242 0.142 1213 
0.826 0.236 0.141 1235 
0.829 0.231 0.142 1239 
0.833 0.227 0.142 1245 
0.828 0.221 0.141 1261 
0.831 0.216 0.142 1283 
0.83 0.211 0.141 1267 
0.834 0.206 0.142 1284 
0.838 0.202 0.142 1293 
0.837 0.197 0.142 1296 
0.836 0.191 0.142 1319 
0.829 0.185 0.14 1314 
0.832 0.18 0.141 1345 
0.831 0.175 0.14 1346 
0.839 0.171 0.142 1362 
0.836 0.166 0.141 1363 
0.834 0.16 0.141 1368 
0.837 0.156 0.141 1287 
0.848 0.493 0.153 656 
0.839 0.481 0.151 680 
0.832 0.47 0.149 717 
0.831 0.463 0.148 756 
0.839 0.46 0.149 800 
0.836 0.452 0.148 821 
0.831 0.442 0.147 852 
0.835 0.438 0.147 865 
0.832 0.43 0.146 904 
0.828 0.421 0.145 923 
0.838 0.42 0.147 935 
0.831 0.41 0.145 963 
0.834 0.405 0.145 1001 
0.832 0.398 0.145 1033 
0.834 0.392 0.145 1052 
0.832 0.385 0.144 1077 
0.829 0.378 0.143 1083 
0.83 0.372 0.143 1132 
0.831 0.366 0.143 1156 
0.83 0.36 0.142 1141 
0.827 0.353 0.141 1172 
0.829 0.348 0.142 1182 
0.824 0.34 0.14 1207 
0.828 0.336 0.141 1214 
0.836 0.333 0.142 1230 
0.832 0.326 0.141 1249 
0.834 0.321 0.141 1265 
0.837 0.316 0.141 1290 
0.835 0.31 0.141 1299 
0.837 0.305 0.141 1307 
0.831 0.297 0.139 1315 
0.833 0.292 0.14 1314 
0.828 0.285 0.138 1322 
0.829 0.279 0.138 1335 
0.834 0.276 0.139 1335 
0.829 0.268 0.138 1343 
0.832 0.264 0.138 1357 
0.835 0.26 0.139 1389 
0.836 0.255 0.139 1387 
0.836 0.249 0.138 1411 
0.826 0.241 0.137 1430 
0.831 0.237 0.137 1456 
0.837 0.233 0.138 1469 
0.834 0.227 0.137 1471 
0.827 0.22 0.136 1467 
0.835 0.217 0.137 1509 
0.825 0.209 0.135 1511 
0.831 0.206 0.136 1516 
0.831 0.2 0.136 1524 
0.828 0.195 0.136 1545 
0.835 0.191 0.136 1552 
0.833 0.185 0.136 1574 
0.831 0.18 0.136 1614 
0.832 0.175 0.136 1597 
0.832 0.17 0.136 1617 
0.834 0.165 0.136 1633 
0.829 0.159 0.135 1618 
0.834 0.155 0.136 1470 
0.843 0.49 0.146 936 
0.832 0.476 0.144 963 
0.835 0.471 0.144 991 
0.832 0.463 0.143 998 
0.834 0.457 0.143 1045 
0.828 0.447 0.141 1058 
0.833 0.443 0.142 1084 
0.835 0.437 0.142 1093 
0.829 0.428 0.14 1105 
0.828 0.421 0.14 1132 
0.829 0.415 0.14 1161 
0.831 0.409 0.14 1165 
0.826 0.401 0.139 1203 
0.822 0.393 0.138 1235 
0.833 0.392 0.139 1247 
0.829 0.384 0.138 1263 
0.827 0.377 0.137 1274 
0.831 0.372 0.138 1299 
0.828 0.365 0.137 1301 
0.836 0.362 0.138 1307 
0.834 0.355 0.137 1330 
0.833 0.349 0.137 1342 
0.833 0.343 0.137 1339 
0.83 0.336 0.136 1371 
0.829 0.33 0.135 1395 
0.832 0.325 0.136 1403 
0.826 0.317 0.134 1427 
0.83 0.313 0.135 1412 
0.836 0.31 0.136 1416 
0.835 0.304 0.135 1453 
0.83 0.296 0.134 1455 
0.831 0.291 0.134 1458 
0.83 0.285 0.134 1475 
0.836 0.282 0.135 1513 
0.831 0.274 0.133 1512 
0.834 0.27 0.134 1524 
0.83 0.263 0.133 1536 
0.832 0.258 0.133 1564 
0.832 0.253 0.133 1570 
0.835 0.249 0.133 1576 
0.834 0.243 0.133 1591 
0.832 0.237 0.132 1589 
0.831 0.231 0.132 1594 
0.831 0.226 0.132 1597 
0.828 0.22 0.131 1606 
0.83 0.215 0.131 1632 
0.835 0.211 0.132 1624 
0.83 0.205 0.131 1639 
0.829 0.2 0.131 1635 
0.832 0.195 0.131 1654 
0.828 0.189 0.13 1674 
0.834 0.185 0.131 1698 
0.831 0.18 0.131 1708 
0.829 0.174 0.13 1736 
0.831 0.169 0.13 1726 
0.834 0.165 0.131 1737 
0.831 0.159 0.13 1707 
0.833 0.155 0.13 1520 
0.829 0.481 0.138 1105 
0.832 0.476 0.138 1132 
0.834 0.47 0.138 1145 
0.83 0.461 0.137 1155 
0.837 0.458 0.138 1185 
0.832 0.449 0.137 1198 
0.832 0.442 0.136 1231 
0.831 0.435 0.136 1238 
0.829 0.427 0.135 1241 
0.825 0.419 0.134 1280 
0.829 0.414 0.134 1299 
0.825 0.406 0.133 1303 
0.829 0.402 0.134 1321 
0.836 0.399 0.134 1343 
0.824 0.387 0.132 1333 
0.83 0.384 0.133 1341 
0.83 0.377 0.133 1343 
0.826 0.37 0.132 1359 
0.833 0.367 0.132 1370 
0.832 0.36 0.132 1363 
0.833 0.355 0.132 1383 
0.823 0.345 0.13 1410 
0.831 0.342 0.131 1398 
0.831 0.336 0.131 1423 
0.833 0.331 0.131 1454 
0.833 0.326 0.131 1481 
0.829 0.318 0.13 1509 
0.828 0.312 0.129 1502 
0.831 0.308 0.13 1529 
0.83 0.301 0.129 1573 
0.833 0.297 0.129 1547 
0.829 0.29 0.129 1538 
0.826 0.283 0.128 1547 
0.828 0.279 0.128 1573 
0.835 0.275 0.129 1569 
0.828 0.268 0.128 1578 
0.829 0.263 0.128 1584 
0.835 0.259 0.128 1622 
0.836 0.254 0.128 1602 
0.833 0.248 0.128 1641 
0.834 0.243 0.128 1653 
0.835 0.238 0.128 1663 
0.828 0.23 0.126 1649 
0.832 0.226 0.127 1666 
0.835 0.222 0.127 1661 
0.836 0.217 0.127 1697 
0.833 0.211 0.127 1670 
0.824 0.203 0.125 1696 
0.833 0.2 0.126 1692 
0.836 0.196 0.127 1721 
0.834 0.19 0.126 1710 
0.832 0.185 0.126 1739 
0.834 0.18 0.126 1784 
0.836 0.176 0.126 1777 
0.831 0.169 0.125 1783 
0.829 0.164 0.125 1767 
0.832 0.159 0.125 1756 
0.83 0.154 0.125 1591 
0.834 0.484 0.133 1255 
0.836 0.478 0.133 1249 
0.827 0.466 0.132 1265 
0.831 0.461 0.132 1284 
0.831 0.454 0.131 1292 
0.829 0.446 0.131 1313 
0.837 0.444 0.132 1326 
0.83 0.434 0.13 1327 
0.836 0.43 0.131 1332 
0.834 0.423 0.13 1354 
0.831 0.415 0.129 1348 
0.831 0.409 0.129 1355 
0.827 0.401 0.128 1351 
0.834 0.397 0.129 1360 
0.825 0.387 0.127 1364 
0.833 0.385 0.128 1366 
0.834 0.379 0.128 1355 
0.833 0.373 0.127 1379 
0.838 0.368 0.128 1380 
0.832 0.36 0.127 1384 
0.836 0.356 0.127 1415 
0.837 0.35 0.127 1432 
0.832 0.342 0.126 1458 
0.825 0.334 0.125 1467 
0.834 0.331 0.126 1479 
0.842 0.329 0.127 1483 
0.837 0.321 0.126 1483 
0.835 0.314 0.125 1475 
0.829 0.307 0.124 1499 
0.832 0.302 0.124 1534 
0.833 0.297 0.124 1518 
0.841 0.294 0.125 1495 
0.836 0.287 0.124 1496 
0.835 0.281 0.124 1505 
0.834 0.275 0.124 1516 
0.831 0.268 0.123 1522 
0.833 0.264 0.123 1527 
0.837 0.259 0.124 1561 
0.839 0.255 0.124 1553 
0.842 0.25 0.124 1575 
0.835 0.243 0.123 1570 
0.835 0.237 0.123 1598 
0.838 0.233 0.123 1590 
0.835 0.227 0.122 1587 
0.834 0.221 0.122 1587 
0.838 0.217 0.122 1605 
0.837 0.212 0.122 1609 
0.836 0.206 0.122 1630 
0.843 0.203 0.123 1614 
0.838 0.196 0.122 1632 
0.84 0.192 0.122 1634 
0.839 0.186 0.122 1649 
0.838 0.181 0.122 1658 
0.84 0.176 0.122 1669 
0.836 0.17 0.121 1668 
0.843 0.167 0.122 1659 
0.838 0.161 0.121 1641 
0.836 0.155 0.121 1562 
0.834 0.483 0.128 1305 
0.83 0.474 0.127 1328 
0.833 0.469 0.127 1334 
0.835 0.463 0.127 1328 
0.833 0.455 0.126 1341 
0.833 0.448 0.126 1362 
0.829 0.44 0.125 1355 
0.835 0.436 0.125 1362 
0.837 0.431 0.125 1345 
0.842 0.427 0.126 1373 
0.834 0.416 0.124 1361 
0.834 0.41 0.124 1356 
0.832 0.403 0.123 1328 
0.829 0.395 0.123 1343 
0.84 0.394 0.124 1329 
0.841 0.388 0.124 1324 
0.84 0.381 0.123 1324 
0.833 0.372 0.122 1353 
0.839 0.369 0.123 1378 
0.834 0.36 0.122 1377 
0.832 0.354 0.121 1386 
0.839 0.351 0.122 1382 
0.837 0.344 0.121 1397 
0.836 0.337 0.121 1393 
0.839 0.333 0.121 1409 
0.839 0.327 0.121 1397 
0.837 0.32 0.12 1387 
0.841 0.316 0.121 1373 
0.836 0.309 0.12 1386 
0.842 0.305 0.121 1402 
0.843 0.3 0.121 1389 
0.841 0.294 0.12 1386 
0.842 0.288 0.12 1378 
0.845 0.284 0.12 1394 
0.836 0.275 0.119 1405 
0.843 0.272 0.12 1401 
0.836 0.264 0.118 1436 
0.842 0.261 0.119 1446 
0.842 0.255 0.119 1455 
0.84 0.249 0.118 1454 
0.842 0.245 0.119 1471 
0.844 0.24 0.119 1462 
0.844 0.234 0.119 1478 
0.842 0.228 0.118 1467 
0.847 0.225 0.119 1462 
0.843 0.218 0.118 1476 
0.845 0.213 0.118 1468 
0.846 0.208 0.118 1458 
0.844 0.203 0.118 1415 
0.844 0.197 0.118 1425 
0.842 0.192 0.117 1438 
0.847 0.188 0.118 1430 
0.838 0.181 0.117 1447 
0.846 0.177 0.118 1451 
0.842 0.171 0.117 1457 
0.837 0.165 0.116 1390 
0.845 0.162 0.117 1396 
0.846 0.157 0.117 1368 
0.837 0.484 0.123 1233 
0.835 0.476 0.122 1245 
0.835 0.47 0.122 1257 
0.843 0.467 0.123 1265 
0.834 0.455 0.121 1258 
0.842 0.453 0.122 1251 
0.837 0.443 0.121 1264 
0.839 0.438 0.121 1255 
0.847 0.435 0.121 1247 
0.838 0.424 0.12 1248 
0.837 0.417 0.119 1240 
0.844 0.414 0.12 1198 
0.842 0.407 0.119 1195 
0.847 0.403 0.12 1227 
0.842 0.395 0.119 1219 
0.843 0.388 0.119 1212 
0.843 0.382 0.118 1206 
0.846 0.378 0.119 1233 
0.838 0.368 0.117 1220 
0.84 0.363 0.117 1213 
0.846 0.359 0.118 1234 
0.844 0.353 0.117 1233 
0.844 0.346 0.117 1232 
0.846 0.341 0.117 1246 
0.847 0.336 0.117 1272 
0.845 0.329 0.117 1298 
0.838 0.321 0.115 1290 
0.845 0.318 0.116 1242 
0.845 0.312 0.116 1220 
0.848 0.307 0.116 1237 
0.848 0.302 0.116 1222 
0.845 0.295 0.115 1229 
0.846 0.29 0.115 1222 
0.85 0.285 0.116 1235 
0.85 0.28 0.116 1231 
0.855 0.276 0.116 1241 
0.848 0.268 0.115 1245 
0.851 0.263 0.115 1256 
0.85 0.258 0.115 1252 
0.848 0.251 0.114 1255 
0.851 0.247 0.115 1263 
0.849 0.241 0.114 1241 
0.859 0.238 0.116 1223 
0.848 0.23 0.114 1224 
0.851 0.225 0.114 1225 
0.854 0.221 0.114 1219 
0.854 0.216 0.114 1206 
0.851 0.21 0.114 1195 
0.851 0.204 0.114 1180 
0.848 0.198 0.113 1173 
0.859 0.195 0.115 1183 
0.858 0.19 0.114 1177 
0.856 0.184 0.114 1172 
0.847 0.177 0.113 1179 
0.862 0.175 0.115 1163 
0.858 0.169 0.114 1159 
0.854 0.163 0.113 1126 
0.854 0.158 0.113 1063 
0.839 0.485 0.117 1100 
0.844 0.481 0.118 1117 
0.839 0.471 0.117 1113 
0.848 0.47 0.118 1109 
0.851 0.464 0.118 1103 
0.847 0.455 0.117 1086 
0.844 0.447 0.116 1098 
0.85 0.443 0.117 1079 
0.854 0.439 0.117 1068 
0.848 0.429 0.116 1070 
0.846 0.421 0.115 1044 
0.851 0.418 0.116 1013 
0.848 0.41 0.115 1014 
0.851 0.404 0.115 1009 
0.851 0.398 0.115 1017 
0.851 0.392 0.114 993 
0.85 0.385 0.114 996 
0.854 0.381 0.114 1016 
0.86 0.377 0.115 1008 
0.856 0.369 0.114 1015 
0.852 0.361 0.113 1021 
0.854 0.356 0.113 1030 
0.856 0.351 0.113 1042 
0.849 0.342 0.112 1026 
0.855 0.339 0.113 998 
0.858 0.334 0.113 994 
0.86 0.329 0.113 969 
0.859 0.322 0.113 955 
0.862 0.318 0.113 928 
0.862 0.312 0.113 935 
0.859 0.305 0.112 924 
0.864 0.301 0.113 926 
0.859 0.294 0.112 907 
0.869 0.292 0.113 897 
0.857 0.282 0.111 887 
0.863 0.278 0.112 895 
0.858 0.271 0.111 870 
0.861 0.266 0.111 872 
0.86 0.26 0.111 877 
0.871 0.258 0.112 859 
0.857 0.249 0.11 843 
0.861 0.244 0.111 818 
0.87 0.241 0.112 797 
0.874 0.237 0.112 785 
0.864 0.229 0.111 791 
0.871 0.225 0.112 793 
0.865 0.218 0.111 779 
0.868 0.213 0.111 764 
0.866 0.208 0.111 757 
0.868 0.203 0.111 745 
0.873 0.199 0.111 731 
0.87 0.187 0.111 715 
0.871 0.182 0.111 706 
0.865 0.176 0.11 692 
0.873 0.162 0.111 604 
0.856 0.494 0.114 894 
0.856 0.487 0.114 878 
0.861 0.483 0.114 866 
0.862 0.477 0.114 836 
0.856 0.467 0.113 814 
0.86 0.462 0.113 785 
0.861 0.456 0.113 772 
0.861 0.449 0.113 752 
0.87 0.447 0.114 739 
0.863 0.436 0.112 723 
0.864 0.43 0.112 688 
0.865 0.424 0.112 672 
0.87 0.42 0.112 640 
0.862 0.41 0.111 626 
0.862 0.403 0.111 642 
0.867 0.399 0.111 618 
0.859 0.389 0.11 596 
0.859 0.383 0.11 587 
0.864 0.379 0.11 529 
0.872 0.376 0.111 493 
0.874 0.371 0.111 488 
0.861 0.359 0.109 468 
0.862 0.347 0.109 411 
0.859 0.34 0.108 389 
0.856 0.333 0.108 370 
0.839 0.321 0.105 346 
0.856 0.321 0.107 331 
0.851 0.314 0.106 321 
0.836 0.302 0.104 314 
0.828 0.294 0.103 297 
0.859 0.282 0.106 402 
0.843 0.271 0.104 381 
0.861 0.26 0.106 319 
0.831 0.241 0.102 301 
0.815 0.231 0.1 278 
0.835 0.226 0.102 251 
0.859 0.368 0.066 300 
0.863 0.358 0.066 248 
0.872 0.35 0.067 338 
0.848 0.334 0.065 347 
0.822 0.313 0.062 266 
0.823 0.307 0.062 227 
0.85 0.311 0.064 231 
0.824 0.297 0.062 247 
0.876 0.482 0.064 617 
0.867 0.47 0.064 650 
0.869 0.464 0.064 662 
0.869 0.457 0.063 695 
0.862 0.447 0.063 709 
0.864 0.441 0.063 730 
0.869 0.437 0.063 756 
0.868 0.43 0.063 766 
0.867 0.423 0.062 779 
0.873 0.419 0.063 800 
0.859 0.406 0.062 823 
0.862 0.401 0.062 836 
0.863 0.395 0.062 849 
0.864 0.389 0.062 860 
0.865 0.383 0.062 880 
0.861 0.375 0.061 882 
0.864 0.37 0.061 900 
0.87 0.367 0.062 920 
0.861 0.357 0.061 938 
0.857 0.349 0.06 945 
0.866 0.347 0.061 953 
0.868 0.342 0.061 970 
0.86 0.333 0.06 973 
0.868 0.33 0.061 966 
0.857 0.32 0.06 973 
0.861 0.316 0.06 1012 
0.858 0.309 0.06 1031 
0.86 0.304 0.06 1031 
0.867 0.3 0.06 1051 
0.862 0.293 0.06 1034 
0.857 0.286 0.059 1040 
0.857 0.28 0.059 1056 
0.861 0.276 0.06 1069 
0.866 0.272 0.06 1071 
0.864 0.265 0.06 1073 
0.867 0.261 0.06 1073 
0.866 0.255 0.06 1073 
0.869 0.25 0.06 1073 
0.859 0.242 0.059 1093 
0.862 0.237 0.059 1094 
0.862 0.232 0.059 1094 
0.861 0.226 0.059 1090 
0.868 0.223 0.059 1096 
0.867 0.217 0.059 1109 
0.871 0.213 0.059 1108 
0.864 0.206 0.059 1133 
0.863 0.2 0.059 1145 
0.868 0.196 0.059 1139 
0.871 0.192 0.059 1134 
0.863 0.185 0.059 1132 
0.869 0.181 0.059 1143 
0.864 0.174 0.059 1138 
0.864 0.169 0.059 1113 
0.867 0.165 0.059 1092 
0.863 0.159 0.059 974 
0.855 0.491 0.058 1025 
0.859 0.486 0.058 1043 
0.856 0.477 0.058 1058 
0.855 0.47 0.057 1075 
0.858 0.465 0.057 1088 
0.859 0.458 0.057 1110 
0.851 0.447 0.057 1126 
0.861 0.446 0.057 1133 
0.846 0.432 0.056 1155 
0.853 0.428 0.056 1175 
0.855 0.423 0.056 1199 
0.855 0.417 0.056 1188 
0.855 0.41 0.056 1204 
0.854 0.403 0.056 1230 
0.856 0.398 0.056 1238 
0.855 0.391 0.056 1243 
0.858 0.386 0.056 1251 
0.861 0.381 0.056 1263 
0.852 0.371 0.055 1266 
0.856 0.367 0.055 1278 
0.852 0.359 0.055 1295 
0.858 0.356 0.055 1314 
0.854 0.348 0.055 1327 
0.852 0.341 0.055 1334 
0.855 0.336 0.055 1332 
0.86 0.333 0.055 1327 
0.86 0.327 0.055 1333 
0.855 0.319 0.055 1336 
0.859 0.315 0.055 1353 
0.854 0.307 0.054 1392 
0.857 0.302 0.054 1406 
0.857 0.297 0.054 1403 
0.851 0.289 0.054 1408 
0.855 0.285 0.054 1413 
0.86 0.281 0.054 1435 
0.855 0.274 0.054 1441 
0.859 0.269 0.054 1444 
0.855 0.263 0.054 1466 
0.857 0.258 0.054 1476 
0.858 0.253 0.054 1481 
0.861 0.248 0.054 1474 
0.858 0.242 0.054 1503 
0.859 0.237 0.054 1477 
0.859 0.231 0.054 1482 
0.859 0.226 0.054 1484 
0.855 0.219 0.053 1496 
0.858 0.215 0.054 1507 
0.86 0.21 0.054 1517 
0.864 0.206 0.054 1545 
0.857 0.199 0.053 1583 
0.861 0.194 0.054 1578 
0.856 0.188 0.053 1581 
0.86 0.184 0.053 1599 
0.859 0.178 0.053 1608 
0.857 0.173 0.053 1605 
0.859 0.168 0.053 1581 
0.857 0.163 0.053 1544 
0.856 0.157 0.053 1320 
0.859 0.493 0.052 1192 
0.852 0.482 0.052 1209 
0.851 0.474 0.052 1225 
0.851 0.467 0.052 1229 
0.853 0.462 0.052 1240 
0.849 0.453 0.051 1269 
0.854 0.448 0.051 1276 
0.853 0.442 0.051 1280 
0.851 0.434 0.051 1283 
0.854 0.429 0.051 1302 
0.86 0.425 0.051 1307 
0.851 0.415 0.051 1328 
0.859 0.412 0.051 1350 
0.854 0.403 0.05 1341 
0.856 0.398 0.051 1342 
0.852 0.39 0.05 1354 
0.855 0.385 0.05 1353 
0.845 0.374 0.05 1375 
0.851 0.371 0.05 1363 
0.85 0.364 0.05 1373 
0.853 0.359 0.05 1382 
0.856 0.355 0.05 1412 
0.853 0.347 0.05 1411 
0.858 0.343 0.05 1431 
0.85 0.334 0.049 1436 
0.859 0.332 0.05 1454 
0.856 0.325 0.049 1465 
0.854 0.319 0.049 1452 
0.854 0.313 0.049 1468 
0.852 0.306 0.049 1472 
0.853 0.301 0.049 1495 
0.855 0.296 0.049 1532 
0.859 0.292 0.049 1529 
0.855 0.285 0.049 1532 
0.855 0.279 0.049 1530 
0.851 0.272 0.049 1539 
0.855 0.268 0.049 1550 
0.851 0.261 0.048 1565 
0.857 0.258 0.049 1572 
0.858 0.252 0.049 1597 
0.855 0.246 0.049 1595 
0.858 0.242 0.049 1600 
0.854 0.235 0.048 1617 
0.856 0.23 0.048 1616 
0.857 0.225 0.048 1623 
0.861 0.221 0.049 1650 
0.86 0.215 0.049 1647 
0.853 0.208 0.048 1675 
0.854 0.203 0.048 1702 
0.856 0.199 0.048 1717 
0.851 0.192 0.048 1736 
0.862 0.189 0.049 1761 
0.855 0.183 0.048 1755 
0.856 0.178 0.048 1771 
0.854 0.172 0.048 1777 
0.856 0.167 0.048 1753 
0.859 0.163 0.048 1694 
0.857 0.157 0.048 1405 
0.852 0.489 0.046 1179 
0.855 0.484 0.047 1164 
0.853 0.475 0.046 1192 
0.856 0.47 0.046 1211 
0.846 0.458 0.046 1222 
0.855 0.456 0.046 1228 
0.855 0.449 0.046 1240 
0.862 0.446 0.046 1253 
0.851 0.434 0.045 1259 
0.857 0.43 0.046 1258 
0.855 0.423 0.046 1274 
0.856 0.417 0.045 1289 
0.854 0.409 0.045 1286 
0.854 0.403 0.045 1306 
0.855 0.397 0.045 1297 
0.851 0.389 0.045 1309 
0.853 0.384 0.045 1312 
0.857 0.379 0.045 1312 
0.858 0.374 0.045 1317 
0.854 0.366 0.045 1315 
0.854 0.36 0.045 1322 
0.857 0.355 0.045 1343 
0.854 0.348 0.044 1348 
0.854 0.342 0.044 1372 
0.856 0.336 0.044 1367 
0.859 0.332 0.044 1381 
0.854 0.324 0.044 1389 
0.859 0.32 0.044 1397 
0.857 0.314 0.044 1414 
0.855 0.307 0.044 1421 
0.853 0.301 0.044 1438 
0.856 0.296 0.044 1459 
0.857 0.291 0.044 1493 
0.856 0.285 0.044 1482 
0.859 0.28 0.044 1485 
0.852 0.273 0.044 1482 
0.861 0.27 0.044 1485 
0.861 0.264 0.044 1505 
0.86 0.258 0.044 1516 
0.861 0.253 0.044 1524 
0.86 0.248 0.044 1534 
0.861 0.242 0.044 1541 
0.858 0.236 0.044 1557 
0.855 0.23 0.043 1533 
0.856 0.225 0.043 1555 
0.858 0.22 0.043 1585 
0.859 0.215 0.043 1592 
0.857 0.209 0.043 1636 
0.859 0.204 0.043 1678 
0.859 0.199 0.043 1657 
0.864 0.195 0.044 1668 
0.859 0.189 0.043 1697 
0.862 0.184 0.043 1697 
0.861 0.179 0.043 1695 
0.858 0.173 0.043 1680 
0.861 0.168 0.043 1689 
0.858 0.163 0.043 1676 
0.856 0.157 0.043 1390 
0.865 0.496 0.042 968 
0.862 0.487 0.041 973 
0.858 0.478 0.041 979 
0.865 0.475 0.041 984 
0.864 0.467 0.041 1001 
0.859 0.458 0.041 994 
0.861 0.452 0.041 995 
0.856 0.443 0.04 992 
0.857 0.437 0.04 1002 
0.856 0.429 0.04 1007 
0.859 0.424 0.04 1011 
0.857 0.417 0.04 1014 
0.857 0.41 0.04 1031 
0.864 0.407 0.04 1037 
0.866 0.402 0.04 1024 
0.865 0.395 0.04 1036 
0.868 0.39 0.04 1041 
0.868 0.384 0.04 1050 
0.859 0.374 0.04 1051 
0.866 0.371 0.04 1046 
0.865 0.364 0.04 1062 
0.86 0.356 0.04 1075 
0.867 0.353 0.04 1083 
0.865 0.346 0.04 1080 
0.86 0.338 0.039 1077 
0.863 0.333 0.039 1089 
0.864 0.328 0.039 1099 
0.868 0.323 0.04 1080 
0.865 0.317 0.039 1090 
0.867 0.311 0.039 1120 
0.865 0.305 0.039 1145 
0.87 0.301 0.039 1157 
0.863 0.293 0.039 1195 
0.86 0.286 0.039 1192 
0.861 0.281 0.039 1200 
0.864 0.276 0.039 1190 
0.866 0.271 0.039 1191 
0.869 0.267 0.039 1197 
0.866 0.26 0.039 1181 
0.865 0.254 0.039 1191 
0.864 0.249 0.039 1209 
0.865 0.243 0.039 1215 
0.865 0.238 0.039 1230 
0.867 0.233 0.039 1216 
0.866 0.227 0.039 1222 
0.868 0.222 0.039 1259 
0.867 0.217 0.039 1259 
0.862 0.21 0.039 1288 
0.867 0.206 0.039 1321 
0.869 0.201 0.039 1294 
0.865 0.195 0.039 1288 
0.868 0.191 0.039 1312 
0.864 0.184 0.038 1318 
0.866 0.18 0.039 1331 
0.864 0.174 0.038 1334 
0.867 0.169 0.039 1337 
0.865 0.164 0.038 1338 
0.866 0.159 0.039 1150 
0.876 0.394 0.035 463 
0.875 0.381 0.035 465 
0.869 0.354 0.035 464 
0.868 0.341 0.034 477 
0.86 0.332 0.034 471 
0.875 0.332 0.035 478 
0.863 0.322 0.034 476 
0.865 0.316 0.034 476 
0.88 0.316 0.035 489 
0.857 0.302 0.034 496 
0.87 0.301 0.034 493 
0.867 0.294 0.034 496 
0.862 0.287 0.034 508 
0.875 0.285 0.034 514 
0.878 0.281 0.034 515 
0.872 0.273 0.034 520 
0.869 0.266 0.034 530 
0.859 0.258 0.033 539 
0.873 0.257 0.034 551 
0.877 0.252 0.034 560 
0.872 0.245 0.034 561 
0.876 0.241 0.034 580 
0.875 0.235 0.034 571 
0.865 0.227 0.034 573 
0.879 0.225 0.034 568 
0.87 0.218 0.034 581 
0.879 0.214 0.034 580 
0.869 0.207 0.034 596 
0.864 0.2 0.033 597 
0.869 0.196 0.034 617 
0.874 0.192 0.034 617 
0.87 0.186 0.034 635 
0.875 0.182 0.034 650 
0.874 0.176 0.034 668 
0.879 0.172 0.034 683 
0.88 0.167 0.034 683 
0.864 0.453 -0.063 109 
0.864 0.495 -0.07 911 
0.868 0.491 -0.07 871 
0.864 0.481 -0.069 833 
0.866 0.475 -0.069 785 
0.854 0.462 -0.068 711 
0.868 0.463 -0.069 671 
0.87 0.457 -0.069 632 
0.881 0.456 -0.069 617 
0.884 0.45 -0.07 546 
0.87 0.436 -0.068 497 
0.875 0.432 -0.068 447 
0.884 0.43 -0.069 393 
0.87 0.41 -0.067 285 
0.852 0.383 -0.065 266 
0.837 0.358 -0.064 123 
0.86 0.362 -0.065 82 
0.852 0.489 -0.074 1137 
0.852 0.481 -0.074 1148 
0.852 0.474 -0.074 1154 
0.85 0.467 -0.073 1147 
0.855 0.463 -0.074 1133 
0.85 0.453 -0.073 1135 
0.853 0.448 -0.073 1126 
0.853 0.441 -0.073 1129 
0.854 0.435 -0.073 1077 
0.86 0.432 -0.073 1072 
0.856 0.423 -0.072 1053 
0.864 0.42 -0.073 1035 
0.864 0.414 -0.073 1003 
0.862 0.407 -0.072 976 
0.861 0.4 -0.072 941 
0.859 0.393 -0.072 931 
0.869 0.391 -0.072 893 
0.864 0.382 -0.072 845 
0.863 0.376 -0.071 789 
0.872 0.373 -0.072 749 
0.866 0.364 -0.071 698 
0.877 0.363 -0.072 636 
0.866 0.353 -0.071 572 
0.865 0.346 -0.071 528 
0.855 0.336 -0.07 451 
0.832 0.321 -0.068 387 
0.839 0.313 -0.068 343 
0.863 0.316 -0.07 400 
0.857 0.492 -0.08 1074 
0.854 0.483 -0.08 1100 
0.853 0.476 -0.079 1137 
0.854 0.469 -0.079 1129 
0.849 0.459 -0.079 1158 
0.853 0.455 -0.079 1165 
0.851 0.447 -0.078 1189 
0.852 0.441 -0.078 1195 
0.85 0.433 -0.078 1201 
0.85 0.427 -0.077 1231 
0.853 0.422 -0.078 1253 
0.85 0.414 -0.077 1260 
0.85 0.408 -0.077 1232 
0.857 0.404 -0.077 1252 
0.857 0.398 -0.077 1259 
0.848 0.388 -0.076 1243 
0.853 0.384 -0.076 1225 
0.854 0.378 -0.076 1227 
0.855 0.372 -0.076 1217 
0.857 0.367 -0.076 1217 
0.851 0.358 -0.075 1208 
0.854 0.354 -0.075 1219 
0.854 0.348 -0.075 1207 
0.854 0.342 -0.075 1215 
0.861 0.338 -0.075 1192 
0.855 0.33 -0.075 1158 
0.859 0.326 -0.075 1107 
0.862 0.321 -0.075 1077 
0.859 0.314 -0.075 1054 
0.865 0.311 -0.075 1020 
0.866 0.305 -0.075 974 
0.853 0.295 -0.073 920 
0.859 0.291 -0.074 879 
0.848 0.282 -0.073 816 
0.86 0.28 -0.074 755 
0.855 0.273 -0.073 687 
0.857 0.268 -0.073 649 
0.842 0.258 -0.072 607 
0.841 0.253 -0.072 553 
0.84 0.247 -0.071 487 
0.829 0.233 -0.07 366 
0.873 0.501 -0.088 679 
0.867 0.491 -0.087 744 
0.872 0.486 -0.087 786 
0.867 0.476 -0.086 827 
0.859 0.465 -0.085 896 
0.86 0.459 -0.085 949 
0.864 0.454 -0.085 988 
0.865 0.448 -0.085 1032 
0.855 0.436 -0.084 1051 
0.852 0.428 -0.083 1092 
0.853 0.422 -0.083 1121 
0.851 0.414 -0.082 1169 
0.857 0.411 -0.083 1179 
0.849 0.401 -0.082 1215 
0.852 0.396 -0.082 1247 
0.849 0.388 -0.081 1252 
0.851 0.383 -0.081 1270 
0.854 0.378 -0.081 1303 
0.844 0.368 -0.08 1329 
0.845 0.362 -0.08 1346 
0.851 0.358 -0.08 1354 
0.846 0.35 -0.08 1355 
0.853 0.347 -0.08 1352 
0.854 0.342 -0.08 1397 
0.852 0.335 -0.08 1397 
0.854 0.33 -0.08 1371 
0.856 0.325 -0.08 1377 
0.853 0.318 -0.079 1387 
0.851 0.312 -0.079 1380 
0.855 0.307 -0.079 1398 
0.859 0.303 -0.079 1382 
0.851 0.295 -0.079 1369 
0.85 0.288 -0.078 1358 
0.861 0.287 -0.079 1356 
0.86 0.28 -0.079 1341 
0.855 0.273 -0.078 1333 
0.86 0.269 -0.079 1338 
0.855 0.262 -0.078 1345 
0.86 0.258 -0.078 1338 
0.857 0.252 -0.078 1286 
0.854 0.246 -0.077 1263 
0.866 0.244 -0.078 1229 
0.857 0.236 -0.077 1177 
0.859 0.231 -0.077 1146 
0.855 0.224 -0.077 1078 
0.86 0.22 -0.077 1038 
0.856 0.214 -0.077 1008 
0.868 0.212 -0.078 953 
0.857 0.204 -0.077 915 
0.862 0.2 -0.077 879 
0.861 0.194 -0.077 805 
0.851 0.187 -0.076 736 
0.855 0.182 -0.076 681 
0.846 0.175 -0.075 637 
0.856 0.172 -0.076 596 
0.858 0.167 -0.076 548 
0.835 0.158 -0.074 467 
0.83 0.152 -0.073 407 
0.831 0.147 -0.073 353 
0.877 0.455 -0.092 461 
0.884 0.451 -0.092 521 
0.861 0.433 -0.089 605 
0.871 0.431 -0.09 671 
0.863 0.42 -0.089 715 
0.865 0.415 -0.089 787 
0.862 0.407 -0.088 837 
0.863 0.401 -0.088 898 
0.859 0.393 -0.088 933 
0.86 0.387 -0.088 992 
0.857 0.379 -0.087 1055 
0.854 0.372 -0.087 1101 
0.85 0.364 -0.086 1150 
0.852 0.359 -0.086 1158 
0.859 0.356 -0.086 1199 
0.851 0.347 -0.085 1242 
0.848 0.34 -0.085 1270 
0.852 0.335 -0.085 1302 
0.85 0.329 -0.085 1349 
0.854 0.324 -0.085 1368 
0.847 0.316 -0.084 1383 
0.851 0.312 -0.084 1371 
0.853 0.306 -0.084 1402 
0.846 0.298 -0.083 1415 
0.845 0.292 -0.083 1436 
0.851 0.289 -0.083 1447 
0.853 0.284 -0.084 1468 
0.849 0.277 -0.083 1469 
0.853 0.273 -0.083 1495 
0.852 0.267 -0.083 1492 
0.853 0.262 -0.083 1502 
0.847 0.255 -0.082 1540 
0.854 0.251 -0.083 1579 
0.848 0.244 -0.082 1578 
0.846 0.238 -0.082 1592 
0.848 0.233 -0.082 1594 
0.856 0.23 -0.082 1599 
0.847 0.222 -0.081 1582 
0.855 0.219 -0.082 1559 
0.856 0.214 -0.082 1547 
0.858 0.209 -0.082 1557 
0.851 0.202 -0.081 1549 
0.851 0.197 -0.081 1515 
0.858 0.193 -0.082 1497 
0.854 0.187 -0.081 1475 
0.854 0.182 -0.081 1461 
0.857 0.178 -0.081 1458 
0.854 0.172 -0.081 1445 
0.856 0.167 -0.081 1420 
0.855 0.162 -0.081 1368 
0.856 0.157 -0.081 1309 
0.854 0.151 -0.08 1283 
0.858 0.147 -0.081 1248 
0.857 0.142 -0.081 1043 
0.853 0.39 -0.092 325 
0.879 0.396 -0.095 317 
0.884 0.392 -0.095 371 
0.868 0.378 -0.093 437 
0.87 0.373 -0.093 504 
0.871 0.367 -0.093 566 
0.87 0.361 -0.093 638 
0.873 0.356 -0.093 717 
0.863 0.346 -0.092 781 
0.858 0.338 -0.091 840 
0.859 0.332 -0.091 913 
0.86 0.327 -0.091 959 
0.862 0.322 -0.091 982 
0.858 0.314 -0.09 1016 
0.858 0.309 -0.09 1068 
0.856 0.302 -0.09 1113 
0.858 0.297 -0.09 1161 
0.855 0.29 -0.089 1191 
0.861 0.287 -0.09 1244 
0.853 0.279 -0.089 1281 
0.857 0.274 -0.089 1321 
0.852 0.267 -0.088 1360 
0.848 0.26 -0.087 1375 
0.851 0.256 -0.088 1514 
0.847 0.249 -0.087 1687 
0.845 0.243 -0.087 1513 
0.851 0.24 -0.087 1585 
0.849 0.234 -0.087 1412 
0.855 0.23 -0.087 1607 
0.853 0.224 -0.087 1616 
0.849 0.218 -0.086 1514 
0.852 0.213 -0.087 1644 
0.855 0.209 -0.087 1690 
0.849 0.202 -0.086 1687 
0.858 0.199 -0.087 1681 
0.856 0.193 -0.087 1669 
0.847 0.186 -0.085 1648 
0.853 0.182 -0.086 1681 
0.851 0.176 -0.086 1736 
0.85 0.171 -0.085 1745 
0.854 0.167 -0.086 1746 
0.85 0.161 -0.085 1753 
0.854 0.157 -0.086 1738 
0.853 0.151 -0.085 1730 
0.853 0.146 -0.085 1723 
0.859 0.142 -0.086 1287 
0.868 0.324 -0.097 413 
0.833 0.305 -0.093 349 
0.833 0.3 -0.092 335 
0.836 0.295 -0.093 399 
0.858 0.297 -0.095 468 
0.86 0.292 -0.095 542 
0.863 0.288 -0.095 604 
0.862 0.281 -0.095 680 
0.862 0.276 -0.095 747 
0.855 0.268 -0.094 813 
0.867 0.266 -0.095 880 
0.858 0.258 -0.094 1004 
0.855 0.252 -0.093 1182 
0.851 0.245 -0.092 1021 
0.856 0.241 -0.093 1255 
0.853 0.235 -0.092 1048 
0.844 0.227 -0.091 865 
0.856 0.225 -0.092 910 
0.851 0.218 -0.092 849 
0.855 0.214 -0.092 1103 
0.853 0.208 -0.092 1557 
0.853 0.203 -0.092 1410 
0.849 0.197 -0.091 1454 
0.85 0.192 -0.091 1612 
0.857 0.188 -0.092 1458 
0.851 0.182 -0.091 1521 
0.856 0.178 -0.091 1569 
0.853 0.172 -0.091 1613 
0.857 0.168 -0.091 1671 
0.856 0.162 -0.091 1680 
0.856 0.157 -0.091 1688 
0.855 0.152 -0.091 1671 
0.852 0.146 -0.09 1704 
0.857 0.142 -0.091 1201 
0.845 0.254 -0.097 254 
0.834 0.246 -0.096 422 
0.833 0.24 -0.096 512 
0.849 0.223 -0.097 427 
0.844 0.217 -0.096 485 
0.848 0.212 -0.096 583 
0.853 0.208 -0.097 726 
0.856 0.204 -0.097 829 
0.86 0.2 -0.097 910 
0.856 0.193 -0.097 1003 
0.869 0.191 -0.098 866 
0.866 0.185 -0.098 943 
0.857 0.178 -0.096 1002 
0.861 0.173 -0.097 1052 
0.861 0.168 -0.097 1108 
0.859 0.163 -0.096 1143 
0.858 0.157 -0.096 1178 
0.861 0.153 -0.096 1195 
0.863 0.148 -0.096 1235 
0.865 0.143 -0.097 970 
0.858 0.168 -0.101 364 
0.826 0.157 -0.097 237 
0.829 0.142 -0.098 369 
0.827 0.137 -0.097 371 
0.875 0.507 -0.164 743 
0.884 0.505 -0.165 646 
0.857 0.497 -0.166 1167 
0.849 0.486 -0.164 1169 
0.848 0.478 -0.163 1159 
0.853 0.473 -0.164 1134 
0.862 0.472 -0.165 1096 
0.853 0.46 -0.163 1042 
0.863 0.458 -0.164 983 
0.853 0.446 -0.161 933 
0.856 0.441 -0.162 829 
0.857 0.435 -0.161 756 
0.869 0.434 -0.163 657 
0.877 0.431 -0.164 552 
0.883 0.427 -0.165 445 
0.876 0.418 -0.163 354 
0.881 0.413 -0.164 352 
0.877 0.405 -0.162 341 
0.856 0.389 -0.158 269 
0.861 0.5 -0.173 974 
0.863 0.494 -0.172 1043 
0.853 0.481 -0.17 1103 
0.852 0.473 -0.169 1148 
0.859 0.47 -0.17 1189 
0.857 0.462 -0.169 1219 
0.858 0.456 -0.169 1237 
0.852 0.446 -0.167 1270 
0.852 0.439 -0.166 1268 
0.849 0.431 -0.165 1273 
0.855 0.428 -0.166 1271 
0.856 0.421 -0.166 1232 
0.858 0.416 -0.166 1210 
0.856 0.408 -0.165 1176 
0.855 0.402 -0.164 1103 
0.855 0.395 -0.164 1055 
0.857 0.39 -0.164 971 
0.861 0.385 -0.164 904 
0.855 0.376 -0.163 815 
0.862 0.373 -0.163 713 
0.863 0.367 -0.163 604 
0.872 0.365 -0.165 495 
0.862 0.354 -0.162 410 
0.865 0.35 -0.163 394 
0.848 0.337 -0.159 441 
0.862 0.336 -0.161 348 
0.837 0.315 -0.156 175 
0.873 0.479 -0.179 655 
0.861 0.465 -0.176 761 
0.863 0.459 -0.175 859 
0.855 0.448 -0.173 945 
0.85 0.439 -0.172 1028 
0.859 0.437 -0.173 1116 
0.85 0.425 -0.171 1185 
0.853 0.421 -0.171 1214 
0.852 0.413 -0.17 1264 
0.843 0.403 -0.168 1299 
0.85 0.399 -0.169 1332 
0.854 0.395 -0.169 1337 
0.856 0.389 -0.169 1327 
0.85 0.381 -0.168 1358 
0.851 0.375 -0.167 1341 
0.848 0.367 -0.166 1326 
0.853 0.363 -0.167 1302 
0.85 0.356 -0.166 1290 
0.854 0.351 -0.166 1256 
0.854 0.345 -0.166 1221 
0.855 0.34 -0.166 1167 
0.855 0.334 -0.165 1102 
0.859 0.33 -0.166 1036 
0.861 0.324 -0.166 956 
0.864 0.319 -0.166 860 
0.863 0.313 -0.166 781 
0.864 0.308 -0.165 672 
0.86 0.301 -0.164 580 
0.86 0.295 -0.164 492 
0.853 0.287 -0.162 421 
0.85 0.28 -0.161 440 
0.847 0.273 -0.16 478 
0.863 0.273 -0.163 628 
0.863 0.267 -0.163 465 
0.889 0.466 -0.186 315 
0.885 0.45 -0.184 354 
0.874 0.438 -0.181 449 
0.883 0.435 -0.183 542 
0.867 0.421 -0.179 662 
0.863 0.413 -0.178 772 
0.867 0.408 -0.178 885 
0.855 0.396 -0.175 955 
0.866 0.395 -0.177 1036 
0.852 0.382 -0.173 1138 
0.854 0.376 -0.173 1188 
0.854 0.37 -0.173 1240 
0.855 0.365 -0.173 1281 
0.852 0.357 -0.172 1335 
0.852 0.351 -0.171 1374 
0.851 0.345 -0.171 1400 
0.85 0.338 -0.17 1410 
0.852 0.333 -0.17 1442 
0.851 0.327 -0.17 1445 
0.853 0.322 -0.17 1436 
0.851 0.315 -0.169 1433 
0.855 0.311 -0.169 1422 
0.853 0.304 -0.169 1392 
0.854 0.299 -0.169 1376 
0.857 0.294 -0.169 1347 
0.855 0.288 -0.168 1315 
0.862 0.284 -0.169 1351 
0.853 0.276 -0.167 1352 
0.856 0.271 -0.167 1371 
0.848 0.263 -0.165 1297 
0.849 0.258 -0.165 1168 
0.858 0.255 -0.167 1005 
0.852 0.247 -0.165 880 
0.857 0.244 -0.166 830 
0.852 0.237 -0.165 776 
0.849 0.23 -0.164 686 
0.856 0.227 -0.165 652 
0.853 0.221 -0.164 605 
0.867 0.219 -0.167 406 
0.867 0.214 -0.167 317 
0.87 0.209 -0.167 451 
0.85 0.167 -0.162 59 
0.874 0.392 -0.184 292 
0.868 0.383 -0.182 385 
0.86 0.373 -0.18 493 
0.861 0.367 -0.18 574 
0.858 0.36 -0.178 673 
0.857 0.354 -0.178 778 
0.863 0.35 -0.179 879 
0.854 0.34 -0.176 980 
0.854 0.334 -0.176 1071 
0.851 0.327 -0.175 1141 
0.856 0.323 -0.176 1204 
0.855 0.317 -0.175 1270 
0.857 0.312 -0.175 1324 
0.854 0.305 -0.174 1374 
0.852 0.298 -0.174 1384 
0.859 0.295 -0.175 1410 
0.852 0.287 -0.173 1450 
0.848 0.28 -0.172 1471 
0.854 0.276 -0.173 1484 
0.852 0.27 -0.172 1508 
0.854 0.265 -0.172 1545 
0.849 0.258 -0.171 1508 
0.847 0.252 -0.17 1485 
0.85 0.247 -0.17 1460 
0.847 0.241 -0.169 1497 
0.85 0.236 -0.17 1496 
0.852 0.232 -0.17 1470 
0.851 0.226 -0.169 1484 
0.854 0.221 -0.17 1492 
0.853 0.216 -0.169 1378 
0.856 0.211 -0.17 1333 
0.856 0.206 -0.17 1278 
0.854 0.2 -0.169 1221 
0.855 0.195 -0.169 1167 
0.852 0.189 -0.168 1139 
0.86 0.185 -0.169 1042 
0.86 0.18 -0.169 993 
0.854 0.174 -0.168 915 
0.857 0.169 -0.168 853 
0.85 0.162 -0.167 793 
0.862 0.159 -0.169 716 
0.858 0.153 -0.168 565 
0.857 0.33 -0.182 434 
0.853 0.322 -0.181 317 
0.858 0.318 -0.181 413 
0.87 0.317 -0.183 528 
0.864 0.309 -0.182 613 
0.866 0.303 -0.182 699 
0.864 0.297 -0.181 777 
0.861 0.29 -0.18 877 
0.862 0.285 -0.18 944 
0.858 0.278 -0.179 1014 
0.859 0.273 -0.179 1097 
0.858 0.267 -0.178 1186 
0.853 0.259 -0.177 1270 
0.851 0.253 -0.176 1333 
0.85 0.247 -0.176 1351 
0.857 0.244 -0.177 1441 
0.85 0.237 -0.175 1487 
0.852 0.232 -0.175 1483 
0.847 0.225 -0.174 1521 
0.845 0.219 -0.173 1587 
0.853 0.216 -0.175 1603 
0.852 0.21 -0.174 1620 
0.847 0.204 -0.173 1633 
0.848 0.199 -0.173 1668 
0.847 0.193 -0.172 1650 
0.849 0.188 -0.173 1670 
0.85 0.183 -0.173 1672 
0.847 0.178 -0.172 1650 
0.854 0.174 -0.173 1596 
0.848 0.167 -0.172 1595 
0.855 0.163 -0.173 1559 
0.852 0.158 -0.172 1537 
0.86 0.154 -0.173 1143 
0.853 0.148 -0.172 233 
0.853 0.271 -0.183 357 
0.862 0.268 -0.184 328 
0.852 0.259 -0.182 354 
0.856 0.255 -0.182 470 
0.854 0.249 -0.182 570 
0.851 0.242 -0.181 672 
0.857 0.239 -0.182 765 
0.855 0.233 -0.181 862 
0.854 0.227 -0.181 933 
0.856 0.222 -0.181 1037 
0.855 0.216 -0.18 1128 
0.854 0.211 -0.18 1195 
0.853 0.205 -0.179 1264 
0.852 0.2 -0.179 1346 
0.85 0.194 -0.178 1414 
0.849 0.188 -0.178 1465 
0.848 0.183 -0.177 1496 
0.848 0.178 -0.177 1553 
0.849 0.173 -0.177 1543 
0.85 0.168 -0.177 1585 
0.846 0.162 -0.176 1611 
0.847 0.157 -0.176 1629 
0.86 0.154 -0.179 1197 
0.871 0.151 -0.181 242 
0.884 0.213 -0.191 446 
0.863 0.202 -0.187 320 
0.861 0.197 -0.186 403 
0.861 0.191 -0.186 489 
0.856 0.185 -0.184 575 
0.857 0.18 -0.184 676 
0.856 0.174 -0.184 754 
0.846 0.167 -0.182 843 
0.858 0.164 -0.184 906 
0.856 0.159 -0.183 950 
0.857 0.154 -0.183 739 
