ply
format ascii 1.0
element vertex 918
property float x
property float y
property float z
property float intensity
end_header
4.21799993515 1.23699998856 -0.180000007153 133.0
4.1970000267 1.20399999619 -0.179000005126 129.0
4.19600009918 1.17700004578 -0.178000003099 132.0
4.15299987793 1.13900005817 -0.175999999046 130.0
4.132999897 1.10800004005 -0.17499999702 123.0
4.20499992371 1.10000002384 -0.178000003099 126.0
4.16800022125 1.06500005722 -0.175999999046 124.0
4.1939997673 1.04499995708 -0.175999999046 121.0
4.18200016022 1.01600003242 -0.175999999046 140.0
4.17999982834 0.990000009537 -0.17499999702 144.0
4.19299983978 0.967000007629 -0.17499999702 140.0
4.17500019073 0.938000023365 -0.173999994993 140.0
4.19999980927 0.917999982834 -0.17499999702 138.0
4.18200016022 0.888000011444 -0.173999994993 127.0
4.21500015259 0.870000004768 -0.17499999702 132.0
4.15799999237 0.833000004292 -0.172999992967 125.0
4.41300010681 0.856999993324 -0.182999998331 74.0
4.67199993134 0.879999995232 -0.193000003695 66.0
4.617000103 0.841000020504 -0.190999999642 79.0
4.6810002327 0.824999988079 -0.193000003695 82.0
4.59399986267 0.782000005245 -0.188999995589 77.0
4.62799978256 0.760999977589 -0.189999997616 75.0
4.71000003815 0.745999991894 -0.193000003695 75.0
4.68300008774 0.713999986649 -0.192000001669 73.0
4.6810002327 0.68599998951 -0.192000001669 74.0
4.64799976349 0.653999984264 -0.189999997616 73.0
4.69299983978 0.633000016212 -0.192000001669 78.0
4.71600008011 0.60799998045 -0.192000001669 69.0
4.72800016403 0.582000017166 -0.192000001669 77.0
4.72900009155 0.554000020027 -0.192000001669 72.0
4.72800016403 0.526000022888 -0.192000001669 63.0
4.75699996948 0.501999974251 -0.193000003695 72.0
4.77600002289 0.476000010967 -0.194000005722 72.0
4.77799987793 0.449000000954 -0.193000003695 68.0
4.82100009918 0.425000011921 -0.194999992847 68.0
4.76300001144 0.391999989748 -0.192000001669 68.0
4.82100009918 0.368999987841 -0.194000005722 69.0
4.84299993515 0.342000007629 -0.194999992847 65.0
4.83699989319 0.31400001049 -0.194999992847 66.0
4.87300014496 0.287999987602 -0.195999994874 65.0
4.82800006866 0.256999999285 -0.194000005722 64.0
4.86800003052 0.231999993324 -0.194999992847 60.0
4.82100009918 0.201000005007 -0.193000003695 61.0
4.93300008774 0.178000003099 -0.197999998927 62.0
4.89300012589 0.148000001907 -0.195999994874 62.0
4.91499996185 0.119999997318 -0.196999996901 58.0
2.54999995232 0.00499999988824 -0.101999998093 49.0
2.51399993896 -0.00899999961257 -0.10000000149 46.0
1.00800001621 -0.0659999996424 -0.0399999991059 884.0
1.0 -0.0710000023246 -0.0399999991059 639.0
0.964999973774 -0.0740000009537 -0.0390000008047 165.0
0.978999972343 -0.0810000002384 -0.0390000008047 153.0
0.945999979973 -0.082999996841 -0.0379999987781 159.0
0.961000025272 -0.0900000035763 -0.0379999987781 156.0
0.967999994755 -0.0960000008345 -0.0390000008047 158.0
0.991999983788 -0.104999996722 -0.0399999991059 162.0
0.955999970436 -0.105999998748 -0.0379999987781 166.0
0.976999998093 -0.11400000006 -0.0390000008047 168.0
0.95300000906 -0.116999998689 -0.0379999987781 169.0
0.954999983311 -0.123000003397 -0.0379999987781 169.0
0.959999978542 -0.128999993205 -0.0379999987781 166.0
0.958000004292 -0.134000003338 -0.0379999987781 177.0
0.967999994755 -0.142000004649 -0.0390000008047 173.0
0.976000010967 -0.148000001907 -0.0390000008047 423.0
0.978999972343 -0.155000001192 -0.0390000008047 1250.0
0.976999998093 -0.159999996424 -0.0390000008047 1365.0
0.972999989986 -0.165000006557 -0.0390000008047 1357.0
0.97000002861 -0.170000001788 -0.0390000008047 1376.0
0.972999989986 -0.177000001073 -0.0390000008047 1378.0
0.967999994755 -0.181999996305 -0.0390000008047 1397.0
0.975000023842 -0.188999995589 -0.0390000008047 1390.0
0.967000007629 -0.193000003695 -0.0390000008047 1403.0
0.964999973774 -0.197999998927 -0.0379999987781 1418.0
0.962999999523 -0.203999996185 -0.0379999987781 1441.0
0.961000025272 -0.209000006318 -0.0379999987781 1446.0
0.961000025272 -0.215000003576 -0.0379999987781 1453.0
0.961000025272 -0.221000000834 -0.0379999987781 1429.0
0.959999978542 -0.226999998093 -0.0379999987781 1457.0
0.952000021935 -0.231000006199 -0.0379999987781 796.0
0.910000026226 -0.225999996066 -0.0359999984503 219.0
0.910000026226 -0.231999993324 -0.0359999984503 208.0
0.920000016689 -0.239999994636 -0.0370000004768 210.0
0.913999974728 -0.244000002742 -0.0370000004768 203.0
0.920000016689 -0.250999987125 -0.0370000004768 204.0
0.935000002384 -0.261000007391 -0.0379999987781 209.0
0.89200001955 -0.254999995232 -0.0359999984503 208.0
0.912000000477 -0.266000002623 -0.0370000004768 209.0
0.89099997282 -0.266000002623 -0.0359999984503 205.0
0.917999982834 -0.280000001192 -0.0370000004768 214.0
0.898999989033 -0.280000001192 -0.0359999984503 209.0
0.898000001907 -0.284999996424 -0.0359999984503 214.0
0.897000014782 -0.291000008583 -0.0359999984503 215.0
0.901000022888 -0.298000007868 -0.0359999984503 265.0
0.925999999046 -0.312000006437 -0.0370000004768 1261.0
0.924000024796 -0.317999988794 -0.0370000004768 1570.0
0.927999973297 -0.324999988079 -0.0379999987781 1584.0
0.924000024796 -0.330000013113 -0.0370000004768 1598.0
0.924000024796 -0.33599999547 -0.0379999987781 1615.0
0.916000008583 -0.340000003576 -0.0370000004768 1609.0
0.915000021458 -0.344999998808 -0.0370000004768 1611.0
0.916000008583 -0.351999998093 -0.0370000004768 1603.0
0.912000000477 -0.356999993324 -0.0370000004768 1622.0
0.916000008583 -0.365000009537 -0.0370000004768 1613.0
0.910000026226 -0.368000000715 -0.0370000004768 1620.0
0.907999992371 -0.374000012875 -0.0370000004768 1624.0
0.90600001812 -0.379000008106 -0.0370000004768 1648.0
0.90499997139 -0.384999990463 -0.0370000004768 1646.0
0.898000001907 -0.388999998569 -0.0370000004768 1024.0
0.880999982357 -0.388000011444 -0.0359999984503 293.0
0.879000008106 -0.393000006676 -0.0359999984503 230.0
0.861000001431 -0.391999989748 -0.0359999984503 223.0
0.865000009537 -0.40000000596 -0.0359999984503 227.0
0.870000004768 -0.409000009298 -0.0359999984503 223.0
0.861999988556 -0.411000013351 -0.0359999984503 230.0
0.853999972343 -0.41400000453 -0.0359999984503 230.0
0.851000010967 -0.418999999762 -0.0359999984503 222.0
0.869000017643 -0.433999985456 -0.0359999984503 226.0
0.847000002861 -0.430000007153 -0.0359999984503 216.0
0.841000020504 -0.432999998331 -0.035000000149 220.0
0.838999986649 -0.437999993563 -0.035000000149 222.0
0.865999996662 -0.458999991417 -0.0370000004768 225.0
0.874000012875 -0.470999985933 -0.0370000004768 1053.0
0.869000017643 -0.47499999404 -0.0370000004768 1628.0
0.865000009537 -0.479999989271 -0.0370000004768 1694.0
2.22000002861 1.27400004864 -0.120999999344 287.0
2.23799991608 1.26499998569 -0.120999999344 176.0
2.30200004578 1.28299999237 -0.123999997973 86.0
3.45000004768 1.42700004578 -0.17499999702 89.0
3.46700000763 1.40999996662 -0.175999999046 94.0
3.83100008965 1.50499999523 -0.193000003695 90.0
3.84299993515 1.48300004005 -0.193000003695 122.0
3.81999993324 1.44799995422 -0.192000001669 122.0
3.92700004578 1.4620000124 -0.195999994874 97.0
3.96000003815 1.4470000267 -0.197999998927 121.0
4.04099988937 1.45000004768 -0.201000005007 126.0
4.15100002289 1.46099996567 -0.206000000238 120.0
4.13100004196 1.42700004578 -0.204999998212 147.0
4.15000009537 1.40600001812 -0.204999998212 133.0
4.16300010681 1.38300001621 -0.204999998212 141.0
4.15399980545 1.35300004482 -0.203999996185 135.0
4.15100002289 1.32500004768 -0.203999996185 120.0
4.13399982452 1.29200005531 -0.202000007033 129.0
4.16800022125 1.27600002289 -0.203999996185 134.0
4.1970000267 1.25800001621 -0.204999998212 137.0
4.16400003433 1.22099995613 -0.202999994159 134.0
4.14699983597 1.19000005722 -0.201000005007 136.0
4.17199993134 1.17100000381 -0.202000007033 135.0
4.17600011826 1.14499998093 -0.202000007033 134.0
4.18200016022 1.1210000515 -0.202000007033 134.0
4.19000005722 1.09700000286 -0.202000007033 138.0
4.21000003815 1.07500004768 -0.202000007033 141.0
4.15100002289 1.03499996662 -0.199000000954 127.0
4.18800020218 1.01800000668 -0.201000005007 138.0
4.17399978638 0.989000022411 -0.20000000298 141.0
4.17899990082 0.963999986649 -0.20000000298 135.0
4.19199991226 0.941999971867 -0.20000000298 142.0
4.17000007629 0.911000013351 -0.197999998927 133.0
4.13000011444 0.876999974251 -0.195999994874 129.0
4.21000003815 0.869000017643 -0.20000000298 132.0
4.16200017929 0.833999991417 -0.196999996901 128.0
4.37799978256 0.850000023842 -0.207000002265 81.0
4.64599990845 0.875 -0.218999996781 67.0
4.57000017166 0.833000004292 -0.215000003576 78.0
4.62400007248 0.814999997616 -0.217999994755 78.0
4.66499996185 0.795000016689 -0.218999996781 84.0
4.65899991989 0.76599997282 -0.218999996781 74.0
4.65700006485 0.737999975681 -0.217999994755 81.0
4.66599988937 0.711000025272 -0.217999994755 71.0
4.71600008011 0.690999984741 -0.221000000834 77.0
4.71099996567 0.662999987602 -0.219999998808 77.0
4.71500015259 0.635999977589 -0.219999998808 78.0
4.76499986649 0.614000022411 -0.222000002861 82.0
4.73199987411 0.582000017166 -0.219999998808 75.0
4.76399993896 0.558000028133 -0.221000000834 74.0
4.742000103 0.527999997139 -0.219999998808 76.0
4.72399997711 0.497999995947 -0.218999996781 72.0
4.71799993515 0.469999998808 -0.218999996781 68.0
4.79500007629 0.449999988079 -0.222000002861 73.0
4.83599996567 0.425999999046 -0.224000006914 65.0
4.80100011826 0.395000010729 -0.222000002861 67.0
4.81799983978 0.368000000715 -0.222000002861 67.0
4.80000019073 0.338999986649 -0.221000000834 68.0
4.867000103 0.316000014544 -0.224000006914 70.0
4.81199979782 0.284000009298 -0.221000000834 67.0
4.88999986649 0.261000007391 -0.22499999404 61.0
4.875 0.231999993324 -0.224000006914 63.0
4.84999990463 0.202999994159 -0.223000004888 66.0
4.90700006485 0.177000001073 -0.22499999404 61.0
4.8860001564 0.148000001907 -0.224000006914 58.0
4.90000009537 0.119999997318 -0.224000006914 60.0
4.86000013351 0.0909999981523 -0.222000002861 52.0
2.47900009155 0.0189999993891 -0.112999998033 51.0
1.00300002098 -0.0649999976158 -0.0460000000894 906.0
1.00699996948 -0.0710000023246 -0.0460000000894 614.0
0.981999993324 -0.0750000029802 -0.0450000017881 166.0
0.986000001431 -0.0810000002384 -0.0450000017881 161.0
0.991999983788 -0.0869999974966 -0.0450000017881 164.0
0.964999973774 -0.0909999981523 -0.0439999997616 169.0
0.987999975681 -0.0989999994636 -0.0450000017881 164.0
0.95300000906 -0.10000000149 -0.0430000014603 166.0
0.962999999523 -0.107000000775 -0.0439999997616 168.0
0.971000015736 -0.11400000006 -0.0439999997616 166.0
0.936999976635 -0.115000002086 -0.0430000014603 171.0
0.953999996185 -0.123000003397 -0.0439999997616 169.0
0.939999997616 -0.126000002027 -0.0430000014603 170.0
0.957000017166 -0.134000003338 -0.0439999997616 184.0
0.930000007153 -0.136000007391 -0.0419999994338 184.0
0.96899998188 -0.146999999881 -0.0439999997616 447.0
0.981000006199 -0.155000001192 -0.0450000017881 1261.0
0.96899998188 -0.158999994397 -0.0439999997616 1355.0
0.975000023842 -0.165999993682 -0.0450000017881 1358.0
0.973999977112 -0.171000003815 -0.0439999997616 1373.0
0.976999998093 -0.178000003099 -0.0450000017881 1384.0
0.96899998188 -0.181999996305 -0.0439999997616 1388.0
0.971000015736 -0.187999993563 -0.0439999997616 1388.0
0.963999986649 -0.193000003695 -0.0439999997616 1400.0
0.966000020504 -0.199000000954 -0.0439999997616 1416.0
0.967000007629 -0.204999998212 -0.0439999997616 1428.0
0.958999991417 -0.209000006318 -0.0439999997616 1445.0
0.958000004292 -0.21400000155 -0.0439999997616 1442.0
0.958999991417 -0.221000000834 -0.0439999997616 1452.0
0.953999996185 -0.22499999404 -0.0439999997616 1465.0
0.950999975204 -0.230000004172 -0.0439999997616 771.0
0.945999979973 -0.234999999404 -0.0430000014603 227.0
0.908999979496 -0.231000006199 -0.0419999994338 206.0
0.913999974728 -0.238000005484 -0.0419999994338 208.0
0.924000024796 -0.24699999392 -0.0419999994338 196.0
0.907999992371 -0.247999995947 -0.0419999994338 206.0
0.933000028133 -0.261000007391 -0.0430000014603 206.0
0.925000011921 -0.263999998569 -0.0430000014603 204.0
0.912999987602 -0.266999989748 -0.0419999994338 203.0
0.916000008583 -0.273000001907 -0.0419999994338 217.0
0.911000013351 -0.277999997139 -0.0419999994338 212.0
0.90499997139 -0.282000005245 -0.0419999994338 222.0
0.916999995708 -0.291000008583 -0.0419999994338 211.0
0.913999974728 -0.29699999094 -0.0419999994338 214.0
0.921000003815 -0.305000007153 -0.0430000014603 274.0
0.92199999094 -0.31099998951 -0.0430000014603 1279.0
0.930999994278 -0.319999992847 -0.0430000014603 1571.0
0.925999999046 -0.324999988079 -0.0430000014603 1590.0
0.925000011921 -0.331000000238 -0.0430000014603 1591.0
0.919000029564 -0.335000008345 -0.0430000014603 1603.0
0.922999978065 -0.342000007629 -0.0430000014603 1594.0
0.915000021458 -0.344999998808 -0.0430000014603 1599.0
0.919000029564 -0.352999985218 -0.0430000014603 1602.0
0.913999974728 -0.358000010252 -0.0430000014603 1617.0
0.912000000477 -0.363000005484 -0.0430000014603 1632.0
0.90499997139 -0.36700001359 -0.0430000014603 1619.0
0.907000005245 -0.374000012875 -0.0430000014603 1628.0
0.90499997139 -0.379000008106 -0.0430000014603 1642.0
0.902000010014 -0.384000003338 -0.0430000014603 1641.0
0.894999980927 -0.388000011444 -0.0419999994338 980.0
0.874000012875 -0.384999990463 -0.0410000011325 289.0
0.866999983788 -0.388000011444 -0.0410000011325 233.0
0.873000025749 -0.397000014782 -0.0419999994338 230.0
0.869000017643 -0.402000010014 -0.0410000011325 221.0
0.865000009537 -0.405999988317 -0.0410000011325 232.0
0.861000001431 -0.411000013351 -0.0410000011325 229.0
0.824999988079 -0.398999989033 -0.0399999991059 220.0
0.836000025272 -0.411000013351 -0.0399999991059 223.0
0.856000006199 -0.428000003099 -0.0410000011325 218.0
0.846000015736 -0.428999990225 -0.0410000011325 226.0
0.837000012398 -0.430999994278 -0.0399999991059 232.0
0.836000025272 -0.437000006437 -0.0410000011325 223.0
0.834999978542 -0.442999988794 -0.0410000011325 225.0
0.871999979019 -0.469999998808 -0.0419999994338 1076.0
0.867999970913 -0.47499999404 -0.0419999994338 1626.0
0.870999991894 -0.483999997377 -0.0430000014603 1683.0
2.23300004005 1.28100001812 -0.136000007391 192.0
2.30100011826 1.30099999905 -0.140000000596 127.0
2.22300004959 1.23899996281 -0.134000003338 77.0
3.50099992752 1.44900000095 -0.20000000298 79.0
3.51799988747 1.43099999428 -0.20000000298 79.0
3.82999992371 1.53100001812 -0.216999992728 66.0
3.92199993134 1.54100000858 -0.222000002861 77.0
3.85700011253 1.48899996281 -0.217999994755 111.0
3.8180000782 1.4470000267 -0.215000003576 106.0
3.89400005341 1.45000004768 -0.218999996781 86.0
3.99900007248 1.4620000124 -0.224000006914 111.0
3.97300004959 1.42499995232 -0.222000002861 118.0
4.14699983597 1.46000003815 -0.231000006199 102.0
4.10900020599 1.41900002956 -0.228000000119 145.0
4.15199995041 1.40699994564 -0.230000004172 125.0
4.18200016022 1.38900005817 -0.231000006199 133.0
4.15799999237 1.35399997234 -0.230000004172 129.0
4.18800020218 1.33599996567 -0.231000006199 115.0
4.17500019073 1.30499994755 -0.230000004172 128.0
4.15700006485 1.27300000191 -0.228000000119 124.0
4.18699979782 1.25499999523 -0.229000002146 130.0
4.17000007629 1.22300004959 -0.228000000119 130.0
4.19899988174 1.20500004292 -0.229000002146 133.0
4.20200014114 1.17900002003 -0.229000002146 132.0
4.1859998703 1.14800000191 -0.226999998093 139.0
4.18400001526 1.1210000515 -0.226999998093 129.0
4.17399978638 1.09300005436 -0.225999996066 134.0
4.22900009155 1.08099997044 -0.228000000119 132.0
4.18800020218 1.04400002956 -0.225999996066 127.0
4.15500020981 1.00999999046 -0.224000006914 137.0
4.15899991989 0.985000014305 -0.224000006914 138.0
4.14699983597 0.957000017166 -0.223000004888 133.0
4.17700004578 0.938000023365 -0.224000006914 135.0
4.1970000267 0.916999995708 -0.224000006914 130.0
4.17299985886 0.885999977589 -0.223000004888 128.0
4.17600011826 0.861999988556 -0.223000004888 134.0
4.18300008774 0.837999999523 -0.223000004888 126.0
4.37799978256 0.851000010967 -0.232999995351 80.0
4.6939997673 0.884000003338 -0.248999997973 67.0
4.6139998436 0.841000020504 -0.245000004768 82.0
4.64900016785 0.819999992847 -0.246000006795 79.0
4.67299985886 0.796000003815 -0.24699999392 80.0
4.65000009537 0.763999998569 -0.245000004768 80.0
4.64099979401 0.735000014305 -0.245000004768 76.0
4.65600013733 0.709999978542 -0.245000004768 71.0
4.66900014877 0.684000015259 -0.246000006795 73.0
4.73299980164 0.666000008583 -0.248999997973 77.0
4.76900005341 0.643000006676 -0.25 74.0
4.75299978256 0.612999975681 -0.248999997973 74.0
4.76999998093 0.587000012398 -0.25 73.0
4.7389998436 0.555000007153 -0.247999995947 75.0
4.75099992752 0.528999984264 -0.247999995947 70.0
4.74800014496 0.500999987125 -0.247999995947 66.0
4.78000020981 0.476000010967 -0.248999997973 71.0
4.76800012589 0.448000013828 -0.247999995947 66.0
4.80999994278 0.423000007868 -0.25 71.0
4.81699991226 0.395999997854 -0.25 69.0
4.84399986267 0.370000004768 -0.252000004053 65.0
4.76000022888 0.33599999547 -0.24699999392 65.0
4.84700012207 0.31400001049 -0.250999987125 63.0
4.88399982452 0.287999987602 -0.252999991179 64.0
4.84200000763 0.25799998641 -0.250999987125 62.0
4.87599992752 0.231999993324 -0.252000004053 66.0
4.88399982452 0.203999996185 -0.252000004053 65.0
4.95800018311 0.178000003099 -0.256000012159 64.0
4.85300016403 0.146999999881 -0.25 63.0
4.91400003433 0.119999997318 -0.252999991179 60.0
1.00999999046 -0.0659999996424 -0.0520000010729 934.0
1.00600004196 -0.0710000023246 -0.0520000010729 737.0
1.00300002098 -0.0769999995828 -0.0520000010729 378.0
1.00499999523 -0.082999996841 -0.0520000010729 355.0
0.989000022411 -0.0869999974966 -0.0509999990463 345.0
0.994000017643 -0.0930000022054 -0.0509999990463 323.0
0.989000022411 -0.0989999994636 -0.0509999990463 310.0
0.985000014305 -0.104000002146 -0.0509999990463 296.0
0.977999985218 -0.108999997377 -0.0500000007451 295.0
0.96899998188 -0.11400000006 -0.0500000007451 283.0
0.977999985218 -0.119999997318 -0.0500000007451 263.0
0.980000019073 -0.126000002027 -0.0500000007451 259.0
0.967999994755 -0.129999995232 -0.0500000007451 255.0
0.976999998093 -0.136999994516 -0.0500000007451 249.0
0.96899998188 -0.142000004649 -0.0500000007451 243.0
0.972999989986 -0.148000001907 -0.0500000007451 496.0
0.975000023842 -0.153999999166 -0.0500000007451 1219.0
0.978999972343 -0.16099999845 -0.0500000007451 1300.0
0.975000023842 -0.165999993682 -0.0500000007451 1314.0
0.971000015736 -0.171000003815 -0.0500000007451 1337.0
0.977999985218 -0.178000003099 -0.0500000007451 1339.0
0.967999994755 -0.181999996305 -0.0500000007451 1358.0
0.967999994755 -0.187999993563 -0.0500000007451 1372.0
0.962999999523 -0.193000003695 -0.0500000007451 1373.0
0.967000007629 -0.199000000954 -0.0500000007451 1382.0
0.967999994755 -0.204999998212 -0.0500000007451 1410.0
0.959999978542 -0.209000006318 -0.0500000007451 1405.0
0.961000025272 -0.215000003576 -0.0500000007451 1419.0
0.958000004292 -0.221000000834 -0.0500000007451 1438.0
0.950999975204 -0.22499999404 -0.0489999987185 1448.0
0.949999988079 -0.230000004172 -0.0489999987185 735.0
0.926999986172 -0.230000004172 -0.0480000004172 227.0
0.922999978065 -0.234999999404 -0.0480000004172 214.0
0.919000029564 -0.239999994636 -0.0480000004172 216.0
0.907000005245 -0.241999998689 -0.0469999983907 219.0
0.922999978065 -0.252000004053 -0.0480000004172 207.0
0.916000008583 -0.256000012159 -0.0480000004172 211.0
0.912000000477 -0.261000007391 -0.0469999983907 212.0
0.925000011921 -0.270000010729 -0.0480000004172 214.0
0.912000000477 -0.272000014782 -0.0480000004172 216.0
0.90600001812 -0.275999993086 -0.0469999983907 216.0
0.915000021458 -0.284999996424 -0.0480000004172 217.0
0.89200001955 -0.284000009298 -0.0469999983907 220.0
0.902000010014 -0.293000012636 -0.0469999983907 224.0
0.916000008583 -0.303000003099 -0.0480000004172 288.0
0.930999994278 -0.31400001049 -0.0489999987185 1306.0
0.92199999094 -0.317000001669 -0.0480000004172 1566.0
0.921000003815 -0.323000013828 -0.0480000004172 1576.0
0.919000029564 -0.328999996185 -0.0480000004172 1589.0
0.915000021458 -0.333000004292 -0.0480000004172 1587.0
0.916999995708 -0.340000003576 -0.0480000004172 1595.0
0.917999982834 -0.347000002861 -0.0489999987185 1591.0
0.911000013351 -0.34999999404 -0.0480000004172 1618.0
0.913999974728 -0.358000010252 -0.0489999987185 1626.0
0.910000026226 -0.361999988556 -0.0480000004172 1624.0
0.912999987602 -0.370000004768 -0.0489999987185 1608.0
0.90600001812 -0.372999995947 -0.0480000004172 1626.0
0.903999984264 -0.379000008106 -0.0480000004172 1637.0
0.90499997139 -0.386000007391 -0.0480000004172 1641.0
0.894999980927 -0.388000011444 -0.0480000004172 952.0
0.89200001955 -0.393000006676 -0.0480000004172 289.0
0.856999993324 -0.384000003338 -0.0460000000894 226.0
0.861000001431 -0.391999989748 -0.0460000000894 228.0
0.861999988556 -0.398999989033 -0.0469999983907 224.0
0.866999983788 -0.407000005245 -0.0469999983907 229.0
0.864000022411 -0.412000000477 -0.0469999983907 230.0
0.855000019073 -0.414999991655 -0.0460000000894 229.0
0.851000010967 -0.418999999762 -0.0460000000894 228.0
0.836000025272 -0.418000012636 -0.0460000000894 217.0
0.84399998188 -0.428000003099 -0.0460000000894 230.0
0.864000022411 -0.444999992847 -0.0469999983907 226.0
0.832000017166 -0.435000002384 -0.0460000000894 224.0
0.846000015736 -0.449000000954 -0.0469999983907 240.0
0.865999996662 -0.467000007629 -0.0480000004172 1127.0
0.871999979019 -0.476999998093 -0.0480000004172 1627.0
0.865000009537 -0.481000006199 -0.0480000004172 1679.0
1.9960000515 1.14600002766 -0.135000005364 136.0
1.91900002956 1.08500003815 -0.128999993205 91.0
3.57999992371 1.45599997044 -0.225999996066 68.0
3.84200000763 1.48300004005 -0.239999994636 79.0
3.875 1.46899998188 -0.241999998689 69.0
4.05800008774 1.51100003719 -0.252000004053 71.0
3.97300004959 1.45200002193 -0.24699999392 83.0
4.17100000381 1.49699997902 -0.25799998641 87.0
4.28599977493 1.50899994373 -0.264999985695 76.0
4.23999977112 1.46500003338 -0.261000007391 102.0
4.24599981308 1.43900001049 -0.261000007391 92.0
4.22700023651 1.40499997139 -0.259000003338 97.0
4.25899982452 1.38699996471 -0.261000007391 97.0
4.23500013351 1.35199999809 -0.259000003338 88.0
4.25699996948 1.33099997044 -0.259999990463 99.0
4.27899980545 1.30999994278 -0.259999990463 93.0
4.22100019455 1.26499998569 -0.256000012159 103.0
4.1810002327 1.22699999809 -0.252999991179 98.0
4.21400022507 1.21000003815 -0.254999995232 103.0
4.2389998436 1.19000005722 -0.256000012159 102.0
4.26000022888 1.16900002956 -0.256999999285 107.0
4.20599985123 1.12699997425 -0.252999991179 106.0
4.21600008011 1.10399997234 -0.252999991179 114.0
4.19199991226 1.07099997997 -0.250999987125 114.0
4.21199989319 1.04999995232 -0.252000004053 110.0
4.22200012207 1.02600002289 -0.252000004053 120.0
4.19500017166 0.994000017643 -0.25 112.0
4.20399999619 0.97000002861 -0.25 120.0
4.19899988174 0.943000018597 -0.25 123.0
4.21299982071 0.921000003815 -0.25 116.0
4.1970000267 0.89200001955 -0.248999997973 115.0
4.18800020218 0.864000022411 -0.247999995947 125.0
4.15199995041 0.832000017166 -0.245000004768 107.0
4.41300010681 0.85799998045 -0.261000007391 78.0
4.67199993134 0.879999995232 -0.27500000596 65.0
4.62799978256 0.84399998188 -0.272000014782 76.0
4.65799999237 0.820999979973 -0.273999989033 82.0
4.66099977493 0.794000029564 -0.273999989033 80.0
4.6890001297 0.771000027657 -0.27500000596 74.0
4.70100021362 0.745000004768 -0.27500000596 74.0
4.69299983978 0.716000020504 -0.27500000596 71.0
4.70100021362 0.68900001049 -0.27500000596 74.0
4.70300006866 0.662000000477 -0.273999989033 69.0
4.71799993515 0.635999977589 -0.27500000596 70.0
4.73600006104 0.610000014305 -0.275999993086 75.0
4.73000001907 0.582000017166 -0.27500000596 72.0
4.75099992752 0.556999981403 -0.275999993086 74.0
4.75699996948 0.52999997139 -0.275999993086 70.0
4.75500011444 0.501999974251 -0.275999993086 70.0
4.80800008774 0.479000002146 -0.279000014067 70.0
4.82000017166 0.451999992132 -0.279000014067 67.0
4.8109998703 0.423000007868 -0.277999997139 69.0
4.80499982834 0.395000010729 -0.277999997139 64.0
4.82100009918 0.368000000715 -0.277999997139 64.0
4.80399990082 0.338999986649 -0.277000010014 64.0
4.84200000763 0.31400001049 -0.279000014067 68.0
4.86600017548 0.287000000477 -0.280000001192 63.0
4.86000013351 0.259000003338 -0.280000001192 60.0
4.91800022125 0.233999997377 -0.282999992371 64.0
4.89099979401 0.203999996185 -0.280999988317 65.0
4.84600019455 0.173999994993 -0.277999997139 62.0
4.91900014877 0.149000003934 -0.282000005245 60.0
4.90700006485 0.119999997318 -0.280999988317 61.0
1.02400004864 -0.0610000006855 -0.0590000003576 180.0
1.00600004196 -0.0659999996424 -0.0579999983311 987.0
1.00600004196 -0.0710000023246 -0.0579999983311 1185.0
1.00199997425 -0.0769999995828 -0.0570000000298 1150.0
0.998000025749 -0.082000002265 -0.0570000000298 1149.0
1.00199997425 -0.0879999995232 -0.0570000000298 1144.0
0.995000004768 -0.0939999967813 -0.0570000000298 1140.0
0.999000012875 -0.10000000149 -0.0570000000298 1135.0
0.995000004768 -0.104999996722 -0.0570000000298 1114.0
0.987999975681 -0.109999999404 -0.0570000000298 1103.0
0.991999983788 -0.115999996662 -0.0570000000298 1105.0
0.978999972343 -0.119999997318 -0.0560000017285 1091.0
0.986000001431 -0.127000004053 -0.0560000017285 1087.0
0.985000014305 -0.133000001311 -0.0560000017285 1068.0
0.98299998045 -0.137999996543 -0.0560000017285 1068.0
0.976999998093 -0.143000006676 -0.0560000017285 1046.0
0.973999977112 -0.148000001907 -0.0560000017285 831.0
0.980000019073 -0.155000001192 -0.0560000017285 509.0
0.98400002718 -0.162000000477 -0.0560000017285 516.0
0.96899998188 -0.165000006557 -0.0560000017285 548.0
0.967999994755 -0.170000001788 -0.0560000017285 576.0
0.962000012398 -0.17499999702 -0.054999999702 607.0
0.963999986649 -0.180999994278 -0.054999999702 649.0
0.97000002861 -0.187999993563 -0.0560000017285 672.0
0.955999970436 -0.190999999642 -0.054999999702 708.0
0.961000025272 -0.197999998927 -0.054999999702 732.0
0.962000012398 -0.203999996185 -0.054999999702 769.0
0.958000004292 -0.209000006318 -0.054999999702 797.0
0.958999991417 -0.215000003576 -0.054999999702 833.0
0.957000017166 -0.219999998808 -0.054999999702 856.0
0.949000000954 -0.224000006914 -0.054999999702 889.0
0.95300000906 -0.231000006199 -0.054999999702 759.0
0.949999988079 -0.236000001431 -0.054999999702 673.0
0.941999971867 -0.239999994636 -0.0540000014007 657.0
0.93900001049 -0.245000004768 -0.0540000014007 647.0
0.95300000906 -0.254999995232 -0.054999999702 618.0
0.938000023365 -0.256999999285 -0.0540000014007 594.0
0.939999997616 -0.263000011444 -0.0540000014007 568.0
0.93900001049 -0.268999993801 -0.0540000014007 552.0
0.938000023365 -0.273999989033 -0.0540000014007 530.0
0.929000020027 -0.277999997139 -0.0540000014007 506.0
0.925999999046 -0.282999992371 -0.0540000014007 491.0
0.92199999094 -0.287000000477 -0.0540000014007 482.0
0.925000011921 -0.293999999762 -0.0540000014007 464.0
0.926999986172 -0.300999999046 -0.0540000014007 444.0
0.930999994278 -0.307999998331 -0.0540000014007 496.0
0.92199999094 -0.31099998951 -0.0540000014007 1211.0
0.920000016689 -0.317000001669 -0.0540000014007 1353.0
0.920000016689 -0.323000013828 -0.0540000014007 1387.0
0.916999995708 -0.32800000906 -0.0540000014007 1402.0
0.916000008583 -0.333999991417 -0.0540000014007 1424.0
0.908999979496 -0.337000012398 -0.0540000014007 1428.0
0.916000008583 -0.345999985933 -0.0540000014007 1422.0
0.913999974728 -0.351999998093 -0.0540000014007 1432.0
0.903999984264 -0.354000002146 -0.0529999993742 1463.0
0.910000026226 -0.361999988556 -0.0540000014007 1464.0
0.903999984264 -0.36700001359 -0.0540000014007 1462.0
0.90600001812 -0.374000012875 -0.0540000014007 1464.0
0.903999984264 -0.379000008106 -0.0540000014007 1489.0
0.898000001907 -0.38299998641 -0.0540000014007 1508.0
0.898999989033 -0.389999985695 -0.0540000014007 864.0
0.89099997282 -0.393000006676 -0.0529999993742 374.0
0.880999982357 -0.395000010729 -0.0529999993742 338.0
0.883000016212 -0.402000010014 -0.0529999993742 331.0
0.874000012875 -0.405000001192 -0.0529999993742 328.0
0.884999990463 -0.416000008583 -0.0529999993742 332.0
0.873000025749 -0.416999995708 -0.0529999993742 318.0
0.865000009537 -0.418999999762 -0.0520000010729 326.0
0.875 -0.430999994278 -0.0529999993742 327.0
0.865999996662 -0.432999998331 -0.0529999993742 317.0
0.855000019073 -0.433999985456 -0.0520000010729 310.0
0.871999979019 -0.449999988079 -0.0529999993742 309.0
0.851000010967 -0.444999992847 -0.0520000010729 307.0
0.850000023842 -0.451999992132 -0.0520000010729 311.0
0.869000017643 -0.469000011683 -0.0529999993742 1146.0
0.870999991894 -0.476999998093 -0.0540000014007 1557.0
0.867999970913 -0.481999993324 -0.0540000014007 1602.0
0.995999991894 0.570999979973 -0.0740000009537 488.0
0.998000025749 0.56400001049 -0.0740000009537 461.0
0.967000007629 0.538999974728 -0.0710000023246 415.0
0.958999991417 0.526000022888 -0.070000000298 371.0
0.955999970436 0.51700001955 -0.070000000298 352.0
0.972000002861 0.518000006676 -0.0710000023246 309.0
0.992999970913 0.521000027657 -0.0719999969006 268.0
0.949999988079 0.49200001359 -0.0689999982715 244.0
0.950999975204 0.483999997377 -0.0689999982715 230.0
0.925000011921 0.463999986649 -0.0670000016689 250.0
0.958000004292 0.472999989986 -0.0689999982715 292.0
0.987999975681 0.481000006199 -0.0710000023246 270.0
0.986000001431 0.472000002861 -0.070000000298 223.0
0.944000005722 0.444999992847 -0.0670000016689 199.0
0.916000008583 0.425000011921 -0.0649999976158 162.0
0.847999989986 0.386999994516 -0.0599999986589 127.0
0.936999976635 0.407000005245 -0.0659999996424 74.0
3.79500007629 1.46500003338 -0.261000007391 76.0
4.03100013733 1.52900004387 -0.275999993086 62.0
4.09499979019 1.49699997902 -0.279000014067 70.0
4.1859998703 1.50199997425 -0.284999996424 70.0
4.257999897 1.5 -0.28900000453 69.0
4.29300022125 1.48399996758 -0.291000008583 87.0
4.29600000381 1.45599997044 -0.289999991655 81.0
4.28100013733 1.42299997807 -0.28900000453 85.0
4.29400014877 1.39900004864 -0.28900000453 86.0
4.31799983978 1.3789999485 -0.289999991655 68.0
4.29300022125 1.34300005436 -0.287999987602 77.0
4.24700021744 1.30099999905 -0.284000009298 74.0
4.3220000267 1.29600000381 -0.28900000453 74.0
4.3109998703 1.26499998569 -0.287000000477 76.0
4.34000015259 1.2460000515 -0.28900000453 74.0
4.31199979782 1.21099996567 -0.286000013351 85.0
4.29600000381 1.17900002003 -0.284999996424 76.0
4.31500005722 1.15699994564 -0.284999996424 75.0
4.29899978638 1.12600004673 -0.284000009298 80.0
4.37699985504 1.11899995804 -0.28900000453 83.0
4.29099988937 1.07000005245 -0.282000005245 75.0
4.27799987793 1.03999996185 -0.280999988317 83.0
4.34200000763 1.02900004387 -0.284999996424 76.0
4.26800012589 0.985000014305 -0.280000001192 82.0
4.26499986649 0.958000004292 -0.279000014067 83.0
4.29899978638 0.939999997616 -0.280999988317 83.0
4.23600006104 0.899999976158 -0.275999993086 79.0
4.3189997673 0.89200001955 -0.280999988317 82.0
4.37099981308 0.875999987125 -0.284000009298 79.0
4.42000007629 0.85900002718 -0.287000000477 66.0
4.8220000267 0.907999992371 -0.312999993563 55.0
4.75600004196 0.866999983788 -0.307999998331 61.0
4.76200008392 0.839999973774 -0.307999998331 60.0
4.70399999619 0.800999999046 -0.303999990225 60.0
4.76000022888 0.782000005245 -0.307000011206 63.0
4.76300001144 0.754999995232 -0.307000011206 58.0
4.73199987411 0.722000002861 -0.303999990225 61.0
4.74700021744 0.695999979973 -0.305000007153 61.0
4.78299999237 0.672999978065 -0.307000011206 61.0
4.74100017548 0.638999998569 -0.303999990225 58.0
4.74700021744 0.611999988556 -0.303999990225 58.0
4.83900022507 0.59500002861 -0.310000002384 59.0
4.78999996185 0.56099998951 -0.305999994278 57.0
4.81300020218 0.536000013351 -0.307000011206 60.0
4.80399990082 0.507000029087 -0.307000011206 58.0
4.86800003052 0.485000014305 -0.310000002384 56.0
4.83400011063 0.453999996185 -0.307999998331 61.0
4.83900022507 0.425999999046 -0.307999998331 63.0
4.82899999619 0.397000014782 -0.307000011206 58.0
4.85400009155 0.370999991894 -0.307999998331 58.0
4.82800006866 0.340999990702 -0.305999994278 62.0
4.83900022507 0.31400001049 -0.307000011206 61.0
4.86899995804 0.287000000477 -0.308999985456 58.0
4.86800003052 0.259000003338 -0.307999998331 60.0
4.91099977493 0.232999995351 -0.31099998951 57.0
4.92600011826 0.204999998212 -0.312000006437 58.0
4.96799993515 0.179000005126 -0.31400001049 58.0
4.94099998474 0.149000003934 -0.312000006437 58.0
5.04099988937 0.123000003397 -0.317999988794 56.0
1.00300002098 -0.0649999976158 -0.0630000010133 1005.0
1.0039999485 -0.0710000023246 -0.0630000010133 1225.0
1.00699996948 -0.0769999995828 -0.0630000010133 1219.0
1.0 -0.082000002265 -0.0630000010133 1234.0
1.0 -0.0879999995232 -0.0630000010133 1232.0
1.0 -0.0939999967813 -0.0630000010133 1257.0
0.995999991894 -0.0989999994636 -0.0630000010133 1259.0
0.991999983788 -0.104999996722 -0.0630000010133 1262.0
0.990999996662 -0.111000001431 -0.0619999989867 1259.0
0.991999983788 -0.115999996662 -0.0630000010133 1270.0
0.986000001431 -0.120999999344 -0.0619999989867 1281.0
0.987999975681 -0.127000004053 -0.0619999989867 1288.0
0.986999988556 -0.133000001311 -0.0619999989867 1299.0
0.98400002718 -0.137999996543 -0.0619999989867 1313.0
0.98299998045 -0.143999993801 -0.0619999989867 1316.0
0.981999993324 -0.15000000596 -0.0619999989867 947.0
0.972999989986 -0.153999999166 -0.0610000006855 229.0
0.961000025272 -0.158000007272 -0.0610000006855 186.0
0.936999976635 -0.158999994397 -0.0590000003576 186.0
0.949000000954 -0.166999995708 -0.0599999986589 192.0
0.940999984741 -0.171000003815 -0.0590000003576 190.0
0.933000028133 -0.17499999702 -0.0590000003576 189.0
0.935000002384 -0.180999994278 -0.0590000003576 199.0
0.929000020027 -0.186000004411 -0.0590000003576 196.0
0.945999979973 -0.194999992847 -0.0599999986589 192.0
0.950999975204 -0.202000007033 -0.0599999986589 206.0
0.944999992847 -0.206000000238 -0.0599999986589 208.0
0.927999973297 -0.208000004292 -0.0590000003576 213.0
0.925999999046 -0.212999999523 -0.0590000003576 212.0
0.93900001049 -0.222000002861 -0.0599999986589 227.0
0.949999988079 -0.231000006199 -0.0599999986589 962.0
0.952000021935 -0.237000003457 -0.0610000006855 1428.0
0.947000026703 -0.240999996662 -0.0599999986589 1444.0
0.943000018597 -0.246000006795 -0.0599999986589 1453.0
0.948000013828 -0.254000008106 -0.0599999986589 1451.0
0.943000018597 -0.25799998641 -0.0599999986589 1443.0
0.93900001049 -0.263000011444 -0.0599999986589 1437.0
0.945999979973 -0.270999997854 -0.0610000006855 1439.0
0.93900001049 -0.27500000596 -0.0599999986589 1436.0
0.93599998951 -0.280000001192 -0.0599999986589 1432.0
0.927999973297 -0.282999992371 -0.0599999986589 1431.0
0.930999994278 -0.289999991655 -0.0599999986589 1430.0
0.931999981403 -0.29699999094 -0.0599999986589 1410.0
0.926999986172 -0.300999999046 -0.0599999986589 1412.0
0.925000011921 -0.305999994278 -0.0599999986589 1312.0
0.915000021458 -0.308999985456 -0.0590000003576 493.0
0.910000026226 -0.312999993563 -0.0590000003576 372.0
0.913999974728 -0.321000009775 -0.0590000003576 390.0
0.913999974728 -0.326999992132 -0.0590000003576 402.0
0.916000008583 -0.333999991417 -0.0590000003576 422.0
0.907999992371 -0.337000012398 -0.0590000003576 447.0
0.925999999046 -0.34999999404 -0.0599999986589 454.0
0.912000000477 -0.351000010967 -0.0590000003576 473.0
0.90499997139 -0.354000002146 -0.0590000003576 497.0
0.907000005245 -0.361999988556 -0.0590000003576 527.0
0.90600001812 -0.36700001359 -0.0590000003576 557.0
0.902999997139 -0.372999995947 -0.0590000003576 567.0
0.893000006676 -0.375 -0.0590000003576 599.0
0.897000014782 -0.38299998641 -0.0590000003576 630.0
0.893999993801 -0.388000011444 -0.0590000003576 901.0
0.894999980927 -0.393999993801 -0.0590000003576 1094.0
0.894999980927 -0.400999993086 -0.0590000003576 1102.0
0.893999993801 -0.407000005245 -0.0590000003576 1091.0
0.888999998569 -0.411000013351 -0.0590000003576 1066.0
0.878000020981 -0.412999987602 -0.0579999983311 1051.0
0.885999977589 -0.423999994993 -0.0590000003576 1023.0
0.884999990463 -0.428999990225 -0.0590000003576 1008.0
0.884999990463 -0.43599998951 -0.0590000003576 1022.0
0.883000016212 -0.442000001669 -0.0590000003576 997.0
0.878000020981 -0.446000009775 -0.0590000003576 978.0
0.876999974251 -0.451999992132 -0.0590000003576 972.0
0.875999987125 -0.458999991417 -0.0590000003576 965.0
0.873000025749 -0.463999986649 -0.0590000003576 945.0
0.874000012875 -0.472000002861 -0.0590000003576 957.0
0.870999991894 -0.476999998093 -0.0590000003576 936.0
0.861999988556 -0.479000002146 -0.0590000003576 951.0
0.961000025272 0.550999999046 -0.0780000016093 849.0
0.958000004292 0.541999995708 -0.0769999995828 858.0
0.952000021935 0.53100001812 -0.0759999975562 852.0
0.957000017166 0.526000022888 -0.0759999975562 847.0
0.958999991417 0.518999993801 -0.0759999975562 840.0
0.950999975204 0.507000029087 -0.0750000029802 833.0
0.958999991417 0.503000020981 -0.0759999975562 806.0
0.955999970436 0.495000004768 -0.0750000029802 775.0
0.964999973774 0.49200001359 -0.0759999975562 752.0
0.964999973774 0.485000014305 -0.0759999975562 733.0
0.964999973774 0.476999998093 -0.0750000029802 742.0
0.972000002861 0.472999989986 -0.0759999975562 732.0
0.955999970436 0.458000004292 -0.0740000009537 683.0
0.962999999523 0.453999996185 -0.0750000029802 681.0
0.959999978542 0.446000009775 -0.0740000009537 674.0
0.962000012398 0.439999997616 -0.0740000009537 624.0
0.958999991417 0.430999994278 -0.0740000009537 597.0
0.963999986649 0.425999999046 -0.0740000009537 581.0
0.966000020504 0.419999986887 -0.0740000009537 526.0
0.96899998188 0.414999991655 -0.0740000009537 484.0
0.976999998093 0.411000013351 -0.0740000009537 425.0
0.967999994755 0.400999993086 -0.0729999989271 395.0
0.962000012398 0.391000002623 -0.0729999989271 364.0
0.958999991417 0.384000003338 -0.0719999969006 341.0
0.948000013828 0.372999995947 -0.0710000023246 310.0
0.917999982834 0.354000002146 -0.0689999982715 259.0
0.945999979973 0.358999997377 -0.0710000023246 274.0
0.919000029564 0.342000007629 -0.0689999982715 238.0
0.79699999094 0.286000013351 -0.0590000003576 176.0
0.876999974251 0.308999985456 -0.0649999976158 217.0
0.481000006199 0.165999993682 -0.0359999984503 102.0
0.433999985456 0.146999999881 -0.0320000015199 85.0
0.245000004768 0.0810000002384 -0.0179999992251 79.0
0.136000007391 0.0439999997616 -0.00999999977648 74.0
0.0960000008345 0.0309999994934 -0.00700000021607 71.0
4.78100013733 1.4960000515 -0.349000006914 65.0
4.58099985123 1.40400004387 -0.333999991417 65.0
4.58799982071 1.37600004673 -0.333999991417 66.0
4.49399995804 1.31900000572 -0.326000005007 72.0
4.53399991989 1.30200004578 -0.328999996185 65.0
4.46700000763 1.2539999485 -0.323000013828 72.0
4.39300012589 1.20599997044 -0.317000001669 69.0
4.42199993134 1.18599998951 -0.319000005722 67.0
4.39499998093 1.15100002289 -0.316000014544 72.0
4.3860001564 1.1210000515 -0.314999997616 75.0
4.41499996185 1.10099995136 -0.317000001669 67.0
4.33199977875 1.05400002003 -0.310000002384 79.0
4.37599992752 1.03699994087 -0.312999993563 75.0
4.34100008011 1.00199997425 -0.310000002384 72.0
4.38199996948 0.985000014305 -0.312000006437 82.0
4.37599992752 0.957000017166 -0.312000006437 71.0
4.34499979019 0.924000024796 -0.308999985456 70.0
4.34499979019 0.897000014782 -0.307999998331 69.0
4.38999986649 0.879999995232 -0.31099998951 73.0
4.48199987411 0.870999991894 -0.317000001669 62.0
4.78499984741 0.871999979019 -0.337999999523 54.0
4.75400018692 0.837999999523 -0.335000008345 57.0
4.80900001526 0.819000005722 -0.338999986649 56.0
4.8029999733 0.790000021458 -0.337999999523 55.0
4.93400001526 0.782000005245 -0.347000002861 52.0
4.92199993134 0.750999987125 -0.344999998808 50.0
4.91499996185 0.634000003338 -0.344000011683 52.0
4.92299985886 0.606000006199 -0.344000011683 53.0
4.87799978256 0.572000026703 -0.340000003576 51.0
4.88500022888 0.544000029564 -0.340000003576 49.0
4.88399982452 0.514999985695 -0.340000003576 49.0
4.91200017929 0.490000009537 -0.342000007629 49.0
4.95599985123 0.465000003576 -0.344000011683 50.0
4.90899991989 0.432000011206 -0.340999990702 51.0
4.97700023651 0.409000009298 -0.344999998808 49.0
4.92500019073 0.375999987125 -0.340999990702 52.0
4.92399978638 0.347999989986 -0.340999990702 51.0
4.97300004959 0.236000001431 -0.344000011683 57.0
4.92700004578 0.204999998212 -0.340000003576 49.0
5.02600002289 0.180999994278 -0.347000002861 48.0
4.94099998474 0.149000003934 -0.340999990702 48.0
1.00899994373 -0.0659999996424 -0.0689999982715 1025.0
1.00300002098 -0.0710000023246 -0.0689999982715 1227.0
1.00699996948 -0.0769999995828 -0.0689999982715 1229.0
0.999000012875 -0.082000002265 -0.0689999982715 1242.0
0.995000004768 -0.0879999995232 -0.0680000036955 1235.0
0.995999991894 -0.0939999967813 -0.0689999982715 1262.0
0.994000017643 -0.0989999994636 -0.0680000036955 1259.0
0.994000017643 -0.104999996722 -0.0680000036955 1252.0
0.990000009537 -0.109999999404 -0.0680000036955 1270.0
0.987999975681 -0.115999996662 -0.0680000036955 1284.0
0.991999983788 -0.122000001371 -0.0680000036955 1289.0
0.990000009537 -0.12800000608 -0.0680000036955 1291.0
0.989000022411 -0.133000001311 -0.0680000036955 1302.0
0.986000001431 -0.138999998569 -0.0680000036955 1323.0
0.985000014305 -0.143999993801 -0.0680000036955 1311.0
0.977999985218 -0.149000003934 -0.0670000016689 918.0
0.963999986649 -0.152999997139 -0.0659999996424 231.0
0.930999994278 -0.152999997139 -0.0640000030398 178.0
0.961000025272 -0.16400000453 -0.0659999996424 182.0
0.961000025272 -0.168999999762 -0.0659999996424 184.0
0.939999997616 -0.171000003815 -0.0649999976158 190.0
0.920000016689 -0.172999992967 -0.0640000030398 187.0
0.916000008583 -0.178000003099 -0.0630000010133 192.0
0.938000023365 -0.187999993563 -0.0649999976158 187.0
0.927999973297 -0.190999999642 -0.0640000030398 191.0
0.944999992847 -0.20000000298 -0.0649999976158 196.0
0.913999974728 -0.199000000954 -0.0630000010133 192.0
0.921000003815 -0.206000000238 -0.0640000030398 201.0
0.953999996185 -0.219999998808 -0.0659999996424 203.0
0.925999999046 -0.218999996781 -0.0640000030398 216.0
0.950999975204 -0.231000006199 -0.0659999996424 996.0
0.955999970436 -0.238000005484 -0.0670000016689 1461.0
0.952000021935 -0.243000000715 -0.0659999996424 1487.0
0.944000005722 -0.24699999392 -0.0659999996424 1502.0
0.944999992847 -0.252999991179 -0.0659999996424 1500.0
0.949000000954 -0.259999990463 -0.0659999996424 1510.0
0.944999992847 -0.264999985695 -0.0659999996424 1506.0
0.938000023365 -0.268999993801 -0.0659999996424 1515.0
0.93599998951 -0.273999989033 -0.0659999996424 1520.0
0.934000015259 -0.279000014067 -0.0649999976158 1518.0
0.935000002384 -0.286000013351 -0.0659999996424 1535.0
0.93599998951 -0.291999995708 -0.0659999996424 1546.0
0.931999981403 -0.29699999094 -0.0659999996424 1545.0
0.929000020027 -0.301999986172 -0.0649999976158 1546.0
0.930999994278 -0.307999998331 -0.0659999996424 1408.0
0.919000029564 -0.31099998951 -0.0649999976158 399.0
0.893000006676 -0.307999998331 -0.0630000010133 223.0
0.89099997282 -0.312999993563 -0.0630000010133 224.0
0.878000020981 -0.31400001049 -0.0619999989867 226.0
0.903999984264 -0.328999996185 -0.0640000030398 221.0
0.898999989033 -0.333999991417 -0.0640000030398 225.0
0.893000006676 -0.337000012398 -0.0640000030398 232.0
0.90600001812 -0.349000006914 -0.0649999976158 223.0
0.876999974251 -0.342999994755 -0.0630000010133 226.0
0.894999980927 -0.356999993324 -0.0640000030398 230.0
0.893000006676 -0.361999988556 -0.0640000030398 227.0
0.888999998569 -0.36700001359 -0.0640000030398 229.0
0.870000004768 -0.365000009537 -0.0630000010133 235.0
0.885999977589 -0.377999991179 -0.0640000030398 235.0
0.889999985695 -0.386000007391 -0.0640000030398 988.0
0.899999976158 -0.397000014782 -0.0649999976158 1573.0
0.898999989033 -0.402999997139 -0.0649999976158 1636.0
0.893000006676 -0.407000005245 -0.0649999976158 1626.0
0.89099997282 -0.412999987602 -0.0649999976158 1635.0
0.89200001955 -0.419999986887 -0.0649999976158 1638.0
0.888999998569 -0.425000011921 -0.0649999976158 1661.0
0.883000016212 -0.428999990225 -0.0649999976158 1651.0
0.887000024319 -0.437000006437 -0.0649999976158 1637.0
0.884000003338 -0.442999988794 -0.0649999976158 1629.0
0.882000029087 -0.449000000954 -0.0649999976158 1637.0
0.879999995232 -0.453999996185 -0.0649999976158 1617.0
0.871999979019 -0.456999987364 -0.0649999976158 1622.0
0.871999979019 -0.463999986649 -0.0649999976158 1592.0
0.861999988556 -0.465000003576 -0.0640000030398 650.0
0.837000012398 -0.458000004292 -0.0619999989867 305.0
0.84500002861 -0.469999998808 -0.0630000010133 284.0
0.958000004292 0.550000011921 -0.0839999988675 874.0
0.957000017166 0.541000008583 -0.082999996841 888.0
0.953999996185 0.532000005245 -0.082999996841 909.0
0.948000013828 0.521000027657 -0.082000002265 905.0
0.955999970436 0.51700001955 -0.082000002265 922.0
0.955999970436 0.509999990463 -0.082000002265 938.0
0.954999983311 0.501999974251 -0.082000002265 945.0
0.957000017166 0.495000004768 -0.082000002265 947.0
0.955999970436 0.486999988556 -0.0810000002384 952.0
0.95300000906 0.479000002146 -0.0810000002384 973.0
0.954999983311 0.472000002861 -0.0810000002384 985.0
0.957000017166 0.465999990702 -0.0810000002384 990.0
0.954999983311 0.458000004292 -0.0799999982119 985.0
0.955999970436 0.451000005007 -0.0799999982119 1003.0
0.958999991417 0.444999992847 -0.0799999982119 983.0
0.961000025272 0.43900001049 -0.0799999982119 959.0
0.959999978542 0.432000011206 -0.0799999982119 968.0
0.962000012398 0.425999999046 -0.0799999982119 986.0
0.966000020504 0.421000003815 -0.0799999982119 957.0
0.963999986649 0.412000000477 -0.0790000036359 925.0
0.962999999523 0.405000001192 -0.0790000036359 931.0
0.972000002861 0.402000010014 -0.0799999982119 925.0
0.971000015736 0.395000010729 -0.0790000036359 921.0
0.962999999523 0.384999990463 -0.0790000036359 925.0
0.962000012398 0.377999991179 -0.0780000016093 917.0
0.96899998188 0.374000012875 -0.0790000036359 894.0
0.97000002861 0.368000000715 -0.0790000036359 857.0
0.973999977112 0.363000005484 -0.0790000036359 834.0
0.96899998188 0.354000002146 -0.0780000016093 831.0
0.96899998188 0.347999989986 -0.0780000016093 814.0
0.967999994755 0.340999990702 -0.0780000016093 790.0
0.971000015736 0.33599999547 -0.0780000016093 771.0
0.959999978542 0.324999988079 -0.0769999995828 727.0
0.97000002861 0.323000013828 -0.0769999995828 690.0
0.971000015736 0.317000001669 -0.0769999995828 660.0
0.971000015736 0.310000002384 -0.0769999995828 651.0
0.972000002861 0.303999990225 -0.0769999995828 625.0
0.966000020504 0.296000003815 -0.0759999975562 585.0
0.955999970436 0.287000000477 -0.0759999975562 563.0
0.964999973774 0.282999992371 -0.0759999975562 538.0
0.959999978542 0.275999993086 -0.0759999975562 481.0
0.972999989986 0.273000001907 -0.0759999975562 448.0
0.95300000906 0.261999994516 -0.0750000029802 406.0
0.939999997616 0.252999991179 -0.0740000009537 373.0
0.944999992847 0.247999995947 -0.0740000009537 350.0
0.915000021458 0.233999997377 -0.0710000023246 312.0
0.913999974728 0.229000002146 -0.0710000023246 278.0
0.907000005245 0.221000000834 -0.0710000023246 245.0
0.887000024319 0.21099999547 -0.0689999982715 228.0
0.825999975204 0.190999999642 -0.0640000030398 198.0
0.814999997616 0.184000000358 -0.0630000010133 169.0
0.783999979496 0.172000005841 -0.0610000006855 144.0
0.711000025272 0.151999995112 -0.054999999702 129.0
0.637000024319 0.131999999285 -0.0489999987185 100.0
0.564999997616 0.11400000006 -0.0439999997616 88.0
0.778999984264 0.151999995112 -0.0599999986589 104.0
0.707000017166 0.134000003338 -0.0540000014007 95.0
0.788999974728 0.144999995828 -0.0610000006855 118.0
0.474000006914 0.0839999988675 -0.0359999984503 81.0
0.291000008583 0.0500000007451 -0.0219999998808 64.0
0.518000006676 0.0860000029206 -0.0399999991059 78.0
0.527999997139 0.0850000008941 -0.0399999991059 68.0
0.374000012875 0.0579999983311 -0.0289999991655 69.0
