ply
format ascii 1.0
element vertex 989
property float x
property float y
property float z
property float intensity
end_header
4.27400016785 -0.907000005245 1.62300002575 99.0
4.29300022125 -0.93900001049 1.63199996948 94.0
4.3109998703 -0.971000015736 1.64100003242 99.0
4.26000022888 -0.986999988556 1.62399995327 92.0
4.26999998093 -1.01699995995 1.62999999523 91.0
4.30800008774 -1.05400002003 1.64699995518 95.0
4.28299999237 -1.0759999752 1.63900005817 98.0
4.242000103 -1.09300005436 1.62600004673 92.0
4.30000019073 -1.13699996471 1.65100002289 93.0
4.29799985886 -1.16499996185 1.65199995041 103.0
4.26900005341 -1.18599998951 1.64400005341 95.0
4.29600000381 -1.22200000286 1.65699994564 88.0
4.27400016785 -1.24399995804 1.65100002289 98.0
4.27600002289 -1.27400004864 1.65499997139 99.0
4.29600000381 -1.30900001526 1.66499996185 94.0
4.32399988174 -1.34700000286 1.67900002003 95.0
4.27899980545 -1.36199998856 1.66400003433 91.0
4.26399993896 -1.38699996471 1.66199994087 92.0
4.31300020218 -1.43299996853 1.68400001526 91.0
4.32299995422 -1.4659999609 1.69099998474 96.0
4.29099988937 -1.48500001431 1.68200004101 86.0
4.30100011826 -1.51900005341 1.68900001049 92.0
4.3109998703 -1.5529999733 1.69599997997 93.0
4.28499984741 -1.57400000095 1.68900001049 86.0
4.2610001564 -1.59599995613 1.68400001526 85.0
4.33199977875 -1.65400004387 1.71500003338 92.0
4.27099990845 -1.66100001335 1.69500005245 92.0
4.34899997711 -1.72399997711 1.73000001907 85.0
4.30700016022 -1.73899996281 1.71700000763 87.0
4.28399991989 -1.76100003719 1.7120000124 88.0
4.26999998093 -1.78699994087 1.71000003815 88.0
4.23600006104 -1.80400002003 1.70000004768 95.0
4.31300020218 -1.87000000477 1.73599994183 87.0
4.24800014496 -1.87399995327 1.71399998665 94.0
4.25899982452 -1.91100001335 1.72300004959 87.0
4.28700017929 -1.95700001717 1.73800003529 86.0
4.28599977493 -1.99000000954 1.74300003052 92.0
4.30499982834 -2.03200006485 1.75499999523 91.0
0.0130000002682 -0.0010000000475 0.00200000009499 89.0
0.00899999961257 0.0 0.0 96.0
4.26399993896 -2.11400008202 1.75300002098 92.0
0.0340000018477 -0.0120000001043 0.00999999977648 88.0
0.0250000003725 -0.00700000021607 0.00700000021607 91.0
0.0130000002682 -0.0010000000475 0.0010000000475 92.0
0.0340000018477 -0.0130000002682 0.00999999977648 98.0
0.0680000036955 -0.0320000015199 0.0250000003725 99.0
0.130999997258 -0.0670000016689 0.0509999990463 96.0
0.158000007272 -0.0839999988675 0.0630000010133 96.0
0.115000002086 -0.0599999986589 0.0450000017881 95.0
2.15000009537 1.32299995422 0.89200001955 242.0
2.16799998283 1.31500005722 0.896000027657 241.0
2.15400004387 1.28699994087 0.887000024319 223.0
2.15899991989 1.27100002766 0.887000024319 174.0
2.15599989891 1.25 0.883000016212 102.0
2.22000002861 1.26900005341 0.90600001812 124.0
2.22499990463 1.25199997425 0.90600001812 223.0
2.28200006485 1.26499998569 0.925999999046 164.0
2.41499996185 1.31799995899 0.976999998093 103.0
3.6740000248 1.51400005817 1.42599999905 77.0
3.88199996948 1.54299998283 1.5 79.0
4.01599979401 1.50899994373 1.54299998283 75.0
4.05900001526 1.4960000515 1.55599999428 76.0
4.10500001907 1.48399996758 1.57099997997 79.0
4.25 1.50600004196 1.62300002575 78.0
4.19000005722 1.45500004292 1.59800004959 86.0
4.16599988937 1.41799998283 1.58599996567 108.0
4.15700006485 1.38600003719 1.58000004292 117.0
4.18800020218 1.36699998379 1.58899998665 127.0
4.1939997673 1.34000003338 1.58800005913 119.0
4.16800022125 1.3029999733 1.5759999752 125.0
4.16200017929 1.27300000191 1.57099997997 121.0
4.20499992371 1.25800001621 1.58500003815 118.0
4.16699981689 1.21899998188 1.56799995899 110.0
4.1859998703 1.19599997997 1.57299995422 117.0
4.20599985123 1.1740000248 1.57799994946 121.0
4.22300004959 1.14999997616 1.58299994469 117.0
4.25199985504 1.12999999523 1.5909999609 126.0
4.1970000267 1.08800005913 1.56900000572 124.0
4.19999980927 1.06099998951 1.56799995899 121.0
4.21600008011 1.03699994087 1.5720000267 116.0
4.14799976349 0.994000017643 1.54499995708 119.0
4.24100017548 0.987999975681 1.57799994946 117.0
4.21899986267 0.955999970436 1.56700003147 121.0
4.21600008011 0.927999973297 1.56500005722 119.0
4.22499990463 0.902999997139 1.56599998474 115.0
4.22800016403 0.875999987125 1.56599998474 110.0
4.20599985123 0.84500002861 1.55599999428 107.0
4.18400001526 0.81400001049 1.54700005054 117.0
4.22700023651 0.796000003815 1.56099998951 118.0
4.19799995422 0.763999998569 1.5490000248 119.0
4.1970000267 0.736999988556 1.54700005054 112.0
4.22300004959 0.714999973774 1.55599999428 113.0
4.19899988174 0.685000002384 1.54499995708 109.0
4.21600008011 0.661000013351 1.55099999905 105.0
4.25500011444 0.64099997282 1.56400001049 108.0
4.21000003815 0.60799998045 1.54600000381 107.0
4.21700000763 0.582000017166 1.54799997807 108.0
4.24900007248 0.56099998951 1.55900001526 105.0
4.24800014496 0.533999979496 1.55700004101 107.0
4.20800018311 0.503000020981 1.54200005531 104.0
4.23299980164 0.479999989271 1.54999995232 108.0
4.23699998856 0.453999996185 1.55099999905 107.0
4.22800016403 0.428000003099 1.54700005054 103.0
4.24599981308 0.402999997139 1.5529999733 111.0
4.26000022888 0.379000008106 1.55700004101 110.0
4.22700023651 0.34999999404 1.54499995708 105.0
4.24499988556 0.324999988079 1.55099999905 105.0
4.21099996567 0.29699999094 1.5379999876 104.0
4.23500013351 0.273000001907 1.54600000381 103.0
4.24800014496 0.247999995947 1.55099999905 110.0
4.23299980164 0.221000000834 1.54499995708 105.0
4.22399997711 0.194999992847 1.54100000858 109.0
4.23799991608 0.170000001788 1.54600000381 106.0
4.1810002327 0.143000006676 1.52499997616 107.0
4.22200012207 0.118000000715 1.53999996185 101.0
4.17700004578 0.0920000001788 1.52300000191 108.0
4.29500007629 0.0680000036955 1.56700003147 98.0
4.22499990463 0.0419999994338 1.54100000858 102.0
4.25500011444 0.01600000076 1.55200004578 105.0
4.25400018692 -0.00899999961257 1.55200004578 105.0
4.25099992752 -0.0340000018477 1.55099999905 110.0
4.23600006104 -0.0599999986589 1.54600000381 105.0
4.25899982452 -0.0860000029206 1.55499994755 103.0
4.17600011826 -0.109999999404 1.52499997616 103.0
4.29400014877 -0.138999998569 1.56799995899 106.0
4.21299982071 -0.162000000477 1.53900003433 109.0
4.28599977493 -0.190999999642 1.56599998474 110.0
4.21199989319 -0.212999999523 1.53900003433 103.0
4.26499986649 -0.240999996662 1.55900001526 105.0
4.18499994278 -0.261999994516 1.53100001812 107.0
4.24499988556 -0.291999995708 1.5529999733 100.0
4.19600009918 -0.31400001049 1.53600001335 104.0
4.28999996185 -0.347000002861 1.57099997997 100.0
4.28499984741 -0.372999995947 1.57000005245 104.0
4.24900007248 -0.395999997854 1.55799996853 96.0
4.25199985504 -0.42199999094 1.55999994278 110.0
4.24900007248 -0.448000013828 1.55999994278 100.0
4.28499984741 -0.477999985218 1.57400000095 105.0
4.27400016785 -0.503000020981 1.57099997997 99.0
4.20900011063 -0.522000014782 1.54799997807 100.0
4.28200006485 -0.556999981403 1.5759999752 105.0
4.30399990082 -0.587000012398 1.58599996567 104.0
4.27500009537 -0.60900002718 1.5759999752 102.0
4.30200004578 -0.639999985695 1.5870000124 106.0
4.29500007629 -0.666000008583 1.58599996567 109.0
4.29199981689 -0.691999971867 1.5870000124 107.0
4.26200008392 -0.713999986649 1.57700002193 98.0
4.28999996185 -0.745999991894 1.58899998665 105.0
4.30800008774 -0.776000022888 1.59700000286 108.0
4.33400011063 -0.808000028133 1.60899996758 103.0
4.33500003815 -0.836000025272 1.61099994183 102.0
4.27299976349 -0.851000010967 1.58899998665 97.0
4.29500007629 -0.883000016212 1.59899997711 100.0
4.3189997673 -0.915000021458 1.61000001431 100.0
4.27699995041 -0.934000015259 1.59700000286 106.0
4.27500009537 -0.961000025272 1.59800004959 102.0
4.29099988937 -0.991999983788 1.60599994659 99.0
4.28599977493 -1.01900005341 1.60599994659 109.0
4.30499982834 -1.05099999905 1.61500000954 88.0
4.29799985886 -1.07799994946 1.61500000954 96.0
4.30999994278 -1.10899996758 1.62199997902 93.0
4.33699989319 -1.14499998093 1.63499999046 96.0
4.25199985504 -1.14999997616 1.60500001907 97.0
4.3109998703 -1.19500005245 1.62999999523 101.0
4.30000019073 -1.22099995613 1.62800002098 98.0
4.28999996185 -1.2460000515 1.62699997425 103.0
4.31599998474 -1.28299999237 1.63999998569 95.0
4.28599977493 -1.3029999733 1.63100004196 97.0
4.3189997673 -1.34300005436 1.64600002766 97.0
4.35599994659 -1.38399994373 1.6629999876 91.0
4.28299999237 -1.38999998569 1.63800001144 93.0
4.28999996185 -1.42200005054 1.64400005341 97.0
4.27799987793 -1.44799995422 1.64300000668 91.0
4.31500005722 -1.49000000954 1.65999996662 101.0
4.27600002289 -1.50699996948 1.64800000191 90.0
4.29799985886 -1.54499995708 1.65999996662 93.0
4.34600019455 -1.59300005436 1.68200004101 93.0
4.33300018311 -1.61899995804 1.68099999428 96.0
4.30800008774 -1.64100003242 1.6740000248 95.0
4.28800010681 -1.66400003433 1.66999995708 86.0
4.29400014877 -1.69799995422 1.67599999905 85.0
4.36999988556 -1.75999999046 1.71000003815 86.0
4.28100013733 -1.75600004196 1.67900002003 80.0
4.26499986649 -1.78100001812 1.67700004578 94.0
4.26700019836 -1.81400001049 1.68200004101 97.0
4.3060002327 -1.86300003529 1.7009999752 84.0
4.28800010681 -1.88800001144 1.69799995422 95.0
4.24399995804 -1.90100002289 1.68499994278 87.0
4.26800012589 -1.94400000572 1.69900000095 83.0
4.30499982834 -1.99399995804 1.71800005436 88.0
4.27600002289 -2.01399993896 1.71099996567 89.0
4.26999998093 -2.04500007629 1.71300005913 94.0
4.27199983597 -2.07999992371 1.71899998188 96.0
4.26000022888 -2.10800004005 1.71899998188 96.0
0.11400000006 -0.0520000010729 0.0419999994338 92.0
0.0710000023246 -0.0309999994934 0.0250000003725 94.0
0.119999997318 -0.0570000000298 0.0450000017881 97.0
0.0939999967813 -0.0439999997616 0.035000000149 93.0
0.0410000011325 -0.01600000076 0.0130000002682 95.0
0.185000002384 -0.0949999988079 0.0719999969006 95.0
0.0540000014007 -0.0250000003725 0.0189999993891 96.0
2.14899992943 1.31900000572 0.874000012875 239.0
2.13899993896 1.29400002956 0.866999983788 241.0
2.18400001526 1.30200004578 0.883000016212 233.0
2.15799999237 1.26800000668 0.870000004768 145.0
2.2009999752 1.27300000191 0.884000003338 99.0
2.20600008965 1.25800001621 0.883000016212 140.0
2.257999897 1.26800000668 0.901000022888 231.0
2.34899997711 1.2990000248 0.935000002384 132.0
3.48900008202 1.48599994183 1.33399999142 76.0
3.72300004959 1.50300002098 1.41499996185 78.0
3.75600004196 1.48899996281 1.4240000248 81.0
3.96199989319 1.54200005531 1.49899995327 78.0
3.89800000191 1.48899996281 1.47200000286 74.0
4.09600019455 1.50600004196 1.54100000858 75.0
4.27899980545 1.54299998283 1.60699999332 92.0
4.16900014877 1.47399997711 1.56299996376 77.0
4.20599985123 1.45700001717 1.57400000095 76.0
4.18699979782 1.42200005054 1.56400001049 109.0
4.11600017548 1.36899995804 1.53499996662 129.0
4.14499998093 1.35000002384 1.54299998283 125.0
4.14099979401 1.32099997997 1.53900003433 119.0
4.14400005341 1.29299998283 1.53699994087 120.0
4.19799995422 1.28100001812 1.55499994755 117.0
4.22399997711 1.26100003719 1.56200003624 125.0
4.16599988937 1.2159999609 1.53900003433 117.0
4.15700006485 1.18499994278 1.53299999237 119.0
4.19999980927 1.16900002956 1.54700005054 118.0
4.20900011063 1.14400005341 1.54799997807 120.0
4.17199993134 1.10599994659 1.53199994564 121.0
4.17899990082 1.08099997044 1.53299999237 124.0
4.17999982834 1.05400002003 1.53100001812 121.0
4.1939997673 1.02999997139 1.53499996662 120.0
4.20900011063 1.00600004196 1.5379999876 121.0
4.23199987411 0.98400002718 1.54499995708 118.0
4.22599983215 0.954999983311 1.54100000858 118.0
4.25899982452 0.93599998951 1.55099999905 123.0
4.19799995422 0.894999980927 1.52699995041 117.0
4.18499994278 0.865999996662 1.52100002766 113.0
4.22700023651 0.847999989986 1.53499996662 107.0
4.22200012207 0.819999992847 1.53199994564 121.0
4.23500013351 0.795000016689 1.53499996662 107.0
4.23799991608 0.768999993801 1.53499996662 89.0
4.242000103 0.742999970913 1.53499996662 92.0
4.22700023651 0.713999986649 1.52799999714 92.0
4.24599981308 0.690999984741 1.5340000391 81.0
4.21999979019 0.660000026226 1.52300000191 93.0
4.27899980545 0.643000006676 1.54400002956 92.0
4.26300001144 0.614000022411 1.53699994087 89.0
4.28299999237 0.589999973774 1.54299998283 86.0
4.32999992371 0.569999992847 1.55900001526 87.0
4.28000020981 0.537000000477 1.53999996185 92.0
4.28700017929 0.510999977589 1.54200005531 92.0
4.28800010681 0.485000014305 1.54100000858 84.0
4.30999994278 0.46099999547 1.54799997807 82.0
4.30700016022 0.435000002384 1.54700005054 80.0
4.31799983978 0.409000009298 1.54999995232 80.0
4.23099994659 0.375 1.51800000668 85.0
4.23600006104 0.34999999404 1.51900005341 90.0
4.23699998856 0.298000007868 1.51900005341 90.0
4.28800010681 0.275999993086 1.53699994087 91.0
4.30100011826 0.25 1.54100000858 88.0
4.26000022888 0.222000002861 1.52600002289 93.0
4.34100008011 0.20000000298 1.55499994755 87.0
4.28100013733 0.171000003815 1.53299999237 89.0
4.24399995804 0.143999993801 1.51999998093 84.0
4.17999982834 0.116999998689 1.49699997902 85.0
4.23500013351 0.0930000022054 1.51600003242 92.0
4.24599981308 0.0670000016689 1.51999998093 97.0
4.30200004578 0.0419999994338 1.53999996185 89.0
4.32299995422 0.01600000076 1.54799997807 94.0
4.27699995041 -0.00899999961257 1.53199994564 93.0
4.28299999237 -0.035000000149 1.5340000391 93.0
4.25400018692 -0.0599999986589 1.52400004864 95.0
4.27600002289 -0.0860000029206 1.53199994564 95.0
4.29300022125 -0.112999998033 1.5379999876 94.0
4.26200008392 -0.137999996543 1.52699995041 98.0
4.27500009537 -0.16400000453 1.53299999237 98.0
4.23400020599 -0.187999993563 1.51800000668 94.0
4.24900007248 -0.21400000155 1.52400004864 93.0
4.25 -0.239999994636 1.52499997616 100.0
4.32399988174 -0.270999997854 1.55200004578 98.0
4.26599979401 -0.293000012636 1.53199994564 94.0
4.25400018692 -0.317999988794 1.52799999714 95.0
4.30499982834 -0.347999989986 1.54799997807 93.0
4.3060002327 -0.374000012875 1.5490000248 101.0
4.24900007248 -0.395000010729 1.52900004387 99.0
4.28900003433 -0.425000011921 1.54400002956 96.0
4.23299980164 -0.446000009775 1.52499997616 98.0
4.27799987793 -0.476999998093 1.54200005531 106.0
4.242000103 -0.499000012875 1.52999997139 94.0
4.28200006485 -0.52999997139 1.54600000381 101.0
4.29600000381 -0.558000028133 1.55200004578 103.0
4.26700019836 -0.580999970436 1.54299998283 94.0
4.26599979401 -0.606999993324 1.54400002956 98.0
4.33099985123 -0.643000006676 1.56900000572 102.0
4.27400016785 -0.661000013351 1.5490000248 97.0
4.29799985886 -0.691999971867 1.55900001526 93.0
4.25 -0.711000025272 1.54299998283 94.0
4.23999977112 -0.736000001431 1.54100000858 99.0
4.25199985504 -0.763999998569 1.54700005054 99.0
4.38100004196 -0.814999997616 1.59599995613 108.0
4.24100017548 -0.815999984741 1.54600000381 99.0
4.29699993134 -0.853999972343 1.56900000572 103.0
4.26399993896 -0.875 1.55900001526 106.0
4.31699991226 -0.912999987602 1.58000004292 106.0
4.29199981689 -0.935000002384 1.5720000267 96.0
4.28100013733 -0.959999978542 1.57000005245 99.0
4.29600000381 -0.990999996662 1.57799994946 97.0
4.26599979401 -1.01199996471 1.56900000572 103.0
4.29199981689 -1.04600000381 1.58099997044 98.0
4.28399991989 -1.0720000267 1.58000004292 90.0
4.25199985504 -1.09200000763 1.57000005245 104.0
4.28800010681 -1.1289999485 1.58599996567 103.0
4.29699993134 -1.15999996662 1.59200000763 104.0
4.30700016022 -1.19099998474 1.59800004959 101.0
4.31199979782 -1.22200000286 1.60199999809 97.0
4.28000020981 -1.24100005627 1.59300005436 102.0
4.3140001297 -1.27999997139 1.60800004005 97.0
4.29500007629 -1.3029999733 1.60399997234 101.0
4.28700017929 -1.33000004292 1.60399997234 105.0
4.3109998703 -1.36699998379 1.61500000954 95.0
4.28100013733 -1.38699996471 1.60699999332 102.0
4.26200008392 -1.40999996662 1.60300004482 98.0
4.29699993134 -1.4509999752 1.61899995804 105.0
4.31500005722 -1.48800003529 1.6289999485 95.0
4.26599979401 -1.50100004673 1.61399996281 88.0
4.30800008774 -1.54600000381 1.63300001621 94.0
4.31599998474 -1.57899999619 1.63900005817 92.0
4.31199979782 -1.60800004005 1.64100003242 91.0
4.27199983597 -1.62399995327 1.6289999485 86.0
4.25400018692 -1.64800000191 1.62600004673 91.0
4.28999996185 -1.69299995899 1.64400005341 94.0
4.29899978638 -1.72800004482 1.65100002289 87.0
4.29199981689 -1.75699996948 1.65199995041 82.0
4.30700016022 -1.79499995708 1.66199994087 93.0
4.31199979782 -1.82899999619 1.66799998283 91.0
4.30200004578 -1.85699999332 1.66799998283 103.0
4.25 -1.86699998379 1.65199995041 86.0
4.29500007629 -1.91900002956 1.67299997807 91.0
4.27299976349 -1.94200003147 1.66900002956 86.0
4.24399995804 -1.9620000124 1.66199994087 95.0
4.29699993134 -2.01999998093 1.68700003624 90.0
4.3029999733 -2.05599999428 1.69400000572 86.0
4.26000022888 -2.06900000572 1.68200004101 86.0
0.0149999996647 -0.00200000009499 0.00200000009499 95.0
0.0209999997169 -0.00499999988824 0.00499999988824 89.0
0.0170000009239 -0.00300000002608 0.00300000002608 96.0
0.0170000009239 -0.00400000018999 0.00300000002608 95.0
0.0810000002384 -0.0370000004768 0.0289999991655 99.0
0.0230000000447 -0.00700000021607 0.00600000005215 97.0
2.13700008392 1.30900001526 0.852999985218 235.0
2.15700006485 1.30200004578 0.85799998045 240.0
2.13000011444 1.26699995995 0.84399998188 229.0
2.09500002861 1.22800004482 0.82800000906 178.0
2.22399997711 1.2840000391 0.875999987125 106.0
2.24699997902 1.27799999714 0.882000029087 161.0
2.26300001144 1.26699995995 0.885999977589 227.0
2.36100006104 1.30200004578 0.92199999094 125.0
3.62599992752 1.48800003529 1.35399997234 85.0
3.59200000763 1.4470000267 1.33800005913 91.0
3.6819999218 1.45700001717 1.36899995804 80.0
3.96700000763 1.51199996471 1.47000002861 75.0
4.10300016403 1.53499996662 1.51699995995 74.0
4.07700014114 1.46700000763 1.50199997425 79.0
4.23400020599 1.49399995804 1.55700004101 82.0
4.24399995804 1.46800005436 1.55799996853 81.0
4.14099979401 1.40299999714 1.51699995995 122.0
4.15700006485 1.37999999523 1.52100002766 124.0
4.15999984741 1.35199999809 1.51900005341 128.0
4.1970000267 1.33500003815 1.52999997139 118.0
4.17199993134 1.2990000248 1.51800000668 114.0
4.20699977875 1.28199994564 1.52900004387 116.0
4.21799993515 1.25600004196 1.52999997139 116.0
4.15899991989 1.21099996567 1.50699996948 118.0
4.19500017166 1.19400000572 1.51800000668 117.0
4.14499998093 1.15199995041 1.49800002575 121.0
4.1890001297 1.13600003719 1.51100003719 120.0
4.20200014114 1.11199998856 1.51400005817 123.0
4.22599983215 1.0909999609 1.52100002766 116.0
4.24900007248 1.06900000572 1.52699995041 121.0
4.20699977875 1.03100001812 1.50999999046 116.0
4.25699996948 1.01499998569 1.52600002289 125.0
4.23099994659 0.981999993324 1.51499998569 117.0
4.14699983597 0.93599998951 1.48399996758 125.0
4.23699998856 0.929000020027 1.51400005817 117.0
4.18499994278 0.89099997282 1.49399995804 114.0
4.17299985886 0.861000001431 1.48800003529 112.0
4.1810002327 0.837000012398 1.49000000954 107.0
4.27400016785 0.82800000906 1.52100002766 98.0
4.3029999733 0.805999994278 1.52999997139 75.0
4.367000103 -0.166999995708 1.53600001335 61.0
4.32399988174 -0.217999994755 1.52199995518 81.0
4.32399988174 -0.244000002742 1.52300000191 75.0
4.29699993134 -0.268999993801 1.51400005817 80.0
4.22499990463 -0.314999997616 1.49000000954 92.0
4.28000020981 -0.372000008821 1.50999999046 88.0
4.32999992371 -0.402000010014 1.52900004387 89.0
4.28999996185 -0.425000011921 1.51600003242 91.0
4.32399988174 -0.455000013113 1.52900004387 84.0
4.31799983978 -0.481000006199 1.52799999714 82.0
4.26000022888 -0.5 1.50800001621 83.0
4.24900007248 -0.524999976158 1.50499999523 87.0
4.31300020218 -0.559000015259 1.52900004387 88.0
4.28700017929 -0.583000004292 1.52100002766 89.0
4.32399988174 -0.614000022411 1.53600001335 86.0
4.30700016022 -0.638999998569 1.53100001812 92.0
4.32999992371 -0.669000029564 1.53999996185 92.0
4.29699993134 -0.689999997616 1.52999997139 94.0
4.27099990845 -0.712999999523 1.52199995518 92.0
4.30900001526 -0.745999991894 1.53699994087 97.0
4.28599977493 -0.768999993801 1.52999997139 95.0
4.27899980545 -0.795000016689 1.52900004387 102.0
4.26599979401 -0.819000005722 1.52600002289 101.0
4.30900001526 -0.855000019073 1.54400002956 101.0
4.29699993134 -0.879999995232 1.54100000858 103.0
4.37300014496 -0.922999978065 1.57000005245 95.0
4.28299999237 -0.931999981403 1.53999996185 99.0
4.33699989319 -0.971000015736 1.56099998951 98.0
4.32100009918 -0.995000004768 1.55700004101 106.0
4.24599981308 -1.00499999523 1.53199994564 99.0
4.31300020218 -1.04999995232 1.55900001526 96.0
4.35900020599 -1.08899998665 1.57700002193 98.0
4.27899980545 -1.09700000286 1.55099999905 96.0
4.30800008774 -1.13300001621 1.56299996376 99.0
4.28000020981 -1.15400004387 1.55599999428 101.0
4.28399991989 -1.18299996853 1.55999994278 94.0
4.29600000381 -1.21500003338 1.56599998474 103.0
4.30000019073 -1.24500000477 1.57000005245 106.0
4.28299999237 -1.26800000668 1.56700003147 98.0
4.31799983978 -1.30799996853 1.58200001717 104.0
4.28499984741 -1.32700002193 1.57299995422 98.0
4.29300022125 -1.35899996758 1.57899999619 102.0
4.27600002289 -1.38199996948 1.57500004768 94.0
4.29799985886 -1.41900002956 1.58599996567 91.0
4.26800012589 -1.43900001049 1.57799994946 93.0
4.28200006485 -1.47300004959 1.58599996567 97.0
4.24499988556 -1.49000000954 1.5759999752 97.0
4.34899997711 -1.55799996853 1.61800003052 89.0
4.27799987793 -1.56200003624 1.59399998188 100.0
4.29400014877 -1.59899997711 1.60399997234 87.0
4.30499982834 -1.63399994373 1.61099994183 80.0
4.26200008392 -1.64800000191 1.59899997711 86.0
4.28299999237 -1.68700003624 1.61000001431 82.0
4.26000022888 -1.70899999142 1.60500001907 86.0
4.33699989319 -1.77199995518 1.63800001144 91.0
4.25099992752 -1.76800000668 1.60899996758 88.0
4.27799987793 -1.81099998951 1.62300002575 85.0
4.32800006866 -1.86500000954 1.64600002766 90.0
4.3109998703 -1.88999998569 1.64400005341 81.0
4.3639998436 -1.94599997997 1.66799998283 97.0
4.26900005341 -1.93599998951 1.63600003719 89.0
4.242000103 -1.95700001717 1.62999999523 86.0
4.27400016785 -2.00500011444 1.64699995518 94.0
4.3029999733 -2.05200004578 1.66199994087 90.0
4.31199979782 -2.09100008011 1.66999995708 99.0
0.019999999553 -0.00400000018999 0.00400000018999 94.0
4.20100021362 -2.10299992561 1.63600003719 95.0
0.0619999989867 -0.0260000005364 0.0209999997169 93.0
4.20100021362 -2.17199993134 1.64600002766 91.0
4.13800001144 -2.17300009727 1.62600004673 86.0
2.10899996758 1.28900003433 0.824999988079 235.0
2.15100002289 1.29499995708 0.838999986649 241.0
2.1289999485 1.26300001144 0.827000021935 222.0
2.1210000515 1.24000000954 0.822000026703 112.0
2.21799993515 1.27799999714 0.856999993324 97.0
2.22300004959 1.26199996471 0.856000006199 194.0
2.2460000515 1.25499999523 0.861999988556 204.0
2.36299991608 1.30099999905 0.90499997139 110.0
3.46600008011 1.41900002956 1.26900005341 92.0
3.64800000191 1.46700000763 1.33299994469 80.0
3.7650001049 1.48599994183 1.37300002575 81.0
3.84100008011 1.48899996281 1.39800000191 78.0
4.00299978256 1.52300000191 1.45399999619 84.0
4.0640001297 1.48800003529 1.47099995613 78.0
4.19799995422 1.50800001621 1.51699995995 75.0
4.14599990845 1.46000003815 1.49500000477 78.0
4.21299982071 1.45399999619 1.51699995995 92.0
4.15500020981 1.40499997139 1.49300003052 123.0
4.15700006485 1.37699997425 1.49100005627 127.0
4.21400022507 1.36699998379 1.50899994373 123.0
4.19799995422 1.33299994469 1.50100004673 119.0
4.19999980927 1.30499994755 1.49899995327 119.0
4.21099996567 1.27999997139 1.50100004673 120.0
4.17899990082 1.24199998379 1.48699998856 119.0
4.21799993515 1.22599995136 1.49899995327 129.0
4.19500017166 1.19099998474 1.48899996281 117.0
4.22399997711 1.17100000381 1.49699997902 116.0
4.23400020599 1.14600002766 1.49800002575 126.0
4.1939997673 1.10800004005 1.48199999332 121.0
4.16800022125 1.07400000095 1.47099995613 122.0
4.21299982071 1.05799996853 1.48500001431 121.0
4.24399995804 1.0379999876 1.49399995804 114.0
4.21199989319 1.00300002098 1.48199999332 117.0
4.19600009918 0.972000002861 1.47399997711 119.0
4.21299982071 0.949000000954 1.47800004482 118.0
4.21199989319 0.921000003815 1.47599995136 124.0
4.242000103 0.901000022888 1.48599994183 108.0
4.23000001907 0.870999991894 1.48000001907 113.0
4.1810002327 0.834999978542 1.46099996567 113.0
4.22499990463 0.816999971867 1.47500002384 103.0
4.35200023651 0.81400001049 1.51800000668 62.0
0.555999994278 0.0370000004768 0.188999995589 59.0
4.47200012207 -0.662000000477 1.55900001526 64.0
4.19000005722 -0.646000027657 1.4620000124 68.0
4.33599996567 -0.695999979973 1.51499998569 75.0
4.34399986267 -0.723999977112 1.51900005341 81.0
4.30700016022 -0.745000004768 1.50699996948 85.0
4.37900018692 -0.785000026226 1.5340000391 86.0
4.34100008011 -0.805000007153 1.52199995518 98.0
4.28599977493 -0.822000026703 1.50499999523 82.0
4.36100006104 -0.864000022411 1.53299999237 82.0
4.33400011063 -0.885999977589 1.52499997616 87.0
4.3639998436 -0.920000016689 1.53699994087 77.0
4.29899978638 -0.933000028133 1.51600003242 86.0
4.33599996567 -0.96899998188 1.53100001812 93.0
4.31799983978 -0.992999970913 1.52699995041 86.0
4.27600002289 -1.01100003719 1.51400005817 89.0
4.26499986649 -1.03600001335 1.51199996471 94.0
4.34499979019 -1.08399999142 1.54200005531 85.0
4.27400016785 -1.09399998188 1.51900005341 95.0
4.30999994278 -1.13100004196 1.5340000391 90.0
4.30000019073 -1.15699994564 1.53299999237 98.0
4.32000017166 -1.19099998474 1.54200005531 103.0
4.28599977493 -1.21000003815 1.53299999237 97.0
4.3029999733 -1.24300003052 1.54200005531 99.0
4.23999977112 -1.25300002098 1.52100002766 103.0
4.26900005341 -1.29100000858 1.5340000391 104.0
4.27400016785 -1.32099997997 1.53900003433 97.0
4.29600000381 -1.35699999332 1.54999995232 98.0
4.28100013733 -1.38199996948 1.54700005054 99.0
4.29600000381 -1.41600000858 1.55499994755 97.0
4.28100013733 -1.44000005722 1.5529999733 98.0
4.25500011444 -1.46099996567 1.54600000381 101.0
4.25199985504 -1.49000000954 1.54799997807 105.0
4.23000001907 -1.51199996471 1.54299998283 94.0
4.32700014114 -1.57700002193 1.58200001717 93.0
4.375 -1.62600004673 1.60300004482 91.0
4.24300003052 -1.60699999332 1.55799996853 85.0
4.29600000381 -1.65799999237 1.58000004292 88.0
4.27799987793 -1.68200004101 1.57700002193 88.0
4.28499984741 -1.7159999609 1.58299994469 94.0
4.32600021362 -1.76400005817 1.60199999809 85.0
4.3140001297 -1.79100000858 1.60199999809 92.0
4.30800008774 -1.82000005245 1.60300004482 90.0
4.32899999619 -1.86099994183 1.61500000954 90.0
4.32299995422 -1.89100003242 1.61699998379 85.0
4.29699993134 -1.91199994087 1.61099994183 97.0
4.26399993896 -1.92999994755 1.60300004482 87.0
4.3140001297 -1.98599994183 1.62600004673 85.0
4.33500003815 -2.02900004387 1.63800001144 93.0
4.26000022888 -2.02699995041 1.61399996281 92.0
4.29500007629 -2.07800006866 1.63199996948 88.0
4.28000020981 -2.10400009155 1.62999999523 96.0
4.26499986649 -2.13100004196 1.6289999485 92.0
4.25299978256 -2.15899991989 1.6289999485 97.0
0.122000001371 -0.0579999983311 0.0430000014603 95.0
2.13199996948 1.29999995232 0.816999971867 251.0
2.14599990845 1.28999996185 0.819999992847 244.0
2.13700008392 1.26499998569 0.81400001049 193.0
2.16100001335 1.25999999046 0.820999979973 109.0
2.22699999809 1.27999997139 0.842999994755 121.0
2.26699995995 1.2840000391 0.856000006199 209.0
2.24000000954 1.24899995327 0.842999994755 197.0
2.41499996185 1.32700002193 0.907000005245 112.0
3.58400011063 1.49100005627 1.28999996185 77.0
3.49499988556 1.4279999733 1.25499999523 93.0
3.55599999428 1.42700004578 1.27400004864 83.0
3.86199998856 1.52100002766 1.38100004196 78.0
3.95000004768 1.5 1.40699994564 74.0
4.17500019073 1.55499994755 1.48500001431 78.0
4.13800001144 1.51199996471 1.46800005436 71.0
4.132999897 1.48099994659 1.46399998665 77.0
4.16400003433 1.46300005913 1.47200000286 79.0
4.17399978638 1.43700003624 1.47300004959 87.0
4.15399980545 1.40199995041 1.46399998665 112.0
4.20100021362 1.38900005817 1.47800004482 126.0
4.14300012589 1.3409999609 1.45500004292 121.0
4.1779999733 1.32400000095 1.46500003338 119.0
4.20200014114 1.3029999733 1.47099995613 123.0
4.23400020599 1.2840000391 1.48000001907 117.0
4.13800001144 1.22800004482 1.44400000572 123.0
4.11100006104 1.19200003147 1.43200004101 115.0
4.21799993515 1.19500005245 1.46800005436 114.0
4.22599983215 1.16900002956 1.46899998188 120.0
4.18400001526 1.12999999523 1.45200002193 118.0
4.21999979019 1.11199998856 1.46300005913 119.0
4.16699981689 1.07099997997 1.44200003147 117.0
4.242000103 1.06299996376 1.4659999609 118.0
4.18800020218 1.02199995518 1.44599997997 122.0
4.22900009155 1.00499999523 1.45799994469 113.0
4.23500013351 0.978999972343 1.45899999142 121.0
4.21199989319 0.947000026703 1.44900000095 113.0
4.21899986267 0.921000003815 1.45000004768 120.0
4.21299982071 0.893000006676 1.4470000267 110.0
4.23600006104 0.870999991894 1.45299994946 110.0
4.28100013733 0.852999985218 1.46700000763 113.0
4.25199985504 0.820999979973 1.45599997044 94.0
4.37699985504 -1.00499999523 1.51800000668 69.0
4.35099983215 -1.02699995041 1.51100003719 65.0
4.35300016403 -1.08399999142 1.51600003242 79.0
4.35900020599 -1.11399996281 1.51999998093 76.0
4.33599996567 -1.13600003719 1.51400005817 77.0
4.367000103 -1.17299997807 1.52699995041 82.0
4.32800006866 -1.19099998474 1.51600003242 85.0
4.29699993134 -1.21099996567 1.50699996948 88.0
4.30800008774 -1.24300003052 1.51300001144 95.0
4.36199998856 -1.28699994087 1.53499996662 86.0
4.33599996567 -1.30900001526 1.52799999714 95.0
4.24900007248 -1.31099998951 1.5 88.0
4.30999994278 -1.35899996758 1.52499997616 91.0
4.28200006485 -1.37999999523 1.51699995995 95.0
4.30900001526 -1.41799998283 1.52999997139 91.0
4.30900001526 -1.4470000267 1.53299999237 94.0
4.29799985886 -1.47300004959 1.53100001812 96.0
4.26000022888 -1.49000000954 1.52100002766 96.0
4.32100009918 -1.54200005531 1.54600000381 95.0
4.36499977112 -1.58800005913 1.56500005722 83.0
4.28399991989 -1.58899998665 1.53900003433 86.0
4.34499979019 -1.64199995995 1.56400001049 81.0
4.32700014114 -1.66700005531 1.56099998951 88.0
4.30200004578 -1.68799996376 1.55599999428 80.0
4.26000022888 -1.70200002193 1.54400002956 88.0
4.34200000763 -1.76699995995 1.57700002193 77.0
4.36299991608 -1.80799996853 1.58800005913 81.0
4.3109998703 -1.81799995899 1.57299995422 86.0
4.3220000267 -1.85500001907 1.58099997044 85.0
4.24800014496 -1.85500001907 1.55799996853 81.0
4.19099998474 -1.86099994183 1.54100000858 81.0
4.33199977875 -1.95700001717 1.59700000286 82.0
4.28900003433 -1.97099995613 1.58500003815 89.0
4.33400011063 -2.02500009537 1.60599994659 83.0
4.3140001297 -2.0490000248 1.60300004482 86.0
4.32600021362 -2.08899998665 1.61099994183 89.0
4.25099992752 -2.08599996567 1.58800005913 86.0
0.0430000014603 -0.01600000076 0.0130000002682 85.0
2.117000103 1.2879999876 0.795000016689 235.0
2.11899995804 1.27100002766 0.794000029564 237.0
2.14899992943 1.26999998093 0.801999986172 190.0
2.15499997139 1.25499999523 0.801999986172 105.0
2.20000004768 1.26100003719 0.815999984741 113.0
2.28299999237 1.28999996185 0.84500002861 218.0
2.27800011635 1.26800000668 0.839999973774 172.0
2.375 1.30200004578 0.874000012875 104.0
3.46499991417 1.43799996376 1.22200000286 75.0
3.4509999752 1.40699994564 1.21399998665 86.0
3.57399988174 1.43099999428 1.25499999523 86.0
4.15299987793 1.54400002956 1.4470000267 76.0
4.03100013733 1.47000002861 1.40199995041 76.0
4.19199991226 1.47000002861 1.45299994946 75.0
4.14699983597 1.42599999905 1.43499994278 91.0
4.15999984741 1.40100002289 1.43700003624 124.0
4.20699977875 1.38800001144 1.4509999752 121.0
4.19000005722 1.35399997234 1.44200003147 125.0
4.22399997711 1.33599996567 1.45200002193 116.0
4.15399980545 1.28600001335 1.42599999905 124.0
4.24800014496 1.28600001335 1.45599997044 125.0
4.23699998856 1.25499999523 1.44900000095 119.0
4.1939997673 1.21399998665 1.43299996853 119.0
4.22200012207 1.19400000572 1.44000005722 117.0
4.23500013351 1.16999995708 1.44299995899 118.0
4.21500015259 1.13699996471 1.43400001526 118.0
4.22100019455 1.11000001431 1.43400001526 117.0
4.2389998436 1.0870000124 1.43799996376 114.0
4.22399997711 1.05599999428 1.43099999428 110.0
4.19600009918 1.02199995518 1.41999995708 112.0
4.20599985123 0.996999979019 1.42200005054 107.0
4.19299983978 0.967000007629 1.41600000858 113.0
4.25 0.95300000906 1.43400001526 115.0
4.21799993515 0.919000029564 1.42100000381 117.0
4.21600008011 0.89200001955 1.41900002956 112.0
4.13100004196 0.847999989986 1.38900005817 113.0
4.21000003815 0.837000012398 1.41400003433 115.0
4.22800016403 0.81400001049 1.41900002956 95.0
4.46400022507 -1.25600004196 1.53499996662 69.0
4.44099998474 -1.30799996853 1.53199994564 71.0
4.29099988937 -1.29299998283 1.48300004005 80.0
4.39300012589 -1.35300004482 1.52100002766 78.0
4.42299985886 -1.39199995995 1.5340000391 81.0
4.38199996948 -1.4090000391 1.52199995518 80.0
4.33199977875 -1.42299997807 1.50800001621 89.0
4.35699987411 -1.46099996567 1.51900005341 81.0
4.28599977493 -1.46700000763 1.49699997902 89.0
4.31199979782 -1.50600004196 1.50899994373 82.0
4.37599992752 -1.55799996853 1.53499996662 87.0
4.33699989319 -1.60599994659 1.52699995041 80.0
4.24900007248 -1.60300004482 1.49899995327 73.0
4.46299982071 -1.74800002575 1.58200001717 75.0
4.3029999733 -1.74800002575 1.53199994564 82.0
4.36199998856 -1.83599996567 1.56099998951 81.0
0.0750000029802 -0.0280000008643 0.0240000002086 78.0
4.26800012589 -1.95700001717 1.54600000381 81.0
4.34700012207 -2.06100010872 1.58299994469 91.0
4.23299980164 -2.03999996185 1.54600000381 86.0
0.0170000009239 -0.00300000002608 0.00300000002608 80.0
4.28800010681 -2.13400006294 1.57400000095 81.0
0.912999987602 -0.526000022888 0.342999994755 93.0
0.98299998045 -0.574999988079 0.370999991894 115.0
2.14400005341 1.30200004578 0.788999974728 237.0
2.11999988556 1.26800000668 0.777999997139 240.0
2.16700005531 1.27799999714 0.792999982834 163.0
2.242000103 1.30200004578 0.816999971867 99.0
2.23600006104 1.27900004387 0.813000023365 129.0
2.2460000515 1.26600003242 0.81400001049 248.0
2.28399991989 1.26800000668 0.824999988079 141.0
2.34400010109 1.28199994564 0.84399998188 88.0
3.38599991798 1.40299999714 1.16999995708 94.0
3.46900010109 1.41199994087 1.19599997997 90.0
3.4849998951 1.39300000668 1.19900000095 88.0
3.96099996567 1.52600002289 1.35800004005 78.0
3.91799998283 1.48099994659 1.34000003338 73.0
4.04199981689 1.5 1.37999999523 75.0
4.10500001907 1.49399995804 1.39900004864 79.0
4.1779999733 1.49100005627 1.42200005054 76.0
4.17700004578 1.4620000124 1.41900002956 77.0
4.20300006866 1.44200003147 1.42499995232 102.0
4.13999986649 1.39199995995 1.40100002289 126.0
4.20900011063 1.38600003719 1.42200005054 125.0
4.16699981689 1.34399998188 1.40600001812 129.0
4.17299985886 1.31700003147 1.40499997139 119.0
4.16400003433 1.28699994087 1.39999997616 121.0
4.21099996567 1.27300000191 1.41400003433 113.0
4.19299983978 1.23899996281 1.40600001812 119.0
4.14300012589 1.1970000267 1.38699996471 112.0
4.25199985504 1.20000004768 1.42100000381 112.0
4.19500017166 1.15600001812 1.39999997616 118.0
4.23699998856 1.13999998569 1.4129999876 119.0
4.24599981308 1.11500000954 1.41400003433 116.0
4.20200014114 1.0759999752 1.39699995518 113.0
4.21000003815 1.05099999905 1.39800000191 111.0
4.21099996567 1.02400004864 1.39699995518 112.0
4.18400001526 0.990000009537 1.38600003719 117.0
4.18800020218 0.963999986649 1.38600003719 119.0
4.18699979782 0.936999976635 1.38399994373 113.0
4.21500015259 0.916999995708 1.39199995995 117.0
4.20800018311 0.888999998569 1.38800001144 120.0
4.15399980545 0.851000010967 1.36899995804 113.0
4.19000005722 0.832000017166 1.37999999523 110.0
4.20800018311 0.809000015259 1.38399994373 88.0
4.38199996948 -1.46700000763 1.49800002575 74.0
4.34000015259 -1.48300004005 1.48599994183 73.0
4.29500007629 -1.49699997902 1.47300004959 69.0
4.44500017166 -1.58000004292 1.52799999714 73.0
4.36199998856 -1.61199998856 1.50600004196 75.0
4.40999984741 -1.66100001335 1.52499997616 71.0
4.31699991226 -1.65699994564 1.4960000515 71.0
0.0260000005364 -0.00600000005215 0.00600000005215 74.0
0.00600000005215 0.0010000000475 0.0 82.0
0.934000015259 -0.528999984264 0.342999994755 104.0
0.999000012875 -0.574999988079 0.368000000715 106.0
1.00800001621 -0.588999986649 0.372999995947 107.0
2.12700009346 1.2879999876 0.76700001955 228.0
2.13100004196 1.27199995518 0.764999985695 242.0
2.11199998856 1.24199998379 0.755999982357 160.0
2.16599988937 1.25600004196 0.773000001907 106.0
2.21600008011 1.26600003242 0.788999974728 139.0
2.22499990463 1.25199997425 0.790000021458 237.0
2.28299999237 1.26499998569 0.808000028133 127.0
3.44600009918 1.42499995232 1.16600000858 88.0
3.53200006485 1.43499994278 1.19299995899 92.0
3.61599993706 1.44200003147 1.21899998188 80.0
4.01399993896 1.51499998569 1.34500002861 71.0
4.01000022888 1.48500001431 1.34200000763 80.0
4.15500020981 1.50899994373 1.38699996471 79.0
4.19899988174 1.4960000515 1.39999997616 72.0
4.20300006866 1.46800005436 1.39800000191 76.0
4.16900014877 1.4279999733 1.38499999046 100.0
4.16900014877 1.39900004864 1.38199996948 126.0
4.17999982834 1.37399995327 1.38399994373 125.0
4.14599990845 1.33500003815 1.37000000477 120.0
4.17899990082 1.31700003147 1.3789999485 125.0
4.19799995422 1.29400002956 1.38300001621 121.0
4.2389998436 1.27900004387 1.39400005341 116.0
4.17199993134 1.23099994659 1.37000000477 113.0
4.1810002327 1.20500004292 1.3710000515 119.0
4.22800016403 1.19099998474 1.38499999046 118.0
4.21700000763 1.15999996662 1.3789999485 119.0
4.19999980927 1.12800002098 1.37199997902 126.0
4.19500017166 1.09899997711 1.36800003052 118.0
4.20399999619 1.07500004768 1.37000000477 115.0
4.20100021362 1.04700005054 1.36699998379 113.0
4.17999982834 1.01400005817 1.35800004005 113.0
4.25699996948 1.00600004196 1.38199996948 113.0
4.17299985886 0.958999991417 1.35300004482 109.0
4.1859998703 0.935000002384 1.35599994659 110.0
4.20300006866 0.912999987602 1.36000001431 118.0
4.17199993134 0.879000008106 1.34899997711 112.0
4.21400022507 0.861999988556 1.36099994183 110.0
4.18400001526 0.828999996185 1.35000002384 112.0
4.3189997673 0.828999996185 1.39199995995 86.0
4.54699993134 -1.55099999905 1.52499997616 69.0
4.51900005341 -1.60399997234 1.52199995518 69.0
0.215000003576 -0.0750000029802 0.070000000298 70.0
0.388000011444 -0.144999995828 0.128999993205 78.0
0.615999996662 -0.236000001431 0.207000002265 90.0
0.573000013828 -0.224000006914 0.192000001669 79.0
0.679000020027 -0.275999993086 0.230000004172 91.0
0.716000020504 -0.296000003815 0.243000000715 115.0
0.629999995232 -0.264999985695 0.21400000155 95.0
0.578999996185 -0.24699999392 0.196999996901 86.0
0.603999972343 -0.263000011444 0.206000000238 90.0
0.019999999553 -0.00400000018999 0.00400000018999 80.0
0.991999983788 -0.552999973297 0.356000006199 104.0
1.01999998093 -0.577000021935 0.36700001359 125.0
1.00899994373 -0.578999996185 0.363999992609 107.0
0.962000012398 -0.56099998951 0.347999989986 109.0
2.13400006294 1.28999996185 0.753000020981 227.0
2.11999988556 1.26300001144 0.745999991894 231.0
2.18700003624 1.2840000391 0.76700001955 126.0
2.3180000782 1.3409999609 0.810000002384 98.0
2.25200009346 1.2840000391 0.785000026226 167.0
2.27200007439 1.27600002289 0.790000021458 225.0
2.34800004959 1.29799997807 0.813000023365 127.0
3.4430000782 1.42100000381 1.14100003242 98.0
3.4960000515 1.41700005531 1.15600001812 83.0
3.61299991608 1.43799996376 1.19299995899 74.0
3.94099998474 1.48500001431 1.29400002956 81.0
3.96799993515 1.4659999609 1.29999995232 83.0
4.1779999733 1.51499998569 1.36600005627 75.0
4.15799999237 1.47899997234 1.35699999332 71.0
4.20800018311 1.46700000763 1.3710000515 84.0
4.15399980545 1.41999995708 1.35099995136 104.0
4.12200021744 1.37999999523 1.33800005913 127.0
4.13500022888 1.35599994659 1.34000003338 122.0
4.17500019073 1.3409999609 1.35099995136 125.0
4.1970000267 1.32000005245 1.35599994659 118.0
4.19199991226 1.28999996185 1.35199999809 118.0
4.19899988174 1.26400005817 1.35300004482 122.0
4.16599988937 1.22699999809 1.34000003338 109.0
4.22300004959 1.21500003338 1.35599994659 120.0
4.15100002289 1.16700005531 1.33099997044 122.0
4.20499992371 1.15499997139 1.34700000286 119.0
4.22399997711 1.13199996948 1.35099995136 113.0
4.17600011826 1.09200000763 1.33399999142 120.0
4.15100002289 1.05900001526 1.32500004768 109.0
4.1939997673 1.04299998283 1.3370000124 114.0
4.17999982834 1.01300001144 1.33099997044 117.0
4.22200012207 0.995000004768 1.34200000763 115.0
4.21500015259 0.967000007629 1.33899998665 112.0
4.21600008011 0.939999997616 1.33800005913 114.0
4.22900009155 0.916000008583 1.34000003338 118.0
4.19099998474 0.882000029087 1.32700002193 111.0
4.22499990463 0.861999988556 1.33599996567 122.0
4.21099996567 0.833000004292 1.33099997044 108.0
4.30800008774 0.824999988079 1.36000001431 77.0
0.681999981403 -0.238000005484 0.222000002861 73.0
0.867999970913 -0.310000002384 0.284000009298 92.0
0.763999998569 -0.277000010014 0.25 95.0
0.856999993324 -0.317999988794 0.282000005245 94.0
0.833999991417 -0.314999997616 0.27500000596 122.0
0.871999979019 -0.33599999547 0.287999987602 145.0
0.869000017643 -0.340999990702 0.287999987602 163.0
0.850000023842 -0.340000003576 0.282000005245 205.0
0.889999985695 -0.361999988556 0.296000003815 291.0
0.873000025749 -0.361000001431 0.291000008583 247.0
0.878000020981 -0.370000004768 0.293000012636 211.0
0.866999983788 -0.372000008821 0.289999991655 202.0
0.834999978542 -0.363999992609 0.280000001192 186.0
0.825999975204 -0.365999996662 0.277999997139 158.0
0.776000022888 -0.34999999404 0.261999994516 137.0
0.76700001955 -0.351999998093 0.259000003338 133.0
0.76700001955 -0.356999993324 0.259999990463 130.0
0.73400002718 -0.347000002861 0.248999997973 117.0
0.875 -0.43599998951 0.300000011921 88.0
0.987999975681 -0.541000008583 0.345999985933 105.0
1.04299998283 -0.579999983311 0.365999996662 119.0
0.986000001431 -0.556999981403 0.347000002861 111.0
1.01800000668 -0.583000004292 0.360000014305 110.0
0.980000019073 -0.569999992847 0.347000002861 103.0
2.12199997902 1.27999997139 0.73299998045 246.0
2.11500000954 1.25800001621 0.727999985218 224.0
2.12700009346 1.2460000515 0.730000019073 121.0
2.27200007439 1.31200003624 0.777999997139 101.0
2.26799988747 1.28999996185 0.773999989033 185.0
2.27600002289 1.27499997616 0.773999989033 206.0
2.38700008392 1.31700003147 0.809000015259 120.0
3.44499993324 1.41900002956 1.11800003052 89.0
3.4430000782 1.39300000668 1.11500000954 82.0
3.61500000954 1.43599998951 1.16799998283 74.0
3.91899991035 1.47300004959 1.25899994373 111.0
3.96600008011 1.46300005913 1.27199995518 102.0
4.18400001526 1.48500001431 1.3370000124 77.0
4.1779999733 1.45399999619 1.33299994469 79.0
4.15399980545 1.41700005531 1.32299995422 120.0
4.23799991608 1.41700005531 1.34700000286 120.0
4.15299987793 1.36000001431 1.31799995899 121.0
4.15199995041 1.33200001717 1.31599998474 120.0
4.15600013733 1.30499994755 1.31500005722 121.0
4.21500015259 1.29499995708 1.33099997044 118.0
4.1890001297 1.25899994373 1.32099997997 118.0
4.21600008011 1.23899996281 1.32799994946 117.0
4.16499996185 1.1970000267 1.30999994278 111.0
4.20900011063 1.18099999428 1.3220000267 114.0
4.19999980927 1.15199995041 1.31700003147 113.0
4.18400001526 1.12000000477 1.31099998951 120.0
4.19899988174 1.09700000286 1.31400001049 123.0
4.242000103 1.08000004292 1.32500004768 118.0
4.17500019073 1.03600001335 1.3029999733 113.0
4.23799991608 1.02499997616 1.32099997997 116.0
4.23299980164 0.995999991894 1.31799995899 118.0
4.17500019073 0.955999970436 1.29799997807 114.0
4.25099992752 0.945999979973 1.32000005245 123.0
4.17500019073 0.902999997139 1.29499995708 116.0
4.1970000267 0.880999982357 1.30099999905 114.0
4.20900011063 0.85799998045 1.30400002003 107.0
4.18499994278 0.825999975204 1.29499995708 111.0
4.14400005341 0.791999995708 1.28100001812 95.0
0.950999975204 -0.300000011921 0.301999986172 67.0
0.902999997139 -0.291000008583 0.287000000477 87.0
0.833000004292 -0.273999989033 0.264999985695 86.0
0.768999993801 -0.25799998641 0.245000004768 92.0
0.804000020027 -0.27500000596 0.256000012159 105.0
0.856000006199 -0.298999994993 0.273999989033 118.0
0.888000011444 -0.317000001669 0.284999996424 127.0
0.853999972343 -0.310000002384 0.273999989033 131.0
0.861000001431 -0.319000005722 0.277000010014 143.0
0.90499997139 -0.342000007629 0.291999995708 142.0
0.864000022411 -0.331999987364 0.279000014067 146.0
0.888999998569 -0.347999989986 0.287999987602 224.0
0.912999987602 -0.363999992609 0.29699999094 660.0
0.912999987602 -0.370999991894 0.298000007868 1038.0
0.913999974728 -0.377999991179 0.298999994993 529.0
0.897000014782 -0.377999991179 0.293999999762 325.0
0.888000011444 -0.381000012159 0.291000008583 286.0
0.876999974251 -0.381999999285 0.28900000453 261.0
0.873000025749 -0.386999994516 0.287999987602 223.0
0.856000006199 -0.386000007391 0.282999992371 197.0
0.853999972343 -0.391000002623 0.282999992371 192.0
0.864000022411 -0.402000010014 0.287000000477 208.0
0.856000006199 -0.405000001192 0.284999996424 221.0
0.84399998188 -0.405999988317 0.282000005245 203.0
0.846000015736 -0.412999987602 0.282999992371 195.0
0.888000011444 -0.442000001669 0.298999994993 182.0
0.861000001431 -0.435000002384 0.289999991655 142.0
0.967000007629 -0.512000024319 0.328999996185 96.0
0.995000004768 -0.535000026226 0.340000003576 95.0
0.995999991894 -0.544000029564 0.340999990702 117.0
1.03999996185 -0.577000021935 0.358000010252 112.0
1.01699995995 -0.573000013828 0.351000010967 105.0
0.990999996662 -0.566999971867 0.342999994755 105.0
1.04100000858 -0.605000019073 0.361999988556 112.0
2.13800001144 1.28699994087 0.722000002861 243.0
2.13599991798 1.26800000668 0.72000002861 201.0
2.1819999218 1.27600002289 0.73299998045 103.0
2.23399996758 1.28699994087 0.748000025749 104.0
2.25699996948 1.28100001812 0.753000020981 210.0
2.26600003242 1.26699995995 0.754000008106 201.0
2.34500002861 1.29200005531 0.777999997139 108.0
3.44499993324 1.41600000858 1.09399998188 91.0
3.55100011826 1.43400001526 1.125 85.0
3.85599994659 1.4470000267 1.2120000124 129.0
3.92100000381 1.44400000572 1.23099994659 101.0
4.08900022507 1.47699999809 1.28100001812 71.0
4.1939997673 1.48599994183 1.31200003624 79.0
4.23199987411 1.47000002861 1.32099997997 84.0
4.18499994278 1.42499995232 1.30400002003 117.0
4.16400003433 1.38999998569 1.29600000381 118.0
4.23600006104 1.38499999046 1.31599998474 119.0
4.1810002327 1.33800005913 1.29600000381 117.0
4.17399978638 1.30799996853 1.29200005531 115.0
4.1890001297 1.28499996662 1.29499995708 117.0
4.21099996567 1.26400005817 1.29999995232 114.0
4.16300010681 1.22200000286 1.28299999237 114.0
4.1810002327 1.19900000095 1.28699994087 120.0
4.19899988174 1.17700004578 1.29100000858 111.0
4.20100021362 1.14999997616 1.28999996185 116.0
4.21000003815 1.125 1.29100000858 119.0
4.16499996185 1.08599996567 1.27499997616 113.0
4.21600008011 1.0720000267 1.28900003433 113.0
4.20399999619 1.04200005531 1.2840000391 117.0
4.21600008011 1.01800000668 1.28600001335 108.0
4.19500017166 0.986000001431 1.27799999714 110.0
4.21999979019 0.964999973774 1.2840000391 109.0
4.20100021362 0.934000015259 1.27699995041 112.0
4.19899988174 0.907000005245 1.27499997616 119.0
4.22200012207 0.884999990463 1.28100001812 111.0
4.15199995041 0.84399998188 1.25800001621 112.0
4.17000007629 0.822000026703 1.26300001144 105.0
4.22399997711 0.805999994278 1.27799999714 83.0
0.870000004768 -0.263000011444 0.268999993801 73.0
0.92199999094 -0.284000009298 0.286000013351 91.0
0.912000000477 -0.287000000477 0.282999992371 110.0
0.898000001907 -0.28900000453 0.279000014067 120.0
0.898999989033 -0.294999986887 0.280000001192 121.0
0.888999998569 -0.298000007868 0.277000010014 122.0
0.916000008583 -0.31400001049 0.287000000477 139.0
0.879999995232 -0.307000011206 0.275999993086 146.0
0.903999984264 -0.321999996901 0.284000009298 132.0
0.889999985695 -0.323000013828 0.280000001192 125.0
