ply
format ascii 1.0
element vertex 913
property float x
property float y
property float z
property float intensity
end_header
4.05000019073 1.51199996471 0.289999991655 69.0
4.40999984741 1.55700004101 0.314999997616 62.0
4.25400018692 1.47399997711 0.303000003099 75.0
4.25099992752 1.44500005245 0.303000003099 76.0
4.33699989319 1.44500005245 0.308999985456 70.0
4.32600021362 1.4129999876 0.307000011206 71.0
4.28499984741 1.37199997902 0.303999990225 68.0
4.35300016403 1.36500000954 0.308999985456 67.0
4.33400011063 1.33099997044 0.307000011206 69.0
4.29799985886 1.29200005531 0.303999990225 67.0
4.35500001907 1.28199994564 0.307999998331 69.0
4.37400007248 1.25899994373 0.308999985456 69.0
4.28700017929 1.20700001717 0.301999986172 66.0
4.38899993896 1.20799994469 0.308999985456 68.0
4.37599992752 1.17700004578 0.307999998331 68.0
4.36299991608 1.14600002766 0.307000011206 64.0
4.33099985123 1.11000001431 0.303999990225 66.0
4.32299995422 1.08200001717 0.303000003099 70.0
4.37200021744 1.06700003147 0.307000011206 66.0
4.38700008392 1.04299998283 0.307000011206 68.0
4.40299987793 1.01999998093 0.307999998331 65.0
4.375 0.986999988556 0.305999994278 62.0
4.42700004578 0.971000015736 0.310000002384 71.0
4.32999992371 0.924000024796 0.301999986172 71.0
4.32999992371 0.897000014782 0.301999986172 65.0
4.382999897 0.882000029087 0.305999994278 69.0
4.44799995422 0.867999970913 0.310000002384 60.0
1.02300000191 -0.0659999996424 0.070000000298 494.0
1.01499998569 -0.0710000023246 0.070000000298 1165.0
1.01100003719 -0.0769999995828 0.0689999982715 1208.0
1.00800001621 -0.082999996841 0.0689999982715 1199.0
1.01100003719 -0.0890000015497 0.070000000298 1211.0
1.00100004673 -0.0930000022054 0.0689999982715 1234.0
1.0039999485 -0.10000000149 0.0689999982715 1227.0
0.995999991894 -0.104999996722 0.0689999982715 1240.0
0.995999991894 -0.109999999404 0.0689999982715 1241.0
0.995000004768 -0.115999996662 0.0689999982715 1258.0
0.995999991894 -0.122000001371 0.0689999982715 1264.0
0.996999979019 -0.12800000608 0.0689999982715 1277.0
0.989000022411 -0.133000001311 0.0680000036955 1284.0
0.994000017643 -0.138999998569 0.0689999982715 1298.0
0.985000014305 -0.143999993801 0.0680000036955 1296.0
0.981000006199 -0.149000003934 0.0680000036955 1246.0
0.972000002861 -0.152999997139 0.0680000036955 425.0
0.943000018597 -0.153999999166 0.0659999996424 182.0
0.935000002384 -0.158000007272 0.0649999976158 179.0
0.97000002861 -0.170000001788 0.0680000036955 178.0
0.950999975204 -0.172999992967 0.0659999996424 177.0
0.935000002384 -0.17499999702 0.0649999976158 180.0
0.940999984741 -0.181999996305 0.0659999996424 183.0
0.967000007629 -0.193000003695 0.0680000036955 183.0
0.944999992847 -0.194000005722 0.0659999996424 180.0
0.954999983311 -0.202000007033 0.0670000016689 189.0
0.945999979973 -0.206000000238 0.0670000016689 186.0
0.958999991417 -0.21400000155 0.0680000036955 187.0
0.950999975204 -0.218999996781 0.0670000016689 193.0
0.939999997616 -0.222000002861 0.0659999996424 195.0
0.949999988079 -0.230000004172 0.0670000016689 527.0
0.957000017166 -0.237000003457 0.0680000036955 1370.0
0.954999983311 -0.243000000715 0.0680000036955 1464.0
0.949000000954 -0.24699999392 0.0680000036955 1485.0
0.949000000954 -0.252999991179 0.0680000036955 1498.0
0.945999979973 -0.25799998641 0.0680000036955 1494.0
0.948000013828 -0.264999985695 0.0680000036955 1475.0
0.944000005722 -0.270000010729 0.0680000036955 1510.0
0.941999971867 -0.27500000596 0.0680000036955 1502.0
0.941999971867 -0.280999988317 0.0680000036955 1515.0
0.938000023365 -0.286000013351 0.0680000036955 1509.0
0.940999984741 -0.293000012636 0.0680000036955 1526.0
0.93599998951 -0.29699999094 0.0680000036955 1536.0
0.93900001049 -0.303999990225 0.0680000036955 1539.0
0.935000002384 -0.308999985456 0.0680000036955 1536.0
0.933000028133 -0.314999997616 0.0680000036955 710.0
0.90499997139 -0.31099998951 0.0659999996424 241.0
0.919000029564 -0.321999996901 0.0670000016689 204.0
0.89099997282 -0.317999988794 0.0649999976158 215.0
0.89200001955 -0.324999988079 0.0649999976158 217.0
0.893000006676 -0.331000000238 0.0659999996424 213.0
0.893999993801 -0.337000012398 0.0659999996424 205.0
0.912000000477 -0.351000010967 0.0670000016689 210.0
0.89099997282 -0.347999989986 0.0659999996424 217.0
0.896000027657 -0.356999993324 0.0670000016689 219.0
0.878000020981 -0.356000006199 0.0649999976158 209.0
0.853999972343 -0.351999998093 0.0640000030398 220.0
0.876999974251 -0.368000000715 0.0659999996424 217.0
0.880999982357 -0.375 0.0659999996424 212.0
0.902999997139 -0.391000002623 0.0680000036955 657.0
0.899999976158 -0.397000014782 0.0680000036955 1510.0
0.893000006676 -0.40000000596 0.0680000036955 1642.0
0.898000001907 -0.409000009298 0.0680000036955 1639.0
0.898999989033 -0.416000008583 0.0680000036955 1626.0
0.89200001955 -0.418999999762 0.0680000036955 1648.0
0.898999989033 -0.428999990225 0.0689999982715 1643.0
0.89099997282 -0.432000011206 0.0680000036955 1649.0
0.89099997282 -0.43900001049 0.0689999982715 1644.0
0.89099997282 -0.446000009775 0.0689999982715 1646.0
0.885999977589 -0.449999988079 0.0689999982715 1657.0
0.887000024319 -0.456999987364 0.0689999982715 1654.0
0.879000008106 -0.460000008345 0.0689999982715 1640.0
0.884000003338 -0.469999998808 0.0689999982715 1660.0
0.879000008106 -0.474000006914 0.0689999982715 875.0
0.84500002861 -0.462000012398 0.0670000016689 277.0
0.837000012398 -0.465000003576 0.0659999996424 224.0
2.21099996567 1.27100002766 0.152999997139 150.0
2.22900009155 1.26300001144 0.152999997139 181.0
2.24699997902 1.25499999523 0.153999999166 104.0
3.94600009918 1.52699995041 0.259999990463 64.0
4.40700006485 1.52600002289 0.287999987602 70.0
4.38000011444 1.48800003529 0.284999996424 72.0
4.40100002289 1.4659999609 0.287000000477 66.0
4.40199995041 1.43700003624 0.286000013351 63.0
4.37400007248 1.39900004864 0.284000009298 59.0
4.39699983597 1.37800002098 0.284999996424 64.0
4.36999988556 1.34200000763 0.282999992371 64.0
4.41499996185 1.32700002193 0.286000013351 59.0
4.45800018311 1.31099998951 0.287999987602 62.0
4.4279999733 1.27400004864 0.286000013351 66.0
4.37799978256 1.23199999332 0.282000005245 63.0
4.46500015259 1.22800004482 0.287999987602 58.0
4.43699979782 1.19299995899 0.286000013351 71.0
4.34700012207 1.14100003242 0.280000001192 63.0
4.41599988937 1.13199996948 0.284000009298 61.0
4.44500017166 1.11199998856 0.286000013351 58.0
4.39200019836 1.07099997997 0.282000005245 60.0
4.41200017929 1.0490000248 0.282999992371 62.0
4.41699981689 1.02300000191 0.282999992371 55.0
4.39699983597 0.990999996662 0.282000005245 60.0
4.46700000763 0.980000019073 0.286000013351 64.0
4.42500019073 0.943000018597 0.282999992371 56.0
4.44199991226 0.920000016689 0.284000009298 63.0
4.41400003433 0.888000011444 0.282000005245 60.0
1.01800000668 -0.0659999996424 0.0640000030398 516.0
1.00699996948 -0.0710000023246 0.0630000010133 1169.0
1.01400005817 -0.0769999995828 0.0640000030398 1195.0
1.00600004196 -0.082000002265 0.0630000010133 1210.0
1.00600004196 -0.0879999995232 0.0630000010133 1208.0
1.0039999485 -0.0939999967813 0.0630000010133 1221.0
0.998000025749 -0.0989999994636 0.0630000010133 1235.0
0.996999979019 -0.104999996722 0.0630000010133 1228.0
1.00300002098 -0.111000001431 0.0630000010133 1239.0
0.994000017643 -0.115999996662 0.0630000010133 1261.0
0.995999991894 -0.122000001371 0.0630000010133 1261.0
0.990000009537 -0.127000004053 0.0630000010133 1278.0
0.991999983788 -0.133000001311 0.0630000010133 1285.0
0.986000001431 -0.137999996543 0.0630000010133 1307.0
0.986999988556 -0.143999993801 0.0630000010133 1310.0
0.981000006199 -0.149000003934 0.0619999989867 1248.0
0.981000006199 -0.155000001192 0.0619999989867 418.0
0.944000005722 -0.153999999166 0.0599999986589 175.0
0.93599998951 -0.158999994397 0.0599999986589 184.0
0.949999988079 -0.166999995708 0.0610000006855 183.0
0.948000013828 -0.172000005841 0.0610000006855 175.0
0.950999975204 -0.178000003099 0.0610000006855 179.0
0.952000021935 -0.184000000358 0.0610000006855 182.0
0.939999997616 -0.187000006437 0.0599999986589 185.0
0.957000017166 -0.195999994874 0.0619999989867 191.0
0.93900001049 -0.199000000954 0.0599999986589 185.0
0.949999988079 -0.207000002265 0.0610000006855 190.0
0.93900001049 -0.209999993443 0.0610000006855 189.0
0.940999984741 -0.216000005603 0.0610000006855 194.0
0.934000015259 -0.219999998808 0.0599999986589 200.0
0.95300000906 -0.231000006199 0.0619999989867 542.0
0.958000004292 -0.238000005484 0.0619999989867 1368.0
0.955999970436 -0.243000000715 0.0619999989867 1462.0
0.950999975204 -0.247999995947 0.0619999989867 1479.0
0.950999975204 -0.254000008106 0.0619999989867 1479.0
0.945999979973 -0.25799998641 0.0619999989867 1493.0
0.947000026703 -0.264999985695 0.0619999989867 1495.0
0.943000018597 -0.268999993801 0.0619999989867 1513.0
0.949000000954 -0.277000010014 0.0630000010133 1506.0
0.943000018597 -0.280999988317 0.0619999989867 1508.0
0.941999971867 -0.287000000477 0.0619999989867 1522.0
0.93900001049 -0.291999995708 0.0619999989867 1529.0
0.935000002384 -0.29699999094 0.0619999989867 1531.0
0.930999994278 -0.301999986172 0.0619999989867 1550.0
0.934000015259 -0.308999985456 0.0619999989867 1521.0
0.922999978065 -0.31099998951 0.0619999989867 715.0
0.908999979496 -0.312999993563 0.0610000006855 237.0
0.89200001955 -0.312000006437 0.0599999986589 210.0
0.899999976158 -0.321000009775 0.0599999986589 204.0
0.888999998569 -0.323000013828 0.0599999986589 212.0
0.880999982357 -0.326000005007 0.0590000003576 209.0
0.897000014782 -0.337999999523 0.0610000006855 212.0
0.875 -0.33599999547 0.0590000003576 218.0
0.885999977589 -0.345999985933 0.0599999986589 211.0
0.873000025749 -0.347000002861 0.0590000003576 218.0
0.887000024319 -0.358999997377 0.0610000006855 217.0
0.887000024319 -0.365000009537 0.0610000006855 225.0
0.873000025749 -0.365999996662 0.0599999986589 216.0
0.893000006676 -0.379999995232 0.0619999989867 218.0
0.898000001907 -0.388999998569 0.0619999989867 636.0
0.898999989033 -0.395999997854 0.0619999989867 1520.0
0.902000010014 -0.404000014067 0.0630000010133 1636.0
0.893000006676 -0.405999988317 0.0619999989867 1649.0
0.894999980927 -0.41400000453 0.0630000010133 1638.0
0.898000001907 -0.42199999094 0.0630000010133 1654.0
0.893999993801 -0.425999999046 0.0630000010133 1651.0
0.894999980927 -0.433999985456 0.0630000010133 1648.0
0.888000011444 -0.437000006437 0.0630000010133 1656.0
0.884000003338 -0.442000001669 0.0630000010133 1648.0
0.889999985695 -0.451999992132 0.0630000010133 1652.0
0.880999982357 -0.453999996185 0.0630000010133 1647.0
0.879999995232 -0.460000008345 0.0630000010133 1652.0
0.878000020981 -0.465999990702 0.0630000010133 1658.0
0.873000025749 -0.469999998808 0.0630000010133 912.0
0.850000023842 -0.465000003576 0.0610000006855 292.0
0.813000023365 -0.451000005007 0.0590000003576 217.0
2.1930000782 1.25999999046 0.136999994516 117.0
2.16199994087 1.22500002384 0.135000005364 111.0
0.902999997139 0.386999994516 0.0529999993742 132.0
0.933000028133 0.386999994516 0.054999999702 132.0
0.898999989033 0.365999996662 0.0520000010729 125.0
0.929000020027 0.372000008821 0.0540000014007 135.0
0.84500002861 0.326999992132 0.0489999987185 139.0
0.916999995708 0.347999989986 0.0529999993742 156.0
0.910000026226 0.338999986649 0.0529999993742 173.0
0.899999976158 0.330000013113 0.0520000010729 197.0
0.948000013828 0.340999990702 0.054999999702 204.0
0.919000029564 0.324000000954 0.0529999993742 211.0
0.828999996185 0.287000000477 0.0480000004172 158.0
0.806999981403 0.273999989033 0.0460000000894 154.0
0.764999985695 0.254999995232 0.0439999997616 142.0
0.912999987602 0.298000007868 0.0520000010729 247.0
0.811999976635 0.259999990463 0.0460000000894 185.0
0.797999978065 0.25 0.0450000017881 152.0
0.855000019073 0.261999994516 0.0489999987185 201.0
0.827000021935 0.248999997973 0.0469999983907 166.0
0.89099997282 0.261999994516 0.0509999990463 206.0
0.822000026703 0.237000003457 0.0469999983907 181.0
0.824999988079 0.231999993324 0.0469999983907 181.0
0.894999980927 0.246000006795 0.0509999990463 228.0
0.848999977112 0.228000000119 0.0480000004172 180.0
0.842000007629 0.221000000834 0.0480000004172 187.0
0.880999982357 0.225999996066 0.0500000007451 193.0
0.867999970913 0.216999992728 0.0489999987185 204.0
0.869000017643 0.211999997497 0.0489999987185 195.0
0.907000005245 0.216000005603 0.0509999990463 250.0
0.893999993801 0.207000002265 0.0500000007451 214.0
0.864000022411 0.194999992847 0.0489999987185 206.0
0.889999985695 0.195999994874 0.0500000007451 208.0
0.860000014305 0.184000000358 0.0480000004172 206.0
0.885999977589 0.184000000358 0.0500000007451 206.0
0.887000024319 0.179000005126 0.0500000007451 202.0
0.929000020027 0.181999996305 0.0520000010729 209.0
0.976000010967 0.185000002384 0.054999999702 216.0
1.00999999046 0.185000002384 0.0570000000298 236.0
1.02699995041 0.181999996305 0.0579999983311 230.0
1.00800001621 0.172999992967 0.0570000000298 236.0
1.01100003719 0.167999997735 0.0570000000298 231.0
1.01300001144 0.162000000477 0.0570000000298 223.0
1.00800001621 0.155000001192 0.0570000000298 235.0
1.01499998569 0.15000000596 0.0570000000298 237.0
0.989000022411 0.141000002623 0.0560000017285 231.0
1.01199996471 0.137999996543 0.0570000000298 218.0
1.00499999523 0.130999997258 0.0570000000298 215.0
1.01699995995 0.127000004053 0.0570000000298 204.0
1.00199997425 0.119000002742 0.0560000017285 201.0
1.01800000668 0.115000002086 0.0570000000298 217.0
1.00100004673 0.107000000775 0.0560000017285 217.0
1.02100002766 0.103000000119 0.0579999983311 205.0
1.00600004196 0.0960000008345 0.0570000000298 253.0
1.02100002766 0.0909999981523 0.0570000000298 202.0
1.02400004864 0.0860000029206 0.0579999983311 246.0
1.02199995518 0.0799999982119 0.0579999983311 201.0
1.00699996948 0.0729999989271 0.0570000000298 234.0
1.02799999714 0.0680000036955 0.0579999983311 235.0
1.02999997139 0.0630000010133 0.0579999983311 177.0
1.00300002098 0.054999999702 0.0570000000298 284.0
1.04999995232 0.0520000010729 0.0590000003576 185.0
1.01300001144 0.0439999997616 0.0570000000298 241.0
1.02300000191 0.0390000008047 0.0579999983311 221.0
1.02699995041 0.0329999998212 0.0579999983311 192.0
1.04799997807 0.0270000007004 0.0590000003576 103.0
1.00800001621 -0.0649999976158 0.0570000000298 540.0
1.01100003719 -0.0710000023246 0.0579999983311 1178.0
1.01199996471 -0.0769999995828 0.0579999983311 1201.0
1.00300002098 -0.082000002265 0.0570000000298 1212.0
1.00800001621 -0.0879999995232 0.0579999983311 1207.0
1.00199997425 -0.0939999967813 0.0570000000298 1220.0
1.00100004673 -0.0989999994636 0.0570000000298 1232.0
1.00300002098 -0.104999996722 0.0570000000298 1239.0
0.995999991894 -0.109999999404 0.0570000000298 1248.0
0.994000017643 -0.115999996662 0.0570000000298 1266.0
0.991999983788 -0.122000001371 0.0570000000298 1260.0
0.990000009537 -0.127000004053 0.0570000000298 1287.0
0.991999983788 -0.133000001311 0.0570000000298 1284.0
0.989000022411 -0.137999996543 0.0570000000298 1306.0
0.987999975681 -0.143999993801 0.0570000000298 1308.0
0.985000014305 -0.15000000596 0.0570000000298 1229.0
0.978999972343 -0.153999999166 0.0570000000298 406.0
0.971000015736 -0.158999994397 0.0560000017285 179.0
0.980000019073 -0.165999993682 0.0570000000298 180.0
0.959999978542 -0.167999997735 0.0560000017285 178.0
0.930999994278 -0.168999999762 0.0540000014007 177.0
0.944000005722 -0.177000001073 0.054999999702 184.0
0.931999981403 -0.180000007153 0.0540000014007 180.0
0.938000023365 -0.187000006437 0.054999999702 182.0
0.948000013828 -0.194999992847 0.054999999702 185.0
0.952000021935 -0.201000005007 0.0560000017285 191.0
0.927999973297 -0.202000007033 0.0540000014007 188.0
0.921000003815 -0.206000000238 0.0540000014007 192.0
0.926999986172 -0.212999999523 0.0540000014007 191.0
0.913999974728 -0.215000003576 0.0540000014007 200.0
0.950999975204 -0.230000004172 0.0560000017285 547.0
0.952000021935 -0.236000001431 0.0560000017285 1366.0
0.952000021935 -0.241999998689 0.0560000017285 1470.0
0.95300000906 -0.247999995947 0.0570000000298 1485.0
0.949999988079 -0.252999991179 0.0560000017285 1471.0
0.949000000954 -0.259000003338 0.0570000000298 1499.0
0.949000000954 -0.264999985695 0.0570000000298 1494.0
0.945999979973 -0.270000010729 0.0570000000298 1511.0
0.944000005722 -0.275999993086 0.0570000000298 1510.0
0.944000005722 -0.282000005245 0.0570000000298 1509.0
0.938000023365 -0.286000013351 0.0560000017285 1524.0
0.939999997616 -0.291999995708 0.0570000000298 1539.0
0.936999976635 -0.29699999094 0.0570000000298 1542.0
0.938000023365 -0.303999990225 0.0570000000298 1548.0
0.926999986172 -0.305999994278 0.0560000017285 1538.0
0.929000020027 -0.312999993563 0.0560000017285 713.0
0.911000013351 -0.312999993563 0.054999999702 238.0
0.931999981403 -0.326999992132 0.0570000000298 214.0
0.899999976158 -0.321000009775 0.054999999702 212.0
0.899999976158 -0.326999992132 0.054999999702 205.0
0.889999985695 -0.330000013113 0.054999999702 215.0
0.883000016212 -0.333000004292 0.0540000014007 216.0
0.902000010014 -0.345999985933 0.0560000017285 204.0
0.898999989033 -0.351000010967 0.0560000017285 209.0
0.888999998569 -0.352999985218 0.054999999702 218.0
0.896000027657 -0.363000005484 0.0560000017285 216.0
0.889999985695 -0.365999996662 0.054999999702 219.0
0.901000022888 -0.377000004053 0.0560000017285 218.0
0.893000006676 -0.379999995232 0.0560000017285 224.0
0.898000001907 -0.388999998569 0.0560000017285 637.0
0.902999997139 -0.397000014782 0.0570000000298 1515.0
0.899999976158 -0.402999997139 0.0570000000298 1637.0
0.898000001907 -0.409000009298 0.0570000000298 1642.0
0.894999980927 -0.412999987602 0.0570000000298 1635.0
0.894999980927 -0.419999986887 0.0570000000298 1641.0
0.89200001955 -0.425999999046 0.0570000000298 1653.0
0.898000001907 -0.435000002384 0.0579999983311 1652.0
0.888000011444 -0.437000006437 0.0570000000298 1655.0
0.893000006676 -0.446000009775 0.0579999983311 1656.0
0.888999998569 -0.451000005007 0.0579999983311 1652.0
0.879999995232 -0.453999996185 0.0570000000298 1670.0
0.879999995232 -0.460000008345 0.0570000000298 1672.0
0.880999982357 -0.467999994755 0.0579999983311 1666.0
0.875 -0.470999985933 0.0570000000298 936.0
0.847000002861 -0.462999999523 0.0560000017285 288.0
0.847999989986 -0.469999998808 0.0560000017285 221.0
1.06299996376 0.610000014305 0.0579999983311 281.0
1.04400002956 0.591000020504 0.0570000000298 303.0
1.0 0.556999981403 0.054999999702 318.0
0.961000025272 0.527999997139 0.0520000010729 351.0
0.961000025272 0.519999980927 0.0520000010729 355.0
0.98299998045 0.523999989033 0.0529999993742 378.0
0.98299998045 0.51700001955 0.0529999993742 391.0
0.976000010967 0.504999995232 0.0529999993742 409.0
0.972000002861 0.495000004768 0.0520000010729 428.0
0.955999970436 0.479999989271 0.0509999990463 443.0
0.971000015736 0.479999989271 0.0520000010729 479.0
0.973999977112 0.474000006914 0.0520000010729 509.0
0.959999978542 0.460000008345 0.0509999990463 489.0
0.972000002861 0.458999991417 0.0520000010729 518.0
0.975000023842 0.45300000906 0.0520000010729 538.0
0.967999994755 0.442999988794 0.0509999990463 555.0
0.976000010967 0.43900001049 0.0520000010729 575.0
0.972999989986 0.430000007153 0.0509999990463 570.0
0.97000002861 0.42199999094 0.0509999990463 607.0
0.964999973774 0.412999987602 0.0509999990463 616.0
0.962000012398 0.405000001192 0.0500000007451 639.0
0.971000015736 0.402000010014 0.0509999990463 659.0
0.971000015736 0.395000010729 0.0509999990463 647.0
0.97000002861 0.388000011444 0.0509999990463 644.0
0.96899998188 0.381000012159 0.0500000007451 653.0
0.958999991417 0.370999991894 0.0500000007451 668.0
0.967000007629 0.36700001359 0.0500000007451 703.0
0.962999999523 0.358999997377 0.0500000007451 713.0
0.977999985218 0.358000010252 0.0509999990463 740.0
0.97000002861 0.347999989986 0.0500000007451 761.0
0.980000019073 0.344999998808 0.0509999990463 751.0
0.973999977112 0.337000012398 0.0500000007451 765.0
0.978999972343 0.331999987364 0.0500000007451 777.0
0.971000015736 0.323000013828 0.0500000007451 794.0
0.975000023842 0.317999988794 0.0500000007451 804.0
0.96899998188 0.310000002384 0.0500000007451 799.0
0.978999972343 0.307000011206 0.0500000007451 821.0
0.97000002861 0.298000007868 0.0500000007451 826.0
0.972999989986 0.293000012636 0.0500000007451 823.0
0.976000010967 0.287000000477 0.0500000007451 843.0
0.977999985218 0.280999988317 0.0500000007451 839.0
0.976999998093 0.27500000596 0.0500000007451 868.0
0.980000019073 0.270000010729 0.0500000007451 880.0
0.973999977112 0.261999994516 0.0500000007451 897.0
0.98400002718 0.259000003338 0.0500000007451 891.0
0.985000014305 0.252999991179 0.0500000007451 893.0
0.980000019073 0.245000004768 0.0500000007451 901.0
0.980000019073 0.238999992609 0.0500000007451 904.0
0.980000019073 0.232999995351 0.0500000007451 928.0
0.977999985218 0.226999998093 0.0500000007451 942.0
0.987999975681 0.223000004888 0.0500000007451 953.0
0.98400002718 0.216000005603 0.0500000007451 954.0
0.98400002718 0.209999993443 0.0500000007451 974.0
0.987999975681 0.204999998212 0.0500000007451 962.0
0.986000001431 0.199000000954 0.0500000007451 940.0
0.980000019073 0.192000001669 0.0500000007451 929.0
0.980000019073 0.186000004411 0.0500000007451 955.0
0.987999975681 0.180999994278 0.0500000007451 1014.0
0.98400002718 0.17499999702 0.0500000007451 1014.0
0.985000014305 0.168999999762 0.0500000007451 1020.0
0.987999975681 0.16400000453 0.0500000007451 1015.0
0.986000001431 0.157000005245 0.0500000007451 1017.0
0.987999975681 0.151999995112 0.0500000007451 1035.0
0.985000014305 0.145999997854 0.0500000007451 1059.0
0.989000022411 0.140000000596 0.0500000007451 1056.0
0.98400002718 0.134000003338 0.0500000007451 1067.0
0.98400002718 0.12800000608 0.0500000007451 1063.0
0.986999988556 0.123000003397 0.0500000007451 1042.0
0.990999996662 0.118000000715 0.0500000007451 1036.0
0.999000012875 0.112999998033 0.0500000007451 1086.0
0.994000017643 0.105999998748 0.0500000007451 1080.0
0.990999996662 0.10000000149 0.0500000007451 1080.0
0.990999996662 0.0949999988079 0.0500000007451 1058.0
0.998000025749 0.0890000015497 0.0500000007451 1049.0
0.992999970913 0.082999996841 0.0500000007451 1066.0
0.989000022411 0.0769999995828 0.0500000007451 1082.0
0.994000017643 0.0719999969006 0.0500000007451 1067.0
0.996999979019 0.0659999996424 0.0500000007451 1066.0
0.995000004768 0.0599999986589 0.0500000007451 1039.0
0.992999970913 0.054999999702 0.0500000007451 993.0
0.996999979019 0.0489999987185 0.0500000007451 949.0
0.995000004768 0.0430000014603 0.0500000007451 914.0
0.998000025749 0.0379999987781 0.0500000007451 863.0
0.990999996662 0.0320000015199 0.0500000007451 802.0
1.00800001621 0.0260000005364 0.0509999990463 382.0
1.01900005341 -0.0659999996424 0.0520000010729 557.0
1.01100003719 -0.0710000023246 0.0520000010729 1190.0
1.00800001621 -0.0769999995828 0.0520000010729 1195.0
1.00699996948 -0.082000002265 0.0520000010729 1208.0
1.00499999523 -0.0879999995232 0.0520000010729 1214.0
0.999000012875 -0.0930000022054 0.0509999990463 1221.0
1.0 -0.0989999994636 0.0509999990463 1231.0
1.0 -0.104999996722 0.0520000010729 1236.0
0.996999979019 -0.111000001431 0.0509999990463 1254.0
0.990000009537 -0.115000002086 0.0509999990463 1263.0
0.996999979019 -0.122000001371 0.0520000010729 1254.0
0.995000004768 -0.12800000608 0.0509999990463 1275.0
0.991999983788 -0.133000001311 0.0509999990463 1284.0
0.989000022411 -0.137999996543 0.0509999990463 1309.0
0.986000001431 -0.143999993801 0.0509999990463 1315.0
0.987999975681 -0.15000000596 0.0509999990463 1230.0
0.981000006199 -0.155000001192 0.0509999990463 401.0
0.93599998951 -0.152999997139 0.0489999987185 182.0
0.936999976635 -0.158999994397 0.0489999987185 176.0
0.95300000906 -0.166999995708 0.0500000007451 177.0
0.943000018597 -0.171000003815 0.0489999987185 177.0
0.934000015259 -0.17499999702 0.0489999987185 185.0
0.953999996185 -0.184000000358 0.0500000007451 179.0
0.962999999523 -0.192000001669 0.0509999990463 186.0
0.936999976635 -0.192000001669 0.0489999987185 189.0
0.95300000906 -0.201000005007 0.0500000007451 192.0
0.955999970436 -0.208000004292 0.0500000007451 193.0
0.930999994278 -0.208000004292 0.0489999987185 189.0
0.934000015259 -0.21400000155 0.0489999987185 186.0
0.924000024796 -0.217999994755 0.0489999987185 191.0
0.95300000906 -0.230000004172 0.0509999990463 554.0
0.958000004292 -0.238000005484 0.0509999990463 1372.0
0.955999970436 -0.243000000715 0.0509999990463 1487.0
0.957000017166 -0.248999997973 0.0509999990463 1484.0
0.949999988079 -0.252999991179 0.0509999990463 1493.0
0.948000013828 -0.259000003338 0.0509999990463 1494.0
0.944999992847 -0.263999998569 0.0509999990463 1501.0
0.947000026703 -0.270000010729 0.0509999990463 1505.0
0.941999971867 -0.27500000596 0.0509999990463 1514.0
0.944000005722 -0.280999988317 0.0509999990463 1517.0
0.944000005722 -0.287999987602 0.0509999990463 1523.0
0.938000023365 -0.291999995708 0.0509999990463 1528.0
0.935000002384 -0.29699999094 0.0509999990463 1531.0
0.93599998951 -0.303000003099 0.0509999990463 1543.0
0.93599998951 -0.308999985456 0.0509999990463 1538.0
0.925999999046 -0.312000006437 0.0509999990463 711.0
0.920000016689 -0.316000014544 0.0500000007451 231.0
0.888000011444 -0.31099998951 0.0489999987185 214.0
0.889999985695 -0.317000001669 0.0489999987185 214.0
0.888999998569 -0.323000013828 0.0489999987185 217.0
0.89200001955 -0.330000013113 0.0489999987185 218.0
0.887000024319 -0.335000008345 0.0489999987185 217.0
0.903999984264 -0.347000002861 0.0500000007451 212.0
0.879999995232 -0.344000011683 0.0489999987185 210.0
0.894999980927 -0.356000006199 0.0500000007451 217.0
0.889999985695 -0.360000014305 0.0500000007451 216.0
0.870999991894 -0.358000010252 0.0489999987185 214.0
0.897000014782 -0.375999987125 0.0509999990463 219.0
0.878000020981 -0.374000012875 0.0500000007451 221.0
0.893000006676 -0.386000007391 0.0509999990463 631.0
0.901000022888 -0.395999997854 0.0509999990463 1500.0
0.893999993801 -0.40000000596 0.0509999990463 1647.0
0.901000022888 -0.409999996424 0.0520000010729 1645.0
0.89200001955 -0.412000000477 0.0509999990463 1642.0
0.898999989033 -0.42199999094 0.0520000010729 1653.0
0.89200001955 -0.425000011921 0.0509999990463 1669.0
0.888000011444 -0.430000007153 0.0509999990463 1654.0
0.889999985695 -0.437999993563 0.0520000010729 1657.0
0.888000011444 -0.444000005722 0.0520000010729 1652.0
0.880999982357 -0.446999996901 0.0520000010729 1668.0
0.883000016212 -0.455000013113 0.0520000010729 1677.0
0.875 -0.458000004292 0.0520000010729 1664.0
0.882000029087 -0.467999994755 0.0520000010729 1651.0
0.875 -0.472000002861 0.0520000010729 956.0
0.865000009537 -0.472999989986 0.0509999990463 293.0
0.847000002861 -0.469999998808 0.0509999990463 223.0
0.958999991417 0.550000011921 0.0460000000894 769.0
0.957000017166 0.541000008583 0.0460000000894 792.0
0.961000025272 0.535000026226 0.0460000000894 805.0
0.954999983311 0.524999976158 0.0460000000894 812.0
0.954999983311 0.51700001955 0.0460000000894 830.0
0.948000013828 0.504999995232 0.0450000017881 833.0
0.966000020504 0.508000016212 0.0460000000894 851.0
0.963999986649 0.499000012875 0.0460000000894 842.0
0.964999973774 0.49200001359 0.0460000000894 849.0
0.962000012398 0.483000010252 0.0450000017881 868.0
0.966000020504 0.476999998093 0.0460000000894 900.0
0.954999983311 0.465000003576 0.0450000017881 899.0
0.959999978542 0.460000008345 0.0450000017881 916.0
0.958999991417 0.451999992132 0.0450000017881 924.0
0.967000007629 0.449000000954 0.0450000017881 929.0
0.962999999523 0.439999997616 0.0450000017881 939.0
0.962999999523 0.432999998331 0.0450000017881 932.0
0.962000012398 0.425999999046 0.0450000017881 968.0
0.961000025272 0.418000012636 0.0450000017881 968.0
0.961000025272 0.411000013351 0.0450000017881 968.0
0.961000025272 0.405000001192 0.0439999997616 982.0
0.967999994755 0.400999993086 0.0450000017881 1006.0
0.964999973774 0.393000006676 0.0439999997616 1016.0
0.97000002861 0.388000011444 0.0450000017881 1001.0
0.967999994755 0.381000012159 0.0450000017881 1001.0
0.972000002861 0.375 0.0450000017881 1014.0
0.967000007629 0.36700001359 0.0439999997616 1032.0
0.972999989986 0.361999988556 0.0450000017881 1053.0
0.971000015736 0.354999989271 0.0439999997616 1066.0
0.973999977112 0.34999999404 0.0439999997616 1078.0
0.972000002861 0.342999994755 0.0439999997616 1085.0
0.972000002861 0.33599999547 0.0439999997616 1093.0
0.967999994755 0.328999996185 0.0439999997616 1112.0
0.981000006199 0.326000005007 0.0450000017881 1133.0
0.972999989986 0.317000001669 0.0439999997616 1119.0
0.976000010967 0.312000006437 0.0439999997616 1121.0
0.972999989986 0.305000007153 0.0439999997616 1134.0
0.972999989986 0.298000007868 0.0439999997616 1129.0
0.975000023842 0.293000012636 0.0439999997616 1145.0
0.976000010967 0.287000000477 0.0439999997616 1161.0
0.97000002861 0.279000014067 0.0439999997616 1171.0
0.976999998093 0.27500000596 0.0439999997616 1185.0
0.972000002861 0.266999989748 0.0439999997616 1208.0
0.972999989986 0.261999994516 0.0439999997616 1195.0
0.972000002861 0.254999995232 0.0439999997616 1214.0
0.976999998093 0.25 0.0439999997616 1223.0
0.976000010967 0.244000002742 0.0439999997616 1230.0
0.977999985218 0.238999992609 0.0439999997616 1246.0
0.981999993324 0.233999997377 0.0439999997616 1268.0
0.981999993324 0.228000000119 0.0439999997616 1295.0
0.976999998093 0.219999998808 0.0439999997616 1286.0
0.973999977112 0.21400000155 0.0439999997616 1308.0
0.981000006199 0.209000006318 0.0439999997616 1335.0
0.981000006199 0.203999996185 0.0439999997616 1337.0
0.98400002718 0.197999998927 0.0439999997616 1301.0
0.981000006199 0.192000001669 0.0439999997616 1304.0
0.98400002718 0.186000004411 0.0439999997616 1304.0
0.981000006199 0.180000007153 0.0439999997616 1354.0
0.978999972343 0.173999994993 0.0439999997616 1370.0
0.981000006199 0.167999997735 0.0439999997616 1406.0
0.98400002718 0.163000002503 0.0439999997616 1411.0
0.985000014305 0.157000005245 0.0439999997616 1403.0
0.985000014305 0.150999993086 0.0439999997616 1426.0
0.986000001431 0.145999997854 0.0439999997616 1453.0
0.987999975681 0.140000000596 0.0439999997616 1446.0
0.986000001431 0.134000003338 0.0439999997616 1491.0
0.992999970913 0.128999993205 0.0439999997616 1518.0
0.986999988556 0.123000003397 0.0439999997616 1543.0
0.986999988556 0.116999998689 0.0439999997616 1507.0
0.981999993324 0.111000001431 0.0439999997616 1530.0
0.986000001431 0.104999996722 0.0439999997616 1473.0
0.987999975681 0.10000000149 0.0439999997616 1516.0
0.990999996662 0.0939999967813 0.0439999997616 1543.0
0.985000014305 0.0879999995232 0.0439999997616 1594.0
0.992999970913 0.082999996841 0.0439999997616 1609.0
0.991999983788 0.0769999995828 0.0439999997616 1622.0
0.990000009537 0.0719999969006 0.0439999997616 1586.0
0.992999970913 0.0659999996424 0.0439999997616 1557.0
0.986999988556 0.0599999986589 0.0439999997616 1513.0
0.991999983788 0.054999999702 0.0439999997616 1472.0
0.990999996662 0.0489999987185 0.0439999997616 1453.0
0.986999988556 0.0430000014603 0.0439999997616 1424.0
0.995000004768 0.0379999987781 0.0450000017881 1414.0
0.987999975681 0.0320000015199 0.0439999997616 1363.0
1.0 0.0260000005364 0.0450000017881 688.0
1.01199996471 -0.0649999976158 0.0460000000894 573.0
1.00600004196 -0.0710000023246 0.0460000000894 1177.0
1.00800001621 -0.0769999995828 0.0460000000894 1196.0
1.00600004196 -0.082000002265 0.0460000000894 1208.0
1.00800001621 -0.0879999995232 0.0460000000894 1207.0
1.00300002098 -0.0939999967813 0.0460000000894 1227.0
1.00100004673 -0.0989999994636 0.0460000000894 1231.0
1.00999999046 -0.105999998748 0.0460000000894 1230.0
0.999000012875 -0.111000001431 0.0460000000894 1255.0
0.998000025749 -0.115999996662 0.0460000000894 1260.0
0.996999979019 -0.122000001371 0.0460000000894 1261.0
0.995000004768 -0.12800000608 0.0460000000894 1267.0
0.990000009537 -0.133000001311 0.0460000000894 1282.0
0.986000001431 -0.137999996543 0.0450000017881 1305.0
0.98299998045 -0.143000006676 0.0450000017881 1306.0
0.987999975681 -0.15000000596 0.0460000000894 1227.0
0.980000019073 -0.153999999166 0.0450000017881 392.0
0.958000004292 -0.157000005245 0.0439999997616 181.0
0.947000026703 -0.159999996424 0.0439999997616 178.0
0.944999992847 -0.165999993682 0.0439999997616 182.0
0.944999992847 -0.171000003815 0.0439999997616 177.0
0.950999975204 -0.178000003099 0.0439999997616 187.0
0.945999979973 -0.182999998331 0.0439999997616 185.0
0.955999970436 -0.190999999642 0.0450000017881 188.0
0.943000018597 -0.194000005722 0.0439999997616 183.0
0.947000026703 -0.20000000298 0.0439999997616 190.0
0.952000021935 -0.207000002265 0.0450000017881 189.0
0.962000012398 -0.215000003576 0.0450000017881 197.0
0.927999973297 -0.212999999523 0.0439999997616 192.0
0.948000013828 -0.223000004888 0.0450000017881 195.0
0.944999992847 -0.229000002146 0.0450000017881 570.0
0.950999975204 -0.236000001431 0.0450000017881 1379.0
0.952000021935 -0.241999998689 0.0450000017881 1470.0
0.957000017166 -0.248999997973 0.0450000017881 1477.0
0.952000021935 -0.254000008106 0.0450000017881 1491.0
0.948000013828 -0.259000003338 0.0450000017881 1497.0
0.948000013828 -0.264999985695 0.0450000017881 1490.0
0.947000026703 -0.270000010729 0.0450000017881 1504.0
0.941999971867 -0.27500000596 0.0450000017881 1527.0
0.944999992847 -0.282000005245 0.0450000017881 1518.0
0.936999976635 -0.284999996424 0.0450000017881 1528.0
0.93599998951 -0.291000008583 0.0450000017881 1541.0
0.935000002384 -0.29699999094 0.0450000017881 1540.0
0.93599998951 -0.303000003099 0.0450000017881 1539.0
0.933000028133 -0.307999998331 0.0450000017881 1527.0
0.929000020027 -0.312999993563 0.0450000017881 711.0
0.916000008583 -0.314999997616 0.0450000017881 237.0
0.899999976158 -0.314999997616 0.0439999997616 218.0
0.908999979496 -0.324000000954 0.0450000017881 215.0
0.899999976158 -0.326999992132 0.0439999997616 213.0
0.882000029087 -0.326999992132 0.0430000014603 219.0
0.869000017643 -0.326999992132 0.0430000014603 217.0
0.889999985695 -0.342000007629 0.0439999997616 219.0
0.879999995232 -0.344000011683 0.0439999997616 223.0
0.90499997139 -0.360000014305 0.0450000017881 217.0
0.875999987125 -0.354000002146 0.0439999997616 215.0
0.893999993801 -0.368000000715 0.0450000017881 225.0
0.884000003338 -0.370000004768 0.0439999997616 216.0
0.897000014782 -0.381999999285 0.0450000017881 229.0
0.902000010014 -0.391000002623 0.0460000000894 624.0
0.902999997139 -0.397000014782 0.0460000000894 1513.0
0.902999997139 -0.404000014067 0.0460000000894 1632.0
0.898000001907 -0.407999992371 0.0460000000894 1641.0
0.893000006676 -0.412999987602 0.0460000000894 1639.0
0.897000014782 -0.421000003815 0.0460000000894 1642.0
0.896000027657 -0.426999986172 0.0460000000894 1660.0
0.888999998569 -0.430000007153 0.0460000000894 1653.0
0.885999977589 -0.43599998951 0.0460000000894 1642.0
0.888000011444 -0.444000005722 0.0460000000894 1662.0
0.884999990463 -0.449000000954 0.0460000000894 1663.0
0.884000003338 -0.455000013113 0.0460000000894 1662.0
0.882000029087 -0.46099999547 0.0460000000894 1664.0
0.879999995232 -0.467000007629 0.0460000000894 1667.0
0.875999987125 -0.472000002861 0.0460000000894 973.0
0.851999998093 -0.465000003576 0.0450000017881 290.0
0.836000025272 -0.462999999523 0.0439999997616 228.0
0.958000004292 0.549000024796 0.0399999991059 947.0
0.950999975204 0.537999987602 0.0399999991059 950.0
0.959999978542 0.535000026226 0.0399999991059 961.0
0.952000021935 0.522000014782 0.0390000008047 937.0
0.953999996185 0.51599997282 0.0390000008047 965.0
0.950999975204 0.507000029087 0.0390000008047 960.0
0.953999996185 0.500999987125 0.0390000008047 974.0
0.958999991417 0.495999991894 0.0390000008047 963.0
0.957000017166 0.488000005484 0.0390000008047 988.0
0.957000017166 0.479999989271 0.0390000008047 999.0
0.962999999523 0.476000010967 0.0390000008047 996.0
0.961000025272 0.467999994755 0.0390000008047 1019.0
0.963999986649 0.462000012398 0.0390000008047 1019.0
0.959999978542 0.45300000906 0.0390000008047 1042.0
0.959999978542 0.446000009775 0.0390000008047 1046.0
0.962999999523 0.439999997616 0.0390000008047 1037.0
0.958999991417 0.430999994278 0.0390000008047 1046.0
0.963999986649 0.425999999046 0.0390000008047 1086.0
0.962999999523 0.418999999762 0.0390000008047 1066.0
0.962000012398 0.412000000477 0.0390000008047 1062.0
0.961000025272 0.405000001192 0.0390000008047 1073.0
0.967999994755 0.400999993086 0.0390000008047 1108.0
0.964999973774 0.393000006676 0.0390000008047 1113.0
0.964999973774 0.386000007391 0.0390000008047 1112.0
0.967000007629 0.379999995232 0.0390000008047 1120.0
0.96899998188 0.374000012875 0.0390000008047 1125.0
0.96899998188 0.368000000715 0.0390000008047 1111.0
0.967000007629 0.360000014305 0.0379999987781 1114.0
0.972000002861 0.356000006199 0.0390000008047 1138.0
0.972000002861 0.349000006914 0.0390000008047 1149.0
0.971000015736 0.342000007629 0.0379999987781 1154.0
0.972000002861 0.33599999547 0.0379999987781 1156.0
0.967999994755 0.32800000906 0.0379999987781 1189.0
0.971000015736 0.323000013828 0.0379999987781 1189.0
0.971000015736 0.317000001669 0.0379999987781 1192.0
0.972000002861 0.31099998951 0.0379999987781 1201.0
0.967000007629 0.303000003099 0.0379999987781 1176.0
0.976999998093 0.298999994993 0.0379999987781 1192.0
0.97000002861 0.291000008583 0.0379999987781 1197.0
0.972999989986 0.286000013351 0.0379999987781 1217.0
0.976999998093 0.280999988317 0.0379999987781 1250.0
0.973999977112 0.273999989033 0.0379999987781 1265.0
0.977999985218 0.268999993801 0.0379999987781 1257.0
0.973999977112 0.261999994516 0.0379999987781 1255.0
0.976999998093 0.256000012159 0.0379999987781 1284.0
0.976000010967 0.25 0.0379999987781 1265.0
0.976999998093 0.244000002742 0.0379999987781 1285.0
0.976999998093 0.238000005484 0.0379999987781 1294.0
0.978999972343 0.232999995351 0.0379999987781 1298.0
0.977999985218 0.225999996066 0.0379999987781 1317.0
0.976000010967 0.219999998808 0.0379999987781 1341.0
0.981999993324 0.215000003576 0.0379999987781 1345.0
0.976000010967 0.208000004292 0.0379999987781 1367.0
0.978999972343 0.202999994159 0.0379999987781 1387.0
0.980000019073 0.196999996901 0.0379999987781 1385.0
0.975000023842 0.189999997616 0.0379999987781 1389.0
0.977999985218 0.185000002384 0.0379999987781 1403.0
0.98400002718 0.180000007153 0.0379999987781 1446.0
0.985000014305 0.17499999702 0.0379999987781 1447.0
0.98400002718 0.168999999762 0.0379999987781 1476.0
0.981000006199 0.162000000477 0.0379999987781 1516.0
0.985000014305 0.157000005245 0.0379999987781 1541.0
0.985000014305 0.150999993086 0.0379999987781 1499.0
0.98400002718 0.144999995828 0.0379999987781 1541.0
0.986999988556 0.140000000596 0.0379999987781 1540.0
0.981999993324 0.134000003338 0.0379999987781 1568.0
0.98299998045 0.12800000608 0.0379999987781 1567.0
0.98299998045 0.122000001371 0.0379999987781 1643.0
0.987999975681 0.116999998689 0.0379999987781 1642.0
0.98400002718 0.111000001431 0.0379999987781 1659.0
0.985000014305 0.104999996722 0.0379999987781 1640.0
0.98299998045 0.0989999994636 0.0379999987781 1656.0
0.985000014305 0.0939999967813 0.0379999987781 1702.0
0.985000014305 0.0879999995232 0.0379999987781 1791.0
0.990000009537 0.082999996841 0.0390000008047 1824.0
0.986999988556 0.0769999995828 0.0379999987781 1768.0
0.991999983788 0.0719999969006 0.0390000008047 1718.0
0.990000009537 0.0659999996424 0.0390000008047 1744.0
0.986000001431 0.0599999986589 0.0379999987781 1647.0
0.987999975681 0.0540000014007 0.0390000008047 1611.0
0.992999970913 0.0489999987185 0.0390000008047 1622.0
0.992999970913 0.0430000014603 0.0390000008047 1597.0
0.987999975681 0.0370000004768 0.0390000008047 1606.0
0.992999970913 0.0320000015199 0.0390000008047 1635.0
0.995000004768 0.0260000005364 0.0390000008047 869.0
1.00999999046 -0.0649999976158 0.0399999991059 589.0
1.00600004196 -0.0710000023246 0.0399999991059 1186.0
1.00699996948 -0.0769999995828 0.0399999991059 1195.0
1.00100004673 -0.082000002265 0.0399999991059 1211.0
1.0039999485 -0.0879999995232 0.0399999991059 1212.0
1.00199997425 -0.0939999967813 0.0399999991059 1225.0
1.0 -0.0989999994636 0.0399999991059 1232.0
1.0 -0.104999996722 0.0399999991059 1244.0
0.995999991894 -0.109999999404 0.0399999991059 1244.0
0.998000025749 -0.115999996662 0.0399999991059 1257.0
0.996999979019 -0.122000001371 0.0399999991059 1252.0
0.994000017643 -0.12800000608 0.0399999991059 1273.0
0.989000022411 -0.133000001311 0.0399999991059 1282.0
0.986000001431 -0.137999996543 0.0399999991059 1293.0
0.987999975681 -0.143999993801 0.0399999991059 1310.0
0.990000009537 -0.15000000596 0.0399999991059 1215.0
0.972000002861 -0.152999997139 0.0390000008047 377.0
0.952000021935 -0.156000003219 0.0379999987781 185.0
0.963999986649 -0.163000002503 0.0390000008047 179.0
0.938000023365 -0.16400000453 0.0379999987781 180.0
0.967000007629 -0.17499999702 0.0390000008047 178.0
0.945999979973 -0.177000001073 0.0379999987781 179.0
0.947000026703 -0.182999998331 0.0390000008047 190.0
0.945999979973 -0.188999995589 0.0390000008047 184.0
0.939999997616 -0.193000003695 0.0379999987781 196.0
0.933000028133 -0.196999996901 0.0379999987781 194.0
0.949999988079 -0.206000000238 0.0390000008047 194.0
0.92199999094 -0.206000000238 0.0379999987781 196.0
0.940999984741 -0.216000005603 0.0390000008047 196.0
0.943000018597 -0.222000002861 0.0390000008047 203.0
0.958999991417 -0.231999993324 0.0399999991059 574.0
0.959999978542 -0.238000005484 0.0399999991059 1385.0
0.95300000906 -0.241999998689 0.0399999991059 1477.0
0.95300000906 -0.247999995947 0.0399999991059 1477.0
0.952000021935 -0.254000008106 0.0399999991059 1488.0
0.949999988079 -0.259000003338 0.0399999991059 1489.0
0.948000013828 -0.264999985695 0.0399999991059 1503.0
0.941999971867 -0.268999993801 0.0390000008047 1515.0
0.944000005722 -0.275999993086 0.0399999991059 1514.0
0.93900001049 -0.280000001192 0.0399999991059 1516.0
0.93900001049 -0.286000013351 0.0399999991059 1524.0
0.940999984741 -0.293000012636 0.0399999991059 1541.0
0.93599998951 -0.29699999094 0.0399999991059 1547.0
0.934000015259 -0.301999986172 0.0399999991059 1544.0
0.931999981403 -0.307999998331 0.0399999991059 1536.0
0.927999973297 -0.312999993563 0.0399999991059 703.0
0.926999986172 -0.317999988794 0.0399999991059 238.0
0.902000010014 -0.316000014544 0.0390000008047 213.0
0.90600001812 -0.323000013828 0.0390000008047 216.0
0.90499997139 -0.328999996185 0.0390000008047 225.0
0.874000012875 -0.323000013828 0.0379999987781 217.0
0.882000029087 -0.331999987364 0.0379999987781 213.0
0.910000026226 -0.349000006914 0.0399999991059 218.0
0.893000006676 -0.349000006914 0.0390000008047 223.0
0.902999997139 -0.358999997377 0.0390000008047 216.0
0.876999974251 -0.354999989271 0.0379999987781 223.0
0.888000011444 -0.365000009537 0.0390000008047 224.0
0.874000012875 -0.365000009537 0.0379999987781 222.0
0.89200001955 -0.379999995232 0.0390000008047 233.0
0.898000001907 -0.388999998569 0.0399999991059 614.0
0.898999989033 -0.395999997854 0.0399999991059 1514.0
0.90499997139 -0.405000001192 0.0399999991059 1641.0
0.896000027657 -0.407000005245 0.0399999991059 1646.0
0.893000006676 -0.412000000477 0.0399999991059 1635.0
0.894999980927 -0.419999986887 0.0399999991059 1649.0
0.885999977589 -0.423000007868 0.0399999991059 1651.0
0.89099997282 -0.430999994278 0.0399999991059 1654.0
0.894999980927 -0.439999997616 0.0410000011325 1651.0
0.89200001955 -0.446000009775 0.0410000011325 1659.0
0.882000029087 -0.446999996901 0.0399999991059 1661.0
0.879999995232 -0.45300000906 0.0399999991059 1678.0
0.878000020981 -0.458999991417 0.0399999991059 1661.0
0.878000020981 -0.465999990702 0.0410000011325 1662.0
0.878000020981 -0.472999989986 0.0410000011325 982.0
0.85900002718 -0.469999998808 0.0399999991059 296.0
0.841000020504 -0.465999990702 0.0390000008047 228.0
0.947000026703 0.542999982834 0.0329999998212 901.0
0.954999983311 0.538999974728 0.0340000018477 918.0
0.95300000906 0.53100001812 0.0329999998212 920.0
0.95300000906 0.523000001907 0.0329999998212 919.0
0.958999991417 0.518000006676 0.0329999998212 925.0
0.959999978542 0.510999977589 0.0329999998212 931.0
0.964999973774 0.505999982357 0.0340000018477 932.0
0.958000004292 0.495000004768 0.0329999998212 921.0
0.953999996185 0.486000001431 0.0329999998212 918.0
0.963999986649 0.483000010252 0.0329999998212 936.0
0.954999983311 0.472000002861 0.0329999998212 927.0
0.964999973774 0.469000011683 0.0329999998212 936.0
0.966000020504 0.462000012398 0.0329999998212 956.0
0.962000012398 0.453999996185 0.0329999998212 963.0
0.959999978542 0.444999992847 0.0329999998212 958.0
0.962000012398 0.43900001049 0.0329999998212 956.0
0.959999978542 0.430999994278 0.0329999998212 972.0
0.967999994755 0.428000003099 0.0329999998212 995.0
0.967000007629 0.421000003815 0.0329999998212 974.0
0.964999973774 0.412999987602 0.0329999998212 987.0
0.962000012398 0.405000001192 0.0329999998212 994.0
0.967999994755 0.40000000596 0.0329999998212 1007.0
0.97000002861 0.393999993801 0.0329999998212 1003.0
0.96899998188 0.386999994516 0.0329999998212 1023.0
0.967000007629 0.379999995232 0.0329999998212 1015.0
0.962999999523 0.372000008821 0.0320000015199 1021.0
0.97000002861 0.368000000715 0.0329999998212 1021.0
0.96899998188 0.361000001431 0.0329999998212 1004.0
0.972000002861 0.356000006199 0.0329999998212 1029.0
0.96899998188 0.347999989986 0.0320000015199 1026.0
0.977999985218 0.344000011683 0.0329999998212 1026.0
0.96899998188 0.335000008345 0.0320000015199 1052.0
0.972000002861 0.330000013113 0.0329999998212 1065.0
0.972999989986 0.323000013828 0.0329999998212 1059.0
0.972999989986 0.317000001669 0.0320000015199 1061.0
0.967999994755 0.308999985456 0.0320000015199 1049.0
0.981000006199 0.307000011206 0.0329999998212 1054.0
0.980000019073 0.300000011921 0.0329999998212 1074.0
0.971000015736 0.291999995708 0.0320000015199 1072.0
0.973999977112 0.286000013351 0.0320000015199 1086.0
0.976000010967 0.280999988317 0.0320000015199 1105.0
0.980000019073 0.27500000596 0.0329999998212 1118.0
0.978999972343 0.268999993801 0.0329999998212 1112.0
0.977999985218 0.263000011444 0.0320000015199 1130.0
0.98400002718 0.25799998641 0.0329999998212 1142.0
0.976999998093 0.25 0.0320000015199 1132.0
0.98400002718 0.246000006795 0.0329999998212 1122.0
0.98299998045 0.239999994636 0.0329999998212 1151.0
0.980000019073 0.232999995351 0.0320000015199 1150.0
0.977999985218 0.225999996066 0.0320000015199 1160.0
0.987999975681 0.223000004888 0.0329999998212 1188.0
0.98299998045 0.216000005603 0.0329999998212 1177.0
0.98299998045 0.209999993443 0.0329999998212 1195.0
0.985000014305 0.203999996185 0.0329999998212 1193.0
0.986000001431 0.197999998927 0.0329999998212 1193.0
0.981999993324 0.192000001669 0.0320000015199 1207.0
0.981000006199 0.186000004411 0.0320000015199 1224.0
0.990000009537 0.180999994278 0.0329999998212 1253.0
0.976000010967 0.172999992967 0.0320000015199 1260.0
0.98400002718 0.168999999762 0.0329999998212 1271.0
0.978999972343 0.162000000477 0.0320000015199 1313.0
0.985000014305 0.157000005245 0.0329999998212 1346.0
0.985000014305 0.150999993086 0.0329999998212 1309.0
0.98299998045 0.144999995828 0.0320000015199 1335.0
0.986999988556 0.140000000596 0.0329999998212 1315.0
0.987999975681 0.134000003338 0.0329999998212 1344.0
0.990000009537 0.128999993205 0.0329999998212 1365.0
0.98400002718 0.122000001371 0.0329999998212 1413.0
0.989000022411 0.116999998689 0.0329999998212 1425.0
0.989000022411 0.111000001431 0.0329999998212 1442.0
0.986999988556 0.104999996722 0.0329999998212 1480.0
0.986999988556 0.10000000149 0.0329999998212 1477.0
0.989000022411 0.0939999967813 0.0329999998212 1469.0
0.990999996662 0.0890000015497 0.0329999998212 1518.0
0.987999975681 0.082999996841 0.0329999998212 1521.0
0.989000022411 0.0769999995828 0.0329999998212 1479.0
0.989000022411 0.0710000023246 0.0329999998212 1452.0
0.986999988556 0.0659999996424 0.0329999998212 1539.0
0.989000022411 0.0599999986589 0.0329999998212 1468.0
0.995999991894 0.054999999702 0.0329999998212 1427.0
0.995999991894 0.0489999987185 0.0329999998212 1447.0
