ply
format ascii 1.0
element vertex 941
property float x
property float y
property float z
property float intensity
end_header
4.20300006866 1.30400002003 1.13399994373 120.0
4.24300003052 1.28900003433 1.14300000668 121.0
4.18699979782 1.24399995804 1.12600004673 117.0
4.19299983978 1.21800005436 1.12600004673 115.0
4.16699981689 1.18299996853 1.11800003052 116.0
4.13999986649 1.14900004864 1.10899996758 109.0
4.21400022507 1.14199995995 1.12800002098 116.0
4.17299985886 1.10399997234 1.11500000954 116.0
4.15500020981 1.07299995422 1.10899996758 114.0
4.19600009918 1.05599999428 1.11800003052 117.0
4.25099992752 1.04299998283 1.13199996948 109.0
4.18400001526 1.0 1.11300003529 108.0
4.17399978638 0.971000015736 1.10899996758 117.0
4.19099998474 0.949000000954 1.11199998856 115.0
4.21999979019 0.929000020027 1.11899995804 113.0
4.21000003815 0.899999976158 1.11500000954 110.0
4.16400003433 0.864000022411 1.10199999809 111.0
4.22700023651 0.851000010967 1.11699998379 112.0
4.21099996567 0.822000026703 1.11199998856 96.0
1.01300001144 -0.0659999996424 0.263000011444 237.0
1.01600003242 -0.0719999969006 0.263999998569 930.0
1.00800001621 -0.0780000016093 0.261999994516 974.0
1.00300002098 -0.082999996841 0.261000007391 537.0
1.00699996948 -0.0900000035763 0.261999994516 704.0
1.00600004196 -0.0949999988079 0.261999994516 1108.0
0.995999991894 -0.10000000149 0.259000003338 1145.0
0.995999991894 -0.105999998748 0.259000003338 1158.0
1.00100004673 -0.112999998033 0.261000007391 1171.0
1.0 -0.119000002742 0.261000007391 1186.0
1.0 -0.125 0.261000007391 1179.0
0.995999991894 -0.129999995232 0.259999990463 1177.0
0.991999983788 -0.136000007391 0.259000003338 1196.0
0.990999996662 -0.141000002623 0.259000003338 1210.0
0.989000022411 -0.146999999881 0.259000003338 1218.0
0.985000014305 -0.151999995112 0.25799998641 1210.0
0.98400002718 -0.158000007272 0.25799998641 1231.0
0.977999985218 -0.163000002503 0.256999999285 1245.0
0.981999993324 -0.170000001788 0.25799998641 1240.0
0.978999972343 -0.17499999702 0.25799998641 1255.0
0.980000019073 -0.181999996305 0.25799998641 1253.0
0.977999985218 -0.187000006437 0.25799998641 1277.0
0.972999989986 -0.192000001669 0.256999999285 1275.0
0.972000002861 -0.197999998927 0.256999999285 1274.0
0.964999973774 -0.202999994159 0.254999995232 1298.0
0.96899998188 -0.209999993443 0.256999999285 1305.0
0.971000015736 -0.216000005603 0.256999999285 1315.0
0.963999986649 -0.221000000834 0.256000012159 1313.0
0.962000012398 -0.225999996066 0.256000012159 1316.0
0.963999986649 -0.232999995351 0.256999999285 1348.0
0.959999978542 -0.238000005484 0.256000012159 1339.0
0.959999978542 -0.244000002742 0.256000012159 1336.0
0.952000021935 -0.247999995947 0.254999995232 1357.0
0.949999988079 -0.254000008106 0.254000008106 1370.0
0.95300000906 -0.259999990463 0.254999995232 1356.0
0.949999988079 -0.266000002623 0.254999995232 1372.0
0.947000026703 -0.270999997854 0.254999995232 1368.0
0.947000026703 -0.277000010014 0.254999995232 1376.0
0.944000005722 -0.282999992371 0.254999995232 1395.0
0.938000023365 -0.287000000477 0.254000008106 1396.0
0.944000005722 -0.294999986887 0.256000012159 1400.0
0.938000023365 -0.300000011921 0.254999995232 1412.0
0.936999976635 -0.305000007153 0.254999995232 1417.0
0.930999994278 -0.310000002384 0.254000008106 1431.0
0.933000028133 -0.317000001669 0.254999995232 1423.0
0.930999994278 -0.321999996901 0.254000008106 1439.0
0.930999994278 -0.328999996185 0.254999995232 1430.0
0.925999999046 -0.333000004292 0.254000008106 1438.0
0.924000024796 -0.338999986649 0.254000008106 1446.0
0.925999999046 -0.345999985933 0.254999995232 1453.0
0.919000029564 -0.34999999404 0.254000008106 1429.0
0.919000029564 -0.356000006199 0.254000008106 1448.0
0.915000021458 -0.361000001431 0.254000008106 1442.0
0.920000016689 -0.370000004768 0.256000012159 1455.0
0.915000021458 -0.374000012875 0.254999995232 1462.0
0.911000013351 -0.379000008106 0.254000008106 1459.0
0.912000000477 -0.386000007391 0.254999995232 1475.0
0.907000005245 -0.391000002623 0.254999995232 1496.0
0.902999997139 -0.395999997854 0.254000008106 1466.0
0.901000022888 -0.402000010014 0.254000008106 1478.0
0.902000010014 -0.409000009298 0.254999995232 1480.0
0.89200001955 -0.411000013351 0.252999991179 1481.0
0.898999989033 -0.421000003815 0.256000012159 1483.0
0.89200001955 -0.423999994993 0.254000008106 1496.0
0.888999998569 -0.430000007153 0.254000008106 1523.0
0.897000014782 -0.441000014544 0.256999999285 1513.0
0.894999980927 -0.446999996901 0.256999999285 1504.0
0.887000024319 -0.449999988079 0.256000012159 1495.0
0.883000016212 -0.455000013113 0.254999995232 1503.0
0.884999990463 -0.462999999523 0.256999999285 1506.0
0.875999987125 -0.465999990702 0.254999995232 1503.0
0.882000029087 -0.476000010967 0.256999999285 1486.0
0.879000008106 -0.481000006199 0.256999999285 1511.0
0.875999987125 -0.486999988556 0.256999999285 1506.0
0.873000025749 -0.49200001359 0.256999999285 1497.0
0.870999991894 -0.499000012875 0.256999999285 1503.0
2.11599993706 1.25800001621 0.606999993324 201.0
2.16300010681 1.26800000668 0.617999970913 110.0
2.1779999733 1.25800001621 0.620000004768 110.0
2.20499992371 1.2539999485 0.625999987125 221.0
2.23399996758 1.25300002098 0.633000016212 196.0
2.29500007629 1.26800000668 0.648000001907 108.0
3.38700008392 1.39999997616 0.916000008583 95.0
3.4960000515 1.41999995708 0.943000018597 82.0
3.53099989891 1.4090000391 0.950999975204 74.0
3.89199995995 1.52600002289 1.04600000381 96.0
3.91700005531 1.50800001621 1.05099999905 121.0
3.83599996567 1.45000004768 1.02699995041 116.0
3.95300006866 1.4659999609 1.05599999428 102.0
4.17700004578 1.51999998093 1.11399996281 72.0
4.13800001144 1.47800004482 1.10199999809 75.0
4.18800020218 1.46700000763 1.11300003529 78.0
4.15600013733 1.42700004578 1.10300004482 104.0
4.15500020981 1.39900004864 1.10099995136 121.0
4.15799999237 1.37199997902 1.10000002384 126.0
4.20699977875 1.36000001431 1.11099994183 123.0
4.18200016022 1.32400000095 1.10300004482 114.0
4.15899991989 1.28900003433 1.09500002861 112.0
4.23000001907 1.28299999237 1.11199998856 117.0
4.17199993134 1.23800003529 1.09500002861 113.0
4.18699979782 1.21500003338 1.09800004959 111.0
4.16900014877 1.18200004101 1.0909999609 116.0
4.18300008774 1.1590000391 1.09300005436 109.0
4.16699981689 1.12800002098 1.08800005913 110.0
4.22100019455 1.11500000954 1.10099995136 117.0
4.18499994278 1.07899999619 1.09000003338 113.0
4.20100021362 1.05599999428 1.09300005436 112.0
4.22499990463 1.03499996662 1.09800004959 106.0
4.24800014496 1.01400005817 1.10199999809 115.0
4.16200017929 0.967000007629 1.07899999619 113.0
4.26599979401 0.963999986649 1.10500001907 110.0
4.11800003052 0.90499997139 1.06500005722 116.0
4.2389998436 0.90499997139 1.09599995613 112.0
4.17899990082 0.865999996662 1.07899999619 109.0
4.15600013733 0.836000025272 1.0720000267 107.0
4.18499994278 0.815999984741 1.07899999619 96.0
1.0039999485 -0.0710000023246 0.254999995232 914.0
1.01199996471 -0.0780000016093 0.256999999285 568.0
1.01900005341 -0.0850000008941 0.25799998641 206.0
1.00699996948 -0.0900000035763 0.256000012159 633.0
1.0 -0.0949999988079 0.254000008106 1102.0
1.0 -0.101000003517 0.254000008106 1156.0
1.00199997425 -0.107000000775 0.254999995232 1158.0
1.0039999485 -0.112999998033 0.256000012159 1181.0
0.995999991894 -0.118000000715 0.254000008106 1187.0
0.994000017643 -0.123999997973 0.252999991179 1189.0
0.995000004768 -0.129999995232 0.254000008106 1203.0
0.987999975681 -0.135000005364 0.252000004053 1199.0
0.991999983788 -0.141000002623 0.252999991179 1212.0
0.987999975681 -0.146999999881 0.252000004053 1223.0
0.989000022411 -0.152999997139 0.252999991179 1216.0
0.986999988556 -0.158999994397 0.252999991179 1234.0
0.98299998045 -0.16400000453 0.252000004053 1247.0
0.981000006199 -0.170000001788 0.252000004053 1243.0
0.98299998045 -0.175999999046 0.252000004053 1256.0
0.980000019073 -0.180999994278 0.252000004053 1260.0
0.977999985218 -0.187000006437 0.252000004053 1272.0
0.977999985218 -0.193000003695 0.252000004053 1284.0
0.971000015736 -0.197999998927 0.25 1278.0
0.972999989986 -0.203999996185 0.250999987125 1289.0
0.967000007629 -0.209000006318 0.25 1317.0
0.963999986649 -0.21400000155 0.25 1308.0
0.966000020504 -0.221000000834 0.25 1326.0
0.967000007629 -0.226999998093 0.250999987125 1327.0
0.961000025272 -0.231999993324 0.25 1349.0
0.957000017166 -0.237000003457 0.248999997973 1334.0
0.957000017166 -0.243000000715 0.248999997973 1348.0
0.957000017166 -0.248999997973 0.25 1357.0
0.953999996185 -0.254000008106 0.248999997973 1375.0
0.949000000954 -0.259000003338 0.247999995947 1364.0
0.943000018597 -0.263000011444 0.24699999392 1367.0
0.944999992847 -0.270000010729 0.247999995947 1373.0
0.947000026703 -0.277000010014 0.248999997973 1379.0
0.945999979973 -0.282999992371 0.248999997973 1387.0
0.943000018597 -0.287999987602 0.248999997973 1397.0
0.936999976635 -0.293000012636 0.247999995947 1406.0
0.938000023365 -0.298999994993 0.247999995947 1417.0
0.93599998951 -0.305000007153 0.247999995947 1418.0
0.936999976635 -0.31099998951 0.248999997973 1419.0
0.934000015259 -0.317000001669 0.248999997973 1431.0
0.927999973297 -0.321000009775 0.247999995947 1439.0
0.925000011921 -0.326000005007 0.24699999392 1429.0
0.929000020027 -0.333999991417 0.248999997973 1423.0
0.924000024796 -0.337999999523 0.247999995947 1453.0
0.924000024796 -0.344999998808 0.248999997973 1460.0
0.922999978065 -0.351000010967 0.248999997973 1459.0
0.919000029564 -0.356000006199 0.247999995947 1448.0
0.920000016689 -0.363000005484 0.248999997973 1455.0
0.913999974728 -0.36700001359 0.247999995947 1460.0
0.911000013351 -0.372000008821 0.247999995947 1461.0
0.912999987602 -0.379000008106 0.248999997973 1470.0
0.907000005245 -0.384000003338 0.247999995947 1469.0
0.907000005245 -0.389999985695 0.247999995947 1485.0
0.907999992371 -0.398000001907 0.248999997973 1472.0
0.902000010014 -0.400999993086 0.247999995947 1493.0
0.902999997139 -0.409000009298 0.248999997973 1476.0
0.90499997139 -0.416999995708 0.25 1486.0
0.897000014782 -0.419999986887 0.248999997973 1492.0
0.89200001955 -0.423999994993 0.247999995947 1498.0
0.893999993801 -0.432000011206 0.248999997973 1509.0
0.894999980927 -0.43900001049 0.25 1518.0
0.894999980927 -0.446000009775 0.250999987125 1502.0
0.887000024319 -0.449000000954 0.248999997973 1511.0
0.888999998569 -0.456999987364 0.250999987125 1506.0
0.882000029087 -0.46099999547 0.248999997973 1520.0
0.882000029087 -0.467999994755 0.25 1504.0
0.882000029087 -0.47499999404 0.250999987125 1505.0
0.874000012875 -0.477999985218 0.25 1516.0
0.875 -0.486000001431 0.250999987125 1513.0
0.875999987125 -0.493000000715 0.252000004053 1510.0
0.871999979019 -0.499000012875 0.252000004053 1508.0
2.13599991798 1.26800000668 0.597000002861 193.0
2.17000007629 1.26900005341 0.603999972343 103.0
2.23600006104 1.28900003433 0.620999991894 114.0
2.22699999809 1.26499998569 0.616999983788 236.0
2.2460000515 1.25699996948 0.620000004768 181.0
2.36199998856 1.3029999733 0.649999976158 120.0
3.39499998093 1.40199995041 0.894999980927 90.0
3.50999999046 1.4240000248 0.922999978065 83.0
3.632999897 1.44799995422 0.953999996185 73.0
3.85899996758 1.50999999046 1.01100003719 101.0
3.86299991608 1.48500001431 1.01100003719 115.0
3.84800004959 1.45200002193 1.00499999523 119.0
3.96000003815 1.46700000763 1.03199994564 97.0
4.08599996567 1.48500001431 1.06299996376 70.0
4.15700006485 1.48199999332 1.08000004292 80.0
4.22100019455 1.47599995136 1.09399998188 75.0
4.16800022125 1.42900002003 1.07899999619 108.0
4.14599990845 1.39400005341 1.07099997997 118.0
4.13399982452 1.36199998856 1.06599998474 128.0
4.17600011826 1.34800004959 1.0759999752 122.0
4.1890001297 1.32400000095 1.07700002193 120.0
4.18300008774 1.29400002956 1.07400000095 116.0
4.15199995041 1.25699996948 1.06500005722 115.0
4.24599981308 1.25800001621 1.0870000124 109.0
4.21500015259 1.22099995613 1.07799994946 117.0
4.17700004578 1.18299996853 1.06599998474 118.0
4.14599990845 1.14699995518 1.05700004101 117.0
4.15799999237 1.12300002575 1.05900001526 118.0
4.21700000763 1.11199998856 1.07299995422 108.0
4.17500019073 1.07500004768 1.06099998951 107.0
4.23199987411 1.06200003624 1.07400000095 116.0
4.17700004578 1.02199995518 1.05900001526 110.0
4.17999982834 0.995999991894 1.05799996853 115.0
4.15500020981 0.963999986649 1.05099999905 116.0
4.17999982834 0.943000018597 1.05599999428 113.0
4.21199989319 0.924000024796 1.06299996376 115.0
4.20599985123 0.897000014782 1.05999994278 112.0
4.23600006104 0.876999974251 1.06700003147 114.0
4.19999980927 0.842999994755 1.05700004101 107.0
4.1939997673 0.815999984741 1.05400002003 86.0
0.999000012875 -0.0649999976158 0.24699999392 251.0
1.01199996471 -0.0719999969006 0.25 955.0
1.01100003719 -0.0780000016093 0.25 970.0
1.00600004196 -0.082999996841 0.248999997973 864.0
1.00699996948 -0.0890000015497 0.248999997973 1270.0
1.00800001621 -0.0949999988079 0.25 1147.0
1.0039999485 -0.101000003517 0.248999997973 1154.0
1.00300002098 -0.107000000775 0.248999997973 1168.0
1.00300002098 -0.112999998033 0.248999997973 1176.0
1.0 -0.118000000715 0.247999995947 1197.0
0.998000025749 -0.123999997973 0.247999995947 1187.0
0.995999991894 -0.129999995232 0.247999995947 1205.0
0.995000004768 -0.136000007391 0.247999995947 1211.0
0.991999983788 -0.141000002623 0.24699999392 1222.0
0.992999970913 -0.148000001907 0.247999995947 1233.0
0.981000006199 -0.151999995112 0.245000004768 1224.0
0.981000006199 -0.158000007272 0.245000004768 1241.0
0.98299998045 -0.16400000453 0.246000006795 1264.0
0.980000019073 -0.168999999762 0.245000004768 1254.0
0.976999998093 -0.17499999702 0.245000004768 1260.0
0.978999972343 -0.180999994278 0.245000004768 1278.0
0.973999977112 -0.186000004411 0.245000004768 1281.0
0.972000002861 -0.192000001669 0.244000002742 1290.0
0.972000002861 -0.197999998927 0.244000002742 1294.0
0.972999989986 -0.203999996185 0.245000004768 1311.0
0.972000002861 -0.209999993443 0.245000004768 1324.0
0.96899998188 -0.215000003576 0.245000004768 1329.0
0.963999986649 -0.219999998808 0.244000002742 1332.0
0.962999999523 -0.225999996066 0.244000002742 1329.0
0.959999978542 -0.231000006199 0.243000000715 1346.0
0.958999991417 -0.237000003457 0.243000000715 1347.0
0.958999991417 -0.243000000715 0.244000002742 1359.0
0.958000004292 -0.248999997973 0.244000002742 1360.0
0.958000004292 -0.254999995232 0.244000002742 1368.0
0.947000026703 -0.25799998641 0.241999998689 1375.0
0.944999992847 -0.263999998569 0.241999998689 1388.0
0.948000013828 -0.270999997854 0.243000000715 1378.0
0.947000026703 -0.277000010014 0.243000000715 1380.0
0.944999992847 -0.282000005245 0.243000000715 1393.0
0.944000005722 -0.287999987602 0.243000000715 1398.0
0.940999984741 -0.293000012636 0.243000000715 1405.0
0.940999984741 -0.300000011921 0.243000000715 1413.0
0.93900001049 -0.305000007153 0.243000000715 1420.0
0.93900001049 -0.312000006437 0.243000000715 1416.0
0.938000023365 -0.317999988794 0.244000002742 1437.0
0.930000007153 -0.321000009775 0.241999998689 1433.0
0.929000020027 -0.326999992132 0.241999998689 1448.0
0.930000007153 -0.333999991417 0.243000000715 1440.0
0.927999973297 -0.338999986649 0.243000000715 1458.0
0.926999986172 -0.345999985933 0.243000000715 1457.0
0.92199999094 -0.34999999404 0.241999998689 1458.0
0.917999982834 -0.354999989271 0.241999998689 1464.0
0.917999982834 -0.361999988556 0.241999998689 1470.0
0.916000008583 -0.36700001359 0.241999998689 1466.0
0.911000013351 -0.372000008821 0.241999998689 1485.0
0.907000005245 -0.377000004053 0.240999996662 1484.0
0.908999979496 -0.384000003338 0.241999998689 1477.0
0.908999979496 -0.391000002623 0.243000000715 1489.0
0.90600001812 -0.395999997854 0.243000000715 1493.0
0.901000022888 -0.400999993086 0.241999998689 1492.0
0.902999997139 -0.407999992371 0.243000000715 1488.0
0.901000022888 -0.41400000453 0.243000000715 1493.0
0.902000010014 -0.421000003815 0.244000002742 1509.0
0.896000027657 -0.425000011921 0.243000000715 1490.0
0.894999980927 -0.432000011206 0.243000000715 1514.0
0.883000016212 -0.432999998331 0.240999996662 1511.0
0.888999998569 -0.442999988794 0.243000000715 1507.0
0.887000024319 -0.449000000954 0.244000002742 1526.0
0.887000024319 -0.455000013113 0.244000002742 1506.0
0.893000006676 -0.465999990702 0.24699999392 1517.0
0.884999990463 -0.469000011683 0.245000004768 1519.0
0.882000029087 -0.474000006914 0.245000004768 1520.0
0.879999995232 -0.479999989271 0.245000004768 1516.0
0.876999974251 -0.486000001431 0.245000004768 1521.0
0.874000012875 -0.49200001359 0.245000004768 1509.0
0.875 -0.499000012875 0.246000006795 1510.0
2.12700009346 1.25999999046 0.578999996185 178.0
2.16400003433 1.26400005817 0.587000012398 102.0
2.20000004768 1.26600003242 0.59500002861 129.0
2.22499990463 1.26199996471 0.601000010967 242.0
2.25999999046 1.26300001144 0.60799998045 162.0
2.36199998856 1.29999995232 0.634000003338 105.0
3.39400005341 1.39900004864 0.871999979019 92.0
3.46199989319 1.40199995041 0.888000011444 79.0
3.76999998093 1.5 0.964999973774 79.0
3.91199994087 1.52900004387 0.999000012875 101.0
3.80500006676 1.46000003815 0.97000002861 130.0
3.84500002861 1.44900000095 0.978999972343 116.0
3.89599990845 1.44099998474 0.990000009537 87.0
4.07100009918 1.47800004482 1.03199994564 68.0
4.20100021362 1.4960000515 1.06400001049 68.0
4.23999977112 1.48099994659 1.07099997997 75.0
4.14599990845 1.41999995708 1.04600000381 116.0
4.17999982834 1.40299999714 1.0529999733 129.0
4.20699977875 1.38399994373 1.05799996853 114.0
4.21899986267 1.36000001431 1.05900001526 115.0
4.20499992371 1.32700002193 1.05400002003 124.0
4.1890001297 1.29400002956 1.0490000248 113.0
4.14900016785 1.2539999485 1.03699994087 113.0
4.22499990463 1.25 1.05499994755 114.0
4.16699981689 1.20500004292 1.0379999876 112.0
4.20499992371 1.18900001049 1.04700005054 112.0
4.15999984741 1.14900004864 1.0340000391 117.0
4.19000005722 1.12999999523 1.03999996185 113.0
4.20200014114 1.10699999332 1.04200005531 120.0
4.16499996185 1.07000005245 1.03100001812 111.0
4.22499990463 1.05900001526 1.04499995708 112.0
4.23600006104 1.03499996662 1.04700005054 109.0
4.1859998703 0.995999991894 1.03299999237 113.0
4.21299982071 0.976000010967 1.03900003433 111.0
4.1890001297 0.944000005722 1.03199994564 110.0
4.23099994659 0.926999986172 1.04100000858 114.0
4.17399978638 0.888999998569 1.02600002289 112.0
4.17999982834 0.864000022411 1.02600002289 111.0
4.13100004196 0.82800000906 1.01300001144 113.0
4.15299987793 0.806999981403 1.01800000668 87.0
1.01199996471 -0.0719999969006 0.244000002742 961.0
1.01199996471 -0.0780000016093 0.244000002742 1134.0
1.00699996948 -0.082999996841 0.243000000715 1139.0
1.00600004196 -0.0890000015497 0.243000000715 1152.0
1.00999999046 -0.0960000008345 0.244000002742 1170.0
1.00300002098 -0.101000003517 0.241999998689 1160.0
0.996999979019 -0.105999998748 0.240999996662 1173.0
1.00100004673 -0.112999998033 0.241999998689 1182.0
0.998000025749 -0.118000000715 0.241999998689 1197.0
0.991999983788 -0.123000003397 0.239999994636 1197.0
0.995000004768 -0.129999995232 0.240999996662 1212.0
0.994000017643 -0.135000005364 0.240999996662 1218.0
0.995000004768 -0.142000004649 0.241999998689 1231.0
0.990999996662 -0.146999999881 0.240999996662 1232.0
0.987999975681 -0.152999997139 0.239999994636 1238.0
0.985000014305 -0.158000007272 0.239999994636 1250.0
0.98299998045 -0.16400000453 0.239999994636 1269.0
0.98299998045 -0.170000001788 0.239999994636 1271.0
0.976999998093 -0.17499999702 0.238999992609 1276.0
0.978999972343 -0.180999994278 0.238999992609 1274.0
0.973999977112 -0.186000004411 0.238000005484 1294.0
0.972999989986 -0.192000001669 0.238000005484 1293.0
0.973999977112 -0.197999998927 0.238999992609 1303.0
0.967999994755 -0.202999994159 0.238000005484 1323.0
0.972999989986 -0.209999993443 0.238999992609 1317.0
0.967000007629 -0.21400000155 0.238000005484 1314.0
0.963999986649 -0.219999998808 0.238000005484 1330.0
0.962999999523 -0.225999996066 0.238000005484 1332.0
0.964999973774 -0.231999993324 0.238000005484 1348.0
0.958000004292 -0.236000001431 0.237000003457 1357.0
0.959999978542 -0.243000000715 0.238000005484 1351.0
0.955999970436 -0.247999995947 0.237000003457 1356.0
0.954999983311 -0.254000008106 0.237000003457 1391.0
0.950999975204 -0.259000003338 0.237000003457 1390.0
0.943000018597 -0.263000011444 0.234999999404 1398.0
0.948000013828 -0.270000010729 0.237000003457 1382.0
0.949000000954 -0.277000010014 0.237000003457 1384.0
0.943000018597 -0.280999988317 0.236000001431 1397.0
0.944000005722 -0.287999987602 0.237000003457 1398.0
0.938000023365 -0.291999995708 0.236000001431 1418.0
0.936999976635 -0.298000007868 0.236000001431 1427.0
0.941999971867 -0.305999994278 0.238000005484 1423.0
0.930000007153 -0.307999998331 0.234999999404 1425.0
0.936999976635 -0.317000001669 0.237000003457 1442.0
0.930000007153 -0.321000009775 0.236000001431 1442.0
0.929000020027 -0.326999992132 0.236000001431 1436.0
0.930000007153 -0.333000004292 0.237000003457 1446.0
0.925000011921 -0.337999999523 0.236000001431 1454.0
0.922999978065 -0.344000011683 0.236000001431 1469.0
0.919000029564 -0.349000006914 0.236000001431 1471.0
0.921000003815 -0.356000006199 0.237000003457 1468.0
0.922999978065 -0.363000005484 0.238000005484 1462.0
0.913999974728 -0.365999996662 0.236000001431 1483.0
0.913999974728 -0.372999995947 0.236000001431 1479.0
0.911000013351 -0.377999991179 0.236000001431 1476.0
0.907000005245 -0.38299998641 0.236000001431 1492.0
0.908999979496 -0.389999985695 0.237000003457 1503.0
0.90600001812 -0.395000010729 0.237000003457 1497.0
0.902999997139 -0.400999993086 0.236000001431 1497.0
0.90499997139 -0.407999992371 0.237000003457 1488.0
0.902000010014 -0.41400000453 0.237000003457 1509.0
0.898000001907 -0.418999999762 0.237000003457 1490.0
0.897000014782 -0.425000011921 0.237000003457 1507.0
0.89200001955 -0.430000007153 0.237000003457 1509.0
0.893999993801 -0.437000006437 0.238000005484 1512.0
0.888999998569 -0.442000001669 0.237000003457 1518.0
0.885999977589 -0.446999996901 0.237000003457 1520.0
0.888999998569 -0.456000000238 0.238000005484 1504.0
0.884000003338 -0.460000008345 0.238000005484 1515.0
0.878000020981 -0.463999986649 0.237000003457 1532.0
0.879999995232 -0.472999989986 0.238000005484 1526.0
0.880999982357 -0.479999989271 0.238999992609 1514.0
0.874000012875 -0.483999997377 0.238000005484 1536.0
0.874000012875 -0.490999996662 0.238999992609 1523.0
0.873000025749 -0.497999995947 0.238999992609 1522.0
2.13599991798 1.26400005817 0.565999984741 163.0
2.11500000954 1.23300004005 0.559000015259 100.0
2.20900011063 1.26900005341 0.582000017166 146.0
2.25500011444 1.27699995041 0.592999994755 243.0
2.27300000191 1.26800000668 0.596000015736 159.0
3.40499997139 1.40199995041 0.851999998093 90.0
3.492000103 1.41199994087 0.871999979019 83.0
3.76900005341 1.49800002575 0.939999997616 70.0
3.89899992943 1.52199995518 0.97000002861 105.0
3.90199995041 1.4960000515 0.96899998188 118.0
3.82899999619 1.44099998474 0.949000000954 119.0
3.96300005913 1.46399998665 0.981000006199 85.0
4.17500019073 1.51300001144 1.03100001812 70.0
4.14599990845 1.47399997711 1.02199995518 78.0
4.21600008011 1.47000002861 1.0379999876 81.0
4.16599988937 1.4240000248 1.02400004864 118.0
4.18499994278 1.40299999714 1.02699995041 123.0
4.20200014114 1.37999999523 1.02900004387 123.0
4.16800022125 1.3409999609 1.01999998093 109.0
4.15500020981 1.30900001526 1.01499998569 120.0
4.12799978256 1.27400004864 1.00699996948 108.0
4.17999982834 1.26199996471 1.01800000668 118.0
4.14799976349 1.22500002384 1.00899994373 108.0
4.19099998474 1.21099996567 1.01800000668 116.0
4.16900014877 1.17700004578 1.01100003719 107.0
4.19899988174 1.15799999237 1.01699995995 112.0
4.26200008392 1.14800000191 1.03100001812 114.0
4.15000009537 1.09200000763 1.00300002098 115.0
4.18499994278 1.07400000095 1.00999999046 110.0
4.21799993515 1.05599999428 1.01600003242 116.0
4.15799999237 1.01400005817 1.00100004673 113.0
4.1810002327 0.994000017643 1.00499999523 109.0
4.16200017929 0.962999999523 1.0 113.0
4.23799991608 0.953999996185 1.01699995995 109.0
4.1779999733 0.913999974728 1.00100004673 115.0
4.19199991226 0.89099997282 1.0039999485 113.0
4.21600008011 0.870000004768 1.00899994373 109.0
4.21299982071 0.84399998188 1.00699996948 106.0
4.18200016022 0.811999976635 0.999000012875 82.0
1.01199996471 -0.0719999969006 0.238000005484 975.0
1.00699996948 -0.0769999995828 0.237000003457 1147.0
1.01499998569 -0.0839999988675 0.238999992609 1158.0
1.01199996471 -0.0900000035763 0.238000005484 1151.0
1.00499999523 -0.0949999988079 0.236000001431 1173.0
1.00699996948 -0.101000003517 0.237000003457 1171.0
1.00300002098 -0.107000000775 0.236000001431 1186.0
0.999000012875 -0.112000003457 0.236000001431 1196.0
0.999000012875 -0.118000000715 0.236000001431 1210.0
0.990999996662 -0.123000003397 0.233999997377 1196.0
0.992999970913 -0.128999993205 0.234999999404 1218.0
0.992999970913 -0.135000005364 0.234999999404 1212.0
0.987999975681 -0.141000002623 0.233999997377 1236.0
0.985000014305 -0.145999997854 0.232999995351 1248.0
0.98400002718 -0.151999995112 0.232999995351 1244.0
0.986000001431 -0.158000007272 0.233999997377 1265.0
0.98400002718 -0.16400000453 0.233999997377 1280.0
0.981999993324 -0.168999999762 0.232999995351 1271.0
0.978999972343 -0.17499999702 0.232999995351 1278.0
0.98299998045 -0.180999994278 0.233999997377 1284.0
0.976000010967 -0.186000004411 0.232999995351 1292.0
0.975000023842 -0.192000001669 0.232999995351 1303.0
0.973999977112 -0.197999998927 0.232999995351 1312.0
0.972000002861 -0.202999994159 0.232999995351 1318.0
0.967000007629 -0.208000004292 0.231999993324 1334.0
0.964999973774 -0.21400000155 0.231000006199 1330.0
0.962000012398 -0.218999996781 0.231000006199 1337.0
0.963999986649 -0.225999996066 0.231999993324 1339.0
0.958999991417 -0.230000004172 0.231000006199 1353.0
0.958999991417 -0.236000001431 0.231000006199 1361.0
0.959999978542 -0.243000000715 0.231999993324 1365.0
0.959999978542 -0.248999997973 0.231999993324 1381.0
0.955999970436 -0.254000008106 0.231000006199 1387.0
0.954999983311 -0.259999990463 0.231999993324 1379.0
0.953999996185 -0.266000002623 0.231999993324 1389.0
0.949000000954 -0.270000010729 0.231000006199 1393.0
0.944999992847 -0.27500000596 0.230000004172 1399.0
0.945999979973 -0.282000005245 0.231000006199 1397.0
0.944000005722 -0.287999987602 0.231000006199 1410.0
0.939999997616 -0.291999995708 0.230000004172 1431.0
0.934000015259 -0.29699999094 0.229000002146 1430.0
0.935000002384 -0.303000003099 0.230000004172 1425.0
0.935000002384 -0.310000002384 0.230000004172 1448.0
0.931999981403 -0.314999997616 0.230000004172 1443.0
0.930000007153 -0.319999992847 0.230000004172 1450.0
0.929000020027 -0.326000005007 0.230000004172 1465.0
0.929000020027 -0.331999987364 0.230000004172 1466.0
0.92199999094 -0.33599999547 0.229000002146 1462.0
0.921000003815 -0.342999994755 0.230000004172 1474.0
0.920000016689 -0.347999989986 0.230000004172 1456.0
0.920000016689 -0.354999989271 0.230000004172 1471.0
0.920000016689 -0.361000001431 0.231000006199 1485.0
0.916999995708 -0.36700001359 0.230000004172 1493.0
0.912999987602 -0.372000008821 0.230000004172 1491.0
0.912000000477 -0.377999991179 0.230000004172 1487.0
0.907000005245 -0.381999999285 0.229000002146 1497.0
0.907999992371 -0.388999998569 0.230000004172 1518.0
0.902999997139 -0.393999993801 0.230000004172 1501.0
0.902999997139 -0.40000000596 0.230000004172 1495.0
0.902000010014 -0.407000005245 0.231000006199 1495.0
0.90499997139 -0.414999991655 0.231999993324 1516.0
0.901000022888 -0.419999986887 0.231999993324 1513.0
0.894999980927 -0.423999994993 0.231000006199 1505.0
0.89200001955 -0.428999990225 0.230000004172 1518.0
0.896000027657 -0.437999993563 0.231999993324 1526.0
0.89099997282 -0.442000001669 0.231999993324 1513.0
0.888999998569 -0.448000013828 0.231999993324 1512.0
0.887000024319 -0.453999996185 0.231999993324 1533.0
0.880999982357 -0.458000004292 0.231000006199 1534.0
0.883000016212 -0.465999990702 0.231999993324 1546.0
0.883000016212 -0.472999989986 0.232999995351 1540.0
0.875999987125 -0.476999998093 0.231999993324 1532.0
0.878000020981 -0.485000014305 0.232999995351 1546.0
0.871999979019 -0.488999992609 0.231999993324 1522.0
0.870999991894 -0.495999991894 0.232999995351 1541.0
2.12299990654 1.2539999485 0.547999978065 143.0
2.1930000782 1.27699995041 0.56400001049 102.0
2.20499992371 1.26499998569 0.565999984741 157.0
2.25200009346 1.27300000191 0.575999975204 245.0
2.25500011444 1.25600004196 0.574999988079 138.0
3.43700003624 1.4129999876 0.837000012398 90.0
3.54600000381 1.43200004101 0.861999988556 77.0
3.70499992371 1.47000002861 0.898999989033 70.0
3.91100001335 1.52400004864 0.948000013828 108.0
3.86599993706 1.48000001907 0.935000002384 121.0
3.8180000782 1.43400001526 0.921000003815 107.0
4.02199983597 1.48300004005 0.96899998188 81.0
4.10200023651 1.48500001431 0.986999988556 71.0
4.19799995422 1.49000000954 1.00800001621 69.0
4.2389998436 1.47599995136 1.01600003242 87.0
4.14599990845 1.41600000858 0.991999983788 120.0
4.1360001564 1.38399994373 0.987999975681 130.0
4.14900016785 1.36099994183 0.990000009537 121.0
4.23799991608 1.36199998856 1.00899994373 121.0
4.16499996185 1.31099998951 0.990000009537 122.0
4.14499998093 1.27699995041 0.98400002718 119.0
4.17999982834 1.25999999046 0.990999996662 116.0
4.16099977493 1.22800004482 0.985000014305 108.0
4.21400022507 1.2159999609 0.995999991894 115.0
4.15999984741 1.17299997807 0.981999993324 106.0
4.17500019073 1.14999997616 0.985000014305 106.0
4.18300008774 1.12600004673 0.985000014305 113.0
4.16699981689 1.09500002861 0.980000019073 115.0
4.24900007248 1.08899998665 0.998000025749 114.0
4.20399999619 1.05099999905 0.986999988556 118.0
4.16400003433 1.01400005817 0.976000010967 112.0
4.14099979401 0.98299998045 0.96899998188 109.0
4.20599985123 0.972000002861 0.98400002718 114.0
4.1939997673 0.943000018597 0.980000019073 110.0
4.1939997673 0.916999995708 0.978999972343 114.0
4.24100017548 0.901000022888 0.989000022411 103.0
4.18699979782 0.862999975681 0.975000023842 112.0
4.17600011826 0.834999978542 0.972000002861 114.0
4.16599988937 0.808000028133 0.96899998188 87.0
1.01199996471 -0.0719999969006 0.231000006199 977.0
1.00999999046 -0.0780000016093 0.231000006199 1146.0
1.00699996948 -0.082999996841 0.231000006199 1151.0
1.01100003719 -0.0900000035763 0.231999993324 1161.0
1.00999999046 -0.0949999988079 0.231999993324 1181.0
1.00600004196 -0.101000003517 0.231000006199 1165.0
1.00300002098 -0.107000000775 0.230000004172 1172.0
1.00100004673 -0.112000003457 0.230000004172 1192.0
0.995000004768 -0.118000000715 0.229000002146 1213.0
0.995000004768 -0.123999997973 0.229000002146 1204.0
0.991999983788 -0.128999993205 0.228000000119 1216.0
0.990999996662 -0.135000005364 0.228000000119 1220.0
0.985000014305 -0.140000000596 0.226999998093 1233.0
0.994000017643 -0.146999999881 0.229000002146 1242.0
0.987999975681 -0.151999995112 0.228000000119 1243.0
0.986000001431 -0.158000007272 0.228000000119 1262.0
0.981000006199 -0.163000002503 0.226999998093 1269.0
0.98299998045 -0.168999999762 0.228000000119 1269.0
0.978999972343 -0.17499999702 0.226999998093 1282.0
0.978999972343 -0.180999994278 0.226999998093 1290.0
0.976000010967 -0.186000004411 0.226999998093 1300.0
0.977999985218 -0.192000001669 0.226999998093 1302.0
0.971000015736 -0.196999996901 0.225999996066 1306.0
0.97000002861 -0.202999994159 0.225999996066 1299.0
0.96899998188 -0.208000004292 0.225999996066 1334.0
0.96899998188 -0.21400000155 0.225999996066 1333.0
0.966000020504 -0.219999998808 0.225999996066 1335.0
0.964999973774 -0.225999996066 0.225999996066 1334.0
0.963999986649 -0.231000006199 0.225999996066 1355.0
0.959999978542 -0.236000001431 0.22499999404 1363.0
0.961000025272 -0.243000000715 0.225999996066 1361.0
0.958000004292 -0.247999995947 0.225999996066 1375.0
0.949999988079 -0.252000004053 0.224000006914 1392.0
0.949999988079 -0.25799998641 0.224000006914 1374.0
0.947000026703 -0.263000011444 0.224000006914 1387.0
0.947000026703 -0.268999993801 0.224000006914 1402.0
0.948000013828 -0.275999993086 0.22499999404 1428.0
0.949000000954 -0.282000005245 0.225999996066 1415.0
0.947000026703 -0.287999987602 0.225999996066 1418.0
0.941999971867 -0.293000012636 0.22499999404 1415.0
0.938000023365 -0.298000007868 0.224000006914 1443.0
0.93599998951 -0.303000003099 0.224000006914 1441.0
0.935000002384 -0.308999985456 0.224000006914 1444.0
0.93599998951 -0.316000014544 0.22499999404 1454.0
0.936999976635 -0.321999996901 0.225999996066 1453.0
0.929000020027 -0.326000005007 0.224000006914 1461.0
0.930999994278 -0.333000004292 0.22499999404 1463.0
0.925999999046 -0.337000012398 0.224000006914 1472.0
0.920000016689 -0.342000007629 0.223000004888 1486.0
0.926999986172 -0.351000010967 0.22499999404 1490.0
0.917999982834 -0.354000002146 0.224000006914 1498.0
0.920000016689 -0.361000001431 0.22499999404 1489.0
0.916000008583 -0.365999996662 0.224000006914 1496.0
0.916000008583 -0.372000008821 0.22499999404 1495.0
0.912999987602 -0.377000004053 0.224000006914 1502.0
0.910000026226 -0.38299998641 0.224000006914 1513.0
0.910000026226 -0.389999985695 0.22499999404 1505.0
0.907999992371 -0.395000010729 0.22499999404 1516.0
0.90499997139 -0.400999993086 0.22499999404 1511.0
0.90600001812 -0.407999992371 0.225999996066 1507.0
0.898999989033 -0.411000013351 0.224000006914 1519.0
0.898999989033 -0.418000012636 0.22499999404 1524.0
0.899999976158 -0.425000011921 0.225999996066 1509.0
0.894999980927 -0.430000007153 0.22499999404 1524.0
0.896000027657 -0.437000006437 0.225999996066 1544.0
0.888999998569 -0.441000014544 0.22499999404 1529.0
0.887000024319 -0.446999996901 0.22499999404 1544.0
0.884000003338 -0.451999992132 0.22499999404 1524.0
0.888999998569 -0.462000012398 0.226999998093 1545.0
0.882000029087 -0.465000003576 0.225999996066 1544.0
0.888999998569 -0.476000010967 0.228000000119 1542.0
0.879000008106 -0.477999985218 0.225999996066 1547.0
0.875999987125 -0.483999997377 0.225999996066 1535.0
0.878000020981 -0.49200001359 0.228000000119 1544.0
0.873000025749 -0.495999991894 0.226999998093 1539.0
2.09800004959 1.23699998856 0.527000010014 129.0
2.14899992943 1.25 0.537999987602 101.0
2.21000003815 1.26600003242 0.551999986172 170.0
2.24499988556 1.26800000668 0.559000015259 239.0
2.31100010872 1.28499996662 0.573000013828 132.0
3.43400001526 1.40999996662 0.81400001049 94.0
3.49000000954 1.40799999237 0.825999975204 77.0
3.77900004387 1.49800002575 0.893000006676 70.0
3.86299991608 1.5039999485 0.911000013351 97.0
3.80500006676 1.45399999619 0.894999980927 116.0
3.875 1.45399999619 0.910000026226 120.0
3.99699997902 1.47200000286 0.936999976635 83.0
4.14799976349 1.49899995327 0.971000015736 72.0
4.26499986649 1.51199996471 0.995999991894 74.0
4.24300003052 1.47599995136 0.990000009537 86.0
4.12099981308 1.40499997139 0.958999991417 122.0
4.17000007629 1.39400005341 0.96899998188 125.0
4.16800022125 1.36500000954 0.967000007629 119.0
4.19099998474 1.34500002861 0.971000015736 118.0
4.18300008774 1.31500005722 0.967999994755 113.0
4.20800018311 1.29499995708 0.972000002861 111.0
4.14499998093 1.24800002575 0.955999970436 113.0
4.18699979782 1.23300004005 0.963999986649 114.0
4.16300010681 1.19900000095 0.958000004292 114.0
4.16900014877 1.1740000248 0.958000004292 114.0
4.1939997673 1.15400004387 0.962000012398 111.0
4.19099998474 1.12600004673 0.959999978542 115.0
4.25400018692 1.11600005627 0.973999977112 114.0
4.20300006866 1.0759999752 0.961000025272 117.0
4.1970000267 1.04799997807 0.958000004292 111.0
4.20699977875 1.02400004864 0.959999978542 117.0
4.1970000267 0.995000004768 0.955999970436 109.0
4.23999977112 0.977999985218 0.964999973774 111.0
4.16200017929 0.934000015259 0.945999979973 111.0
4.16499996185 0.908999979496 0.945999979973 117.0
4.16499996185 0.883000016212 0.944999992847 109.0
4.20100021362 0.865000009537 0.95300000906 112.0
4.22800016403 0.84399998188 0.958000004292 113.0
4.22200012207 0.816999971867 0.955999970436 78.0
0.999000012875 -0.0649999976158 0.222000002861 301.0
1.01100003719 -0.0719999969006 0.22499999404 987.0
1.00699996948 -0.0769999995828 0.224000006914 1152.0
1.01300001144 -0.0839999988675 0.225999996066 1167.0
1.01300001144 -0.0900000035763 0.225999996066 1159.0
1.00800001621 -0.0949999988079 0.22499999404 1177.0
1.00199997425 -0.10000000149 0.224000006914 1187.0
1.00100004673 -0.105999998748 0.224000006914 1194.0
0.999000012875 -0.112000003457 0.223000004888 1198.0
0.995999991894 -0.118000000715 0.223000004888 1221.0
0.990999996662 -0.123000003397 0.222000002861 1223.0
0.995000004768 -0.128999993205 0.223000004888 1209.0
0.989000022411 -0.134000003338 0.222000002861 1228.0
0.989000022411 -0.140000000596 0.222000002861 1248.0
0.995000004768 -0.146999999881 0.223000004888 1248.0
0.98400002718 -0.150999993086 0.221000000834 1245.0
0.98400002718 -0.157000005245 0.221000000834 1260.0
0.98299998045 -0.163000002503 0.221000000834 1283.0
0.985000014305 -0.168999999762 0.222000002861 1278.0
0.981000006199 -0.17499999702 0.221000000834 1278.0
0.976000010967 -0.180000007153 0.219999998808 1299.0
0.972000002861 -0.185000002384 0.219999998808 1291.0
0.971000015736 -0.190999999642 0.219999998808 1302.0
0.972999989986 -0.196999996901 0.219999998808 1307.0
0.962000012398 -0.201000005007 0.217999994755 1341.0
0.97000002861 -0.208000004292 0.219999998808 1335.0
0.966000020504 -0.21400000155 0.219999998808 1331.0
0.962999999523 -0.218999996781 0.218999996781 1343.0
0.962000012398 -0.22499999404 0.218999996781 1341.0
0.962999999523 -0.231000006199 0.219999998808 1370.0
0.958999991417 -0.236000001431 0.218999996781 1371.0
0.953999996185 -0.240999996662 0.217999994755 1372.0
0.953999996185 -0.24699999392 0.218999996781 1373.0
0.958999991417 -0.254000008106 0.219999998808 1395.0
0.949999988079 -0.25799998641 0.217999994755 1400.0
0.953999996185 -0.264999985695 0.219999998808 1402.0
0.949999988079 -0.270000010729 0.218999996781 1411.0
0.944999992847 -0.27500000596 0.217999994755 1432.0
0.943000018597 -0.280000001192 0.217999994755 1431.0
0.938000023365 -0.284999996424 0.216999992728 1418.0
0.944000005722 -0.293000012636 0.218999996781 1432.0
0.939999997616 -0.298000007868 0.217999994755 1445.0
0.93900001049 -0.303999990225 0.218999996781 1448.0
0.933000028133 -0.307999998331 0.217999994755 1453.0
0.935000002384 -0.314999997616 0.218999996781 1459.0
0.926999986172 -0.317999988794 0.216999992728 1468.0
0.927999973297 -0.324999988079 0.217999994755 1466.0
0.927999973297 -0.331000000238 0.217999994755 1465.0
0.924000024796 -0.33599999547 0.217999994755 1469.0
0.916000008583 -0.340000003576 0.216000005603 1489.0
0.921000003815 -0.347999989986 0.217999994755 1492.0
0.916000008583 -0.352999985218 0.216999992728 1502.0
0.916000008583 -0.358999997377 0.217999994755 1490.0
0.912999987602 -0.363999992609 0.217999994755 1499.0
0.911000013351 -0.370000004768 0.217999994755 1508.0
0.916999995708 -0.379000008106 0.218999996781 1491.0
0.908999979496 -0.381999999285 0.217999994755 1501.0
0.903999984264 -0.386000007391 0.216999992728 1518.0
0.907000005245 -0.393999993801 0.218999996781 1522.0
0.902000010014 -0.398999989033 0.217999994755 1526.0
0.90499997139 -0.407000005245 0.218999996781 1515.0
0.901000022888 -0.412000000477 0.218999996781 1536.0
0.901000022888 -0.418999999762 0.218999996781 1513.0
0.898999989033 -0.425000011921 0.219999998808 1515.0
0.893999993801 -0.428999990225 0.218999996781 1526.0
0.897000014782 -0.437000006437 0.219999998808 1539.0
0.893999993801 -0.442999988794 0.219999998808 1539.0
0.889999985695 -0.448000013828 0.219999998808 1549.0
0.888000011444 -0.45300000906 0.219999998808 1537.0
0.887000024319 -0.460000008345 0.219999998808 1555.0
0.883000016212 -0.465000003576 0.219999998808 1540.0
0.878000020981 -0.469999998808 0.218999996781 1537.0
0.880999982357 -0.477999985218 0.221000000834 1545.0
0.871999979019 -0.481000006199 0.218999996781 1555.0
0.876999974251 -0.490999996662 0.221000000834 1542.0
0.870000004768 -0.493999987841 0.219999998808 1549.0
2.12599992752 1.25300002098 0.518999993801 114.0
2.15199995041 1.25 0.523999989033 112.0
2.21700000763 1.26900005341 0.537999987602 193.0
2.26900005341 1.27900004387 0.549000024796 239.0
2.27200007439 1.26199996471 0.547999978065 120.0
3.41599988937 1.42499995232 0.788999974728 71.0
3.37400007248 1.38300001621 0.777999997139 88.0
3.47199988365 1.39800000191 0.799000024796 70.0
3.82299995422 1.51300001144 0.878000020981 88.0
3.80500006676 1.47899997234 0.871999979019 114.0
3.86199998856 1.47399997711 0.883000016212 112.0
3.82800006866 1.43400001526 0.874000012875 111.0
3.99799990654 1.47099995613 0.911000013351 82.0
4.02299976349 1.45200002193 0.915000021458 72.0
4.15299987793 1.47099995613 0.943000018597 68.0
4.19299983978 1.45599997044 0.950999975204 89.0
4.19500017166 1.42900002003 0.949999988079 109.0
4.21500015259 1.40699994564 0.95300000906 121.0
4.13999986649 1.35399997234 0.934000015259 120.0
4.15999984741 1.33299994469 0.936999976635 117.0
4.15299987793 1.3029999733 0.934000015259 112.0
4.16400003433 1.27999997139 0.93599998951 118.0
4.21099996567 1.26600003242 0.944999992847 117.0
4.21799993515 1.24100005627 0.944999992847 119.0
4.22499990463 1.2159999609 0.944999992847 114.0
4.19000005722 1.1779999733 0.93599998951 110.0
4.17199993134 1.14699995518 0.930999994278 112.0
4.1810002327 1.12199997902 0.931999981403 113.0
4.20300006866 1.10099995136 0.935000002384 115.0
4.22900009155 1.08099997044 0.939999997616 115.0
4.22100019455 1.05200004578 0.936999976635 111.0
4.15399980545 1.00899994373 0.921000003815 108.0
4.23099994659 1.00199997425 0.938000023365 110.0
4.22599983215 0.973999977112 0.935000002384 121.0
4.23299980164 0.949000000954 0.93599998951 112.0
4.20499992371 0.916999995708 0.929000020027 122.0
4.1779999733 0.884999990463 0.92199999094 108.0
4.2389998436 0.871999979019 0.935000002384 110.0
4.20100021362 0.837999999523 0.925000011921 112.0
4.23999977112 0.819999992847 0.933000028133 84.0
1.00699996948 -0.0649999976158 0.217999994755 321.0
1.01199996471 -0.0719999969006 0.218999996781 1009.0
1.00300002098 -0.0769999995828 0.216999992728 1151.0
1.01300001144 -0.0839999988675 0.219999998808 1159.0
1.00899994373 -0.0890000015497 0.218999996781 1158.0
1.00699996948 -0.0949999988079 0.218999996781 1174.0
1.00100004673 -0.10000000149 0.216999992728 1181.0
1.00499999523 -0.107000000775 0.217999994755 1181.0
0.999000012875 -0.112000003457 0.216999992728 1191.0
0.998000025749 -0.118000000715 0.216999992728 1213.0
0.991999983788 -0.123000003397 0.216000005603 1221.0
0.992999970913 -0.128999993205 0.216000005603 1221.0
0.989000022411 -0.134000003338 0.216000005603 1224.0
0.987999975681 -0.140000000596 0.216000005603 1239.0
0.990000009537 -0.145999997854 0.216000005603 1249.0
0.985000014305 -0.150999993086 0.215000003576 1244.0
0.990000009537 -0.158000007272 0.216999992728 1269.0
0.986000001431 -0.163000002503 0.216000005603 1282.0
0.98299998045 -0.168999999762 0.215000003576 1276.0
0.98299998045 -0.17499999702 0.216000005603 1291.0
0.976000010967 -0.180000007153 0.21400000155 1297.0
0.972999989986 -0.185000002384 0.21400000155 1300.0
0.975000023842 -0.190999999642 0.215000003576 1312.0
0.977999985218 -0.197999998927 0.215000003576 1330.0
0.964999973774 -0.201000005007 0.212999999523 1330.0
0.97000002861 -0.208000004292 0.21400000155 1335.0
0.96899998188 -0.21400000155 0.21400000155 1349.0
0.962999999523 -0.218999996781 0.212999999523 1351.0
0.962000012398 -0.224000006914 0.212999999523 1363.0
0.962000012398 -0.230000004172 0.21400000155 1366.0
0.961000025272 -0.236000001431 0.21400000155 1372.0
0.959999978542 -0.241999998689 0.21400000155 1357.0
0.959999978542 -0.247999995947 0.21400000155 1387.0
0.952000021935 -0.252000004053 0.211999997497 1400.0
0.952000021935 -0.25799998641 0.212999999523 1392.0
0.949999988079 -0.263999998569 0.212999999523 1399.0
0.940999984741 -0.266999989748 0.21099999547 1404.0
0.947000026703 -0.27500000596 0.212999999523 1429.0
0.940999984741 -0.279000014067 0.211999997497 1422.0
0.941999971867 -0.286000013351 0.211999997497 1430.0
0.936999976635 -0.289999991655 0.21099999547 1432.0
0.939999997616 -0.29699999094 0.212999999523 1452.0
0.938000023365 -0.303000003099 0.212999999523 1433.0
0.93599998951 -0.308999985456 0.211999997497 1439.0
0.934000015259 -0.31400001049 0.211999997497 1459.0
0.930000007153 -0.319000005722 0.211999997497 1467.0
0.931999981403 -0.326000005007 0.212999999523 1475.0
0.925999999046 -0.330000013113 0.211999997497 1461.0
0.930000007153 -0.337999999523 0.212999999523 1472.0
0.925000011921 -0.342999994755 0.211999997497 1498.0
0.921000003815 -0.347999989986 0.211999997497 1490.0
0.922999978065 -0.354999989271 0.212999999523 1486.0
0.919000029564 -0.360000014305 0.211999997497 1501.0
0.910000026226 -0.361999988556 0.21099999547 1512.0
0.911000013351 -0.368999987841 0.211999997497 1507.0
0.916000008583 -0.377999991179 0.212999999523 1499.0
0.912000000477 -0.38299998641 0.212999999523 1495.0
0.910000026226 -0.388999998569 0.212999999523 1515.0
0.903999984264 -0.393000006676 0.211999997497 1515.0
0.902000010014 -0.398000001907 0.211999997497 1523.0
0.90600001812 -0.407000005245 0.212999999523 1509.0
0.899999976158 -0.411000013351 0.212999999523 1529.0
0.894999980927 -0.414999991655 0.211999997497 1538.0
0.899999976158 -0.423999994993 0.21400000155 1529.0
0.896000027657 -0.428999990225 0.212999999523 1538.0
0.89099997282 -0.432999998331 0.212999999523 1555.0
0.894999980927 -0.442000001669 0.21400000155 1534.0
0.893000006676 -0.449000000954 0.215000003576 1545.0
0.885999977589 -0.451999992132 0.212999999523 1556.0
0.884000003338 -0.458000004292 0.21400000155 1547.0
0.885999977589 -0.465999990702 0.215000003576 1536.0
0.884999990463 -0.472999989986 0.215000003576 1544.0
0.876999974251 -0.47499999404 0.21400000155 1554.0
0.879999995232 -0.483999997377 0.215000003576 1579.0
0.873000025749 -0.488000005484 0.21400000155 1549.0
0.871999979019 -0.493999987841 0.215000003576 1562.0
2.13400006294 1.25499999523 0.505999982357 106.0
2.23799991608 1.29799997807 0.528999984264 103.0
2.20900011063 1.26199996471 0.519999980927 197.0
2.21300005913 1.2460000515 0.519999980927 223.0
2.29099988937 1.27100002766 0.537000000477 112.0
3.39199995995 1.38900005817 0.759000003338 93.0
3.4849998951 1.40199995041 0.778999984264 84.0
3.88499999046 1.53499996662 0.866999983788 75.0
3.81299996376 1.48000001907 0.848999977112 111.0
3.82800006866 1.45899999142 0.851000010967 119.0
3.88000011444 1.45200002193 0.861000001431 108.0
4.13500022888 1.49100005627 0.913999974728 65.0
4.26999998093 1.50999999046 0.943000018597 68.0
4.21099996567 1.46099996567 0.927999973297 86.0
4.1810002327 1.42200005054 0.920000016689 118.0
4.15899991989 1.38699996471 0.912999987602 119.0
4.16499996185 1.36099994183 0.912999987602 111.0
4.20300006866 1.34500002861 0.920000016689 117.0
4.17700004578 1.30900001526 0.912999987602 112.0
4.20599985123 1.29100000858 0.917999982834 118.0
4.15899991989 1.24899995327 0.90600001812 109.0
4.22200012207 1.24100005627 0.919000029564 107.0
4.20599985123 1.20899999142 0.913999974728 101.0
4.15899991989 1.16799998283 0.902999997139 91.0
4.19299983978 1.15100002289 0.908999979496 90.0
4.24300003052 1.13699996471 0.919000029564 101.0
4.20900011063 1.10099995136 0.910000026226 106.0
4.14599990845 1.05799996853 0.896000027657 109.0
4.1939997673 1.04400002956 0.90499997139 113.0
4.19600009918 1.01800000668 0.903999984264 114.0
4.16900014877 0.986000001431 0.898000001907 114.0
4.21700000763 0.971000015736 0.907000005245 119.0
4.20100021362 0.940999984741 0.902999997139 113.0
4.17899990082 0.910000026226 0.897000014782 118.0
4.19600009918 0.888000011444 0.899999976158 110.0
4.14900016785 0.851999998093 0.888999998569 117.0
4.17500019073 0.832000017166 0.893999993801 110.0
4.23999977112 0.819000005722 0.907000005245 81.0
1.01999998093 -0.0659999996424 0.21400000155 337.0
1.01199996471 -0.0719999969006 0.212999999523 1010.0
1.01100003719 -0.0769999995828 0.212999999523 1150.0
