ply
format ascii 1.0
element vertex 943
property float x
property float y
property float z
property float intensity
end_header
0.865999996662 -0.421000003815 0.266000002623 244.0
0.888999998569 -0.43900001049 0.273000001907 231.0
0.866999983788 -0.435000002384 0.266999989748 223.0
0.871999979019 -0.444000005722 0.270000010729 189.0
0.871999979019 -0.451000005007 0.270000010729 181.0
0.851999998093 -0.448000013828 0.264999985695 175.0
0.850000023842 -0.453999996185 0.264999985695 130.0
0.898999989033 -0.488000005484 0.282000005245 120.0
0.962999999523 -0.52999997139 0.303000003099 100.0
1.02100002766 -0.572000026703 0.321999996901 115.0
1.04200005531 -0.592000007629 0.330000013113 111.0
1.0490000248 -0.605000019073 0.333999991417 166.0
2.11800003052 1.26600003242 0.652999997139 224.0
2.14100003242 1.26100003719 0.657999992371 137.0
2.20300006866 1.27900004387 0.675000011921 106.0
2.22900009155 1.27499997616 0.680999994278 158.0
2.24900007248 1.26699995995 0.685000002384 232.0
2.28200006485 1.26699995995 0.693000018597 130.0
3.3789999485 1.40400004387 0.981999993324 81.0
3.47600007057 1.41900002956 1.00800001621 92.0
3.5759999752 1.43400001526 1.03499996662 78.0
3.88199996948 1.52900004387 1.12199997902 88.0
3.9240000248 1.51800000668 1.13100004196 109.0
3.8599998951 1.4659999609 1.11099994183 120.0
3.86599993706 1.44099998474 1.11099994183 110.0
3.94199991226 1.44200003147 1.12999999523 77.0
4.20699977875 1.50899994373 1.20399999619 71.0
4.25199985504 1.4960000515 1.21500003338 74.0
4.21199989319 1.45299994946 1.2009999752 96.0
4.17700004578 1.4129999876 1.18900001049 120.0
4.17399978638 1.38399994373 1.18700003624 115.0
4.20499992371 1.36500000954 1.19400000572 124.0
4.1810002327 1.33000004292 1.18499994278 119.0
4.23199987411 1.31700003147 1.1970000267 115.0
4.15199995041 1.26499998569 1.17299997807 114.0
4.25199985504 1.26699995995 1.20000004768 113.0
4.17299985886 1.2159999609 1.17499995232 108.0
4.18400001526 1.19200003147 1.17700004578 111.0
4.21600008011 1.1740000248 1.18499994278 116.0
4.1939997673 1.13999998569 1.17700004578 110.0
4.15299987793 1.10199999809 1.16400003433 118.0
4.16300010681 1.07799994946 1.16499996185 113.0
4.21700000763 1.06500005722 1.17900002003 114.0
4.21700000763 1.0379999876 1.17700004578 116.0
4.16800022125 0.999000012875 1.16199994087 120.0
4.242000103 0.990000009537 1.18200004101 109.0
4.18200016022 0.949999988079 1.16400003433 118.0
4.24900007248 0.938000023365 1.18099999428 117.0
4.28700017929 0.920000016689 1.19000005722 121.0
4.17700004578 0.870000004768 1.1590000391 112.0
4.17999982834 0.84399998188 1.1590000391 108.0
4.21999979019 0.825999975204 1.16900002956 101.0
1.03900003433 -0.0740000009537 0.282999992371 172.0
1.00600004196 -0.0780000016093 0.273999989033 260.0
1.01100003719 -0.0839999988675 0.27500000596 316.0
1.02300000191 -0.0909999981523 0.279000014067 372.0
1.00899994373 -0.0960000008345 0.27500000596 422.0
1.0 -0.101000003517 0.273000001907 478.0
0.995000004768 -0.105999998748 0.272000014782 515.0
1.00100004673 -0.112999998033 0.273000001907 568.0
0.996999979019 -0.119000002742 0.273000001907 617.0
0.991999983788 -0.123999997973 0.270999997854 654.0
0.995000004768 -0.129999995232 0.272000014782 700.0
0.986000001431 -0.135000005364 0.270000010729 746.0
0.989000022411 -0.142000004649 0.270999997854 793.0
0.989000022411 -0.148000001907 0.272000014782 833.0
0.990000009537 -0.153999999166 0.272000014782 849.0
0.986999988556 -0.158999994397 0.272000014782 857.0
0.981999993324 -0.16400000453 0.270000010729 898.0
0.981999993324 -0.170000001788 0.270999997854 941.0
0.977999985218 -0.175999999046 0.270000010729 980.0
0.975000023842 -0.180999994278 0.268999993801 997.0
0.975000023842 -0.187000006437 0.270000010729 1023.0
0.972999989986 -0.193000003695 0.268999993801 1054.0
0.976000010967 -0.199000000954 0.270000010729 1071.0
0.976000010967 -0.204999998212 0.270999997854 1095.0
0.967999994755 -0.209999993443 0.268999993801 1115.0
0.96899998188 -0.216000005603 0.268999993801 1126.0
0.964999973774 -0.221000000834 0.268999993801 1151.0
0.962000012398 -0.226999998093 0.268000006676 1156.0
0.958999991417 -0.231999993324 0.268000006676 1189.0
0.954999983311 -0.237000003457 0.266999989748 1198.0
0.95300000906 -0.243000000715 0.266999989748 1207.0
0.953999996185 -0.248999997973 0.266999989748 1215.0
0.950999975204 -0.254000008106 0.266999989748 1227.0
0.947000026703 -0.259999990463 0.266000002623 1230.0
0.945999979973 -0.264999985695 0.266000002623 1246.0
0.947000026703 -0.272000014782 0.266999989748 1252.0
0.947000026703 -0.277999997139 0.268000006676 1253.0
0.941999971867 -0.282999992371 0.266999989748 1260.0
0.93900001049 -0.287999987602 0.266000002623 1257.0
0.939999997616 -0.294999986887 0.266999989748 1262.0
0.935000002384 -0.298999994993 0.266000002623 1253.0
0.931999981403 -0.305000007153 0.266000002623 1253.0
0.935000002384 -0.312000006437 0.266999989748 1257.0
0.926999986172 -0.316000014544 0.264999985695 1258.0
0.922999978065 -0.321000009775 0.264999985695 1263.0
0.927999973297 -0.328999996185 0.266999989748 1248.0
0.92199999094 -0.333000004292 0.264999985695 1221.0
0.921000003815 -0.338999986649 0.264999985695 1216.0
0.916000008583 -0.342999994755 0.264999985695 1213.0
0.920000016689 -0.351000010967 0.266000002623 1204.0
0.915000021458 -0.356000006199 0.266000002623 1186.0
0.916000008583 -0.363000005484 0.266000002623 1198.0
0.912999987602 -0.368000000715 0.266000002623 1186.0
0.908999979496 -0.372999995947 0.264999985695 1190.0
0.912000000477 -0.381000012159 0.266999989748 1147.0
0.907999992371 -0.386000007391 0.266999989748 1091.0
0.90499997139 -0.391000002623 0.266000002623 1075.0
0.902999997139 -0.397000014782 0.266000002623 1036.0
0.901000022888 -0.402999997139 0.266000002623 1008.0
0.896000027657 -0.407000005245 0.266000002623 967.0
0.893999993801 -0.412999987602 0.266000002623 949.0
0.898000001907 -0.42199999094 0.268000006676 910.0
0.896000027657 -0.428000003099 0.268000006676 864.0
0.888000011444 -0.430999994278 0.266000002623 825.0
0.893999993801 -0.441000014544 0.268999993801 770.0
0.889999985695 -0.446000009775 0.268000006676 729.0
0.884999990463 -0.449999988079 0.268000006676 668.0
0.879000008106 -0.453999996185 0.266999989748 631.0
0.883000016212 -0.462999999523 0.268999993801 575.0
0.879999995232 -0.469000011683 0.268000006676 529.0
0.888000011444 -0.479999989271 0.272000014782 479.0
0.907999992371 -0.499000012875 0.279000014067 418.0
0.897000014782 -0.5 0.275999993086 405.0
0.879000008106 -0.497999995947 0.270999997854 361.0
0.930999994278 -0.536000013351 0.28900000453 367.0
2.10100007057 1.25300002098 0.632000029087 230.0
2.19600009918 1.29100000858 0.658999979496 131.0
2.17600011826 1.26100003719 0.651000022888 109.0
2.23399996758 1.27499997616 0.666000008583 179.0
2.24499988556 1.26300001144 0.667999982834 223.0
2.27500009537 1.26100003719 0.675000011921 120.0
3.44799995422 1.40499997139 0.976999998093 92.0
3.61599993706 1.44799995422 1.02199995518 73.0
3.73099994659 1.46700000763 1.0529999733 90.0
3.88800001144 1.50100004673 1.09500002861 117.0
3.85100007057 1.46000003815 1.08299994469 123.0
3.93400001526 1.46399998665 1.10399997234 114.0
4.09600019455 1.4960000515 1.14699995518 72.0
4.10699987411 1.47099995613 1.14800000191 77.0
4.20599985123 1.47800004482 1.1740000248 79.0
4.20300006866 1.44799995422 1.17100000381 95.0
4.10300016403 1.38600003719 1.14100003242 121.0
4.14200019836 1.3710000515 1.14999997616 117.0
4.19000005722 1.35800004005 1.16100001335 117.0
4.1939997673 1.33099997044 1.16100001335 118.0
4.20900011063 1.30799996853 1.1629999876 113.0
4.1360001564 1.25800001621 1.14100003242 117.0
4.18499994278 1.24500000477 1.15299999714 115.0
4.19500017166 1.22099995613 1.15400004387 110.0
4.22900009155 1.20299994946 1.16199994087 112.0
4.20699977875 1.16900002956 1.15499997139 113.0
4.20200014114 1.14100003242 1.15199995041 118.0
4.17700004578 1.10699999332 1.14300000668 114.0
4.17600011826 1.08000004292 1.14199995995 113.0
4.22900009155 1.06599998474 1.15499997139 115.0
4.20599985123 1.0340000391 1.14699995518 114.0
4.20499992371 1.00699996948 1.14499998093 116.0
4.17999982834 0.973999977112 1.13699996471 110.0
4.24100017548 0.962000012398 1.15299999714 113.0
4.20200014114 0.925999999046 1.14100003242 117.0
4.19199991226 0.898000001907 1.13699996471 118.0
4.17399978638 0.867999970913 1.13100004196 111.0
4.20599985123 0.847999989986 1.13900005817 114.0
4.24300003052 0.828999996185 1.14800000191 101.0
1.01100003719 -0.0719999969006 0.268999993801 805.0
1.01199996471 -0.0780000016093 0.268999993801 1077.0
1.00300002098 -0.082999996841 0.266999989748 1079.0
1.0039999485 -0.0890000015497 0.266999989748 1092.0
1.00100004673 -0.0949999988079 0.266999989748 1130.0
1.00199997425 -0.101000003517 0.266999989748 1159.0
1.0 -0.107000000775 0.266999989748 1136.0
0.999000012875 -0.112999998033 0.266999989748 1155.0
1.00199997425 -0.119000002742 0.268000006676 1163.0
0.999000012875 -0.125 0.266999989748 1190.0
0.990000009537 -0.129999995232 0.264999985695 1185.0
0.986999988556 -0.135000005364 0.263999998569 1185.0
0.994000017643 -0.142000004649 0.266000002623 1197.0
0.985000014305 -0.146999999881 0.263999998569 1225.0
0.986999988556 -0.152999997139 0.264999985695 1232.0
0.986999988556 -0.158999994397 0.264999985695 1233.0
0.990000009537 -0.165999993682 0.266000002623 1232.0
0.985000014305 -0.171000003815 0.264999985695 1252.0
0.98400002718 -0.177000001073 0.264999985695 1250.0
0.976000010967 -0.180999994278 0.263000011444 1259.0
0.976999998093 -0.187000006437 0.263999998569 1271.0
0.973999977112 -0.193000003695 0.263000011444 1266.0
0.972999989986 -0.199000000954 0.263000011444 1271.0
0.973999977112 -0.204999998212 0.263999998569 1284.0
0.966000020504 -0.209000006318 0.261999994516 1302.0
0.966000020504 -0.215000003576 0.261999994516 1292.0
0.963999986649 -0.221000000834 0.261999994516 1309.0
0.961000025272 -0.225999996066 0.261999994516 1318.0
0.961000025272 -0.231999993324 0.261999994516 1339.0
0.958999991417 -0.238000005484 0.261999994516 1327.0
0.962999999523 -0.245000004768 0.263000011444 1345.0
0.95300000906 -0.248999997973 0.261000007391 1347.0
0.95300000906 -0.254999995232 0.261000007391 1364.0
0.953999996185 -0.261000007391 0.261999994516 1359.0
0.949000000954 -0.266000002623 0.261000007391 1376.0
0.948000013828 -0.272000014782 0.261000007391 1355.0
0.947000026703 -0.277999997139 0.261000007391 1382.0
0.945999979973 -0.284000009298 0.261000007391 1394.0
0.941999971867 -0.28900000453 0.261000007391 1390.0
0.943000018597 -0.294999986887 0.261999994516 1394.0
0.933000028133 -0.298000007868 0.259000003338 1419.0
0.936999976635 -0.305999994278 0.261000007391 1404.0
0.93599998951 -0.312000006437 0.261000007391 1417.0
0.935000002384 -0.317999988794 0.261000007391 1404.0
0.931999981403 -0.323000013828 0.261000007391 1420.0
0.934000015259 -0.330000013113 0.261999994516 1431.0
0.930000007153 -0.335000008345 0.261000007391 1430.0
0.925000011921 -0.340000003576 0.261000007391 1430.0
0.924000024796 -0.345999985933 0.261000007391 1444.0
0.925000011921 -0.352999985218 0.261999994516 1439.0
0.916000008583 -0.356000006199 0.259999990463 1439.0
0.917999982834 -0.363000005484 0.261000007391 1444.0
0.917999982834 -0.370000004768 0.261000007391 1460.0
0.913999974728 -0.375 0.261000007391 1454.0
0.910000026226 -0.379000008106 0.259999990463 1454.0
0.907000005245 -0.384999990463 0.259999990463 1455.0
0.903999984264 -0.389999985695 0.259999990463 1467.0
0.907999992371 -0.398999989033 0.261999994516 1472.0
0.90600001812 -0.404000014067 0.261999994516 1458.0
0.903999984264 -0.409999996424 0.261999994516 1470.0
0.897000014782 -0.41400000453 0.261000007391 1470.0
0.894999980927 -0.419999986887 0.261000007391 1470.0
0.889999985695 -0.423999994993 0.259999990463 1457.0
0.89200001955 -0.432000011206 0.261000007391 1446.0
0.89099997282 -0.437999993563 0.261999994516 1431.0
0.887000024319 -0.444000005722 0.261000007391 1426.0
0.887000024319 -0.451000005007 0.261999994516 1400.0
0.883000016212 -0.456000000238 0.261999994516 1383.0
0.879999995232 -0.46099999547 0.261000007391 1370.0
0.884000003338 -0.470999985933 0.263999998569 1334.0
0.875999987125 -0.472999989986 0.261999994516 1281.0
0.880999982357 -0.483000010252 0.263999998569 1233.0
0.876999974251 -0.488000005484 0.263999998569 1196.0
0.867999970913 -0.490999996662 0.261999994516 1127.0
0.874000012875 -0.500999987125 0.264999985695 1080.0
2.1210000515 1.26300001144 0.623000025749 230.0
2.12700009346 1.24800002575 0.623000025749 115.0
2.19600009918 1.26999998093 0.64099997282 105.0
2.24099993706 1.27699995041 0.652000010014 195.0
2.257999897 1.26800000668 0.65600001812 213.0
2.25500011444 1.24699997902 0.652999997139 107.0
3.35199999809 1.38800001144 0.929000020027 95.0
3.44899988174 1.40299999714 0.953999996185 89.0
3.61599993706 1.44500005245 0.998000025749 86.0
3.85500001907 1.51400005817 1.06200003624 79.0
3.79099988937 1.4620000124 1.04200005531 114.0
3.8789999485 1.46800005436 1.06400001049 118.0
3.90100002289 1.44900000095 1.06799995899 109.0
4.14799976349 1.51199996471 1.13399994373 74.0
4.28399991989 1.53199994564 1.16900002956 66.0
4.24300003052 1.48800003529 1.15600001812 72.0
4.21600008011 1.45000004768 1.14699995518 102.0
4.12799978256 1.39199995995 1.1210000515 122.0
4.11800003052 1.36099994183 1.11600005627 117.0
4.14599990845 1.34200000763 1.12199997902 117.0
4.20499992371 1.33299994469 1.13600003719 124.0
4.18800020218 1.29999995232 1.12999999523 124.0
4.17299985886 1.26699995995 1.12399995327 116.0
4.17700004578 1.24100005627 1.12399995327 119.0
4.20499992371 1.22200000286 1.12999999523 112.0
4.15000009537 1.17900002003 1.11300003529 110.0
4.22100019455 1.17100000381 1.13100004196 120.0
4.20699977875 1.13999998569 1.12600004673 113.0
4.23600006104 1.1210000515 1.13199996948 115.0
4.16599988937 1.07500004768 1.11199998856 116.0
4.1890001297 1.05499994755 1.11699998379 116.0
4.20900011063 1.03299999237 1.1210000515 119.0
4.21099996567 1.00600004196 1.12000000477 113.0
4.1779999733 0.972000002861 1.11000001431 113.0
4.17500019073 0.944999992847 1.10800004005 115.0
4.22399997711 0.930000007153 1.12000000477 121.0
4.21000003815 0.899999976158 1.11500000954 112.0
4.17500019073 0.866999983788 1.10500001907 116.0
4.17199993134 0.839999973774 1.10300004482 111.0
4.20200014114 0.819999992847 1.11000001431 100.0
1.00800001621 -0.0659999996424 0.261999994516 240.0
1.01400005817 -0.0719999969006 0.263000011444 935.0
1.00999999046 -0.0780000016093 0.261999994516 974.0
1.00999999046 -0.0839999988675 0.263000011444 536.0
1.00600004196 -0.0890000015497 0.261999994516 715.0
1.0039999485 -0.0949999988079 0.261000007391 1100.0
1.00199997425 -0.101000003517 0.261000007391 1160.0
1.0039999485 -0.107000000775 0.261999994516 1159.0
1.0 -0.112999998033 0.261000007391 1176.0
1.0 -0.119000002742 0.261000007391 1198.0
0.996999979019 -0.123999997973 0.259999990463 1180.0
0.995999991894 -0.129999995232 0.259999990463 1187.0
0.995000004768 -0.136000007391 0.259999990463 1196.0
0.990000009537 -0.141000002623 0.259000003338 1215.0
0.989000022411 -0.146999999881 0.259000003338 1215.0
0.989000022411 -0.152999997139 0.259000003338 1215.0
0.981000006199 -0.158000007272 0.256999999285 1234.0
0.978999972343 -0.16400000453 0.256999999285 1250.0
0.980000019073 -0.170000001788 0.25799998641 1248.0
0.981999993324 -0.175999999046 0.25799998641 1251.0
0.981999993324 -0.181999996305 0.259000003338 1266.0
0.981000006199 -0.187999993563 0.259000003338 1265.0
0.972999989986 -0.192000001669 0.256999999285 1264.0
0.973999977112 -0.199000000954 0.256999999285 1282.0
0.971000015736 -0.203999996185 0.256999999285 1294.0
0.971000015736 -0.209999993443 0.256999999285 1292.0
0.967999994755 -0.215000003576 0.256999999285 1312.0
0.967000007629 -0.221000000834 0.256999999285 1314.0
0.959999978542 -0.225999996066 0.254999995232 1322.0
0.962000012398 -0.231999993324 0.256000012159 1336.0
0.952000021935 -0.236000001431 0.254000008106 1337.0
0.954999983311 -0.243000000715 0.254999995232 1345.0
0.953999996185 -0.248999997973 0.254999995232 1358.0
0.957000017166 -0.254999995232 0.256000012159 1381.0
0.95300000906 -0.261000007391 0.256000012159 1363.0
0.945999979973 -0.264999985695 0.254000008106 1374.0
0.948000013828 -0.272000014782 0.254999995232 1363.0
0.945999979973 -0.277000010014 0.254999995232 1380.0
0.943000018597 -0.282000005245 0.254000008106 1385.0
0.939999997616 -0.287999987602 0.254000008106 1388.0
0.939999997616 -0.293999999762 0.254999995232 1393.0
0.934000015259 -0.298000007868 0.252999991179 1401.0
0.934000015259 -0.303999990225 0.254000008106 1416.0
0.931999981403 -0.310000002384 0.254000008106 1425.0
0.931999981403 -0.316000014544 0.254000008106 1424.0
0.929000020027 -0.321999996901 0.254000008106 1437.0
0.929000020027 -0.32800000906 0.254000008106 1434.0
0.926999986172 -0.333999991417 0.254000008106 1435.0
0.925000011921 -0.338999986649 0.254000008106 1456.0
0.926999986172 -0.347000002861 0.256000012159 1451.0
0.92199999094 -0.351000010967 0.254999995232 1448.0
0.92199999094 -0.356999993324 0.254999995232 1445.0
0.920000016689 -0.363000005484 0.254999995232 1439.0
0.913999974728 -0.368000000715 0.254000008106 1459.0
0.920000016689 -0.377000004053 0.256000012159 1486.0
0.90600001812 -0.377000004053 0.252999991179 1463.0
0.912000000477 -0.386000007391 0.254999995232 1461.0
0.907000005245 -0.391000002623 0.254000008106 1485.0
0.899999976158 -0.393999993801 0.252999991179 1474.0
0.902999997139 -0.402000010014 0.254999995232 1481.0
0.898000001907 -0.407000005245 0.254000008106 1475.0
0.898999989033 -0.41400000453 0.254999995232 1505.0
0.896000027657 -0.418999999762 0.254999995232 1495.0
0.893000006676 -0.425000011921 0.254000008106 1504.0
0.89099997282 -0.430999994278 0.254999995232 1510.0
0.893000006676 -0.43900001049 0.256000012159 1507.0
0.893000006676 -0.446000009775 0.256999999285 1491.0
0.889999985695 -0.451000005007 0.256999999285 1504.0
0.884000003338 -0.455000013113 0.256000012159 1500.0
0.884000003338 -0.462000012398 0.256000012159 1510.0
0.879999995232 -0.467000007629 0.256000012159 1509.0
0.880999982357 -0.47499999404 0.256999999285 1509.0
0.882000029087 -0.483000010252 0.25799998641 1492.0
0.875999987125 -0.486999988556 0.256999999285 1492.0
0.870000004768 -0.490999996662 0.256000012159 1503.0
0.870999991894 -0.499000012875 0.256999999285 1513.0
2.13899993896 1.27199995518 0.612999975681 206.0
2.14499998093 1.25699996948 0.612999975681 101.0
2.17499995232 1.25600004196 0.619000017643 108.0
2.2539999485 1.28299999237 0.639999985695 212.0
2.27099990845 1.27300000191 0.643000006676 203.0
2.27999997139 1.25899994373 0.643999993801 115.0
3.40700006485 1.4090000391 0.921000003815 94.0
3.42700004578 1.39199995995 0.924000024796 83.0
3.69899988174 1.47599995136 0.995999991894 74.0
3.82899999619 1.50100004673 1.02900004387 89.0
3.85400009155 1.48399996758 1.0340000391 114.0
3.89400005341 1.47200000286 1.04299998283 116.0
3.86299991608 1.43299996853 1.03199994564 106.0
4.15100002289 1.51100003719 1.10800004005 76.0
4.17700004578 1.49199998379 1.11199998856 75.0
4.17100000381 1.46099996567 1.10899996758 71.0
4.132999897 1.41900002956 1.09700000286 103.0
4.1360001564 1.39199995995 1.09599995613 131.0
4.17999982834 1.3789999485 1.10599994659 125.0
4.1890001297 1.35399997234 1.10599994659 119.0
4.17199993134 1.32000005245 1.10000002384 116.0
4.1779999733 1.29499995708 1.10000002384 120.0
4.17600011826 1.26600003242 1.09800004959 120.0
4.20200014114 1.24699997902 1.10300004482 108.0
4.1890001297 1.21500003338 1.09800004959 117.0
4.20900011063 1.19400000572 1.10199999809 109.0
4.19799995422 1.1629999876 1.09800004959 110.0
4.20100021362 1.13699996471 1.09700000286 113.0
4.1779999733 1.10399997234 1.08899998665 120.0
4.20900011063 1.08500003815 1.09599995613 111.0
4.21500015259 1.05999994278 1.09599995613 114.0
4.23500013351 1.0379999876 1.10000002384 117.0
4.22200012207 1.00800001621 1.09599995613 116.0
4.20100021362 0.976000010967 1.08899998665 114.0
4.20699977875 0.950999975204 1.09000003338 115.0
4.16099977493 0.913999974728 1.0759999752 115.0
4.19000005722 0.894999980927 1.08299994469 115.0
4.24599981308 0.879999995232 1.09599995613 111.0
4.15299987793 0.834999978542 1.07099997997 112.0
4.19999980927 0.819000005722 1.08299994469 90.0
1.00699996948 -0.0659999996424 0.254999995232 239.0
1.01199996471 -0.0719999969006 0.256999999285 920.0
1.00100004673 -0.0769999995828 0.254000008106 579.0
1.01999998093 -0.0850000008941 0.259000003338 203.0
1.00699996948 -0.0900000035763 0.256000012159 633.0
1.00899994373 -0.0960000008345 0.256000012159 1100.0
1.00199997425 -0.101000003517 0.254999995232 1159.0
1.00199997425 -0.107000000775 0.254999995232 1166.0
0.995000004768 -0.112000003457 0.252999991179 1176.0
0.995999991894 -0.118000000715 0.254000008106 1178.0
0.996999979019 -0.123999997973 0.254000008106 1186.0
0.992999970913 -0.129999995232 0.252999991179 1200.0
0.990000009537 -0.135000005364 0.252999991179 1205.0
0.991999983788 -0.141000002623 0.252999991179 1224.0
0.992999970913 -0.148000001907 0.254000008106 1225.0
0.987999975681 -0.152999997139 0.252999991179 1227.0
0.990000009537 -0.158999994397 0.254000008106 1244.0
0.98400002718 -0.16400000453 0.252000004053 1256.0
0.981000006199 -0.170000001788 0.252000004053 1256.0
0.980000019073 -0.17499999702 0.252000004053 1250.0
0.98299998045 -0.181999996305 0.252999991179 1275.0
0.980000019073 -0.187999993563 0.252000004053 1282.0
0.976999998093 -0.193000003695 0.252000004053 1282.0
0.967000007629 -0.196999996901 0.248999997973 1297.0
0.96899998188 -0.202999994159 0.25 1299.0
0.961000025272 -0.208000004292 0.247999995947 1307.0
0.966000020504 -0.215000003576 0.25 1305.0
0.966000020504 -0.221000000834 0.25 1324.0
0.959999978542 -0.22499999404 0.248999997973 1337.0
0.958999991417 -0.231000006199 0.248999997973 1349.0
0.958999991417 -0.237000003457 0.25 1349.0
0.955999970436 -0.241999998689 0.248999997973 1339.0
0.958000004292 -0.248999997973 0.25 1353.0
0.953999996185 -0.254000008106 0.248999997973 1373.0
0.954999983311 -0.261000007391 0.25 1374.0
0.941999971867 -0.263000011444 0.24699999392 1370.0
0.950999975204 -0.272000014782 0.25 1384.0
0.949000000954 -0.277999997139 0.25 1385.0
0.941999971867 -0.282000005245 0.247999995947 1389.0
0.944999992847 -0.28900000453 0.248999997973 1395.0
0.93900001049 -0.293000012636 0.247999995947 1403.0
0.93599998951 -0.298000007868 0.247999995947 1416.0
0.934000015259 -0.303999990225 0.247999995947 1423.0
0.930000007153 -0.308999985456 0.24699999392 1429.0
0.933000028133 -0.316000014544 0.247999995947 1419.0
0.925000011921 -0.319999992847 0.24699999392 1446.0
0.930999994278 -0.32800000906 0.248999997973 1446.0
0.924000024796 -0.331999987364 0.247999995947 1434.0
0.925999999046 -0.338999986649 0.247999995947 1446.0
0.925999999046 -0.345999985933 0.248999997973 1473.0
0.92199999094 -0.351000010967 0.247999995947 1459.0
0.922999978065 -0.356999993324 0.248999997973 1450.0
0.917999982834 -0.361999988556 0.248999997973 1461.0
0.916999995708 -0.368000000715 0.248999997973 1468.0
0.913999974728 -0.374000012875 0.248999997973 1476.0
0.916000008583 -0.381000012159 0.25 1469.0
0.912000000477 -0.386000007391 0.248999997973 1481.0
0.908999979496 -0.391000002623 0.248999997973 1490.0
0.907000005245 -0.397000014782 0.248999997973 1482.0
0.899999976158 -0.400999993086 0.247999995947 1481.0
0.907000005245 -0.409999996424 0.25 1491.0
0.898000001907 -0.412999987602 0.247999995947 1490.0
0.898999989033 -0.419999986887 0.248999997973 1490.0
0.896000027657 -0.425999999046 0.248999997973 1488.0
0.898999989033 -0.433999985456 0.250999987125 1503.0
0.89099997282 -0.437000006437 0.248999997973 1510.0
0.89099997282 -0.444000005722 0.25 1508.0
0.884000003338 -0.446999996901 0.248999997973 1505.0
0.884000003338 -0.455000013113 0.248999997973 1501.0
0.887000024319 -0.462999999523 0.250999987125 1509.0
0.879000008106 -0.465999990702 0.248999997973 1501.0
0.878000020981 -0.472999989986 0.25 1508.0
0.873000025749 -0.476999998093 0.248999997973 1502.0
0.875 -0.486000001431 0.250999987125 1521.0
0.876999974251 -0.493999987841 0.252000004053 1498.0
0.870999991894 -0.497999995947 0.250999987125 1529.0
2.14400005341 1.27300000191 0.598999977112 191.0
2.16799998283 1.26900005341 0.603999972343 103.0
2.19400000572 1.26499998569 0.60900002718 116.0
2.23000001907 1.26699995995 0.616999983788 234.0
2.26699995995 1.26900005341 0.625999987125 179.0
2.34299993515 1.29200005531 0.644999980927 115.0
3.42899990082 1.41600000858 0.903999984264 84.0
3.51900005341 1.42700004578 0.925999999046 91.0
3.69099998474 1.47099995613 0.96899998188 72.0
3.96499991417 1.55200004578 1.03900003433 96.0
3.85400009155 1.48099994659 1.00800001621 119.0
3.81200003624 1.43799996376 0.995000004768 107.0
3.8900001049 1.44099998474 1.01400005817 91.0
4.15000009537 1.50800001621 1.08000004292 69.0
4.15399980545 1.48099994659 1.07899999619 74.0
4.23400020599 1.48099994659 1.09800004959 76.0
4.16099977493 1.42700004578 1.07700002193 110.0
4.09399986267 1.37600004673 1.05799996853 127.0
4.13899993896 1.36300003529 1.06799995899 117.0
4.19099998474 1.35300004482 1.08000004292 121.0
4.17999982834 1.32099997997 1.07500004768 119.0
4.23099994659 1.30900001526 1.0870000124 115.0
4.125 1.24899995327 1.05799996853 110.0
4.16499996185 1.23399996758 1.06599998474 112.0
4.14200019836 1.20000004768 1.05900001526 114.0
4.1939997673 1.18799996376 1.07099997997 110.0
4.19199991226 1.15999996662 1.06900000572 117.0
4.1939997673 1.13300001621 1.06799995899 117.0
4.20399999619 1.10899996758 1.06900000572 117.0
4.20599985123 1.08299994469 1.06799995899 116.0
4.20100021362 1.05400002003 1.06599998474 114.0
4.26900005341 1.04400002956 1.08200001717 115.0
4.18499994278 0.996999979019 1.05900001526 112.0
4.19899988174 0.973999977112 1.06200003624 113.0
4.22100019455 0.95300000906 1.06599998474 114.0
4.18699979782 0.919000029564 1.05700004101 115.0
4.26399993896 0.908999979496 1.07500004768 114.0
4.1939997673 0.867999970913 1.05599999428 114.0
4.18499994278 0.839999973774 1.0529999733 109.0
4.18300008774 0.81400001049 1.05200004578 96.0
1.02900004387 -0.0670000016689 0.254000008106 255.0
1.01400005817 -0.0719999969006 0.250999987125 958.0
1.01300001144 -0.0780000016093 0.250999987125 963.0
1.00999999046 -0.0839999988675 0.25 866.0
1.01199996471 -0.0900000035763 0.250999987125 1263.0
1.0039999485 -0.0949999988079 0.248999997973 1150.0
1.00600004196 -0.101000003517 0.248999997973 1165.0
1.00199997425 -0.107000000775 0.247999995947 1161.0
0.998000025749 -0.112000003457 0.247999995947 1188.0
0.998000025749 -0.118000000715 0.247999995947 1192.0
1.00199997425 -0.125 0.248999997973 1192.0
0.995999991894 -0.129999995232 0.247999995947 1200.0
0.994000017643 -0.136000007391 0.24699999392 1206.0
0.990000009537 -0.141000002623 0.24699999392 1239.0
0.986999988556 -0.146999999881 0.246000006795 1236.0
0.986000001431 -0.151999995112 0.246000006795 1233.0
0.980000019073 -0.157000005245 0.245000004768 1246.0
0.98299998045 -0.16400000453 0.246000006795 1254.0
0.98299998045 -0.170000001788 0.246000006795 1259.0
0.976000010967 -0.173999994993 0.244000002742 1260.0
0.980000019073 -0.180999994278 0.246000006795 1275.0
0.978999972343 -0.187000006437 0.246000006795 1279.0
0.973999977112 -0.192000001669 0.245000004768 1293.0
0.971000015736 -0.196999996901 0.244000002742 1318.0
0.971000015736 -0.203999996185 0.245000004768 1312.0
0.964999973774 -0.208000004292 0.243000000715 1310.0
0.966000020504 -0.21400000155 0.244000002742 1319.0
0.962000012398 -0.219999998808 0.243000000715 1334.0
0.963999986649 -0.225999996066 0.244000002742 1335.0
0.962000012398 -0.231999993324 0.244000002742 1347.0
0.959999978542 -0.237000003457 0.244000002742 1353.0
0.961000025272 -0.244000002742 0.244000002742 1360.0
0.95300000906 -0.247999995947 0.241999998689 1356.0
0.959999978542 -0.256000012159 0.245000004768 1381.0
0.954999983311 -0.259999990463 0.244000002742 1380.0
0.95300000906 -0.266000002623 0.244000002742 1391.0
0.952000021935 -0.272000014782 0.244000002742 1385.0
0.944999992847 -0.275999993086 0.241999998689 1397.0
0.944000005722 -0.282000005245 0.241999998689 1392.0
0.944000005722 -0.287999987602 0.243000000715 1394.0
0.944000005722 -0.293999999762 0.243000000715 1409.0
0.939999997616 -0.298999994993 0.243000000715 1419.0
0.931999981403 -0.303000003099 0.240999996662 1420.0
0.93599998951 -0.31099998951 0.243000000715 1421.0
0.930999994278 -0.314999997616 0.241999998689 1431.0
0.927999973297 -0.321000009775 0.241999998689 1443.0
0.929000020027 -0.326999992132 0.241999998689 1439.0
0.930000007153 -0.333999991417 0.243000000715 1439.0
0.927999973297 -0.338999986649 0.243000000715 1468.0
0.927999973297 -0.345999985933 0.243000000715 1470.0
0.920000016689 -0.349000006914 0.241999998689 1464.0
0.917999982834 -0.354999989271 0.241999998689 1461.0
0.917999982834 -0.361999988556 0.241999998689 1474.0
0.912999987602 -0.365999996662 0.241999998689 1473.0
0.907999992371 -0.370000004768 0.240999996662 1485.0
0.910000026226 -0.377999991179 0.241999998689 1483.0
0.912000000477 -0.384999990463 0.243000000715 1483.0
0.902999997139 -0.388000011444 0.240999996662 1493.0
0.903999984264 -0.395000010729 0.241999998689 1495.0
0.907999992371 -0.404000014067 0.244000002742 1490.0
0.902000010014 -0.407999992371 0.243000000715 1501.0
0.902999997139 -0.414999991655 0.244000002742 1493.0
0.898999989033 -0.419999986887 0.243000000715 1510.0
0.898000001907 -0.425999999046 0.244000002742 1506.0
0.893000006676 -0.430999994278 0.243000000715 1515.0
0.89099997282 -0.437000006437 0.243000000715 1509.0
0.888000011444 -0.442000001669 0.243000000715 1536.0
0.888000011444 -0.449000000954 0.244000002742 1516.0
0.89099997282 -0.458000004292 0.245000004768 1517.0
0.879000008106 -0.458999991417 0.243000000715 1530.0
0.888000011444 -0.469999998808 0.246000006795 1524.0
0.879000008106 -0.472000002861 0.244000002742 1522.0
0.879999995232 -0.479999989271 0.245000004768 1520.0
0.879999995232 -0.488000005484 0.246000006795 1522.0
0.869000017643 -0.488999992609 0.244000002742 1519.0
0.870000004768 -0.497000008821 0.245000004768 1518.0
2.1099998951 1.25 0.574000000954 176.0
2.20600008965 1.2879999876 0.598999977112 96.0
2.18799996376 1.25999999046 0.592000007629 133.0
2.242000103 1.27100002766 0.605000019073 247.0
2.2650001049 1.26600003242 0.60900002718 162.0
3.43000006676 1.41400003433 0.880999982357 96.0
3.5 1.41799998283 0.898000001907 81.0
3.6740000248 1.4620000124 0.939999997616 68.0
3.92000007629 1.53199994564 1.00199997425 99.0
3.82999992371 1.47000002861 0.976999998093 120.0
3.87700009346 1.46099996567 0.986999988556 122.0
3.91599988937 1.44799995422 0.995000004768 96.0
4.25099992752 1.54299998283 1.07799994946 69.0
4.12699985504 1.46899998188 1.04499995708 75.0
4.14300012589 1.4470000267 1.04700005054 77.0
4.17399978638 1.42900002003 1.0529999733 107.0
4.1890001297 1.40600001812 1.05499994755 119.0
4.14200019836 1.36300003529 1.04200005531 121.0
4.14300012589 1.33500003815 1.03999996185 116.0
4.16800022125 1.31500005722 1.04499995708 119.0
4.1970000267 1.29700005054 1.04999995232 118.0
4.15500020981 1.25600004196 1.03900003433 114.0
4.15100002289 1.22800004482 1.03600001335 117.0
4.13199996948 1.19500005245 1.02999997139 117.0
4.17700004578 1.18099999428 1.03999996185 114.0
4.21500015259 1.16400003433 1.04799997807 117.0
4.18499994278 1.1289999485 1.03900003433 115.0
4.15700006485 1.09500002861 1.03100001812 118.0
4.21099996567 1.08200001717 1.04299998283 108.0
4.1939997673 1.05099999905 1.03699994087 111.0
4.15100002289 1.01400005817 1.02499997616 112.0
4.20100021362 1.0 1.03699994087 114.0
4.1890001297 0.971000015736 1.03299999237 114.0
4.16900014877 0.939999997616 1.02699995041 109.0
4.26399993896 0.934000015259 1.0490000248 116.0
4.12799978256 0.879000008106 1.01499998569 116.0
4.18800020218 0.865999996662 1.02799999714 111.0
4.16699981689 0.836000025272 1.02199995518 113.0
4.24599981308 0.824999988079 1.04100000858 89.0
1.01999998093 -0.0719999969006 0.246000006795 960.0
1.01199996471 -0.0780000016093 0.244000002742 1129.0
1.00600004196 -0.082999996841 0.243000000715 1139.0
1.00600004196 -0.0890000015497 0.243000000715 1151.0
1.00699996948 -0.0949999988079 0.243000000715 1171.0
1.00800001621 -0.101000003517 0.244000002742 1170.0
1.00699996948 -0.107000000775 0.243000000715 1168.0
0.999000012875 -0.112000003457 0.241999998689 1189.0
0.995000004768 -0.118000000715 0.240999996662 1200.0
0.995000004768 -0.123999997973 0.240999996662 1192.0
0.995000004768 -0.129999995232 0.240999996662 1203.0
0.994000017643 -0.136000007391 0.240999996662 1227.0
0.991999983788 -0.141000002623 0.240999996662 1221.0
0.989000022411 -0.146999999881 0.239999994636 1235.0
0.98299998045 -0.151999995112 0.238999992609 1230.0
0.989000022411 -0.158999994397 0.240999996662 1260.0
0.980000019073 -0.163000002503 0.238999992609 1275.0
0.977999985218 -0.168999999762 0.238999992609 1260.0
0.977999985218 -0.17499999702 0.238999992609 1271.0
0.977999985218 -0.180999994278 0.238999992609 1270.0
0.976000010967 -0.186000004411 0.238999992609 1288.0
0.973999977112 -0.192000001669 0.238999992609 1308.0
0.972999989986 -0.197999998927 0.238999992609 1310.0
0.96899998188 -0.202999994159 0.238000005484 1317.0
0.967000007629 -0.208000004292 0.238000005484 1330.0
0.967999994755 -0.215000003576 0.238000005484 1323.0
0.964999973774 -0.219999998808 0.238000005484 1349.0
0.962999999523 -0.225999996066 0.238000005484 1339.0
0.962000012398 -0.231000006199 0.238000005484 1358.0
0.959999978542 -0.237000003457 0.238000005484 1351.0
0.953999996185 -0.240999996662 0.236000001431 1352.0
0.954999983311 -0.247999995947 0.237000003457 1367.0
0.957000017166 -0.254999995232 0.238000005484 1382.0
0.950999975204 -0.259000003338 0.237000003457 1384.0
0.95300000906 -0.266000002623 0.238000005484 1393.0
0.950999975204 -0.270999997854 0.237000003457 1386.0
0.945999979973 -0.275999993086 0.237000003457 1391.0
0.938000023365 -0.280000001192 0.234999999404 1405.0
0.941999971867 -0.287000000477 0.236000001431 1404.0
0.933000028133 -0.291000008583 0.234999999404 1427.0
0.941999971867 -0.300000011921 0.237000003457 1423.0
0.941999971867 -0.305999994278 0.238000005484 1432.0
0.934000015259 -0.308999985456 0.236000001431 1439.0
0.935000002384 -0.316000014544 0.237000003457 1449.0
0.934000015259 -0.321999996901 0.237000003457 1448.0
0.922999978065 -0.324999988079 0.234999999404 1453.0
0.930000007153 -0.333000004292 0.237000003457 1435.0
0.924000024796 -0.337000012398 0.236000001431 1473.0
0.924000024796 -0.344000011683 0.236000001431 1474.0
0.919000029564 -0.347999989986 0.234999999404 1469.0
0.915000021458 -0.354000002146 0.234999999404 1471.0
0.916999995708 -0.361000001431 0.236000001431 1466.0
0.917999982834 -0.368000000715 0.237000003457 1479.0
0.916000008583 -0.372999995947 0.237000003457 1486.0
0.913999974728 -0.379000008106 0.237000003457 1498.0
0.910000026226 -0.384000003338 0.237000003457 1506.0
0.913999974728 -0.391999989748 0.238000005484 1511.0
0.902999997139 -0.393999993801 0.236000001431 1512.0
0.908999979496 -0.402999997139 0.238000005484 1511.0
0.901000022888 -0.405999988317 0.236000001431 1492.0
0.902000010014 -0.41400000453 0.237000003457 1509.0
0.898999989033 -0.418999999762 0.237000003457 1521.0
0.898999989033 -0.425999999046 0.238000005484 1509.0
0.888999998569 -0.428000003099 0.236000001431 1502.0
0.89200001955 -0.437000006437 0.237000003457 1518.0
0.887000024319 -0.441000014544 0.237000003457 1513.0
0.888000011444 -0.449000000954 0.238000005484 1527.0
0.885999977589 -0.453999996185 0.238000005484 1510.0
0.885999977589 -0.462000012398 0.238000005484 1542.0
0.880999982357 -0.465999990702 0.238000005484 1525.0
0.875 -0.469999998808 0.237000003457 1520.0
0.880999982357 -0.479999989271 0.238999992609 1517.0
0.871999979019 -0.483000010252 0.238000005484 1540.0
0.878000020981 -0.493000000715 0.239999994636 1527.0
0.870999991894 -0.497000008821 0.238999992609 1521.0
2.13199996948 1.26100003719 0.564999997616 162.0
2.15499997139 1.25600004196 0.569999992847 101.0
2.27099990845 1.30499994755 0.598999977112 141.0
2.22499990463 1.25999999046 0.584999978542 252.0
2.28600001335 1.27600002289 0.598999977112 158.0
2.32399988174 1.27799999714 0.606999993324 104.0
3.36999988556 1.38699996471 0.842999994755 91.0
3.50099992752 1.41600000858 0.875 85.0
3.64199995995 1.4470000267 0.907999992371 75.0
3.85299992561 1.5039999485 0.958999991417 101.0
3.83800005913 1.47099995613 0.95300000906 119.0
3.84800004959 1.44799995422 0.953999996185 113.0
3.9960000515 1.47599995136 0.989000022411 94.0
4.13000011444 1.49699997902 1.01999998093 69.0
4.13999986649 1.47200000286 1.02100002766 73.0
4.22200012207 1.47200000286 1.03900003433 71.0
4.1970000267 1.43499994278 1.03100001812 113.0
4.16200017929 1.39499998093 1.02100002766 119.0
4.14900016785 1.36300003529 1.01600003242 120.0
4.16699981689 1.3409999609 1.01900005341 112.0
4.14400005341 1.30599999428 1.01199996471 113.0
4.20599985123 1.29799997807 1.02600002289 111.0
4.18300008774 1.26300001144 1.01900005341 113.0
4.15999984741 1.22899997234 1.01100003719 111.0
4.20499992371 1.21500003338 1.02100002766 115.0
4.15199995041 1.17200005054 1.00699996948 108.0
4.20699977875 1.16100001335 1.01900005341 110.0
4.17000007629 1.12399995327 1.00800001621 116.0
4.19899988174 1.10500001907 1.01400005817 115.0
4.1810002327 1.07299995422 1.00899994373 108.0
4.22800016403 1.05799996853 1.01900005341 119.0
4.23799991608 1.0340000391 1.01999998093 110.0
4.17700004578 0.992999970913 1.0039999485 114.0
4.23699998856 0.980000019073 1.01800000668 115.0
4.21899986267 0.949999988079 1.01199996471 116.0
4.18300008774 0.916000008583 1.00300002098 115.0
4.18300008774 0.888999998569 1.00199997425 108.0
4.21000003815 0.869000017643 1.00699996948 109.0
4.15700006485 0.832000017166 0.994000017643 111.0
4.21199989319 0.816999971867 1.00600004196 86.0
1.01800000668 -0.0659999996424 0.238999992609 279.0
1.01100003719 -0.0719999969006 0.237000003457 980.0
1.01499998569 -0.0780000016093 0.238000005484 1143.0
1.00800001621 -0.082999996841 0.237000003457 1149.0
1.00999999046 -0.0890000015497 0.237000003457 1163.0
1.00600004196 -0.0949999988079 0.237000003457 1172.0
1.0039999485 -0.101000003517 0.236000001431 1182.0
0.999000012875 -0.105999998748 0.234999999404 1183.0
1.00699996948 -0.112999998033 0.238000005484 1190.0
1.00199997425 -0.119000002742 0.237000003457 1211.0
0.992999970913 -0.123000003397 0.233999997377 1200.0
0.995000004768 -0.129999995232 0.234999999404 1203.0
0.994000017643 -0.135000005364 0.234999999404 1216.0
0.995000004768 -0.142000004649 0.236000001431 1229.0
0.994000017643 -0.146999999881 0.234999999404 1242.0
0.987999975681 -0.151999995112 0.233999997377 1246.0
0.986999988556 -0.158000007272 0.233999997377 1255.0
0.981999993324 -0.163000002503 0.232999995351 1279.0
0.98299998045 -0.168999999762 0.233999997377 1278.0
0.981000006199 -0.17499999702 0.232999995351 1280.0
0.978999972343 -0.180999994278 0.232999995351 1293.0
0.97000002861 -0.185000002384 0.231000006199 1301.0
0.976000010967 -0.192000001669 0.232999995351 1303.0
0.972000002861 -0.196999996901 0.231999993324 1307.0
0.97000002861 -0.202999994159 0.231999993324 1310.0
0.967000007629 -0.208000004292 0.231999993324 1330.0
0.962000012398 -0.212999999523 0.231000006199 1326.0
0.967000007629 -0.219999998808 0.231999993324 1333.0
0.959999978542 -0.22499999404 0.231000006199 1343.0
0.959999978542 -0.231000006199 0.231000006199 1362.0
0.958000004292 -0.236000001431 0.231000006199 1363.0
0.955999970436 -0.241999998689 0.231000006199 1365.0
0.954999983311 -0.247999995947 0.231000006199 1371.0
0.95300000906 -0.252999991179 0.231000006199 1388.0
0.953999996185 -0.259999990463 0.231000006199 1378.0
0.947000026703 -0.263999998569 0.230000004172 1397.0
0.948000013828 -0.270000010729 0.231000006199 1394.0
0.943000018597 -0.27500000596 0.230000004172 1410.0
0.941999971867 -0.280999988317 0.230000004172 1406.0
0.944999992847 -0.287999987602 0.231000006199 1404.0
0.940999984741 -0.293000012636 0.231000006199 1419.0
0.941999971867 -0.298999994993 0.231000006199 1438.0
0.933000028133 -0.303000003099 0.229000002146 1433.0
0.935000002384 -0.310000002384 0.230000004172 1433.0
0.930999994278 -0.31400001049 0.230000004172 1434.0
0.929000020027 -0.319999992847 0.230000004172 1454.0
0.926999986172 -0.324999988079 0.230000004172 1460.0
0.925000011921 -0.331000000238 0.230000004172 1460.0
0.925999999046 -0.337999999523 0.230000004172 1471.0
0.927999973297 -0.344999998808 0.231000006199 1485.0
0.922999978065 -0.34999999404 0.231000006199 1480.0
0.919000029564 -0.354000002146 0.230000004172 1486.0
0.915000021458 -0.358999997377 0.229000002146 1477.0
0.919000029564 -0.368000000715 0.231000006199 1496.0
0.910000026226 -0.370000004768 0.229000002146 1506.0
0.915000021458 -0.379000008106 0.231000006199 1502.0
0.907999992371 -0.38299998641 0.230000004172 1501.0
0.908999979496 -0.389999985695 0.231000006199 1512.0
0.902999997139 -0.393999993801 0.230000004172 1497.0
0.903999984264 -0.400999993086 0.230000004172 1498.0
0.90600001812 -0.407999992371 0.231999993324 1511.0
0.898000001907 -0.412000000477 0.230000004172 1516.0
0.893000006676 -0.416000008583 0.230000004172 1509.0
0.898999989033 -0.425999999046 0.231999993324 1505.0
0.897000014782 -0.430999994278 0.231999993324 1523.0
0.89200001955 -0.43599998951 0.231000006199 1523.0
0.885999977589 -0.439999997616 0.230000004172 1528.0
0.89200001955 -0.449999988079 0.232999995351 1530.0
0.883000016212 -0.451999992132 0.231000006199 1517.0
0.888000011444 -0.462000012398 0.232999995351 1537.0
0.884000003338 -0.467000007629 0.231999993324 1543.0
0.879999995232 -0.472000002861 0.231999993324 1529.0
0.878000020981 -0.477999985218 0.231999993324 1529.0
0.879999995232 -0.486000001431 0.232999995351 1538.0
0.874000012875 -0.490000009537 0.232999995351 1525.0
0.870000004768 -0.495000004768 0.231999993324 1547.0
2.11100006104 1.24699997902 0.545000016689 138.0
2.13499999046 1.24300003052 0.549000024796 108.0
2.23600006104 1.28299999237 0.574000000954 150.0
2.22900009155 1.25999999046 0.569999992847 247.0
2.24699997902 1.25199997425 0.573000013828 144.0
3.42300009727 1.40699994564 0.833999991417 91.0
3.48799991608 1.4090000391 0.847999989986 81.0
3.83100008965 1.51999998093 0.930000007153 76.0
3.95399999619 1.54100000858 0.958000004292 104.0
3.81100010872 1.45799994469 0.921000003815 118.0
3.81599998474 1.43400001526 0.921000003815 109.0
3.97099995613 1.46399998665 0.957000017166 83.0
4.15000009537 1.50199997425 0.998000025749 71.0
4.25500011444 1.51100003719 1.02199995518 76.0
4.12900018692 1.43799996376 0.990000009537 81.0
4.17700004578 1.42599999905 0.999000012875 116.0
4.15000009537 1.38900005817 0.990999996662 121.0
4.15199995041 1.36199998856 0.990000009537 115.0
4.1779999733 1.34300005436 0.995000004768 119.0
4.20800018311 1.32400000095 1.00100004673 112.0
4.14599990845 1.27699995041 0.98400002718 117.0
4.19799995422 1.26600003242 0.995000004768 109.0
4.17299985886 1.23099994659 0.987999975681 110.0
4.17500019073 1.20399999619 0.986999988556 117.0
4.13999986649 1.16700005531 0.977999985218 112.0
4.15999984741 1.14600002766 0.981000006199 119.0
4.19600009918 1.1289999485 0.987999975681 111.0
4.17899990082 1.09800004959 0.98299998045 111.0
4.19299983978 1.07500004768 0.985000014305 118.0
4.1810002327 1.04499995708 0.981000006199 108.0
4.19500017166 1.02199995518 0.98299998045 107.0
4.1970000267 0.995999991894 0.98299998045 110.0
4.17500019073 0.964999973774 0.976999998093 111.0
4.20499992371 0.944999992847 0.981999993324 118.0
4.21299982071 0.921000003815 0.98299998045 116.0
4.19600009918 0.89099997282 0.978999972343 119.0
4.22200012207 0.870000004768 0.98400002718 108.0
4.15000009537 0.829999983311 0.966000020504 106.0
4.19299983978 0.813000023365 0.975000023842 82.0
1.00899994373 -0.0710000023246 0.231000006199 985.0
1.00499999523 -0.0769999995828 0.230000004172 1143.0
1.00899994373 -0.082999996841 0.231000006199 1161.0
1.00800001621 -0.0890000015497 0.231000006199 1165.0
1.00300002098 -0.0949999988079 0.230000004172 1163.0
1.00300002098 -0.101000003517 0.230000004172 1184.0
1.00199997425 -0.105999998748 0.230000004172 1189.0
0.999000012875 -0.112000003457 0.229000002146 1204.0
0.998000025749 -0.118000000715 0.229000002146 1213.0
0.995000004768 -0.123000003397 0.229000002146 1202.0
0.990999996662 -0.128999993205 0.228000000119 1217.0
0.989000022411 -0.135000005364 0.228000000119 1220.0
0.990000009537 -0.141000002623 0.228000000119 1238.0
0.990999996662 -0.146999999881 0.229000002146 1248.0
0.986999988556 -0.151999995112 0.228000000119 1256.0
0.981999993324 -0.157000005245 0.226999998093 1275.0
0.98299998045 -0.163000002503 0.226999998093 1280.0
0.977999985218 -0.167999997735 0.225999996066 1267.0
0.98299998045 -0.17499999702 0.228000000119 1279.0
0.977999985218 -0.180000007153 0.226999998093 1285.0
0.980000019073 -0.187000006437 0.226999998093 1297.0
0.976000010967 -0.192000001669 0.226999998093 1309.0
0.966000020504 -0.195999994874 0.22499999404 1323.0
0.976000010967 -0.203999996185 0.226999998093 1319.0
0.972999989986 -0.209000006318 0.226999998093 1352.0
0.962000012398 -0.212999999523 0.22499999404 1344.0
0.966000020504 -0.219999998808 0.225999996066 1338.0
0.961000025272 -0.22499999404 0.22499999404 1340.0
0.959999978542 -0.231000006199 0.22499999404 1356.0
0.961000025272 -0.237000003457 0.225999996066 1365.0
0.954999983311 -0.240999996662 0.22499999404 1366.0
0.957000017166 -0.247999995947 0.22499999404 1383.0
0.954999983311 -0.252999991179 0.22499999404 1374.0
0.954999983311 -0.259000003338 0.22499999404 1395.0
0.948000013828 -0.263999998569 0.224000006914 1401.0
0.948000013828 -0.270000010729 0.22499999404 1407.0
0.945999979973 -0.27500000596 0.224000006914 1412.0
0.949000000954 -0.282999992371 0.225999996066 1412.0
0.950999975204 -0.28900000453 0.226999998093 1415.0
0.940999984741 -0.291999995708 0.224000006914 1429.0
0.93599998951 -0.29699999094 0.224000006914 1441.0
0.930999994278 -0.301999986172 0.223000004888 1450.0
0.936999976635 -0.310000002384 0.22499999404 1437.0
0.933000028133 -0.314999997616 0.224000006914 1445.0
0.927999973297 -0.319000005722 0.223000004888 1458.0
0.933000028133 -0.326999992132 0.22499999404 1459.0
0.926999986172 -0.331999987364 0.224000006914 1468.0
0.927999973297 -0.337999999523 0.22499999404 1465.0
0.916999995708 -0.340000003576 0.222000002861 1482.0
0.925000011921 -0.34999999404 0.22499999404 1480.0
0.920000016689 -0.354000002146 0.224000006914 1492.0
0.916999995708 -0.360000014305 0.224000006914 1488.0
0.917999982834 -0.36700001359 0.22499999404 1492.0
0.90600001812 -0.368000000715 0.222000002861 1508.0
0.913999974728 -0.377999991179 0.22499999404 1516.0
0.912000000477 -0.384000003338 0.22499999404 1497.0
0.90499997139 -0.386999994516 0.224000006914 1513.0
0.90600001812 -0.395000010729 0.224000006914 1505.0
0.903999984264 -0.40000000596 0.224000006914 1519.0
0.90600001812 -0.407999992371 0.22499999404 1508.0
0.896000027657 -0.409999996424 0.224000006914 1521.0
0.893999993801 -0.416000008583 0.224000006914 1523.0
0.898000001907 -0.423999994993 0.22499999404 1513.0
0.898000001907 -0.430999994278 0.225999996066 1522.0
0.893999993801 -0.43599998951 0.225999996066 1534.0
0.888999998569 -0.441000014544 0.22499999404 1543.0
0.888000011444 -0.446999996901 0.22499999404 1539.0
0.884999990463 -0.45300000906 0.22499999404 1545.0
0.888000011444 -0.46099999547 0.226999998093 1555.0
0.879999995232 -0.463999986649 0.22499999404 1553.0
0.880999982357 -0.472000002861 0.225999996066 1543.0
0.880999982357 -0.479000002146 0.226999998093 1530.0
0.876999974251 -0.483999997377 0.226999998093 1538.0
0.875999987125 -0.490999996662 0.226999998093 1532.0
0.874000012875 -0.497000008821 0.226999998093 1546.0
2.11800003052 1.24899995327 0.532000005245 124.0
2.16700005531 1.25999999046 0.541999995708 98.0
2.19499993324 1.25800001621 0.547999978065 159.0
2.23699998856 1.26300001144 0.556999981403 250.0
2.26600003242 1.26100003719 0.561999976635 130.0
3.43499994278 1.40999996662 0.81400001049 89.0
3.60500001907 1.45399999619 0.852999985218 70.0
3.71499991417 1.47200000286 0.876999974251 69.0
3.81100010872 1.48300004005 0.898000001907 113.0
3.85299992561 1.47300004959 0.90600001812 120.0
