ply
format ascii 1.0
element vertex 927
property float x
property float y
property float z
property float intensity
end_header
0.919000029564 -0.286000013351 0.0170000009239 169.0
0.945999979973 -0.300000011921 0.0170000009239 171.0
0.922999978065 -0.298999994993 0.0170000009239 175.0
0.921000003815 -0.303999990225 0.0170000009239 166.0
0.944999992847 -0.317999988794 0.0179999992251 168.0
0.947000026703 -0.324999988079 0.0179999992251 167.0
0.921000003815 -0.321999996901 0.0170000009239 172.0
0.939999997616 -0.335000008345 0.0179999992251 170.0
0.925999999046 -0.337000012398 0.0170000009239 169.0
0.929000020027 -0.344000011683 0.0179999992251 175.0
0.916999995708 -0.345999985933 0.0170000009239 163.0
0.944000005722 -0.361999988556 0.0179999992251 179.0
0.90600001812 -0.354000002146 0.0170000009239 170.0
0.916999995708 -0.363999992609 0.0179999992251 171.0
0.919000029564 -0.372000008821 0.0179999992251 165.0
0.902000010014 -0.370999991894 0.0170000009239 165.0
0.917999982834 -0.384000003338 0.0179999992251 162.0
0.897000014782 -0.381999999285 0.0170000009239 168.0
0.935000002384 -0.405000001192 0.0179999992251 164.0
0.911000013351 -0.400999993086 0.0179999992251 164.0
0.926999986172 -0.41400000453 0.0179999992251 163.0
0.893999993801 -0.405999988317 0.0179999992251 157.0
0.911000013351 -0.421000003815 0.0179999992251 161.0
0.908999979496 -0.425999999046 0.0179999992251 158.0
0.90499997139 -0.430999994278 0.0179999992251 170.0
0.911000013351 -0.441000014544 0.0179999992251 161.0
0.89200001955 -0.437999993563 0.0179999992251 150.0
0.901000022888 -0.449999988079 0.0179999992251 153.0
0.888000011444 -0.449999988079 0.0179999992251 141.0
0.887000024319 -0.456000000238 0.0179999992251 151.0
0.896000027657 -0.467999994755 0.0179999992251 148.0
0.902999997139 -0.479000002146 0.0189999993891 141.0
0.903999984264 -0.486999988556 0.0189999993891 146.0
0.882000029087 -0.481999993324 0.0179999992251 145.0
0.898000001907 -0.497999995947 0.0189999993891 151.0
2.08100008965 1.19299995899 0.0209999997169 300.0
2.10199999809 1.18799996376 0.0219999998808 287.0
2.08800005913 1.1629999876 0.0209999997169 263.0
2.07999992371 1.14199995995 0.0209999997169 164.0
2.1970000267 1.18799996376 0.0230000000447 103.0
2.20199990273 1.17299997807 0.0230000000447 146.0
2.22099995613 1.16600000858 0.0230000000447 187.0
2.21000003815 1.14300000668 0.0230000000447 113.0
2.70799994469 1.23699998856 0.0280000008643 88.0
3.27600002289 1.26400005817 0.035000000149 90.0
3.35800004005 1.27300000191 0.0359999984503 85.0
3.72099995613 1.36000001431 0.0399999991059 80.0
3.75900006294 1.34899997711 0.0399999991059 99.0
3.74000000954 1.31700003147 0.0399999991059 97.0
3.742000103 1.29200005531 0.0399999991059 77.0
3.92499995232 1.30400002003 0.0419999994338 57.0
4.07600021362 1.30099999905 0.0439999997616 88.0
4.07600021362 1.27400004864 0.0439999997616 98.0
4.08699989319 1.25100004673 0.0439999997616 94.0
4.07700014114 1.22200000286 0.0439999997616 90.0
4.0689997673 1.19400000572 0.0439999997616 84.0
4.14900016785 1.19099998474 0.0450000017881 90.0
4.09499979019 1.14900004864 0.0439999997616 86.0
4.05700016022 1.11300003529 0.0439999997616 84.0
4.11100006104 1.10199999809 0.0450000017881 88.0
4.02600002289 1.05400002003 0.0439999997616 88.0
4.09600019455 1.04700005054 0.0450000017881 85.0
4.04699993134 1.00899994373 0.0439999997616 89.0
4.17100000381 1.01400005817 0.0460000000894 84.0
4.06599998474 0.963999986649 0.0439999997616 80.0
4.12200021744 0.952000021935 0.0450000017881 77.0
4.07700014114 0.916000008583 0.0450000017881 88.0
4.02899980545 0.880999982357 0.0439999997616 82.0
4.10599994659 0.873000025749 0.0450000017881 79.0
4.13199996948 0.852999985218 0.0450000017881 83.0
4.19600009918 0.841000020504 0.0460000000894 84.0
4.06300020218 0.790000021458 0.0450000017881 92.0
4.07800006866 0.768000006676 0.0450000017881 89.0
4.10200023651 0.748000025749 0.0450000017881 92.0
4.11199998856 0.726000010967 0.0460000000894 87.0
2.40300011635 -0.370000004768 0.0299999993294 166.0
2.30800008774 -0.368999987841 0.0289999991655 116.0
0.962999999523 -0.158000007272 0.0109999999404 105.0
0.962000012398 -0.163000002503 0.0109999999404 130.0
0.966000020504 -0.170000001788 0.0109999999404 135.0
0.987999975681 -0.179000005126 0.0109999999404 134.0
1.01900005341 -0.190999999642 0.0120000001043 134.0
0.980000019073 -0.189999997616 0.0109999999404 138.0
0.958000004292 -0.190999999642 0.0109999999404 148.0
0.962999999523 -0.197999998927 0.0109999999404 143.0
0.981000006199 -0.207000002265 0.0120000001043 150.0
0.98400002718 -0.21400000155 0.0120000001043 146.0
0.977999985218 -0.218999996781 0.0120000001043 155.0
0.972999989986 -0.224000006914 0.0120000001043 157.0
0.981000006199 -0.231000006199 0.0120000001043 158.0
0.957000017166 -0.231000006199 0.0109999999404 157.0
0.972999989986 -0.240999996662 0.0120000001043 159.0
0.958999991417 -0.244000002742 0.0120000001043 157.0
0.977999985218 -0.254999995232 0.0120000001043 164.0
0.958000004292 -0.256000012159 0.0120000001043 163.0
0.938000023365 -0.256000012159 0.0109999999404 175.0
0.93900001049 -0.261999994516 0.0109999999404 178.0
0.958999991417 -0.273999989033 0.0120000001043 175.0
0.961000025272 -0.280000001192 0.0120000001043 174.0
0.966000020504 -0.287999987602 0.0120000001043 169.0
0.940999984741 -0.286000013351 0.0120000001043 182.0
0.925000011921 -0.287999987602 0.0109999999404 171.0
0.938000023365 -0.298000007868 0.0120000001043 174.0
0.948000013828 -0.307000011206 0.0120000001043 175.0
0.930000007153 -0.307000011206 0.0120000001043 176.0
0.954999983311 -0.321999996901 0.0120000001043 171.0
0.938000023365 -0.321999996901 0.0120000001043 171.0
0.929000020027 -0.324999988079 0.0120000001043 176.0
0.931999981403 -0.333000004292 0.0120000001043 177.0
0.912000000477 -0.331000000238 0.0120000001043 176.0
0.925000011921 -0.342000007629 0.0120000001043 168.0
0.915000021458 -0.344999998808 0.0120000001043 168.0
0.935000002384 -0.358999997377 0.0120000001043 173.0
0.910000026226 -0.356000006199 0.0120000001043 172.0
0.911000013351 -0.361999988556 0.0120000001043 170.0
0.910000026226 -0.368000000715 0.0120000001043 179.0
0.939999997616 -0.386999994516 0.0120000001043 171.0
0.911000013351 -0.381000012159 0.0120000001043 166.0
0.911000013351 -0.388000011444 0.0120000001043 166.0
0.896000027657 -0.386999994516 0.0120000001043 164.0
0.925000011921 -0.407000005245 0.0120000001043 167.0
0.893000006676 -0.398999989033 0.0120000001043 161.0
0.912000000477 -0.414999991655 0.0120000001043 157.0
0.912000000477 -0.421000003815 0.0120000001043 158.0
0.910000026226 -0.426999986172 0.0120000001043 162.0
0.899999976158 -0.428999990225 0.0120000001043 163.0
0.912999987602 -0.442000001669 0.0130000002682 157.0
0.911000013351 -0.448000013828 0.0130000002682 156.0
0.884999990463 -0.442000001669 0.0120000001043 150.0
0.90499997139 -0.458999991417 0.0130000002682 154.0
0.874000012875 -0.449000000954 0.0120000001043 147.0
0.888000011444 -0.463999986649 0.0130000002682 153.0
0.907999992371 -0.481000006199 0.0130000002682 147.0
0.875 -0.470999985933 0.0130000002682 146.0
0.898000001907 -0.490999996662 0.0130000002682 145.0
0.897000014782 -0.497000008821 0.0130000002682 142.0
2.08699989319 1.19599997997 0.00800000037998 292.0
2.08599996567 1.17900002003 0.00800000037998 294.0
2.09599995613 1.16700005531 0.00800000037998 241.0
2.1099998951 1.15799999237 0.00800000037998 150.0
2.19799995422 1.18900001049 0.00800000037998 161.0
2.20900011063 1.17700004578 0.00899999961257 237.0
2.20600008965 1.15799999237 0.00899999961257 207.0
2.23200011253 1.15400004387 0.00899999961257 98.0
3.29500007629 1.27100002766 0.0149999996647 112.0
3.32699990273 1.26100003719 0.0149999996647 94.0
3.57500004768 1.33000004292 0.01600000076 65.0
3.74300003052 1.36800003052 0.0170000009239 80.0
3.68600010872 1.3220000267 0.0170000009239 117.0
3.72399997711 1.31099998951 0.0170000009239 108.0
3.81299996376 1.31700003147 0.0179999992251 104.0
4.00400018692 1.35599994659 0.0189999993891 66.0
4.07299995422 1.35300004482 0.0189999993891 66.0
4.05200004578 1.31900000572 0.0189999993891 95.0
4.01499986649 1.28100001812 0.0189999993891 133.0
4.07600021362 1.27400004864 0.0189999993891 128.0
4.03000020981 1.23399996758 0.0189999993891 123.0
4.0529999733 1.21500003338 0.0189999993891 116.0
4.0689997673 1.19400000572 0.019999999553 111.0
4.06599998474 1.16700005531 0.019999999553 114.0
4.03900003433 1.13300001621 0.019999999553 114.0
4.02500009537 1.10399997234 0.019999999553 109.0
4.06500005722 1.08899998665 0.019999999553 108.0
4.10799980164 1.07500004768 0.019999999553 114.0
4.11800003052 1.05200004578 0.019999999553 110.0
4.05000019073 1.00999999046 0.019999999553 112.0
4.08900022507 0.994000017643 0.019999999553 104.0
4.07800006866 0.966000020504 0.019999999553 109.0
4.11899995804 0.950999975204 0.0209999997169 110.0
4.09200000763 0.920000016689 0.0209999997169 107.0
4.09200000763 0.894999980927 0.0209999997169 108.0
4.04899978638 0.861000001431 0.0209999997169 111.0
4.09600019455 0.846000015736 0.0209999997169 110.0
4.09600019455 0.820999979973 0.0209999997169 111.0
4.03499984741 0.783999979496 0.0209999997169 118.0
4.06300020218 0.764999985695 0.0209999997169 119.0
4.09499979019 0.746999979019 0.0209999997169 123.0
4.07700014114 0.71899998188 0.0209999997169 121.0
2.57299995422 -0.381000012159 0.0170000009239 66.0
2.39299988747 -0.368000000715 0.01600000076 184.0
1.00499999523 -0.165000006557 0.00600000005215 113.0
0.98299998045 -0.166999995708 0.00600000005215 133.0
1.01900005341 -0.179000005126 0.00600000005215 136.0
0.990999996662 -0.180000007153 0.00600000005215 139.0
0.994000017643 -0.186000004411 0.00600000005215 137.0
0.990000009537 -0.190999999642 0.00600000005215 140.0
0.945999979973 -0.188999995589 0.00499999988824 140.0
0.96899998188 -0.199000000954 0.00600000005215 151.0
0.985000014305 -0.208000004292 0.00600000005215 146.0
0.967999994755 -0.209999993443 0.00600000005215 148.0
0.97000002861 -0.216999992728 0.00600000005215 153.0
0.950999975204 -0.217999994755 0.00600000005215 146.0
0.958999991417 -0.225999996066 0.00600000005215 156.0
0.957000017166 -0.231000006199 0.00600000005215 161.0
0.975000023842 -0.241999998689 0.00600000005215 170.0
0.962000012398 -0.244000002742 0.00600000005215 165.0
0.950999975204 -0.247999995947 0.00600000005215 158.0
0.96899998188 -0.25799998641 0.00600000005215 163.0
0.936999976635 -0.256000012159 0.00600000005215 173.0
0.959999978542 -0.268000006676 0.00600000005215 173.0
0.948000013828 -0.270999997854 0.00600000005215 166.0
0.948000013828 -0.275999993086 0.00600000005215 164.0
0.944000005722 -0.280999988317 0.00600000005215 162.0
0.950999975204 -0.289999991655 0.00600000005215 173.0
0.938000023365 -0.291999995708 0.00600000005215 175.0
0.943000018597 -0.298999994993 0.00600000005215 173.0
0.955999970436 -0.310000002384 0.00600000005215 176.0
0.944000005722 -0.312000006437 0.00600000005215 175.0
0.949999988079 -0.319999992847 0.00600000005215 169.0
0.938000023365 -0.321999996901 0.00600000005215 175.0
0.929000020027 -0.324999988079 0.00600000005215 177.0
0.93900001049 -0.335000008345 0.00600000005215 175.0
0.935000002384 -0.340000003576 0.00600000005215 172.0
0.930000007153 -0.344000011683 0.00600000005215 172.0
0.916000008583 -0.344999998808 0.00600000005215 170.0
0.938000023365 -0.360000014305 0.00600000005215 170.0
0.912999987602 -0.356999993324 0.00600000005215 168.0
0.933000028133 -0.370999991894 0.00700000021607 172.0
0.933000028133 -0.377000004053 0.00700000021607 167.0
0.888000011444 -0.365000009537 0.00600000005215 173.0
0.915000021458 -0.38299998641 0.00700000021607 170.0
0.916000008583 -0.389999985695 0.00700000021607 165.0
0.911000013351 -0.393999993801 0.00700000021607 164.0
0.931999981403 -0.409999996424 0.00700000021607 161.0
0.90499997139 -0.405000001192 0.00700000021607 158.0
0.907999992371 -0.412999987602 0.00700000021607 164.0
0.922999978065 -0.425999999046 0.00700000021607 161.0
0.90600001812 -0.425000011921 0.00700000021607 171.0
0.902999997139 -0.430000007153 0.00700000021607 162.0
0.898000001907 -0.433999985456 0.00700000021607 158.0
0.89099997282 -0.437999993563 0.00700000021607 152.0
0.907999992371 -0.45300000906 0.00700000021607 156.0
0.884999990463 -0.449000000954 0.00700000021607 152.0
0.887000024319 -0.456999987364 0.00700000021607 141.0
0.898000001907 -0.469000011683 0.00700000021607 144.0
0.875999987125 -0.465000003576 0.00700000021607 148.0
0.871999979019 -0.469000011683 0.00700000021607 148.0
0.879000008106 -0.479999989271 0.00700000021607 138.0
0.89099997282 -0.493999987841 0.00700000021607 146.0
2.09699988365 1.20200002193 -0.00499999988824 299.0
2.10400009155 1.18900001049 -0.00499999988824 297.0
2.07699990273 1.15600001812 -0.00499999988824 185.0
2.18700003624 1.20000004768 -0.00499999988824 129.0
2.22900009155 1.20500004292 -0.00499999988824 206.0
2.22600007057 1.18599998951 -0.00499999988824 351.0
2.20600008965 1.15799999237 -0.00499999988824 222.0
2.19099998474 1.13300001621 -0.00400000018999 117.0
3.26900005341 1.26100003719 -0.00400000018999 111.0
3.33400011063 1.26300001144 -0.00400000018999 87.0
3.72600007057 1.33599996567 -0.00400000018999 118.0
3.70000004768 1.30200004578 -0.00400000018999 109.0
3.80800008774 1.31500005722 -0.00400000018999 93.0
4.03200006485 1.36500000954 -0.00400000018999 67.0
4.08199977875 1.35599994659 -0.00400000018999 70.0
4.10599994659 1.3370000124 -0.00400000018999 97.0
4.00699996948 1.27799999714 -0.00400000018999 139.0
4.00600004196 1.25199997425 -0.00400000018999 138.0
4.04300022125 1.23800003529 -0.00400000018999 124.0
4.03800010681 1.21000003815 -0.00400000018999 114.0
4.03900003433 1.18499994278 -0.00400000018999 114.0
4.05900001526 1.16499996185 -0.00300000002608 113.0
4.06799983978 1.14100003242 -0.00300000002608 116.0
4.05200004578 1.11099994183 -0.00300000002608 108.0
4.07000017166 1.0909999609 -0.00300000002608 115.0
4.09600019455 1.0720000267 -0.00300000002608 114.0
4.10200023651 1.04799997807 -0.00300000002608 117.0
4.11499977112 1.02600002289 -0.00300000002608 120.0
4.04600000381 0.98400002718 -0.00300000002608 118.0
4.10699987411 0.972999989986 -0.00300000002608 121.0
4.05200004578 0.935000002384 -0.00200000009499 114.0
4.09600019455 0.920000016689 -0.00200000009499 117.0
4.08699989319 0.893000006676 -0.00200000009499 115.0
4.10400009155 0.871999979019 -0.00200000009499 112.0
4.11100006104 0.848999977112 -0.00200000009499 120.0
4.07800006866 0.816999971867 -0.00200000009499 116.0
4.07999992371 0.792999982834 -0.00200000009499 125.0
4.07700014114 0.768000006676 -0.00200000009499 122.0
4.0689997673 0.741999983788 -0.00200000009499 129.0
4.08099985123 0.72000002861 -0.0010000000475 122.0
2.56599998474 -0.379999995232 0.00200000009499 74.0
2.40100002289 -0.370000004768 0.00200000009499 185.0
2.13499999046 -0.340999990702 0.0010000000475 89.0
0.978999972343 -0.159999996424 0.0 106.0
1.01999998093 -0.172999992967 0.0 134.0
0.986000001431 -0.172999992967 0.0 135.0
0.98299998045 -0.178000003099 0.0 132.0
0.986999988556 -0.185000002384 0.0 141.0
0.989000022411 -0.190999999642 0.0 140.0
0.959999978542 -0.190999999642 0.0 145.0
0.991999983788 -0.203999996185 0.0 148.0
0.981999993324 -0.208000004292 0.0 143.0
0.991999983788 -0.216000005603 0.0 154.0
0.952000021935 -0.212999999523 0.0 150.0
0.967000007629 -0.222000002861 0.0 156.0
0.955999970436 -0.22499999404 0.0 153.0
0.95300000906 -0.231000006199 0.0 157.0
0.940999984741 -0.232999995351 0.0 158.0
0.953999996185 -0.241999998689 0.0 161.0
0.949999988079 -0.24699999392 0.0 162.0
0.948000013828 -0.252999991179 0.0 162.0
0.958000004292 -0.261000007391 0.0 166.0
0.976999998093 -0.273000001907 0.0 170.0
0.952000021935 -0.272000014782 0.0 170.0
0.990999996662 -0.28900000453 0.0 163.0
0.940999984741 -0.280000001192 0.0 170.0
0.949000000954 -0.28900000453 0.0 170.0
0.930000007153 -0.28900000453 0.0 169.0
0.949000000954 -0.300999999046 0.0 175.0
0.929000020027 -0.300999999046 0.0 177.0
0.944999992847 -0.312000006437 0.0010000000475 171.0
0.939999997616 -0.317000001669 0.0010000000475 176.0
0.924000024796 -0.317000001669 0.0010000000475 174.0
0.938000023365 -0.32800000906 0.0010000000475 180.0
0.920000016689 -0.32800000906 0.0010000000475 177.0
0.929000020027 -0.337999999523 0.0010000000475 175.0
0.930999994278 -0.344999998808 0.0010000000475 166.0
0.959999978542 -0.361999988556 0.0010000000475 169.0
0.927999973297 -0.356000006199 0.0010000000475 173.0
0.897000014782 -0.34999999404 0.0010000000475 169.0
0.919000029564 -0.365000009537 0.0010000000475 172.0
0.902999997139 -0.365000009537 0.0010000000475 160.0
0.934000015259 -0.384999990463 0.0010000000475 168.0
0.90499997139 -0.379000008106 0.0010000000475 167.0
0.910000026226 -0.386999994516 0.0010000000475 163.0
0.894999980927 -0.386999994516 0.0010000000475 170.0
0.911000013351 -0.400999993086 0.0010000000475 171.0
0.908999979496 -0.405999988317 0.0010000000475 162.0
0.893000006676 -0.405999988317 0.0010000000475 165.0
0.894999980927 -0.412999987602 0.0010000000475 159.0
0.887000024319 -0.416000008583 0.0010000000475 166.0
0.912000000477 -0.435000002384 0.0010000000475 162.0
0.907999992371 -0.43900001049 0.0010000000475 160.0
0.896000027657 -0.439999997616 0.0010000000475 158.0
0.911000013351 -0.455000013113 0.0010000000475 148.0
0.879999995232 -0.446000009775 0.0010000000475 155.0
0.916999995708 -0.472000002861 0.0010000000475 151.0
0.902000010014 -0.470999985933 0.0010000000475 148.0
0.89200001955 -0.472999989986 0.0010000000475 149.0
0.897000014782 -0.483000010252 0.0010000000475 147.0
0.888999998569 -0.486000001431 0.0010000000475 143.0
0.878000020981 -0.486999988556 0.0010000000475 137.0
2.08800005913 1.1970000267 -0.0179999992251 292.0
2.09599995613 1.18400001526 -0.0179999992251 288.0
2.07800006866 1.15699994564 -0.0179999992251 185.0
2.20000004768 1.20700001717 -0.0189999993891 116.0
2.21900010109 1.20000004768 -0.0189999993891 227.0
2.21099996567 1.1779999733 -0.0189999993891 365.0
2.1819999218 1.14499998093 -0.0179999992251 205.0
2.23900008202 1.15699994564 -0.0189999993891 113.0
3.22499990463 1.26600003242 -0.0240000002086 88.0
3.31599998474 1.27900004387 -0.0250000003725 104.0
3.30100011826 1.25100004673 -0.0240000002086 97.0
3.64199995995 1.35500001907 -0.0270000007004 69.0
3.69899988174 1.35099995136 -0.0270000007004 90.0
3.71399998665 1.33200001717 -0.0270000007004 118.0
3.7460000515 1.31799995899 -0.0270000007004 115.0
3.85299992561 1.33000004292 -0.0280000008643 88.0
4.01300001144 1.35899996758 -0.0289999991655 85.0
4.08199977875 1.35500001907 -0.0289999991655 93.0
4.04199981689 1.31599998474 -0.0280000008643 127.0
4.03200006485 1.28600001335 -0.0280000008643 176.0
4.04899978638 1.26499998569 -0.0280000008643 181.0
4.04500007629 1.23800003529 -0.0280000008643 152.0
4.0640001297 1.21800005436 -0.0280000008643 128.0
4.07700014114 1.19599997997 -0.0280000008643 120.0
4.06300020218 1.16600000858 -0.0280000008643 123.0
4.05200004578 1.13699996471 -0.0270000007004 120.0
4.06500005722 1.11500000954 -0.0270000007004 127.0
4.06599998474 1.08899998665 -0.0270000007004 129.0
4.08599996567 1.06900000572 -0.0270000007004 129.0
4.06699991226 1.03900003433 -0.0270000007004 126.0
4.07999992371 1.01699995995 -0.0270000007004 129.0
4.0720000267 0.990000009537 -0.0270000007004 124.0
4.09299993515 0.97000002861 -0.0270000007004 132.0
4.10200023651 0.947000026703 -0.0270000007004 130.0
4.08300018311 0.916999995708 -0.0260000005364 132.0
4.09999990463 0.896000027657 -0.0260000005364 127.0
4.07100009918 0.865000009537 -0.0260000005364 120.0
4.09399986267 0.84500002861 -0.0260000005364 124.0
4.06799983978 0.814999997616 -0.0260000005364 125.0
4.10799980164 0.797999978065 -0.0260000005364 134.0
4.11199998856 0.773999989033 -0.0260000005364 130.0
4.09800004959 0.746999979019 -0.0250000003725 137.0
4.07800006866 0.71899998188 -0.0250000003725 123.0
4.59100008011 0.727999985218 -0.0280000008643 53.0
4.53399991989 0.691999971867 -0.0270000007004 59.0
4.47300004959 0.65600001812 -0.0270000007004 51.0
2.47600007057 -0.36700001359 -0.0120000001043 89.0
2.39199995995 -0.368000000715 -0.0109999999404 197.0
2.30599999428 -0.368999987841 -0.0109999999404 108.0
0.962000012398 -0.157000005245 -0.00499999988824 111.0
0.981000006199 -0.165999993682 -0.00499999988824 136.0
0.995999991894 -0.17499999702 -0.00499999988824 137.0
0.98400002718 -0.179000005126 -0.00499999988824 134.0
0.985000014305 -0.185000002384 -0.00499999988824 136.0
0.992999970913 -0.192000001669 -0.00499999988824 142.0
0.958000004292 -0.190999999642 -0.00499999988824 143.0
0.958999991417 -0.196999996901 -0.00499999988824 147.0
0.963999986649 -0.203999996185 -0.00499999988824 145.0
0.964999973774 -0.209999993443 -0.00499999988824 148.0
0.941999971867 -0.21099999547 -0.00400000018999 159.0
0.962999999523 -0.221000000834 -0.00499999988824 158.0
0.972999989986 -0.230000004172 -0.00499999988824 157.0
0.947000026703 -0.229000002146 -0.00400000018999 162.0
0.967000007629 -0.239999994636 -0.00499999988824 155.0
0.975000023842 -0.247999995947 -0.00499999988824 159.0
0.967000007629 -0.252000004053 -0.00400000018999 167.0
0.954999983311 -0.254999995232 -0.00400000018999 172.0
0.972000002861 -0.264999985695 -0.00400000018999 160.0
0.940999984741 -0.263000011444 -0.00400000018999 164.0
0.97000002861 -0.277000010014 -0.00400000018999 172.0
0.943000018597 -0.27500000596 -0.00400000018999 173.0
0.972000002861 -0.289999991655 -0.00400000018999 169.0
0.941999971867 -0.287000000477 -0.00400000018999 170.0
0.93599998951 -0.291000008583 -0.00400000018999 169.0
0.963999986649 -0.305999994278 -0.00400000018999 177.0
0.943000018597 -0.305999994278 -0.00400000018999 175.0
0.935000002384 -0.308999985456 -0.00400000018999 176.0
0.930999994278 -0.31400001049 -0.00400000018999 170.0
0.939999997616 -0.323000013828 -0.00400000018999 178.0
0.943000018597 -0.330000013113 -0.00400000018999 174.0
0.935000002384 -0.333999991417 -0.00400000018999 175.0
0.920000016689 -0.333999991417 -0.00400000018999 170.0
0.948000013828 -0.351000010967 -0.00400000018999 171.0
0.913999974728 -0.344999998808 -0.00400000018999 169.0
0.926999986172 -0.356000006199 -0.00400000018999 176.0
0.955999970436 -0.374000012875 -0.00400000018999 170.0
0.920000016689 -0.365999996662 -0.00400000018999 168.0
0.935000002384 -0.377999991179 -0.00400000018999 170.0
0.935000002384 -0.384999990463 -0.00400000018999 169.0
0.912999987602 -0.381999999285 -0.00400000018999 170.0
0.915000021458 -0.389999985695 -0.00400000018999 164.0
0.907999992371 -0.393000006676 -0.00400000018999 161.0
0.921000003815 -0.405000001192 -0.00400000018999 156.0
0.90600001812 -0.405000001192 -0.00400000018999 167.0
0.885999977589 -0.402999997139 -0.00400000018999 161.0
0.89099997282 -0.411000013351 -0.00400000018999 160.0
0.907000005245 -0.425999999046 -0.00400000018999 165.0
0.930000007153 -0.442999988794 -0.00400000018999 163.0
0.898999989033 -0.435000002384 -0.00400000018999 160.0
0.915000021458 -0.449999988079 -0.00400000018999 153.0
0.908999979496 -0.453999996185 -0.00400000018999 150.0
0.887000024319 -0.449999988079 -0.00300000002608 145.0
0.893999993801 -0.460000008345 -0.00300000002608 149.0
0.882000029087 -0.46099999547 -0.00300000002608 145.0
0.926999986172 -0.49200001359 -0.00300000002608 146.0
0.889999985695 -0.479000002146 -0.00300000002608 142.0
0.864000022411 -0.472000002861 -0.00300000002608 143.0
0.894999980927 -0.495999991894 -0.00300000002608 143.0
2.08599996567 1.19599997997 -0.0320000015199 298.0
2.10400009155 1.18799996376 -0.0320000015199 284.0
2.07299995422 1.15400004387 -0.0309999994934 173.0
2.15700006485 1.18400001526 -0.0329999998212 115.0
2.21199989319 1.19599997997 -0.0329999998212 219.0
2.21099996567 1.1779999733 -0.0329999998212 360.0
2.18799996376 1.14800000191 -0.0329999998212 204.0
2.32999992371 1.20399999619 -0.0340000018477 106.0
3.28800010681 1.26800000668 -0.0450000017881 95.0
3.3180000782 1.25699996948 -0.0450000017881 95.0
3.70300006866 1.37800002098 -0.0500000007451 74.0
3.66300010681 1.33800005913 -0.0489999987185 89.0
3.73600006104 1.34000003338 -0.0500000007451 124.0
3.69799995422 1.30099999905 -0.0489999987185 107.0
3.9240000248 1.35500001907 -0.0520000010729 95.0
4.04099988937 1.36800003052 -0.0529999993742 91.0
4.00699996948 1.33000004292 -0.0529999993742 98.0
4.0110001564 1.30599999428 -0.0520000010729 131.0
4.02600002289 1.2840000391 -0.0520000010729 175.0
4.05100011826 1.26600003242 -0.0529999993742 172.0
4.06300020218 1.24300003052 -0.0520000010729 149.0
4.07899999619 1.22200000286 -0.0520000010729 134.0
4.06300020218 1.19099998474 -0.0520000010729 129.0
4.07100009918 1.16799998283 -0.0520000010729 125.0
4.08699989319 1.14600002766 -0.0520000010729 130.0
4.0529999733 1.11099994183 -0.0509999990463 131.0
4.07999992371 1.09300005436 -0.0520000010729 135.0
4.09299993515 1.07099997997 -0.0520000010729 125.0
4.07000017166 1.03999996185 -0.0509999990463 126.0
4.09800004959 1.02100002766 -0.0509999990463 130.0
4.06300020218 0.987999975681 -0.0509999990463 134.0
4.04699993134 0.958999991417 -0.0500000007451 139.0
4.06300020218 0.936999976635 -0.0500000007451 136.0
4.07700014114 0.916000008583 -0.0500000007451 142.0
4.07999992371 0.89200001955 -0.0500000007451 137.0
4.0560002327 0.861999988556 -0.0500000007451 142.0
4.10900020599 0.847999989986 -0.0500000007451 137.0
4.09700012207 0.820999979973 -0.0500000007451 145.0
4.08300018311 0.792999982834 -0.0500000007451 143.0
4.05999994278 0.764999985695 -0.0489999987185 133.0
4.07800006866 0.742999970913 -0.0489999987185 142.0
4.11000013351 0.725000023842 -0.0489999987185 131.0
4.15700006485 0.708000004292 -0.0500000007451 83.0
4.46199989319 0.73400002718 -0.0529999993742 64.0
4.51999998093 0.716000020504 -0.0540000014007 61.0
4.57100009918 0.697000026703 -0.0540000014007 62.0
4.39599990845 0.644999980927 -0.0520000010729 61.0
4.59999990463 0.647000014782 -0.0540000014007 56.0
4.53599977493 0.611999988556 -0.0529999993742 57.0
4.54300022125 0.586000025272 -0.0529999993742 58.0
4.58900022507 0.564999997616 -0.0540000014007 58.0
4.61199998856 0.541000008583 -0.0540000014007 54.0
4.61800003052 0.514999985695 -0.0540000014007 55.0
4.59499979019 0.485000014305 -0.0529999993742 60.0
4.63199996948 0.462000012398 -0.0529999993742 54.0
4.57999992371 0.430000007153 -0.0529999993742 57.0
4.63199996948 0.407999992371 -0.0529999993742 53.0
4.49499988556 0.370000004768 -0.0509999990463 52.0
4.66499996185 0.356999993324 -0.0529999993742 59.0
4.5720000267 0.324000000954 -0.0520000010729 51.0
4.73400020599 0.307999998331 -0.0540000014007 52.0
4.64699983597 0.27500000596 -0.0529999993742 51.0
4.72800016403 0.22499999404 -0.0529999993742 55.0
4.80200004578 0.173999994993 -0.0540000014007 51.0
4.76200008392 0.116999998689 -0.0529999993742 46.0
4.71600008011 0.0619999989867 -0.0520000010729 49.0
4.84800004959 0.0359999984503 -0.0540000014007 49.0
2.51399993896 -0.372999995947 -0.0260000005364 99.0
2.39599990845 -0.368999987841 -0.0250000003725 206.0
0.977999985218 -0.159999996424 -0.0109999999404 116.0
0.995000004768 -0.168999999762 -0.0109999999404 131.0
0.986000001431 -0.172999992967 -0.0109999999404 142.0
1.01600003242 -0.185000002384 -0.0109999999404 136.0
0.990999996662 -0.186000004411 -0.0109999999404 137.0
0.96899998188 -0.187000006437 -0.00999999977648 141.0
0.987999975681 -0.196999996901 -0.0109999999404 151.0
0.981000006199 -0.202000007033 -0.00999999977648 148.0
0.962999999523 -0.203999996185 -0.00999999977648 157.0
0.991999983788 -0.216000005603 -0.0109999999404 149.0
0.996999979019 -0.223000004888 -0.0109999999404 160.0
0.985000014305 -0.225999996066 -0.00999999977648 156.0
0.944999992847 -0.223000004888 -0.00999999977648 158.0
0.95300000906 -0.230000004172 -0.00999999977648 156.0
0.962000012398 -0.238999992609 -0.00999999977648 151.0
0.957000017166 -0.243000000715 -0.00999999977648 158.0
0.966000020504 -0.252000004053 -0.00999999977648 165.0
0.961000025272 -0.256000012159 -0.00999999977648 160.0
0.92199999094 -0.252000004053 -0.00999999977648 167.0
0.926999986172 -0.259000003338 -0.00999999977648 172.0
0.941999971867 -0.268999993801 -0.00999999977648 168.0
0.943000018597 -0.27500000596 -0.00999999977648 169.0
0.95300000906 -0.284000009298 -0.00999999977648 172.0
0.925000011921 -0.282000005245 -0.00999999977648 172.0
0.929000020027 -0.28900000453 -0.00999999977648 175.0
0.938000023365 -0.298000007868 -0.00999999977648 177.0
0.938000023365 -0.303999990225 -0.00999999977648 188.0
0.926999986172 -0.305999994278 -0.00999999977648 177.0
0.93900001049 -0.316000014544 -0.00999999977648 175.0
0.927999973297 -0.319000005722 -0.00999999977648 181.0
0.931999981403 -0.326000005007 -0.00999999977648 172.0
0.915000021458 -0.326999992132 -0.00899999961257 180.0
0.933000028133 -0.338999986649 -0.00999999977648 171.0
0.962000012398 -0.356000006199 -0.00999999977648 172.0
0.919000029564 -0.347000002861 -0.00899999961257 167.0
0.916000008583 -0.351999998093 -0.00899999961257 173.0
0.915000021458 -0.356999993324 -0.00899999961257 173.0
0.907000005245 -0.361000001431 -0.00899999961257 170.0
0.907999992371 -0.36700001359 -0.00899999961257 169.0
0.930000007153 -0.38299998641 -0.00999999977648 169.0
0.927999973297 -0.388999998569 -0.00999999977648 165.0
0.913999974728 -0.388999998569 -0.00899999961257 170.0
0.899999976158 -0.388999998569 -0.00899999961257 168.0
0.903999984264 -0.398000001907 -0.00899999961257 169.0
0.907999992371 -0.405999988317 -0.00899999961257 172.0
0.916000008583 -0.416000008583 -0.00899999961257 169.0
0.89200001955 -0.412000000477 -0.00899999961257 163.0
0.907000005245 -0.425999999046 -0.00899999961257 156.0
0.90499997139 -0.430999994278 -0.00899999961257 162.0
0.90499997139 -0.437999993563 -0.00899999961257 163.0
0.898000001907 -0.442000001669 -0.00899999961257 151.0
0.930000007153 -0.465000003576 -0.00899999961257 152.0
0.908999979496 -0.46099999547 -0.00899999961257 151.0
0.911000013351 -0.469000011683 -0.00899999961257 153.0
0.90499997139 -0.472999989986 -0.00899999961257 145.0
0.853999972343 -0.45300000906 -0.00899999961257 144.0
0.871999979019 -0.469000011683 -0.00899999961257 143.0
0.852999985218 -0.465999990702 -0.00899999961257 145.0
0.885999977589 -0.49200001359 -0.00899999961257 140.0
2.09999990463 1.20399999619 -0.0460000000894 296.0
2.08400011063 1.1779999733 -0.0450000017881 281.0
2.06399989128 1.14900004864 -0.0450000017881 177.0
2.19099998474 1.20200002193 -0.0469999983907 116.0
2.23099994659 1.20599997044 -0.0480000004172 221.0
2.21600008011 1.18099999428 -0.0469999983907 356.0
2.18499994278 1.14699995518 -0.0460000000894 206.0
3.2539999485 1.27699995041 -0.0640000030398 97.0
3.28299999237 1.26600003242 -0.0649999976158 103.0
3.37800002098 1.27999997139 -0.0659999996424 94.0
3.67000007629 1.36600005627 -0.0719999969006 65.0
3.68600010872 1.34599995613 -0.0719999969006 100.0
3.68499994278 1.32099997997 -0.0710000023246 116.0
3.70399999619 1.3029999733 -0.0719999969006 111.0
3.88899993896 1.34300005436 -0.0750000029802 92.0
3.99300003052 1.35199999809 -0.0769999995828 91.0
4.07299995422 1.35199999809 -0.0780000016093 96.0
4.05399990082 1.32000005245 -0.0769999995828 136.0
4.03900003433 1.2879999876 -0.0769999995828 172.0
4.03599977493 1.26100003719 -0.0769999995828 180.0
4.01000022888 1.22699999809 -0.0759999975562 145.0
4.02699995041 1.20599997044 -0.0759999975562 130.0
4.0640001297 1.19200003147 -0.0759999975562 128.0
4.06300020218 1.16600000858 -0.0759999975562 126.0
4.04199981689 1.13399994373 -0.0759999975562 130.0
4.0640001297 1.11399996281 -0.0759999975562 131.0
4.08300018311 1.09399998188 -0.0759999975562 131.0
4.0609998703 1.06299996376 -0.0750000029802 135.0
4.1139998436 1.05099999905 -0.0759999975562 129.0
4.08900022507 1.01900005341 -0.0750000029802 133.0
4.11199998856 0.999000012875 -0.0759999975562 137.0
4.09100008011 0.96899998188 -0.0750000029802 137.0
4.14200019836 0.955999970436 -0.0759999975562 133.0
4.08500003815 0.916999995708 -0.0740000009537 135.0
4.05399990082 0.885999977589 -0.0740000009537 139.0
4.0560002327 0.861999988556 -0.0740000009537 135.0
4.11999988556 0.850000023842 -0.0740000009537 136.0
4.06300020218 0.81400001049 -0.0729999989271 145.0
4.0689997673 0.791000008583 -0.0729999989271 141.0
4.08699989319 0.768999993801 -0.0729999989271 128.0
4.07100009918 0.741999983788 -0.0729999989271 136.0
4.08400011063 0.72000002861 -0.0729999989271 130.0
4.21199989319 0.717999994755 -0.0750000029802 89.0
4.50600004196 0.740999996662 -0.0799999982119 69.0
4.40299987793 0.698000013828 -0.0780000016093 75.0
4.53399991989 0.691999971867 -0.0799999982119 74.0
4.49800014496 0.660000026226 -0.0790000036359 66.0
4.53000020981 0.638000011444 -0.0799999982119 64.0
4.56199979782 0.615000009537 -0.0799999982119 65.0
4.56699991226 0.588999986649 -0.0799999982119 63.0
4.58099985123 0.56400001049 -0.0799999982119 63.0
4.57000017166 0.536000013351 -0.0799999982119 66.0
4.57700014114 0.509999990463 -0.0799999982119 65.0
4.60500001907 0.486000001431 -0.0799999982119 65.0
4.57299995422 0.456000000238 -0.0790000036359 56.0
4.65199995041 0.437000006437 -0.0799999982119 61.0
4.65999984741 0.411000013351 -0.0799999982119 59.0
4.66599988937 0.384000003338 -0.0799999982119 58.0
4.61999988556 0.354000002146 -0.0790000036359 55.0
4.62200021744 0.326999992132 -0.0790000036359 56.0
4.69000005722 0.305000007153 -0.0799999982119 59.0
4.77899980545 0.282999992371 -0.082000002265 56.0
4.69500017166 0.250999987125 -0.0799999982119 53.0
4.65899991989 0.222000002861 -0.0790000036359 55.0
4.73199987411 0.197999998927 -0.0799999982119 53.0
4.73600006104 0.171000003815 -0.0799999982119 51.0
4.7389998436 0.143999993801 -0.0799999982119 53.0
4.77699995041 0.118000000715 -0.0810000002384 60.0
4.74399995804 0.0900000035763 -0.0799999982119 53.0
4.72800016403 0.035000000149 -0.0799999982119 49.0
4.84299993515 0.00800000037998 -0.0810000002384 53.0
2.53600001335 -0.0520000010729 -0.0430000014603 48.0
2.61100006104 -0.264999985695 -0.0430000014603 51.0
2.52099990845 -0.374000012875 -0.0410000011325 101.0
2.38599991798 -0.368000000715 -0.0390000008047 214.0
0.977999985218 -0.159999996424 -0.01600000076 123.0
0.985000014305 -0.166999995708 -0.01600000076 134.0
0.990999996662 -0.173999994993 -0.01600000076 141.0
0.976000010967 -0.177000001073 -0.01600000076 138.0
0.967000007629 -0.180999994278 -0.01600000076 144.0
0.966000020504 -0.187000006437 -0.01600000076 146.0
0.955999970436 -0.190999999642 -0.01600000076 151.0
0.977999985218 -0.201000005007 -0.01600000076 151.0
0.994000017643 -0.209999993443 -0.01600000076 153.0
0.980000019073 -0.212999999523 -0.01600000076 154.0
0.962000012398 -0.215000003576 -0.01600000076 156.0
0.950999975204 -0.217999994755 -0.01600000076 158.0
0.967999994755 -0.228000000119 -0.01600000076 159.0
0.954999983311 -0.231000006199 -0.01600000076 160.0
0.95300000906 -0.237000003457 -0.01600000076 158.0
0.950999975204 -0.241999998689 -0.01600000076 169.0
0.950999975204 -0.247999995947 -0.01600000076 166.0
0.953999996185 -0.254999995232 -0.01600000076 168.0
0.961000025272 -0.261999994516 -0.01600000076 166.0
0.948000013828 -0.264999985695 -0.01600000076 172.0
0.949000000954 -0.270999997854 -0.01600000076 169.0
0.976999998093 -0.284999996424 -0.01600000076 174.0
0.936999976635 -0.280000001192 -0.0149999996647 174.0
0.944000005722 -0.287999987602 -0.0149999996647 178.0
0.952000021935 -0.296000003815 -0.01600000076 174.0
0.934000015259 -0.29699999094 -0.0149999996647 176.0
0.920000016689 -0.298000007868 -0.0149999996647 185.0
0.943000018597 -0.312000006437 -0.0149999996647 183.0
0.954999983311 -0.321999996901 -0.01600000076 183.0
0.93599998951 -0.321999996901 -0.0149999996647 181.0
0.912999987602 -0.319999992847 -0.0149999996647 175.0
0.92199999094 -0.328999996185 -0.0149999996647 177.0
0.936999976635 -0.340999990702 -0.0149999996647 178.0
0.93599998951 -0.347000002861 -0.0149999996647 177.0
0.919000029564 -0.347000002861 -0.0149999996647 174.0
0.926999986172 -0.356000006199 -0.0149999996647 175.0
0.927999973297 -0.363000005484 -0.0149999996647 172.0
0.931999981403 -0.370999991894 -0.0149999996647 171.0
0.938000023365 -0.379999995232 -0.0149999996647 180.0
0.934000015259 -0.384000003338 -0.0149999996647 175.0
0.924000024796 -0.386999994516 -0.0149999996647 163.0
0.888000011444 -0.377999991179 -0.0149999996647 172.0
0.903999984264 -0.391000002623 -0.0149999996647 170.0
0.916000008583 -0.402999997139 -0.0149999996647 174.0
0.940999984741 -0.421000003815 -0.0149999996647 176.0
0.930999994278 -0.423000007868 -0.0149999996647 162.0
0.911000013351 -0.421000003815 -0.0149999996647 163.0
0.913999974728 -0.428999990225 -0.0149999996647 159.0
0.902999997139 -0.430999994278 -0.0149999996647 159.0
0.896000027657 -0.433999985456 -0.0149999996647 159.0
0.902000010014 -0.442999988794 -0.0149999996647 148.0
0.912999987602 -0.456000000238 -0.0149999996647 147.0
0.908999979496 -0.46099999547 -0.0149999996647 150.0
0.902000010014 -0.463999986649 -0.0149999996647 146.0
0.887000024319 -0.462999999523 -0.0149999996647 142.0
0.89200001955 -0.472999989986 -0.0149999996647 151.0
0.916999995708 -0.493999987841 -0.0149999996647 146.0
0.882000029087 -0.481999993324 -0.0149999996647 144.0
0.888999998569 -0.493000000715 -0.0149999996647 143.0
2.10500001907 1.20700001717 -0.0599999986589 295.0
2.09100008011 1.18200004101 -0.0590000003576 290.0
2.07999992371 1.15799999237 -0.0579999983311 170.0
2.2009999752 1.20799994469 -0.0619999989867 124.0
2.21799993515 1.19900000095 -0.0619999989867 227.0
2.20600008965 1.17499995232 -0.0610000006855 363.0
2.2009999752 1.15499997139 -0.0610000006855 189.0
2.22399997711 1.14999997616 -0.0610000006855 102.0
3.30500006676 1.29700005054 -0.0860000029206 93.0
3.30999994278 1.27699995041 -0.0850000008941 101.0
3.37400007248 1.27799999714 -0.0869999974966 88.0
3.68899989128 1.37199997902 -0.0949999988079 67.0
3.81699991226 1.39400005341 -0.097000002861 82.0
3.70900011063 1.33000004292 -0.0939999967813 124.0
3.74799990654 1.31900000572 -0.0949999988079 115.0
3.87800002098 1.33899998665 -0.097999997437 91.0
3.97300004959 1.34500002861 -0.10000000149 91.0
4.04899978638 1.34399998188 -0.101999998093 100.0
4.05800008774 1.32099997997 -0.101999998093 132.0
4.05200004578 1.29200005531 -0.101000003517 177.0
4.04099988937 1.26300001144 -0.101000003517 177.0
4.04099988937 1.23699998856 -0.101000003517 147.0
4.07600021362 1.22099995613 -0.101000003517 132.0
4.04699993134 1.18700003624 -0.10000000149 126.0
4.05200004578 1.16199994087 -0.10000000149 125.0
4.0560002327 1.13800001144 -0.10000000149 129.0
4.08400011063 1.12000000477 -0.10000000149 135.0
4.03999996185 1.08200001717 -0.0989999994636 130.0
4.04300022125 1.05799996853 -0.0989999994636 140.0
4.08099985123 1.04200005531 -0.10000000149 137.0
4.11000013351 1.02400004864 -0.10000000149 130.0
4.08300018311 0.991999983788 -0.0989999994636 138.0
4.0640001297 0.962999999523 -0.097999997437 137.0
4.0609998703 0.936999976635 -0.097999997437 142.0
4.08699989319 0.917999982834 -0.0989999994636 137.0
4.10699987411 0.897000014782 -0.0989999994636 136.0
4.07800006866 0.865999996662 -0.097999997437 139.0
4.11800003052 0.850000023842 -0.0989999994636 140.0
4.09800004959 0.820999979973 -0.097999997437 140.0
4.05900001526 0.788999974728 -0.097000002861 139.0
4.07800006866 0.768000006676 -0.097000002861 127.0
4.10300016403 0.748000025749 -0.097000002861 135.0
4.09399986267 0.722000002861 -0.097000002861 131.0
4.21600008011 0.717999994755 -0.10000000149 89.0
4.52400016785 0.744000017643 -0.107000000775 62.0
4.48799991608 0.711000025272 -0.105999998748 73.0
4.52699995041 0.689999997616 -0.105999998748 73.0
4.56300020218 0.669000029564 -0.107000000775 74.0
4.52299976349 0.637000024319 -0.105999998748 67.0
4.61199998856 0.621999979019 -0.108000002801 65.0
4.58599996567 0.591000020504 -0.107000000775 69.0
4.56799983978 0.561999976635 -0.105999998748 70.0
4.55900001526 0.533999979496 -0.105999998748 64.0
4.617000103 0.513999998569 -0.107000000775 62.0
4.632999897 0.488999992609 -0.107000000775 68.0
4.63000011444 0.462000012398 -0.107000000775 65.0
4.65399980545 0.437000006437 -0.107000000775 65.0
4.64099979401 0.409000009298 -0.107000000775 62.0
4.65600013733 0.38299998641 -0.107000000775 61.0
4.63399982452 0.354999989271 -0.105999998748 63.0
4.67199993134 0.330000013113 -0.107000000775 65.0
4.71099996567 0.305999994278 -0.108000002801 59.0
4.65799999237 0.275999993086 -0.107000000775 57.0
4.6779999733 0.25 -0.107000000775 55.0
4.72100019455 0.22499999404 -0.108000002801 52.0
4.77099990845 0.20000000298 -0.108999997377 56.0
4.75400018692 0.172000005841 -0.108000002801 55.0
4.77500009537 0.144999995828 -0.108000002801 52.0
4.78000020981 0.118000000715 -0.108000002801 60.0
4.78200006485 0.0900000035763 -0.108000002801 57.0
4.85400009155 0.0640000030398 -0.109999999404 53.0
4.85699987411 0.0359999984503 -0.109999999404 52.0
4.87200021744 0.00800000037998 -0.109999999404 50.0
2.60100007057 -0.0390000008047 -0.0590000003576 48.0
2.67499995232 -0.054999999702 -0.0599999986589 52.0
2.44000005722 -0.0640000030398 -0.054999999702 49.0
2.64199995995 -0.0850000008941 -0.0590000003576 51.0
2.49699997902 -0.370000004768 -0.054999999702 114.0
2.37199997902 -0.365999996662 -0.0520000010729 218.0
0.985000014305 -0.16099999845 -0.0219999998808 121.0
0.967000007629 -0.16400000453 -0.0219999998808 133.0
0.981000006199 -0.172000005841 -0.0219999998808 144.0
1.00199997425 -0.181999996305 -0.0219999998808 142.0
0.977999985218 -0.182999998331 -0.0219999998808 138.0
0.971000015736 -0.187999993563 -0.0219999998808 143.0
0.962000012398 -0.192000001669 -0.0219999998808 145.0
0.952000021935 -0.195999994874 -0.0209999997169 152.0
0.972999989986 -0.206000000238 -0.0219999998808 155.0
0.977999985218 -0.212999999523 -0.0219999998808 154.0
0.972000002861 -0.216999992728 -0.0219999998808 159.0
0.963999986649 -0.222000002861 -0.0219999998808 157.0
0.967999994755 -0.228000000119 -0.0219999998808 165.0
0.954999983311 -0.231000006199 -0.0209999997169 163.0
0.935000002384 -0.231999993324 -0.0209999997169 165.0
0.949999988079 -0.241999998689 -0.0209999997169 173.0
0.95300000906 -0.247999995947 -0.0209999997169 171.0
0.943000018597 -0.252000004053 -0.0209999997169 172.0
0.95300000906 -0.259999990463 -0.0209999997169 170.0
0.963999986649 -0.268999993801 -0.0219999998808 168.0
0.948000013828 -0.270999997854 -0.0209999997169 173.0
0.953999996185 -0.279000014067 -0.0209999997169 177.0
0.939999997616 -0.280000001192 -0.0209999997169 172.0
0.930999994278 -0.284000009298 -0.0209999997169 171.0
0.939999997616 -0.293000012636 -0.0209999997169 183.0
0.920000016689 -0.291999995708 -0.0209999997169 179.0
0.964999973774 -0.312999993563 -0.0219999998808 179.0
0.948000013828 -0.31400001049 -0.0209999997169 177.0
0.939999997616 -0.317000001669 -0.0209999997169 180.0
0.949999988079 -0.326999992132 -0.0209999997169 186.0
0.926999986172 -0.324999988079 -0.0209999997169 184.0
0.90600001812 -0.323000013828 -0.019999999553 175.0
0.944000005722 -0.342999994755 -0.0209999997169 178.0
0.902999997139 -0.333999991417 -0.019999999553 175.0
0.939999997616 -0.354999989271 -0.0209999997169 177.0
0.919000029564 -0.352999985218 -0.0209999997169 178.0
0.911000013351 -0.356000006199 -0.019999999553 184.0
0.936999976635 -0.372999995947 -0.0209999997169 175.0
0.945999979973 -0.38299998641 -0.0209999997169 181.0
0.899999976158 -0.370000004768 -0.019999999553 178.0
0.930000007153 -0.388999998569 -0.0209999997169 176.0
0.917999982834 -0.391000002623 -0.0209999997169 168.0
0.925000011921 -0.40000000596 -0.0209999997169 170.0
0.920000016689 -0.405000001192 -0.0209999997169 167.0
0.90600001812 -0.405000001192 -0.0209999997169 170.0
0.90600001812 -0.412000000477 -0.0209999997169 165.0
0.912000000477 -0.421000003815 -0.0209999997169 158.0
0.917999982834 -0.430999994278 -0.0209999997169 169.0
0.90499997139 -0.432000011206 -0.0209999997169 156.0
0.903999984264 -0.437999993563 -0.0209999997169 155.0
0.920000016689 -0.45300000906 -0.0209999997169 159.0
0.902000010014 -0.451000005007 -0.0209999997169 152.0
0.899999976158 -0.456000000238 -0.0209999997169 149.0
0.885999977589 -0.456000000238 -0.019999999553 148.0
0.882000029087 -0.46099999547 -0.019999999553 151.0
0.880999982357 -0.467000007629 -0.019999999553 145.0
0.89200001955 -0.479999989271 -0.0209999997169 145.0
0.847999989986 -0.462999999523 -0.019999999553 148.0
0.89200001955 -0.495000004768 -0.0209999997169 148.0
2.08800005913 1.1970000267 -0.0729999989271 293.0
2.10700011253 1.19000005722 -0.0729999989271 276.0
2.09200000763 1.16499996185 -0.0719999969006 162.0
2.20499992371 1.21000003815 -0.0759999975562 118.0
2.21499991417 1.19799995422 -0.0759999975562 236.0
2.21099996567 1.1779999733 -0.0759999975562 350.0
2.21099996567 1.16100001335 -0.0750000029802 190.0
2.3259999752 1.20299994946 -0.0790000036359 99.0
3.22199988365 1.26499998569 -0.103000000119 103.0
3.30800008774 1.27600002289 -0.105999998748 99.0
3.37299990654 1.27799999714 -0.107000000775 91.0
3.71099996567 1.38100004196 -0.118000000715 64.0
3.69199991226 1.34899997711 -0.116999998689 96.0
3.68300008774 1.32099997997 -0.115999996662 122.0
3.7349998951 1.31500005722 -0.116999998689 112.0
3.83599996567 1.32500004768 -0.119999997318 90.0
3.90000009537 1.32099997997 -0.122000001371 100.0
4.04899978638 1.34399998188 -0.126000002027 91.0
4.01700019836 1.30799996853 -0.125 127.0
4.05100011826 1.29200005531 -0.126000002027 152.0
4.04400014877 1.26400005817 -0.125 156.0
4.07399988174 1.24699997902 -0.126000002027 139.0
4.04899978638 1.21300005913 -0.125 126.0
4.09000015259 1.19900000095 -0.126000002027 118.0
4.0529999733 1.1629999876 -0.123999997973 117.0
4.07000017166 1.14199995995 -0.123999997973 125.0
4.06699991226 1.11500000954 -0.123999997973 122.0
4.08300018311 1.09399998188 -0.123999997973 127.0
4.11000013351 1.07500004768 -0.125 125.0
4.0640001297 1.0379999876 -0.123000003397 125.0
4.0609998703 1.01199996471 -0.123000003397 122.0
4.03800010681 0.981000006199 -0.122000001371 120.0
4.08599996567 0.967999994755 -0.123000003397 130.0
4.10099983215 0.945999979973 -0.123000003397 131.0
4.05100011826 0.910000026226 -0.122000001371 130.0
4.09200000763 0.893999993801 -0.123000003397 135.0
4.07100009918 0.865000009537 -0.122000001371 140.0
4.09100008011 0.84399998188 -0.122000001371 139.0
4.07499980927 0.815999984741 -0.120999999344 144.0
4.09700012207 0.796000003815 -0.122000001371 138.0
4.08099985123 0.768000006676 -0.120999999344 131.0
4.06500005722 0.740999996662 -0.119999997318 130.0
4.10500001907 0.723999977112 -0.120999999344 123.0
4.2610001564 0.726000010967 -0.126000002027 88.0
4.51599979401 0.741999983788 -0.133000001311 71.0
4.5640001297 0.722999989986 -0.134000003338 74.0
4.53800010681 0.691999971867 -0.133000001311 73.0
4.51300001144 0.662000000477 -0.131999999285 72.0
4.56199979782 0.64200001955 -0.133000001311 66.0
4.52899980545 0.611000001431 -0.131999999285 61.0
4.58199977875 0.591000020504 -0.134000003338 65.0
4.64799976349 0.572000026703 -0.135000005364 64.0
4.61600017548 0.541000008583 -0.134000003338 66.0
4.63500022888 0.51599997282 -0.134000003338 70.0
4.63199996948 0.488999992609 -0.134000003338 60.0
4.63000011444 0.462000012398 -0.134000003338 68.0
4.58699989319 0.430999994278 -0.131999999285 61.0
4.70300006866 0.41400000453 -0.136000007391 63.0
4.6859998703 0.386000007391 -0.135000005364 63.0
4.66499996185 0.356999993324 -0.134000003338 59.0
4.71099996567 0.333000004292 -0.135000005364 60.0
4.71400022507 0.305999994278 -0.135000005364 58.0
4.69099998474 0.277999997139 -0.134000003338 61.0
4.70499992371 0.250999987125 -0.135000005364 60.0
4.73400020599 0.22499999404 -0.135000005364 55.0
4.76800012589 0.20000000298 -0.136000007391 57.0
4.75099992752 0.171000003815 -0.135000005364 54.0
4.75400018692 0.143999993801 -0.135000005364 57.0
4.76999998093 0.116999998689 -0.136000007391 56.0
4.86199998856 0.0909999981523 -0.137999996543 60.0
4.74100017548 0.0619999989867 -0.135000005364 50.0
4.85900020599 0.0359999984503 -0.137999996543 51.0
4.81300020218 0.00800000037998 -0.136000007391 47.0
2.45700001717 -0.0509999990463 -0.070000000298 53.0
2.58299994469 -0.0680000036955 -0.0729999989271 51.0
2.492000103 -0.238000005484 -0.070000000298 49.0
2.54699993134 -0.377999991179 -0.0710000023246 91.0
2.375 -0.365999996662 -0.0659999996424 222.0
