ply
format ascii 1.0
element vertex 911
property float x
property float y
property float z
property float intensity
end_header
0.832000017166 -0.409000009298 -0.217999994755 1772.0
0.822000026703 -0.409999996424 -0.216000005603 1757.0
0.820999979973 -0.416999995708 -0.216000005603 1755.0
0.824000000954 -0.423999994993 -0.217999994755 1752.0
0.820999979973 -0.428999990225 -0.217999994755 1758.0
0.816999971867 -0.433999985456 -0.216999992728 1746.0
0.820999979973 -0.442999988794 -0.218999996781 1729.0
0.823000013828 -0.449999988079 -0.219999998808 1737.0
0.819000005722 -0.455000013113 -0.218999996781 1769.0
0.816999971867 -0.46099999547 -0.218999996781 1762.0
0.816999971867 -0.467999994755 -0.219999998808 1768.0
1.12300002575 0.662000000477 -0.319000005722 445.0
1.56299996376 0.908999979496 -0.442999988794 405.0
1.72200000286 0.986999988556 -0.486000001431 513.0
1.71800005436 0.97000002861 -0.483999997377 355.0
1.74000000954 0.967999994755 -0.488000005484 213.0
1.7879999876 0.980000019073 -0.5 215.0
1.83399999142 0.990000009537 -0.512000024319 161.0
1.85399997234 0.986000001431 -0.51599997282 81.0
1.78900003433 0.936999976635 -0.495999991894 80.0
1.84599995613 0.952000021935 -0.509999990463 83.0
1.86199998856 0.944999992847 -0.513000011444 97.0
1.92499995232 0.962000012398 -0.528999984264 121.0
1.94500005245 0.957000017166 -0.532999992371 134.0
1.99800002575 0.967999994755 -0.546000003815 134.0
2.03800010681 0.972000002861 -0.555999994278 126.0
2.09100008011 0.981000006199 -0.569000005722 136.0
2.14400005341 0.989000022411 -0.580999970436 163.0
2.21900010109 1.00699996948 -0.600000023842 310.0
2.21700000763 0.990000009537 -0.597999989986 278.0
2.26399993896 0.994000017643 -0.60900002718 130.0
0.874000012875 -0.111000001431 -0.216999992728 1059.0
0.882000029087 -0.116999998689 -0.218999996781 1477.0
0.878000020981 -0.122000001371 -0.217999994755 1491.0
0.878000020981 -0.127000004053 -0.217999994755 1583.0
0.879999995232 -0.133000001311 -0.218999996781 1595.0
0.875999987125 -0.136999994516 -0.217999994755 1589.0
0.879999995232 -0.143000006676 -0.218999996781 1614.0
0.876999974251 -0.148000001907 -0.217999994755 1615.0
0.871999979019 -0.151999995112 -0.216999992728 1619.0
0.876999974251 -0.158999994397 -0.218999996781 1633.0
0.875999987125 -0.16400000453 -0.218999996781 1644.0
0.870000004768 -0.167999997735 -0.216999992728 1669.0
0.865999996662 -0.172999992967 -0.216999992728 1693.0
0.867999970913 -0.178000003099 -0.216999992728 1658.0
0.865999996662 -0.182999998331 -0.216999992728 1665.0
0.865000009537 -0.187999993563 -0.216999992728 1686.0
0.865000009537 -0.194000005722 -0.216999992728 1683.0
0.860000014305 -0.197999998927 -0.216000005603 1679.0
0.864000022411 -0.203999996185 -0.216999992728 1684.0
0.85900002718 -0.209000006318 -0.216000005603 1686.0
0.866999983788 -0.216000005603 -0.218999996781 1687.0
0.85799998045 -0.218999996781 -0.216999992728 1689.0
0.865999996662 -0.226999998093 -0.218999996781 1701.0
0.860000014305 -0.231000006199 -0.217999994755 1704.0
0.860000014305 -0.236000001431 -0.217999994755 1687.0
0.853999972343 -0.239999994636 -0.216999992728 1704.0
0.855000019073 -0.246000006795 -0.216999992728 1720.0
0.85799998045 -0.252000004053 -0.217999994755 1719.0
0.850000023842 -0.256000012159 -0.216999992728 1729.0
0.851000010967 -0.261999994516 -0.216999992728 1732.0
0.851000010967 -0.266999989748 -0.216999992728 1736.0
0.851999998093 -0.273000001907 -0.217999994755 1743.0
0.847999989986 -0.277000010014 -0.216999992728 1721.0
0.851000010967 -0.284000009298 -0.217999994755 1749.0
0.848999977112 -0.28900000453 -0.217999994755 1739.0
0.84500002861 -0.293999999762 -0.217999994755 1751.0
0.842999994755 -0.298000007868 -0.216999992728 1737.0
0.847999989986 -0.305999994278 -0.218999996781 1726.0
0.842999994755 -0.310000002384 -0.217999994755 1748.0
0.841000020504 -0.314999997616 -0.217999994755 1755.0
0.842999994755 -0.321999996901 -0.218999996781 1745.0
0.838999986649 -0.326000005007 -0.218999996781 1761.0
0.837999999523 -0.331999987364 -0.218999996781 1759.0
0.838999986649 -0.337999999523 -0.218999996781 1778.0
0.838999986649 -0.344000011683 -0.219999998808 1776.0
0.837999999523 -0.34999999404 -0.219999998808 1767.0
0.836000025272 -0.354999989271 -0.219999998808 1759.0
0.833999991417 -0.360000014305 -0.219999998808 1766.0
0.833000004292 -0.365999996662 -0.219999998808 1771.0
0.833999991417 -0.372000008821 -0.221000000834 1752.0
0.824999988079 -0.375 -0.218999996781 1749.0
0.832000017166 -0.384000003338 -0.221000000834 1753.0
0.824999988079 -0.386999994516 -0.219999998808 1770.0
0.825999975204 -0.393999993801 -0.221000000834 1767.0
0.822000026703 -0.398000001907 -0.219999998808 1756.0
0.827000021935 -0.407000005245 -0.222000002861 1762.0
0.823000013828 -0.411000013351 -0.222000002861 1760.0
0.827000021935 -0.419999986887 -0.223000004888 1764.0
0.819000005722 -0.42199999094 -0.222000002861 1755.0
0.822000026703 -0.430000007153 -0.223000004888 1774.0
0.820999979973 -0.437000006437 -0.224000006914 1753.0
0.820999979973 -0.442999988794 -0.224000006914 1742.0
0.820999979973 -0.449999988079 -0.22499999404 1740.0
0.818000018597 -0.455000013113 -0.22499999404 1761.0
0.815999984741 -0.46099999547 -0.22499999404 1742.0
0.81400001049 -0.467000007629 -0.22499999404 1762.0
1.12199997902 0.662999987602 -0.326999992132 451.0
1.51999998093 0.885999977589 -0.442000001669 396.0
1.71099996567 0.981999993324 -0.495999991894 511.0
1.71099996567 0.967999994755 -0.493999987841 383.0
1.7460000515 0.972999989986 -0.501999974251 234.0
1.77999997139 0.976999998093 -0.510999977589 238.0
1.80799996853 0.976999998093 -0.51700001955 190.0
1.84200000763 0.981000006199 -0.524999976158 102.0
1.80499994755 0.947000026703 -0.513000011444 100.0
1.82500004768 0.941999971867 -0.51700001955 125.0
1.86099994183 0.945999979973 -0.526000022888 144.0
1.90999996662 0.955999970436 -0.537999987602 155.0
1.9960000515 0.98400002718 -0.56099998951 150.0
1.99800002575 0.96899998188 -0.560000002384 137.0
2.05800008774 0.981999993324 -0.574999988079 134.0
2.13000011444 1.0 -0.59399998188 120.0
2.14299988747 0.990000009537 -0.596000015736 151.0
2.19600009918 0.998000025749 -0.60900002718 297.0
2.20499992371 0.986000001431 -0.610000014305 296.0
2.28099989891 1.00300002098 -0.629000008106 130.0
2.17300009727 0.93900001049 -0.597999989986 72.0
0.948000013828 -0.115000002086 -0.240999996662 84.0
0.889999985695 -0.112999998033 -0.225999996066 1117.0
0.880999982357 -0.116999998689 -0.224000006914 1522.0
0.879999995232 -0.122000001371 -0.224000006914 1537.0
0.885999977589 -0.12800000608 -0.225999996066 1587.0
0.876999974251 -0.131999999285 -0.223000004888 1600.0
0.875 -0.136999994516 -0.223000004888 1614.0
0.875 -0.143000006676 -0.223000004888 1608.0
0.870999991894 -0.146999999881 -0.223000004888 1627.0
0.874000012875 -0.152999997139 -0.223000004888 1630.0
0.875 -0.158999994397 -0.224000006914 1629.0
0.875 -0.16400000453 -0.224000006914 1634.0
0.870999991894 -0.167999997735 -0.223000004888 1676.0
0.870000004768 -0.173999994993 -0.223000004888 1679.0
0.873000025749 -0.180000007153 -0.224000006914 1674.0
0.862999975681 -0.182999998331 -0.222000002861 1677.0
0.867999970913 -0.188999995589 -0.223000004888 1688.0
0.867999970913 -0.194999992847 -0.224000006914 1668.0
0.869000017643 -0.20000000298 -0.224000006914 1679.0
0.861999988556 -0.203999996185 -0.222000002861 1683.0
0.860000014305 -0.209000006318 -0.222000002861 1688.0
0.862999975681 -0.215000003576 -0.223000004888 1683.0
0.864000022411 -0.221000000834 -0.224000006914 1706.0
0.861000001431 -0.225999996066 -0.223000004888 1699.0
0.861999988556 -0.231999993324 -0.224000006914 1695.0
0.856000006199 -0.236000001431 -0.222000002861 1690.0
0.853999972343 -0.239999994636 -0.222000002861 1688.0
0.860000014305 -0.247999995947 -0.224000006914 1678.0
0.852999985218 -0.250999987125 -0.222000002861 1713.0
0.851000010967 -0.256000012159 -0.222000002861 1714.0
0.851999998093 -0.261999994516 -0.223000004888 1720.0
0.85900002718 -0.270000010729 -0.22499999404 1737.0
0.850000023842 -0.273000001907 -0.223000004888 1717.0
0.852999985218 -0.279000014067 -0.224000006914 1709.0
0.846000015736 -0.282999992371 -0.223000004888 1729.0
0.851999998093 -0.291000008583 -0.22499999404 1714.0
0.847999989986 -0.294999986887 -0.224000006914 1746.0
0.84500002861 -0.300000011921 -0.224000006914 1751.0
0.850000023842 -0.307000011206 -0.22499999404 1719.0
0.84399998188 -0.31099998951 -0.224000006914 1743.0
0.842999994755 -0.317000001669 -0.224000006914 1758.0
0.846000015736 -0.324000000954 -0.225999996066 1765.0
0.839999973774 -0.326999992132 -0.224000006914 1759.0
0.837999999523 -0.331999987364 -0.224000006914 1757.0
0.837999999523 -0.337999999523 -0.22499999404 1769.0
0.836000025272 -0.342999994755 -0.22499999404 1777.0
0.834999978542 -0.349000006914 -0.22499999404 1741.0
0.833999991417 -0.354999989271 -0.22499999404 1742.0
0.833000004292 -0.360000014305 -0.22499999404 1774.0
0.832000017166 -0.365999996662 -0.225999996066 1751.0
0.832000017166 -0.372000008821 -0.225999996066 1761.0
0.828999996185 -0.377000004053 -0.225999996066 1754.0
0.828999996185 -0.38299998641 -0.225999996066 1768.0
0.822000026703 -0.386000007391 -0.22499999404 1765.0
0.827000021935 -0.395000010729 -0.226999998093 1724.0
0.820999979973 -0.398999989033 -0.225999996066 1753.0
0.824999988079 -0.407000005245 -0.228000000119 1750.0
0.819000005722 -0.409999996424 -0.225999996066 1761.0
0.822000026703 -0.418000012636 -0.228000000119 1759.0
0.820999979973 -0.423999994993 -0.228000000119 1766.0
0.818000018597 -0.428999990225 -0.228000000119 1746.0
0.816999971867 -0.435000002384 -0.228000000119 1758.0
0.820999979973 -0.444000005722 -0.230000004172 1733.0
0.814999997616 -0.446999996901 -0.229000002146 1727.0
0.816999971867 -0.455000013113 -0.230000004172 1746.0
0.814999997616 -0.46099999547 -0.231000006199 1754.0
0.814999997616 -0.467999994755 -0.231000006199 1774.0
1.11199998856 0.657999992371 -0.331999987364 456.0
1.43099999428 0.834999978542 -0.425999999046 381.0
1.70700001717 0.981000006199 -0.505999982357 509.0
1.71899998188 0.973999977112 -0.509000003338 422.0
1.76400005817 0.985000014305 -0.519999980927 265.0
1.7879999876 0.98299998045 -0.526000022888 313.0
1.81299996376 0.981999993324 -0.53100001812 290.0
1.80499994755 0.962999999523 -0.527000010014 174.0
1.83200001717 0.962000012398 -0.533999979496 154.0
1.87000000477 0.967000007629 -0.542999982834 155.0
1.89400005341 0.963999986649 -0.547999978065 167.0
1.93200004101 0.967999994755 -0.558000028133 152.0
1.93799996376 0.955999970436 -0.558000028133 142.0
2.01099991798 0.976999998093 -0.57800000906 124.0
2.07500004768 0.991999983788 -0.59399998188 121.0
2.09599995613 0.986000001431 -0.598999977112 127.0
2.18000006676 1.00899994373 -0.620999991894 155.0
2.20000004768 1.00100004673 -0.625 284.0
2.21600008011 0.991999983788 -0.628000020981 315.0
2.21799993515 0.976999998093 -0.626999974251 154.0
0.876999974251 -0.111000001431 -0.228000000119 1155.0
0.888000011444 -0.118000000715 -0.231999993324 1531.0
0.880999982357 -0.122000001371 -0.230000004172 1554.0
0.875 -0.127000004053 -0.228000000119 1602.0
0.878000020981 -0.133000001311 -0.229000002146 1603.0
0.871999979019 -0.136999994516 -0.228000000119 1603.0
0.879000008106 -0.143000006676 -0.230000004172 1639.0
0.878000020981 -0.149000003934 -0.230000004172 1644.0
0.874000012875 -0.152999997139 -0.229000002146 1639.0
0.875999987125 -0.158999994397 -0.230000004172 1629.0
0.871999979019 -0.16400000453 -0.229000002146 1644.0
0.870999991894 -0.168999999762 -0.229000002146 1664.0
0.869000017643 -0.173999994993 -0.228000000119 1681.0
0.867999970913 -0.179000005126 -0.228000000119 1668.0
0.867999970913 -0.184000000358 -0.228000000119 1699.0
0.867999970913 -0.189999997616 -0.229000002146 1688.0
0.869000017643 -0.194999992847 -0.229000002146 1683.0
0.865000009537 -0.20000000298 -0.229000002146 1675.0
0.865000009537 -0.204999998212 -0.229000002146 1667.0
0.867999970913 -0.21099999547 -0.230000004172 1680.0
0.862999975681 -0.216000005603 -0.229000002146 1675.0
0.861999988556 -0.221000000834 -0.229000002146 1682.0
0.862999975681 -0.226999998093 -0.229000002146 1695.0
0.856999993324 -0.231000006199 -0.228000000119 1686.0
0.861999988556 -0.237000003457 -0.229000002146 1677.0
0.85900002718 -0.241999998689 -0.229000002146 1675.0
0.85799998045 -0.247999995947 -0.229000002146 1685.0
0.855000019073 -0.252000004053 -0.229000002146 1708.0
0.853999972343 -0.25799998641 -0.229000002146 1705.0
0.852999985218 -0.263000011444 -0.229000002146 1705.0
0.851999998093 -0.268000006676 -0.229000002146 1719.0
0.856999993324 -0.275999993086 -0.231000006199 1731.0
0.847999989986 -0.277999997139 -0.228000000119 1701.0
0.848999977112 -0.284000009298 -0.229000002146 1707.0
0.847999989986 -0.289999991655 -0.229000002146 1706.0
0.851999998093 -0.29699999094 -0.231000006199 1744.0
0.84399998188 -0.300000011921 -0.229000002146 1748.0
0.842999994755 -0.305000007153 -0.229000002146 1718.0
0.847000002861 -0.312000006437 -0.231000006199 1724.0
0.841000020504 -0.316000014544 -0.229000002146 1748.0
0.836000025272 -0.319999992847 -0.229000002146 1749.0
0.841000020504 -0.32800000906 -0.230000004172 1756.0
0.842000007629 -0.333999991417 -0.231000006199 1750.0
0.839999973774 -0.338999986649 -0.231000006199 1751.0
0.837999999523 -0.344999998808 -0.231000006199 1748.0
0.842000007629 -0.352999985218 -0.232999995351 1742.0
0.832000017166 -0.354000002146 -0.230000004172 1730.0
0.829999983311 -0.360000014305 -0.230000004172 1757.0
0.833000004292 -0.36700001359 -0.231999993324 1740.0
0.82800000906 -0.370999991894 -0.231000006199 1756.0
0.828999996185 -0.377999991179 -0.231000006199 1734.0
0.825999975204 -0.38299998641 -0.231000006199 1756.0
0.825999975204 -0.388999998569 -0.231999993324 1779.0
0.827000021935 -0.395999997854 -0.232999995351 1749.0
0.829999983311 -0.404000014067 -0.233999997377 1732.0
0.822000026703 -0.405999988317 -0.231999993324 1750.0
0.819999992847 -0.411000013351 -0.231999993324 1742.0
0.824999988079 -0.419999986887 -0.233999997377 1760.0
0.820999979973 -0.425000011921 -0.233999997377 1751.0
0.818000018597 -0.430000007153 -0.233999997377 1746.0
0.819000005722 -0.437000006437 -0.234999999404 1745.0
0.814999997616 -0.442000001669 -0.233999997377 1708.0
0.815999984741 -0.449000000954 -0.234999999404 1702.0
0.81099998951 -0.45300000906 -0.233999997377 1745.0
0.816999971867 -0.462999999523 -0.237000003457 1736.0
0.809000015259 -0.465000003576 -0.234999999404 1757.0
1.11800003052 0.662000000477 -0.342000007629 463.0
1.36699998379 0.799000024796 -0.416999995708 374.0
1.7120000124 0.986000001431 -0.519999980927 504.0
1.71300005913 0.972000002861 -0.518999993801 436.0
1.76499998569 0.986999988556 -0.532999992371 278.0
1.80900001526 0.995999991894 -0.545000016689 370.0
1.8220000267 0.987999975681 -0.54699999094 448.0
1.80200004578 0.962000012398 -0.538999974728 350.0
1.82899999619 0.962000012398 -0.546000003815 191.0
1.8409999609 0.953999996185 -0.547999978065 166.0
1.89100003242 0.963999986649 -0.56099998951 155.0
2.00699996948 1.00800001621 -0.59399998188 137.0
1.97599995136 0.976999998093 -0.583000004292 126.0
2.03999996185 0.991999983788 -0.600000023842 141.0
2.04299998283 0.977999985218 -0.598999977112 133.0
2.06999993324 0.975000023842 -0.606000006199 122.0
2.20000004768 1.01999998093 -0.64200001955 138.0
2.20700001717 1.00600004196 -0.64200001955 265.0
2.21000003815 0.990999996662 -0.64200001955 322.0
2.257999897 0.995000004768 -0.653999984264 157.0
2.31399989128 1.00300002098 -0.667999982834 81.0
0.885999977589 -0.112999998033 -0.236000001431 1192.0
0.879999995232 -0.116999998689 -0.234999999404 1534.0
0.880999982357 -0.123000003397 -0.234999999404 1552.0
0.879000008106 -0.12800000608 -0.234999999404 1613.0
0.875999987125 -0.131999999285 -0.233999997377 1618.0
0.875999987125 -0.137999996543 -0.233999997377 1609.0
0.879000008106 -0.143999993801 -0.234999999404 1628.0
0.878000020981 -0.149000003934 -0.234999999404 1665.0
0.873000025749 -0.152999997139 -0.233999997377 1640.0
0.870999991894 -0.158000007272 -0.233999997377 1633.0
0.871999979019 -0.16400000453 -0.233999997377 1634.0
0.870000004768 -0.168999999762 -0.233999997377 1662.0
0.862999975681 -0.172999992967 -0.231999993324 1669.0
0.870999991894 -0.180000007153 -0.234999999404 1666.0
0.869000017643 -0.185000002384 -0.233999997377 1673.0
0.874000012875 -0.190999999642 -0.236000001431 1670.0
0.861999988556 -0.194000005722 -0.232999995351 1667.0
0.861999988556 -0.199000000954 -0.232999995351 1675.0
0.865000009537 -0.206000000238 -0.233999997377 1673.0
0.862999975681 -0.21099999547 -0.233999997377 1706.0
0.85900002718 -0.215000003576 -0.232999995351 1673.0
0.862999975681 -0.222000002861 -0.234999999404 1678.0
0.85900002718 -0.225999996066 -0.233999997377 1705.0
0.853999972343 -0.230000004172 -0.232999995351 1688.0
0.856999993324 -0.236000001431 -0.233999997377 1679.0
0.85900002718 -0.243000000715 -0.233999997377 1686.0
0.85799998045 -0.247999995947 -0.234999999404 1684.0
0.855000019073 -0.252999991179 -0.233999997377 1712.0
0.852999985218 -0.25799998641 -0.233999997377 1712.0
0.856000006199 -0.263999998569 -0.234999999404 1691.0
0.851000010967 -0.268000006676 -0.233999997377 1718.0
0.852999985218 -0.27500000596 -0.234999999404 1730.0
0.850000023842 -0.279000014067 -0.233999997377 1698.0
0.847000002861 -0.284000009298 -0.233999997377 1694.0
0.850000023842 -0.291000008583 -0.234999999404 1695.0
0.84399998188 -0.293999999762 -0.233999997377 1733.0
0.847000002861 -0.300999999046 -0.234999999404 1735.0
0.839999973774 -0.305000007153 -0.233999997377 1702.0
0.842000007629 -0.31099998951 -0.234999999404 1702.0
0.838999986649 -0.316000014544 -0.233999997377 1745.0
0.842000007629 -0.323000013828 -0.236000001431 1727.0
0.842000007629 -0.328999996185 -0.236000001431 1735.0
0.837999999523 -0.333000004292 -0.234999999404 1733.0
0.841000020504 -0.340000003576 -0.237000003457 1733.0
0.838999986649 -0.345999985933 -0.237000003457 1727.0
0.839999973774 -0.351999998093 -0.238000005484 1734.0
0.836000025272 -0.356999993324 -0.237000003457 1715.0
0.834999978542 -0.361999988556 -0.237000003457 1738.0
0.834999978542 -0.368999987841 -0.238000005484 1732.0
0.832000017166 -0.372999995947 -0.237000003457 1744.0
0.82800000906 -0.377999991179 -0.237000003457 1738.0
0.82800000906 -0.384000003338 -0.237000003457 1756.0
0.828999996185 -0.391000002623 -0.238000005484 1754.0
0.829999983311 -0.398000001907 -0.238999992609 1745.0
0.824000000954 -0.400999993086 -0.238000005484 1753.0
0.824000000954 -0.407000005245 -0.238999992609 1764.0
0.819000005722 -0.411000013351 -0.238000005484 1755.0
0.822000026703 -0.418999999762 -0.238999992609 1731.0
0.823000013828 -0.426999986172 -0.239999994636 1715.0
0.819000005722 -0.430999994278 -0.239999994636 1741.0
0.818000018597 -0.437000006437 -0.239999994636 1733.0
0.81400001049 -0.442000001669 -0.239999994636 1694.0
0.819999992847 -0.451999992132 -0.241999998689 1697.0
0.814999997616 -0.456000000238 -0.240999996662 1737.0
0.816999971867 -0.463999986649 -0.243000000715 1732.0
0.814999997616 -0.469999998808 -0.243000000715 1753.0
1.11899995804 0.663999974728 -0.34999999404 462.0
1.29200005531 0.755999982357 -0.402999997139 393.0
1.70799994469 0.985000014305 -0.53100001812 513.0
1.72399997711 0.980000019073 -0.535000026226 469.0
1.76699995995 0.989000022411 -0.546000003815 266.0
1.79400002956 0.989000022411 -0.552999973297 325.0
1.81400001049 0.985000014305 -0.556999981403 433.0
1.81400001049 0.971000015736 -0.555999994278 348.0
1.79100000858 0.944000005722 -0.54699999094 202.0
1.88399994373 0.977999985218 -0.574000000954 157.0
1.93099999428 0.986000001431 -0.586000025272 143.0
1.97000002861 0.990999996662 -0.596000015736 146.0
1.99199998379 0.986000001431 -0.601000010967 142.0
2.01699995995 0.98299998045 -0.606999993324 141.0
2.08500003815 1.0 -0.625999987125 138.0
2.10599994659 0.992999970913 -0.630999982357 124.0
2.14700007439 0.995999991894 -0.64099997282 130.0
2.1740000248 0.992999970913 -0.648000001907 231.0
2.22300004959 0.998000025749 -0.660000026226 322.0
2.21600008011 0.978999972343 -0.657000005245 178.0
2.29299998283 0.995999991894 -0.677999973297 73.0
0.944999992847 -0.115000002086 -0.25799998641 174.0
0.873000025749 -0.111000001431 -0.238999992609 1229.0
0.878000020981 -0.116999998689 -0.239999994636 1528.0
0.879000008106 -0.123000003397 -0.239999994636 1557.0
0.880999982357 -0.12800000608 -0.240999996662 1607.0
0.884000003338 -0.134000003338 -0.241999998689 1613.0
0.878000020981 -0.137999996543 -0.240999996662 1613.0
0.875999987125 -0.143000006676 -0.239999994636 1623.0
0.875 -0.149000003934 -0.239999994636 1633.0
0.873000025749 -0.153999999166 -0.239999994636 1623.0
0.875 -0.158999994397 -0.239999994636 1630.0
0.870000004768 -0.16400000453 -0.238999992609 1629.0
0.867999970913 -0.168999999762 -0.238999992609 1640.0
0.861999988556 -0.172999992967 -0.238000005484 1657.0
0.870000004768 -0.180000007153 -0.239999994636 1635.0
0.873000025749 -0.186000004411 -0.240999996662 1643.0
0.865000009537 -0.189999997616 -0.238999992609 1664.0
0.865999996662 -0.194999992847 -0.239999994636 1651.0
0.861999988556 -0.20000000298 -0.238999992609 1643.0
0.862999975681 -0.204999998212 -0.238999992609 1651.0
0.864000022411 -0.21099999547 -0.239999994636 1685.0
0.860000014305 -0.216000005603 -0.238999992609 1693.0
0.856000006199 -0.219999998808 -0.238000005484 1668.0
0.856999993324 -0.225999996066 -0.238999992609 1688.0
0.85900002718 -0.231999993324 -0.239999994636 1693.0
0.852999985218 -0.236000001431 -0.238000005484 1686.0
0.852999985218 -0.240999996662 -0.238000005484 1691.0
0.852999985218 -0.24699999392 -0.238999992609 1696.0
0.853999972343 -0.252999991179 -0.238999992609 1703.0
0.855000019073 -0.259000003338 -0.239999994636 1703.0
0.851000010967 -0.263000011444 -0.238999992609 1693.0
0.848999977112 -0.268000006676 -0.238999992609 1711.0
0.850000023842 -0.273999989033 -0.239999994636 1733.0
0.851000010967 -0.280000001192 -0.240999996662 1706.0
0.842999994755 -0.282999992371 -0.238999992609 1693.0
0.850000023842 -0.291000008583 -0.240999996662 1685.0
0.841000020504 -0.293999999762 -0.238999992609 1721.0
0.842000007629 -0.300000011921 -0.239999994636 1721.0
0.84399998188 -0.305999994278 -0.239999994636 1707.0
0.837999999523 -0.310000002384 -0.238999992609 1723.0
0.842999994755 -0.317999988794 -0.240999996662 1730.0
0.842999994755 -0.324000000954 -0.241999998689 1718.0
0.836000025272 -0.326999992132 -0.239999994636 1720.0
0.838999986649 -0.333999991417 -0.241999998689 1738.0
0.837000012398 -0.338999986649 -0.240999996662 1727.0
0.841000020504 -0.347000002861 -0.243000000715 1717.0
0.832000017166 -0.349000006914 -0.240999996662 1709.0
0.82800000906 -0.354000002146 -0.239999994636 1745.0
0.834999978542 -0.363000005484 -0.243000000715 1747.0
0.837000012398 -0.370000004768 -0.244000002742 1728.0
0.834999978542 -0.375 -0.244000002742 1732.0
0.824000000954 -0.377000004053 -0.240999996662 1726.0
0.828999996185 -0.384999990463 -0.243000000715 1745.0
0.825999975204 -0.389999985695 -0.243000000715 1742.0
0.823000013828 -0.395000010729 -0.243000000715 1721.0
0.824000000954 -0.402000010014 -0.244000002742 1747.0
0.818000018597 -0.405000001192 -0.243000000715 1749.0
0.823000013828 -0.41400000453 -0.245000004768 1732.0
0.822000026703 -0.419999986887 -0.245000004768 1700.0
0.820999979973 -0.425999999046 -0.245000004768 1688.0
0.819999992847 -0.432000011206 -0.246000006795 1730.0
0.814999997616 -0.43599998951 -0.245000004768 1710.0
0.813000023365 -0.442000001669 -0.245000004768 1666.0
0.814999997616 -0.449999988079 -0.24699999392 1681.0
0.819000005722 -0.458999991417 -0.247999995947 1736.0
0.81099998951 -0.46099999547 -0.24699999392 1737.0
0.810000002384 -0.467000007629 -0.24699999392 1730.0
1.11600005627 0.662999987602 -0.356999993324 465.0
1.24699997902 0.731000006199 -0.398000001907 393.0
1.68499994278 0.972999989986 -0.536000013351 489.0
1.72099995613 0.978999972343 -0.546000003815 488.0
1.75600004196 0.985000014305 -0.555999994278 271.0
1.80999994278 1.0 -0.570999979973 272.0
1.82799994946 0.995000004768 -0.574999988079 424.0
1.84200000763 0.986999988556 -0.577000021935 299.0
1.87800002098 0.990999996662 -0.587000012398 168.0
1.85399997234 0.962999999523 -0.57800000906 152.0
1.93200004101 0.987999975681 -0.600000023842 162.0
1.96300005913 0.989000022411 -0.60799998045 149.0
1.98800003529 0.986000001431 -0.614000022411 136.0
2.07899999619 1.01499998569 -0.64099997282 132.0
2.08800005913 1.00300002098 -0.64200001955 133.0
2.11199998856 0.998000025749 -0.647000014782 137.0
2.14599990845 0.998000025749 -0.65600001812 137.0
2.15199995041 0.98400002718 -0.65600001812 177.0
2.20399999619 0.990999996662 -0.670000016689 276.0
2.21300005913 0.978999972343 -0.671000003815 190.0
2.23699998856 0.972999989986 -0.676999986172 88.0
0.880999982357 -0.112000003457 -0.246000006795 1268.0
0.880999982357 -0.118000000715 -0.246000006795 1505.0
0.880999982357 -0.123000003397 -0.24699999392 1521.0
0.879000008106 -0.12800000608 -0.246000006795 1559.0
0.874000012875 -0.133000001311 -0.245000004768 1574.0
0.876999974251 -0.137999996543 -0.246000006795 1582.0
0.875 -0.143000006676 -0.245000004768 1592.0
0.870999991894 -0.148000001907 -0.244000002742 1607.0
0.871999979019 -0.153999999166 -0.245000004768 1608.0
0.873000025749 -0.158999994397 -0.245000004768 1613.0
0.870000004768 -0.16400000453 -0.245000004768 1603.0
0.871999979019 -0.170000001788 -0.246000006795 1590.0
0.871999979019 -0.17499999702 -0.246000006795 1623.0
0.865000009537 -0.179000005126 -0.244000002742 1616.0
0.864000022411 -0.184000000358 -0.244000002742 1622.0
0.866999983788 -0.189999997616 -0.245000004768 1647.0
0.861999988556 -0.194999992847 -0.244000002742 1622.0
0.862999975681 -0.20000000298 -0.245000004768 1630.0
0.865000009537 -0.206000000238 -0.245000004768 1636.0
0.862999975681 -0.21099999547 -0.245000004768 1662.0
0.856999993324 -0.215000003576 -0.244000002742 1664.0
0.861999988556 -0.222000002861 -0.245000004768 1662.0
0.85799998045 -0.226999998093 -0.245000004768 1662.0
0.855000019073 -0.231000006199 -0.244000002742 1681.0
0.848999977112 -0.234999999404 -0.243000000715 1681.0
0.856000006199 -0.241999998689 -0.245000004768 1673.0
0.851000010967 -0.24699999392 -0.244000002742 1657.0
0.851000010967 -0.252000004053 -0.244000002742 1695.0
0.85799998045 -0.259999990463 -0.24699999392 1710.0
0.855000019073 -0.264999985695 -0.246000006795 1674.0
0.856999993324 -0.270999997854 -0.24699999392 1698.0
0.851999998093 -0.27500000596 -0.246000006795 1716.0
0.84500002861 -0.279000014067 -0.244000002742 1689.0
0.847000002861 -0.284999996424 -0.245000004768 1692.0
0.847000002861 -0.291000008583 -0.246000006795 1698.0
0.848999977112 -0.29699999094 -0.24699999392 1724.0
0.847000002861 -0.301999986172 -0.24699999392 1725.0
0.842000007629 -0.305999994278 -0.246000006795 1708.0
0.84500002861 -0.312999993563 -0.24699999392 1718.0
0.841000020504 -0.317999988794 -0.246000006795 1725.0
0.846000015736 -0.326000005007 -0.247999995947 1720.0
0.836000025272 -0.32800000906 -0.246000006795 1715.0
0.839999973774 -0.335000008345 -0.24699999392 1711.0
0.833000004292 -0.337999999523 -0.246000006795 1720.0
0.832000017166 -0.344000011683 -0.246000006795 1722.0
0.837000012398 -0.351999998093 -0.247999995947 1723.0
0.839999973774 -0.360000014305 -0.25 1731.0
0.832000017166 -0.361999988556 -0.247999995947 1738.0
0.834999978542 -0.370000004768 -0.248999997973 1745.0
0.828999996185 -0.372999995947 -0.247999995947 1723.0
0.82800000906 -0.379000008106 -0.247999995947 1728.0
0.834999978542 -0.388000011444 -0.250999987125 1711.0
0.827000021935 -0.391000002623 -0.248999997973 1728.0
0.823000013828 -0.395999997854 -0.248999997973 1727.0
0.824999988079 -0.402999997139 -0.25 1720.0
0.824999988079 -0.409000009298 -0.25 1731.0
0.824000000954 -0.414999991655 -0.250999987125 1712.0
0.814999997616 -0.416999995708 -0.248999997973 1704.0
0.811999976635 -0.42199999094 -0.247999995947 1683.0
0.816999971867 -0.432000011206 -0.250999987125 1693.0
0.813000023365 -0.43599998951 -0.25 1692.0
0.81400001049 -0.442999988794 -0.250999987125 1663.0
0.81400001049 -0.449999988079 -0.252000004053 1698.0
0.813000023365 -0.456999987364 -0.252999991179 1704.0
0.808000028133 -0.460000008345 -0.252000004053 1712.0
0.811999976635 -0.469000011683 -0.254000008106 1699.0
1.11899995804 0.666000008583 -0.36700001359 462.0
1.15699994564 0.679000020027 -0.377999991179 385.0
1.65999996662 0.961000025272 -0.541000008583 360.0
1.71000003815 0.975000023842 -0.555000007153 442.0
1.72699999809 0.97000002861 -0.559000015259 271.0
1.79200005531 0.991999983788 -0.57800000906 242.0
1.80400002003 0.98299998045 -0.579999983311 393.0
1.83500003815 0.985000014305 -0.587999999523 293.0
1.87199997902 0.989000022411 -0.597999989986 164.0
1.88600003719 0.981999993324 -0.601000010967 166.0
1.875 0.961000025272 -0.596000015736 159.0
1.95799994469 0.987999975681 -0.620000004768 143.0
2.01200008392 0.999000012875 -0.635999977589 140.0
2.00600004196 0.981000006199 -0.632000029087 141.0
2.06100010872 0.990999996662 -0.648000001907 140.0
2.06599998474 0.977999985218 -0.647000014782 142.0
2.11199998856 0.98299998045 -0.660000026226 132.0
2.15199995041 0.985000014305 -0.671000003815 147.0
2.19499993324 0.989000022411 -0.681999981403 234.0
2.21900010109 0.98299998045 -0.688000023365 196.0
2.26099991798 0.985000014305 -0.699999988079 93.0
0.893000006676 -0.108999997377 -0.254999995232 322.0
0.876999974251 -0.112000003457 -0.250999987125 1309.0
0.878000020981 -0.116999998689 -0.250999987125 1499.0
0.875999987125 -0.123000003397 -0.250999987125 1521.0
0.879000008106 -0.12800000608 -0.252000004053 1579.0
0.875 -0.133000001311 -0.250999987125 1574.0
0.878000020981 -0.138999998569 -0.252000004053 1567.0
0.875999987125 -0.143999993801 -0.250999987125 1574.0
0.875 -0.149000003934 -0.250999987125 1584.0
0.874000012875 -0.153999999166 -0.250999987125 1601.0
0.871999979019 -0.158999994397 -0.250999987125 1602.0
0.871999979019 -0.165000006557 -0.250999987125 1608.0
0.864000022411 -0.167999997735 -0.248999997973 1619.0
0.870999991894 -0.17499999702 -0.250999987125 1605.0
0.867999970913 -0.180000007153 -0.25 1606.0
0.867999970913 -0.185000002384 -0.250999987125 1619.0
0.867999970913 -0.190999999642 -0.250999987125 1637.0
0.864000022411 -0.194999992847 -0.25 1627.0
0.861999988556 -0.20000000298 -0.25 1604.0
0.85900002718 -0.204999998212 -0.248999997973 1623.0
0.85900002718 -0.209999993443 -0.248999997973 1649.0
0.860000014305 -0.216000005603 -0.25 1651.0
0.861000001431 -0.222000002861 -0.250999987125 1635.0
0.852999985218 -0.22499999404 -0.248999997973 1647.0
0.856999993324 -0.231999993324 -0.25 1653.0
0.860000014305 -0.238999992609 -0.250999987125 1663.0
0.856000006199 -0.243000000715 -0.250999987125 1667.0
0.85799998045 -0.248999997973 -0.250999987125 1654.0
0.848999977112 -0.252000004053 -0.248999997973 1676.0
0.847999989986 -0.256999999285 -0.248999997973 1697.0
0.848999977112 -0.263000011444 -0.25 1694.0
0.851000010967 -0.270000010729 -0.250999987125 1702.0
0.848999977112 -0.27500000596 -0.250999987125 1706.0
0.852999985218 -0.282000005245 -0.252000004053 1684.0
0.847999989986 -0.286000013351 -0.250999987125 1693.0
0.850000023842 -0.291999995708 -0.252000004053 1693.0
0.837999999523 -0.293999999762 -0.248999997973 1737.0
0.846000015736 -0.301999986172 -0.252000004053 1713.0
0.837000012398 -0.305000007153 -0.25 1698.0
0.836000025272 -0.31099998951 -0.25 1702.0
0.842999994755 -0.319000005722 -0.252000004053 1710.0
0.839999973774 -0.324000000954 -0.252000004053 1707.0
0.836000025272 -0.32800000906 -0.250999987125 1710.0
0.837000012398 -0.335000008345 -0.252000004053 1700.0
0.834999978542 -0.340000003576 -0.252000004053 1703.0
0.838999986649 -0.347000002861 -0.254000008106 1706.0
0.834999978542 -0.351999998093 -0.252999991179 1741.0
0.828999996185 -0.354999989271 -0.252000004053 1729.0
0.832000017166 -0.363000005484 -0.252999991179 1738.0
0.829999983311 -0.368000000715 -0.252999991179 1744.0
0.828999996185 -0.374000012875 -0.254000008106 1719.0
0.829999983311 -0.379999995232 -0.254000008106 1712.0
0.82800000906 -0.386000007391 -0.254999995232 1699.0
0.829999983311 -0.393000006676 -0.256000012159 1727.0
0.822000026703 -0.395999997854 -0.254000008106 1697.0
0.819000005722 -0.400999993086 -0.254000008106 1706.0
0.823000013828 -0.409000009298 -0.256000012159 1703.0
0.824000000954 -0.416000008583 -0.256999999285 1698.0
0.811999976635 -0.416000008583 -0.252999991179 1690.0
0.822000026703 -0.428999990225 -0.25799998641 1674.0
0.813000023365 -0.430000007153 -0.254999995232 1676.0
0.816999971867 -0.43900001049 -0.256999999285 1682.0
0.814999997616 -0.444999992847 -0.256999999285 1642.0
0.813000023365 -0.449999988079 -0.25799998641 1671.0
0.815999984741 -0.458999991417 -0.259000003338 1690.0
0.815999984741 -0.465999990702 -0.259999990463 1675.0
0.813000023365 -0.470999985933 -0.259999990463 1692.0
1.11300003529 0.663999974728 -0.372999995947 457.0
1.1590000391 0.681999981403 -0.386999994516 402.0
1.55099999905 0.898999989033 -0.51599997282 271.0
1.69400000572 0.967000007629 -0.561999976635 278.0
1.74899995327 0.98400002718 -0.578999996185 239.0
1.76499998569 0.977999985218 -0.582000017166 220.0
1.80499994755 0.986000001431 -0.59399998188 322.0
1.83899998665 0.989000022411 -0.602999985218 298.0
1.86199998856 0.986000001431 -0.60900002718 179.0
1.88399994373 0.98299998045 -0.614000022411 163.0
1.92299997807 0.986999988556 -0.625 152.0
1.9509999752 0.986000001431 -0.632000029087 149.0
2.03399991989 1.01199996471 -0.657000005245 145.0
1.98500001431 0.972000002861 -0.638999998569 156.0
2.07500004768 1.0 -0.666999995708 161.0
2.05900001526 0.976000010967 -0.660000026226 137.0
2.10800004005 0.98299998045 -0.674000024796 132.0
2.14299988747 0.98299998045 -0.683000028133 130.0
2.19899988174 0.991999983788 -0.699000000954 213.0
2.22199988365 0.986000001431 -0.704999983311 217.0
0.902999997139 -0.109999999404 -0.263999998569 387.0
0.882000029087 -0.112999998033 -0.25799998641 1340.0
0.875999987125 -0.116999998689 -0.256000012159 1478.0
0.879999995232 -0.123000003397 -0.256999999285 1523.0
0.870999991894 -0.127000004053 -0.254999995232 1559.0
0.876999974251 -0.134000003338 -0.256999999285 1570.0
0.871999979019 -0.137999996543 -0.256000012159 1566.0
0.870999991894 -0.143000006676 -0.254999995232 1581.0
0.875999987125 -0.149000003934 -0.256999999285 1595.0
0.870000004768 -0.153999999166 -0.256000012159 1578.0
0.870999991894 -0.158999994397 -0.256000012159 1571.0
0.870999991894 -0.165000006557 -0.256000012159 1598.0
0.875 -0.171000003815 -0.25799998641 1587.0
0.869000017643 -0.17499999702 -0.256000012159 1596.0
0.870999991894 -0.180999994278 -0.256999999285 1617.0
0.870000004768 -0.186000004411 -0.256999999285 1605.0
0.870000004768 -0.192000001669 -0.256999999285 1642.0
0.864000022411 -0.195999994874 -0.256000012159 1621.0
0.865000009537 -0.201000005007 -0.256000012159 1623.0
0.865999996662 -0.207000002265 -0.256999999285 1624.0
0.861999988556 -0.211999997497 -0.256000012159 1637.0
0.860000014305 -0.216999992728 -0.256000012159 1644.0
0.860000014305 -0.222000002861 -0.256000012159 1631.0
0.851999998093 -0.22499999404 -0.254000008106 1649.0
0.855000019073 -0.231999993324 -0.254999995232 1664.0
0.851999998093 -0.237000003457 -0.254999995232 1650.0
0.851999998093 -0.241999998689 -0.254999995232 1668.0
0.856999993324 -0.248999997973 -0.256999999285 1645.0
0.856999993324 -0.254999995232 -0.256999999285 1658.0
0.855000019073 -0.259999990463 -0.256999999285 1694.0
0.851000010967 -0.263999998569 -0.256000012159 1681.0
0.850000023842 -0.270000010729 -0.256000012159 1708.0
0.847000002861 -0.273999989033 -0.256000012159 1690.0
0.846000015736 -0.280000001192 -0.256000012159 1669.0
0.846000015736 -0.286000013351 -0.256000012159 1687.0
0.850000023842 -0.293000012636 -0.25799998641 1691.0
0.84500002861 -0.29699999094 -0.256999999285 1729.0
0.846000015736 -0.303000003099 -0.25799998641 1694.0
0.833999991417 -0.305000007153 -0.254999995232 1692.0
0.842999994755 -0.31400001049 -0.25799998641 1682.0
0.841000020504 -0.319000005722 -0.25799998641 1672.0
0.839999973774 -0.324000000954 -0.25799998641 1684.0
0.836000025272 -0.328999996185 -0.256999999285 1689.0
0.833999991417 -0.333999991417 -0.256999999285 1693.0
0.834999978542 -0.340000003576 -0.25799998641 1695.0
0.838999986649 -0.347999989986 -0.259999990463 1736.0
0.830999970436 -0.351000010967 -0.25799998641 1724.0
0.833000004292 -0.358000010252 -0.259000003338 1734.0
0.829999983311 -0.363000005484 -0.259000003338 1754.0
0.825999975204 -0.36700001359 -0.25799998641 1730.0
0.827000021935 -0.374000012875 -0.259000003338 1727.0
0.824999988079 -0.379000008106 -0.259000003338 1703.0
0.827000021935 -0.386000007391 -0.259999990463 1679.0
0.823000013828 -0.391000002623 -0.259000003338 1693.0
0.824000000954 -0.398000001907 -0.259999990463 1666.0
0.823000013828 -0.404000014067 -0.261000007391 1645.0
0.819999992847 -0.407999992371 -0.261000007391 1684.0
0.819000005722 -0.414999991655 -0.261000007391 1685.0
0.815999984741 -0.419999986887 -0.261000007391 1699.0
0.811999976635 -0.423999994993 -0.259999990463 1653.0
0.823000013828 -0.43599998951 -0.263999998569 1651.0
0.815999984741 -0.43900001049 -0.263000011444 1678.0
0.816999971867 -0.446999996901 -0.263999998569 1629.0
0.81099998951 -0.449999988079 -0.263000011444 1656.0
0.813000023365 -0.458000004292 -0.263999998569 1687.0
0.810000002384 -0.462999999523 -0.263999998569 1664.0
0.810000002384 -0.469999998808 -0.264999985695 1671.0
1.09899997711 0.657000005245 -0.375999987125 460.0
1.12699997425 0.663999974728 -0.384999990463 430.0
1.47399997711 0.856000006199 -0.501999974251 229.0
1.72099995613 0.985000014305 -0.583999991417 236.0
1.72800004482 0.973999977112 -0.584999978542 220.0
1.77999997139 0.989000022411 -0.600000023842 220.0
1.81400001049 0.991999983788 -0.610000014305 260.0
1.83299994469 0.986999988556 -0.614000022411 302.0
1.87000000477 0.991999983788 -0.625 173.0
1.88100004196 0.981999993324 -0.625999987125 155.0
1.94200003147 0.999000012875 -0.644999980927 150.0
1.97099995613 0.998000025749 -0.652999997139 155.0
1.98399996758 0.989000022411 -0.65499997139 164.0
1.98599994183 0.973999977112 -0.653999984264 167.0
2.08400011063 1.00600004196 -0.685000002384 140.0
2.08899998665 0.991999983788 -0.684000015259 136.0
2.10700011253 0.98400002718 -0.688000023365 123.0
2.15599989891 0.990999996662 -0.702000021935 128.0
2.16799998283 0.980000019073 -0.703999996185 189.0
2.22900009155 0.990000009537 -0.722000002861 207.0
2.24799990654 0.981999993324 -0.726999998093 131.0
0.907000005245 -0.111000001431 -0.270999997854 426.0
0.875 -0.112000003457 -0.261000007391 1338.0
0.883000016212 -0.119000002742 -0.263999998569 1458.0
0.878000020981 -0.123000003397 -0.261999994516 1509.0
0.875 -0.12800000608 -0.261999994516 1564.0
0.875 -0.133000001311 -0.261999994516 1557.0
0.875 -0.138999998569 -0.261999994516 1575.0
0.873000025749 -0.143999993801 -0.261999994516 1591.0
0.873000025749 -0.149000003934 -0.261999994516 1575.0
0.871999979019 -0.153999999166 -0.261999994516 1589.0
0.873000025749 -0.159999996424 -0.261999994516 1582.0
0.873000025749 -0.165000006557 -0.263000011444 1592.0
0.866999983788 -0.170000001788 -0.261000007391 1601.0
0.869000017643 -0.17499999702 -0.261999994516 1590.0
0.867999970913 -0.180999994278 -0.261999994516 1591.0
0.865999996662 -0.186000004411 -0.261000007391 1601.0
0.862999975681 -0.189999997616 -0.261000007391 1610.0
0.866999983788 -0.196999996901 -0.261999994516 1610.0
0.865999996662 -0.202000007033 -0.261999994516 1608.0
0.864000022411 -0.207000002265 -0.261999994516 1615.0
0.861000001431 -0.211999997497 -0.261000007391 1621.0
0.860000014305 -0.216999992728 -0.261000007391 1643.0
0.85799998045 -0.222000002861 -0.261000007391 1631.0
0.853999972343 -0.226999998093 -0.259999990463 1653.0
0.853999972343 -0.231999993324 -0.261000007391 1636.0
0.85799998045 -0.238999992609 -0.261999994516 1644.0
0.852999985218 -0.243000000715 -0.261000007391 1651.0
0.85900002718 -0.25 -0.263000011444 1645.0
0.852999985218 -0.254000008106 -0.261999994516 1648.0
0.848999977112 -0.259000003338 -0.261000007391 1689.0
0.848999977112 -0.263999998569 -0.261000007391 1677.0
0.851999998093 -0.270999997854 -0.263000011444 1691.0
0.847999989986 -0.27500000596 -0.261999994516 1691.0
0.839999973774 -0.277999997139 -0.259999990463 1655.0
0.84500002861 -0.286000013351 -0.261999994516 1661.0
0.847000002861 -0.291999995708 -0.263000011444 1659.0
0.847999989986 -0.298999994993 -0.263999998569 1699.0
0.837999999523 -0.300999999046 -0.261000007391 1704.0
0.838999986649 -0.307000011206 -0.261999994516 1684.0
0.847000002861 -0.316000014544 -0.264999985695 1653.0
0.836000025272 -0.317000001669 -0.261999994516 1669.0
0.837999999523 -0.324000000954 -0.263000011444 1682.0
0.830999970436 -0.326999992132 -0.261000007391 1708.0
0.839999973774 -0.337000012398 -0.264999985695 1696.0
0.833999991417 -0.340000003576 -0.263000011444 1706.0
0.837000012398 -0.347999989986 -0.264999985695 1706.0
0.833999991417 -0.352999985218 -0.263999998569 1690.0
0.829999983311 -0.356999993324 -0.263999998569 1726.0
0.829999983311 -0.363000005484 -0.263999998569 1733.0
0.829999983311 -0.368999987841 -0.264999985695 1696.0
0.827000021935 -0.374000012875 -0.264999985695 1683.0
0.82800000906 -0.381000012159 -0.264999985695 1670.0
0.824999988079 -0.386000007391 -0.264999985695 1672.0
0.822000026703 -0.391000002623 -0.264999985695 1659.0
0.823000013828 -0.398000001907 -0.266000002623 1622.0
0.827000021935 -0.405999988317 -0.268000006676 1625.0
0.819000005722 -0.409000009298 -0.266000002623 1661.0
0.819999992847 -0.416000008583 -0.266999989748 1673.0
0.814999997616 -0.419999986887 -0.266000002623 1668.0
0.816999971867 -0.426999986172 -0.266999989748 1647.0
0.818000018597 -0.435000002384 -0.268999993801 1665.0
0.810000002384 -0.437000006437 -0.266999989748 1660.0
0.81099998951 -0.444000005722 -0.268000006676 1619.0
0.816999971867 -0.453999996185 -0.270999997854 1646.0
0.810000002384 -0.456999987364 -0.268999993801 1665.0
0.811999976635 -0.465000003576 -0.270999997854 1672.0
0.811999976635 -0.472000002861 -0.272000014782 1664.0
1.10199999809 0.660000026226 -0.384999990463 466.0
1.12300002575 0.662999987602 -0.391999989748 435.0
1.4279999733 0.830999970436 -0.497000008821 246.0
1.69400000572 0.971000015736 -0.587999999523 231.0
1.7539999485 0.990000009537 -0.606000006199 224.0
1.76999998093 0.985000014305 -0.610000014305 211.0
1.80599999428 0.989000022411 -0.620000004768 212.0
1.8220000267 0.98299998045 -0.624000012875 198.0
1.89300000668 1.00600004196 -0.646000027657 170.0
1.88199996948 0.98400002718 -0.639999985695 163.0
1.94400000572 1.00100004673 -0.660000026226 170.0
1.90600001812 0.967000007629 -0.644999980927 177.0
1.96700000763 0.981999993324 -0.663999974728 174.0
2.00600004196 0.985000014305 -0.675000011921 161.0
2.07399988174 1.00300002098 -0.695999979973 141.0
2.05900001526 0.978999972343 -0.68900001049 138.0
2.09599995613 0.981000006199 -0.699999988079 133.0
2.16199994087 0.995000004768 -0.72000002861 134.0
2.17700004578 0.986000001431 -0.722999989986 154.0
2.19899988174 0.978999972343 -0.727999985218 189.0
2.20499992371 0.964999973774 -0.727999985218 125.0
0.889999985695 -0.108999997377 -0.272000014782 531.0
0.882000029087 -0.112999998033 -0.268999993801 1357.0
0.878000020981 -0.118000000715 -0.268000006676 1505.0
0.876999974251 -0.123000003397 -0.268000006676 1541.0
0.865000009537 -0.127000004053 -0.263999998569 1564.0
0.876999974251 -0.134000003338 -0.268000006676 1552.0
0.871999979019 -0.138999998569 -0.266999989748 1575.0
0.875 -0.143999993801 -0.268000006676 1560.0
0.870999991894 -0.149000003934 -0.266999989748 1585.0
0.871999979019 -0.155000001192 -0.266999989748 1569.0
0.870999991894 -0.159999996424 -0.266999989748 1571.0
0.866999983788 -0.165000006557 -0.266000002623 1585.0
0.862999975681 -0.168999999762 -0.264999985695 1598.0
0.864000022411 -0.17499999702 -0.266000002623 1581.0
0.869000017643 -0.180999994278 -0.268000006676 1571.0
0.862999975681 -0.185000002384 -0.266000002623 1591.0
0.865999996662 -0.190999999642 -0.266999989748 1601.0
0.862999975681 -0.195999994874 -0.266999989748 1620.0
0.865000009537 -0.202000007033 -0.268000006676 1630.0
0.864000022411 -0.207000002265 -0.268000006676 1605.0
0.861000001431 -0.211999997497 -0.266999989748 1641.0
0.862999975681 -0.217999994755 -0.268000006676 1642.0
0.85900002718 -0.223000004888 -0.266999989748 1631.0
0.860000014305 -0.229000002146 -0.268000006676 1624.0
0.85900002718 -0.233999997377 -0.268000006676 1649.0
0.856999993324 -0.238999992609 -0.266999989748 1649.0
0.850000023842 -0.241999998689 -0.266000002623 1644.0
0.852999985218 -0.248999997973 -0.266999989748 1629.0
0.851999998093 -0.254000008106 -0.266999989748 1664.0
0.855000019073 -0.261000007391 -0.268000006676 1668.0
0.852999985218 -0.266000002623 -0.268000006676 1659.0
0.847999989986 -0.270000010729 -0.266999989748 1679.0
0.847999989986 -0.275999993086 -0.266999989748 1692.0
0.846000015736 -0.280999988317 -0.266999989748 1626.0
0.84500002861 -0.286000013351 -0.266999989748 1640.0
0.847000002861 -0.293000012636 -0.268999993801 1645.0
0.841000020504 -0.29699999094 -0.266999989748 1679.0
0.847999989986 -0.305000007153 -0.270000010729 1678.0
0.84399998188 -0.308999985456 -0.268999993801 1680.0
0.841000020504 -0.31400001049 -0.268999993801 1667.0
0.837999999523 -0.319000005722 -0.268000006676 1683.0
0.837999999523 -0.324999988079 -0.268999993801 1681.0
0.830999970436 -0.32800000906 -0.266999989748 1709.0
0.837000012398 -0.33599999547 -0.268999993801 1691.0
0.833999991417 -0.340999990702 -0.268999993801 1700.0
0.832000017166 -0.345999985933 -0.268999993801 1689.0
0.832000017166 -0.352999985218 -0.270000010729 1663.0
0.830999970436 -0.358000010252 -0.270000010729 1669.0
0.828999996185 -0.363999992609 -0.270000010729 1694.0
0.833999991417 -0.372000008821 -0.272000014782 1678.0
0.824999988079 -0.374000012875 -0.270000010729 1668.0
0.829999983311 -0.38299998641 -0.272000014782 1654.0
0.827000021935 -0.388000011444 -0.272000014782 1645.0
0.820999979973 -0.391000002623 -0.270000010729 1623.0
0.819000005722 -0.397000014782 -0.270999997854 1598.0
0.822000026703 -0.405000001192 -0.272000014782 1615.0
0.823000013828 -0.411000013351 -0.273000001907 1639.0
0.818000018597 -0.414999991655 -0.272000014782 1669.0
0.816999971867 -0.42199999094 -0.273000001907 1659.0
0.814999997616 -0.426999986172 -0.273000001907 1634.0
0.820999979973 -0.437000006437 -0.275999993086 1654.0
0.815999984741 -0.441000014544 -0.27500000596 1629.0
0.816999971867 -0.448000013828 -0.275999993086 1588.0
0.811999976635 -0.451999992132 -0.27500000596 1634.0
0.813000023365 -0.460000008345 -0.275999993086 1651.0
0.810000002384 -0.465000003576 -0.275999993086 1641.0
0.805999994278 -0.469999998808 -0.275999993086 1650.0
1.10599994659 0.663999974728 -0.395000010729 476.0
1.12300002575 0.663999974728 -0.40000000596 443.0
1.32700002193 0.773000001907 -0.470999985933 274.0
1.70799994469 0.981000006199 -0.605000019073 229.0
1.74100005627 0.985000014305 -0.615000009537 221.0
1.76499998569 0.98400002718 -0.620999991894 209.0
1.79999995232 0.987999975681 -0.630999982357 191.0
1.8370000124 0.992999970913 -0.643000006676 182.0
1.85399997234 0.986999988556 -0.647000014782 179.0
1.89699995518 0.995000004768 -0.660000026226 189.0
1.90199995041 0.981999993324 -0.658999979496 194.0
1.90999996662 0.97000002861 -0.660000026226 184.0
1.97800004482 0.989000022411 -0.681999981403 167.0
1.98599994183 0.976999998093 -0.681999981403 145.0
2.02600002289 0.981000006199 -0.694000005722 148.0
2.05900001526 0.981000006199 -0.703999996185 150.0
2.11199998856 0.990000009537 -0.72000002861 140.0
2.12800002098 0.981000006199 -0.723999977112 134.0
2.14899992943 0.973999977112 -0.728999972343 132.0
2.22099995613 0.990000009537 -0.750999987125 174.0
2.22300004959 0.975000023842 -0.75 107.0
0.897000014782 -0.109999999404 -0.279000014067 607.0
0.879999995232 -0.112999998033 -0.273999989033 1385.0
0.880999982357 -0.119000002742 -0.27500000596 1485.0
0.876999974251 -0.123999997973 -0.273999989033 1518.0
0.871999979019 -0.12800000608 -0.272000014782 1551.0
0.875 -0.134000003338 -0.273000001907 1539.0
