ply
format ascii 1.0
element vertex 909
property float x
property float y
property float z
property float intensity
end_header
4.38399982452 1.97599995136 0.293000012636 131.0
4.4279999733 1.96300005913 0.296000003815 109.0
4.5640001297 1.99000000954 0.303999990225 103.0
4.53800010681 1.94599997997 0.301999986172 115.0
4.54199981689 1.91600000858 0.301999986172 120.0
4.46299982071 1.85099995136 0.296000003815 134.0
4.47800016403 1.8259999752 0.296000003815 137.0
4.49800014496 1.8029999733 0.29699999094 132.0
4.52500009537 1.78199994564 0.298000007868 133.0
4.53999996185 1.75699996948 0.298999994993 127.0
4.54199981689 1.72599995136 0.298999994993 125.0
4.55900001526 1.70200002193 0.298999994993 122.0
4.57299995422 1.67599999905 0.300000011921 122.0
4.56599998474 1.64199995995 0.298999994993 126.0
4.54400014877 1.60399997234 0.29699999094 119.0
4.62300014496 1.60099995136 0.301999986172 115.0
4.57999992371 1.55599999428 0.298999994993 112.0
4.60599994659 1.5340000391 0.300000011921 122.0
4.61899995804 1.50800001621 0.300000011921 118.0
4.59600019455 1.47099995613 0.298999994993 116.0
4.58199977875 1.43599998951 0.29699999094 112.0
4.61100006104 1.41600000858 0.298999994993 119.0
4.61299991608 1.38600003719 0.298999994993 113.0
4.62799978256 1.36099994183 0.298999994993 114.0
4.61899995804 1.32899999619 0.298000007868 118.0
4.632999897 1.30400002003 0.298999994993 118.0
4.59899997711 1.26499998569 0.296000003815 109.0
4.62699985504 1.24399995804 0.298000007868 114.0
4.67399978638 1.22699999809 0.300999999046 107.0
4.85900020599 1.24500000477 0.312999993563 73.0
0.289999991655 0.0729999989271 0.0170000009239 65.0
0.134000003338 0.0329999998212 0.00700000021607 67.0
0.21099999547 0.0489999987185 0.0120000001043 60.0
0.0149999996647 0.00400000018999 0.0 57.0
0.143999993801 0.0320000015199 0.00700000021607 59.0
0.122000001371 0.0270000007004 0.00600000005215 64.0
0.190999999642 0.0399999991059 0.00999999977648 56.0
0.0850000008941 0.0179999992251 0.00400000018999 57.0
0.179000005126 0.0359999984503 0.00999999977648 58.0
0.0359999984503 0.00700000021607 0.0 61.0
0.167999997735 0.0309999994934 0.00899999961257 55.0
0.215000003576 0.0390000008047 0.0120000001043 56.0
0.158999994397 0.0280000008643 0.00800000037998 53.0
0.129999995232 0.0219999998808 0.00600000005215 65.0
0.0719999969006 0.0120000001043 0.00300000002608 53.0
0.16099999845 0.0260000005364 0.00800000037998 56.0
0.16400000453 0.0250000003725 0.00899999961257 58.0
0.194999992847 0.0289999991655 0.0109999999404 55.0
0.0839999988675 0.0120000001043 0.00300000002608 58.0
0.101000003517 0.0140000004321 0.00400000018999 54.0
0.0450000017881 0.00700000021607 0.0010000000475 57.0
0.149000003934 0.0189999993891 0.00800000037998 51.0
0.206000000238 0.0240000002086 0.0109999999404 51.0
0.172000005841 0.0189999993891 0.00899999961257 53.0
0.131999999285 0.0140000004321 0.00600000005215 54.0
0.115999996662 0.0120000001043 0.00499999988824 55.0
0.252999991179 0.0219999998808 0.0140000004321 55.0
0.108000002801 0.00999999977648 0.00499999988824 52.0
0.222000002861 -0.00200000009499 0.0120000001043 47.0
0.985000014305 -0.0240000002086 0.0610000006855 560.0
1.00899994373 -0.0299999993294 0.0630000010133 1172.0
1.00199997425 -0.0359999984503 0.0630000010133 1192.0
1.00600004196 -0.0419999994338 0.0630000010133 1204.0
1.0 -0.0469999983907 0.0630000010133 1208.0
0.999000012875 -0.0529999993742 0.0630000010133 1205.0
0.996999979019 -0.0590000003576 0.0619999989867 1205.0
0.995999991894 -0.0640000030398 0.0619999989867 1212.0
0.995000004768 -0.070000000298 0.0619999989867 1230.0
0.995000004768 -0.0759999975562 0.0619999989867 1231.0
0.990000009537 -0.0810000002384 0.0619999989867 1215.0
0.990999996662 -0.0869999974966 0.0619999989867 1236.0
0.987999975681 -0.0920000001788 0.0619999989867 1248.0
0.986999988556 -0.097999997437 0.0619999989867 1241.0
0.986999988556 -0.104000002146 0.0619999989867 1239.0
0.981000006199 -0.108999997377 0.0619999989867 1073.0
0.89200001955 -0.104000002146 0.0560000017285 298.0
0.790000021458 -0.0960000008345 0.0500000007451 191.0
0.841000020504 -0.107000000775 0.0529999993742 190.0
0.792999982834 -0.105999998748 0.0500000007451 194.0
0.796000003815 -0.111000001431 0.0500000007451 198.0
0.800999999046 -0.115999996662 0.0509999990463 194.0
0.791000008583 -0.119000002742 0.0500000007451 203.0
0.805999994278 -0.126000002027 0.0509999990463 204.0
0.799000024796 -0.129999995232 0.0509999990463 206.0
0.782000005245 -0.131999999285 0.0500000007451 201.0
0.81099998951 -0.142000004649 0.0509999990463 201.0
0.805000007153 -0.144999995828 0.0509999990463 206.0
0.79699999094 -0.149000003934 0.0509999990463 212.0
0.829999983311 -0.159999996424 0.0529999993742 228.0
0.950999975204 -0.189999997616 0.0610000006855 965.0
0.962999999523 -0.197999998927 0.0619999989867 1367.0
0.961000025272 -0.202999994159 0.0619999989867 1388.0
0.957000017166 -0.208000004292 0.0619999989867 1404.0
0.966000020504 -0.216000005603 0.0619999989867 1401.0
0.958000004292 -0.219999998808 0.0619999989867 1405.0
0.957000017166 -0.225999996066 0.0619999989867 1409.0
0.953999996185 -0.231000006199 0.0619999989867 1432.0
0.953999996185 -0.237000003457 0.0619999989867 1423.0
0.95300000906 -0.241999998689 0.0619999989867 1430.0
0.95300000906 -0.247999995947 0.0619999989867 1454.0
0.948000013828 -0.252999991179 0.0619999989867 1434.0
0.945999979973 -0.25799998641 0.0619999989867 1445.0
0.944999992847 -0.263999998569 0.0619999989867 1443.0
0.935000002384 -0.266999989748 0.0610000006855 1015.0
0.836000025272 -0.244000002742 0.054999999702 285.0
0.792999982834 -0.236000001431 0.0520000010729 222.0
0.791999995708 -0.240999996662 0.0520000010729 219.0
0.76599997282 -0.238000005484 0.0500000007451 227.0
0.782999992371 -0.247999995947 0.0520000010729 227.0
0.774999976158 -0.25 0.0509999990463 220.0
0.760999977589 -0.250999987125 0.0500000007451 222.0
0.749000012875 -0.252000004053 0.0500000007451 232.0
0.754999995232 -0.259000003338 0.0500000007451 230.0
0.764999985695 -0.266999989748 0.0509999990463 222.0
0.736000001431 -0.261999994516 0.0489999987185 230.0
0.728999972343 -0.263999998569 0.0489999987185 224.0
0.753000020981 -0.277999997139 0.0509999990463 238.0
0.876999974251 -0.331000000238 0.0590000003576 545.0
0.913999974728 -0.351000010967 0.0619999989867 1397.0
0.919000029564 -0.358999997377 0.0630000010133 1506.0
0.916000008583 -0.365000009537 0.0630000010133 1500.0
0.915000021458 -0.370000004768 0.0630000010133 1507.0
0.915000021458 -0.377000004053 0.0630000010133 1506.0
0.912999987602 -0.38299998641 0.0630000010133 1515.0
0.90499997139 -0.386000007391 0.0619999989867 1515.0
0.911000013351 -0.395000010729 0.0630000010133 1536.0
0.907999992371 -0.40000000596 0.0630000010133 1525.0
0.90600001812 -0.405999988317 0.0630000010133 1528.0
0.902000010014 -0.409999996424 0.0630000010133 1518.0
0.897000014782 -0.414999991655 0.0630000010133 1521.0
0.894999980927 -0.421000003815 0.0630000010133 1529.0
0.861000001431 -0.411000013351 0.0599999986589 707.0
0.717999994755 -0.347000002861 0.0500000007451 267.0
0.646000027657 -0.317000001669 0.0450000017881 247.0
0.662000000477 -0.330000013113 0.0460000000894 239.0
0.64200001955 -0.324000000954 0.0450000017881 242.0
0.648000001907 -0.333000004292 0.0460000000894 242.0
0.65499997139 -0.340999990702 0.0460000000894 242.0
0.634000003338 -0.335000008345 0.0450000017881 233.0
0.632000029087 -0.338999986649 0.0450000017881 234.0
0.64099997282 -0.349000006914 0.0460000000894 239.0
0.643000006676 -0.354999989271 0.0460000000894 245.0
0.0590000003576 0.0329999998212 0.00200000009499 110.0
0.0230000000447 0.0120000001043 0.0 108.0
4.42999982834 2.47399997711 0.277000010014 95.0
0.00600000005215 0.00200000009499 -0.0010000000475 115.0
0.0799999982119 0.0430000014603 0.00300000002608 115.0
0.0189999993891 0.00899999961257 0.0 100.0
0.082999996841 0.0430000014603 0.00300000002608 113.0
0.0920000001788 0.0469999983907 0.00400000018999 114.0
0.0790000036359 0.0399999991059 0.00300000002608 99.0
0.201000005007 0.10000000149 0.0109999999404 106.0
0.170000001788 0.082999996841 0.00899999961257 117.0
0.123999997973 0.0599999986589 0.00600000005215 111.0
0.0170000009239 0.00700000021607 0.0 109.0
0.111000001431 0.0520000010729 0.00499999988824 105.0
0.0630000010133 0.0289999991655 0.00200000009499 131.0
4.60300016403 2.10700011253 0.280000001192 135.0
4.617000103 2.07999992371 0.280000001192 134.0
0.0480000004172 0.0209999997169 0.0010000000475 121.0
0.143999993801 0.0619999989867 0.00700000021607 120.0
0.141000002623 0.0599999986589 0.00700000021607 120.0
0.158000007272 0.0659999996424 0.00800000037998 128.0
0.054999999702 0.0230000000447 0.0010000000475 145.0
0.104000002146 0.0419999994338 0.00400000018999 137.0
0.0920000001788 0.0359999984503 0.00400000018999 134.0
0.141000002623 0.054999999702 0.00700000021607 136.0
0.135000005364 0.0520000010729 0.00600000005215 136.0
0.130999997258 0.0500000007451 0.00600000005215 137.0
0.188999995589 0.070000000298 0.00899999961257 135.0
0.157000005245 0.0570000000298 0.00700000021607 139.0
0.219999998808 0.0790000036359 0.0109999999404 133.0
0.188999995589 0.0670000016689 0.00899999961257 133.0
0.192000001669 0.0659999996424 0.00899999961257 139.0
0.228000000119 0.0769999995828 0.0120000001043 132.0
0.189999997616 0.0630000010133 0.00899999961257 135.0
0.245000004768 0.0799999982119 0.0130000002682 137.0
0.234999999404 0.0750000029802 0.0120000001043 136.0
0.209999993443 0.0659999996424 0.0109999999404 134.0
0.24699999392 0.0759999975562 0.0130000002682 139.0
0.263999998569 0.0790000036359 0.0140000004321 138.0
0.261000007391 0.0769999995828 0.0140000004321 135.0
0.264999985695 0.0759999975562 0.0140000004321 136.0
0.294999986887 0.082999996841 0.0149999996647 141.0
0.275999993086 0.0759999975562 0.0140000004321 140.0
0.298999994993 0.0810000002384 0.01600000076 139.0
0.307000011206 0.0810000002384 0.01600000076 143.0
0.601999998093 0.155000001192 0.0329999998212 142.0
0.727999985218 0.181999996305 0.0410000011325 138.0
0.73299998045 0.179000005126 0.0410000011325 137.0
0.713999986649 0.170000001788 0.0399999991059 127.0
0.675000011921 0.157000005245 0.0379999987781 130.0
0.699999988079 0.158000007272 0.0390000008047 132.0
0.709999978542 0.156000003219 0.0399999991059 129.0
0.740999996662 0.158000007272 0.0410000011325 130.0
0.699999988079 0.144999995828 0.0390000008047 142.0
0.728999972343 0.146999999881 0.0410000011325 123.0
0.707000017166 0.138999998569 0.0390000008047 132.0
0.707000017166 0.134000003338 0.0390000008047 138.0
0.788999974728 0.144999995828 0.0439999997616 123.0
0.726999998093 0.128999993205 0.0399999991059 127.0
0.762000024319 0.130999997258 0.0430000014603 139.0
0.709999978542 0.118000000715 0.0390000008047 114.0
0.661000013351 0.105999998748 0.0370000004768 107.0
0.662000000477 0.101999998093 0.0370000004768 113.0
0.708999991417 0.104999996722 0.0390000008047 117.0
0.725000023842 0.103000000119 0.0399999991059 111.0
0.704999983311 0.0960000008345 0.0390000008047 109.0
0.658999979496 0.0860000029206 0.0359999984503 115.0
0.657999992371 0.082000002265 0.0359999984503 104.0
0.661000013351 0.0790000036359 0.0370000004768 104.0
0.675999999046 0.0769999995828 0.0370000004768 96.0
0.612999975681 0.0659999996424 0.0340000018477 93.0
0.596000015736 0.0610000006855 0.0329999998212 89.0
0.623000025749 0.0599999986589 0.0340000018477 87.0
0.566999971867 0.0509999990463 0.0309999994934 81.0
0.60799998045 0.0509999990463 0.0329999998212 93.0
0.500999987125 0.0399999991059 0.0270000007004 76.0
0.526000022888 0.0390000008047 0.0289999991655 70.0
0.709999978542 0.0480000004172 0.0390000008047 71.0
0.277000010014 0.0179999992251 0.0140000004321 48.0
0.0170000009239 0.00200000009499 0.0 49.0
0.16400000453 -0.0010000000475 0.00800000037998 54.0
0.987999975681 -0.0240000002086 0.0560000017285 587.0
1.0039999485 -0.0299999993294 0.0570000000298 1177.0
1.00199997425 -0.0359999984503 0.0570000000298 1185.0
1.00300002098 -0.0419999994338 0.0570000000298 1203.0
0.999000012875 -0.0469999983907 0.0570000000298 1202.0
0.996999979019 -0.0529999993742 0.0570000000298 1206.0
1.0 -0.0590000003576 0.0570000000298 1210.0
0.994000017643 -0.0640000030398 0.0570000000298 1207.0
0.995999991894 -0.070000000298 0.0570000000298 1224.0
0.991999983788 -0.0750000029802 0.0570000000298 1219.0
0.992999970913 -0.0810000002384 0.0570000000298 1225.0
0.995000004768 -0.0869999974966 0.0570000000298 1232.0
0.991999983788 -0.0930000022054 0.0570000000298 1234.0
0.989000022411 -0.097999997437 0.0570000000298 1231.0
0.98400002718 -0.103000000119 0.0560000017285 1244.0
0.981000006199 -0.108999997377 0.0560000017285 1055.0
0.879000008106 -0.101999998093 0.0500000007451 290.0
0.819000005722 -0.10000000149 0.0469999983907 195.0
0.805999994278 -0.103000000119 0.0460000000894 196.0
0.816999971867 -0.108999997377 0.0469999983907 190.0
0.800000011921 -0.111000001431 0.0460000000894 194.0
0.792999982834 -0.115000002086 0.0450000017881 202.0
0.805000007153 -0.122000001371 0.0460000000894 202.0
0.78100001812 -0.122000001371 0.0450000017881 194.0
0.787000000477 -0.12800000608 0.0450000017881 201.0
0.809000015259 -0.136999994516 0.0469999983907 205.0
0.815999984741 -0.143000006676 0.0469999983907 205.0
0.800000011921 -0.143999993801 0.0460000000894 200.0
0.804000020027 -0.15000000596 0.0460000000894 207.0
0.830999970436 -0.159999996424 0.0480000004172 234.0
0.949000000954 -0.188999995589 0.054999999702 965.0
0.966000020504 -0.197999998927 0.0560000017285 1369.0
0.959999978542 -0.202999994159 0.0560000017285 1391.0
0.961000025272 -0.209000006318 0.0560000017285 1398.0
0.955999970436 -0.21400000155 0.0560000017285 1411.0
0.961000025272 -0.221000000834 0.0570000000298 1406.0
0.961000025272 -0.226999998093 0.0570000000298 1424.0
0.953999996185 -0.231000006199 0.0560000017285 1418.0
0.952000021935 -0.236000001431 0.0560000017285 1427.0
0.95300000906 -0.241999998689 0.0560000017285 1437.0
0.954999983311 -0.248999997973 0.0570000000298 1437.0
0.948000013828 -0.252999991179 0.0560000017285 1446.0
0.948000013828 -0.259000003338 0.0560000017285 1449.0
0.944999992847 -0.263999998569 0.0560000017285 1443.0
0.930999994278 -0.266000002623 0.0560000017285 1007.0
0.832000017166 -0.241999998689 0.0500000007451 285.0
0.777999997139 -0.231000006199 0.0460000000894 225.0
0.787999987602 -0.238999992609 0.0469999983907 230.0
0.77999997139 -0.241999998689 0.0469999983907 222.0
0.776000022888 -0.246000006795 0.0460000000894 222.0
0.739000022411 -0.238000005484 0.0439999997616 230.0
0.759000003338 -0.25 0.0460000000894 226.0
0.77999997139 -0.261999994516 0.0469999983907 226.0
0.785000026226 -0.268999993801 0.0469999983907 226.0
0.745999991894 -0.259999990463 0.0450000017881 221.0
0.760999977589 -0.270999997854 0.0460000000894 229.0
0.76599997282 -0.277999997139 0.0469999983907 233.0
0.736000001431 -0.272000014782 0.0450000017881 235.0
0.874000012875 -0.330000013113 0.0540000014007 537.0
0.917999982834 -0.352999985218 0.0570000000298 1376.0
0.913999974728 -0.356999993324 0.0570000000298 1515.0
0.916000008583 -0.363999992609 0.0570000000298 1503.0
0.911000013351 -0.368999987841 0.0570000000298 1513.0
0.912999987602 -0.375999987125 0.0570000000298 1510.0
0.911000013351 -0.381999999285 0.0570000000298 1521.0
0.907000005245 -0.386000007391 0.0570000000298 1523.0
0.90499997139 -0.391999989748 0.0570000000298 1517.0
0.90499997139 -0.398000001907 0.0570000000298 1525.0
0.908999979496 -0.407000005245 0.0570000000298 1525.0
0.901000022888 -0.409999996424 0.0570000000298 1536.0
0.902000010014 -0.416999995708 0.0570000000298 1528.0
0.894999980927 -0.419999986887 0.0570000000298 1521.0
0.860000014305 -0.409999996424 0.054999999702 720.0
0.712000012398 -0.344000011683 0.0450000017881 276.0
0.657000005245 -0.321999996901 0.0419999994338 246.0
0.653999984264 -0.324999988079 0.0419999994338 238.0
0.661000013351 -0.333999991417 0.0419999994338 241.0
0.653999984264 -0.33599999547 0.0419999994338 241.0
0.632000029087 -0.328999996185 0.0410000011325 242.0
0.646000027657 -0.342000007629 0.0419999994338 240.0
0.644999980927 -0.345999985933 0.0419999994338 240.0
0.617999970913 -0.33599999547 0.0399999991059 242.0
0.612999975681 -0.338999986649 0.0399999991059 244.0
0.750999987125 0.430999994278 0.0410000011325 346.0
0.792999982834 0.448000013828 0.0430000014603 355.0
0.790000021458 0.439999997616 0.0430000014603 362.0
0.785000026226 0.430999994278 0.0419999994338 369.0
0.799000024796 0.432000011206 0.0430000014603 392.0
0.824999988079 0.439999997616 0.0439999997616 424.0
0.811999976635 0.425999999046 0.0430000014603 411.0
0.824999988079 0.426999986172 0.0439999997616 432.0
0.829999983311 0.423000007868 0.0439999997616 439.0
0.842999994755 0.423000007868 0.0450000017881 464.0
0.82800000906 0.409000009298 0.0439999997616 480.0
0.841000020504 0.409000009298 0.0450000017881 483.0
0.838999986649 0.402000010014 0.0439999997616 496.0
0.856999993324 0.404000014067 0.0450000017881 527.0
0.848999977112 0.393999993801 0.0450000017881 556.0
0.853999972343 0.389999985695 0.0450000017881 546.0
0.871999979019 0.391999989748 0.0460000000894 556.0
0.865000009537 0.38299998641 0.0450000017881 560.0
0.873000025749 0.379999995232 0.0460000000894 572.0
0.874000012875 0.374000012875 0.0460000000894 587.0
0.878000020981 0.370000004768 0.0460000000894 605.0
0.884000003338 0.365999996662 0.0460000000894 634.0
0.888000011444 0.361999988556 0.0460000000894 652.0
0.898999989033 0.360000014305 0.0469999983907 666.0
0.898999989033 0.354000002146 0.0469999983907 671.0
0.902000010014 0.347999989986 0.0469999983907 686.0
0.908999979496 0.344999998808 0.0469999983907 704.0
0.902999997139 0.337000012398 0.0469999983907 700.0
0.910000026226 0.333000004292 0.0469999983907 722.0
0.899999976158 0.323000013828 0.0460000000894 722.0
0.901000022888 0.317999988794 0.0460000000894 726.0
0.912000000477 0.316000014544 0.0469999983907 727.0
0.912000000477 0.310000002384 0.0469999983907 723.0
0.921000003815 0.307000011206 0.0469999983907 745.0
0.916000008583 0.298999994993 0.0469999983907 751.0
0.922999978065 0.294999986887 0.0469999983907 783.0
0.920000016689 0.287999987602 0.0469999983907 780.0
0.926999986172 0.284000009298 0.0469999983907 794.0
0.931999981403 0.280000001192 0.0480000004172 798.0
0.930000007153 0.273999989033 0.0469999983907 806.0
0.929000020027 0.266999989748 0.0469999983907 795.0
0.927999973297 0.261000007391 0.0469999983907 811.0
0.936999976635 0.25799998641 0.0480000004172 837.0
0.930000007153 0.25 0.0469999983907 837.0
0.93599998951 0.246000006795 0.0480000004172 851.0
0.945999979973 0.241999998689 0.0480000004172 875.0
0.941999971867 0.236000001431 0.0480000004172 865.0
0.940999984741 0.230000004172 0.0480000004172 863.0
0.940999984741 0.224000006914 0.0480000004172 832.0
0.947000026703 0.218999996781 0.0480000004172 842.0
0.948000013828 0.21400000155 0.0480000004172 872.0
0.947000026703 0.208000004292 0.0480000004172 913.0
0.947000026703 0.202000007033 0.0480000004172 915.0
0.952000021935 0.197999998927 0.0480000004172 927.0
0.948000013828 0.190999999642 0.0480000004172 901.0
0.95300000906 0.186000004411 0.0480000004172 916.0
0.95300000906 0.180999994278 0.0480000004172 961.0
0.959999978542 0.175999999046 0.0480000004172 951.0
0.961000025272 0.171000003815 0.0489999987185 942.0
0.958000004292 0.16400000453 0.0480000004172 942.0
0.954999983311 0.158000007272 0.0480000004172 921.0
0.954999983311 0.152999997139 0.0480000004172 891.0
0.958999991417 0.148000001907 0.0480000004172 907.0
0.962000012398 0.142000004649 0.0489999987185 955.0
0.963999986649 0.136999994516 0.0489999987185 919.0
0.966000020504 0.131999999285 0.0489999987185 924.0
0.964999973774 0.126000002027 0.0489999987185 876.0
0.967999994755 0.120999999344 0.0489999987185 861.0
0.963999986649 0.11400000006 0.0489999987185 844.0
0.966000020504 0.108999997377 0.0489999987185 823.0
0.959999978542 0.103000000119 0.0480000004172 781.0
0.962999999523 0.097000002861 0.0489999987185 741.0
0.959999978542 0.0920000001788 0.0480000004172 704.0
0.957000017166 0.0860000029206 0.0480000004172 665.0
0.962999999523 0.0810000002384 0.0489999987185 627.0
0.962000012398 0.0750000029802 0.0489999987185 600.0
0.958000004292 0.0689999982715 0.0480000004172 548.0
0.952000021935 0.0630000010133 0.0480000004172 414.0
0.644999980927 0.0399999991059 0.0320000015199 83.0
0.395000010729 0.0140000004321 0.0189999993891 46.0
0.140000000596 0.0 0.00499999988824 55.0
0.324000000954 -0.00400000018999 0.0149999996647 56.0
0.981000006199 -0.0240000002086 0.0500000007451 600.0
1.00699996948 -0.0299999993294 0.0509999990463 1168.0
1.00199997425 -0.0359999984503 0.0509999990463 1180.0
0.999000012875 -0.0419999994338 0.0509999990463 1196.0
0.994000017643 -0.0469999983907 0.0509999990463 1199.0
1.0 -0.0529999993742 0.0509999990463 1203.0
0.999000012875 -0.0590000003576 0.0509999990463 1203.0
0.999000012875 -0.0640000030398 0.0509999990463 1207.0
0.994000017643 -0.070000000298 0.0509999990463 1215.0
0.990000009537 -0.0750000029802 0.0509999990463 1218.0
0.987999975681 -0.0810000002384 0.0509999990463 1226.0
0.987999975681 -0.0869999974966 0.0509999990463 1233.0
0.990000009537 -0.0920000001788 0.0509999990463 1235.0
0.989000022411 -0.097999997437 0.0509999990463 1239.0
0.986999988556 -0.104000002146 0.0509999990463 1237.0
0.977999985218 -0.108000002801 0.0500000007451 1050.0
0.884999990463 -0.103000000119 0.0450000017881 288.0
0.813000023365 -0.0989999994636 0.0419999994338 192.0
0.82800000906 -0.105999998748 0.0419999994338 197.0
0.800000011921 -0.107000000775 0.0410000011325 192.0
0.799000024796 -0.111000001431 0.0410000011325 199.0
0.79699999094 -0.115999996662 0.0410000011325 200.0
0.799000024796 -0.120999999344 0.0410000011325 200.0
0.79699999094 -0.125 0.0410000011325 197.0
0.808000028133 -0.131999999285 0.0419999994338 209.0
0.813000023365 -0.136999994516 0.0419999994338 204.0
0.782000005245 -0.136999994516 0.0399999991059 203.0
0.799000024796 -0.143999993801 0.0410000011325 206.0
0.806999981403 -0.150999993086 0.0419999994338 210.0
0.809000015259 -0.156000003219 0.0419999994338 233.0
0.953999996185 -0.189999997616 0.0500000007451 984.0
0.964999973774 -0.197999998927 0.0509999990463 1365.0
0.962999999523 -0.203999996185 0.0509999990463 1402.0
0.958999991417 -0.209000006318 0.0509999990463 1403.0
0.959999978542 -0.21400000155 0.0509999990463 1405.0
0.95300000906 -0.218999996781 0.0500000007451 1407.0
0.957000017166 -0.225999996066 0.0509999990463 1427.0
0.953999996185 -0.231000006199 0.0509999990463 1432.0
0.95300000906 -0.236000001431 0.0509999990463 1422.0
0.95300000906 -0.241999998689 0.0509999990463 1431.0
0.948000013828 -0.24699999392 0.0509999990463 1450.0
0.944999992847 -0.252000004053 0.0509999990463 1445.0
0.949000000954 -0.259000003338 0.0509999990463 1448.0
0.945999979973 -0.263999998569 0.0509999990463 1447.0
0.93599998951 -0.266999989748 0.0500000007451 1009.0
0.827000021935 -0.240999996662 0.0439999997616 288.0
0.763000011444 -0.226999998093 0.0410000011325 223.0
0.768000006676 -0.232999995351 0.0410000011325 223.0
0.76599997282 -0.237000003457 0.0410000011325 225.0
0.744000017643 -0.234999999404 0.0399999991059 224.0
0.758000016212 -0.245000004768 0.0410000011325 223.0
0.758000016212 -0.25 0.0410000011325 227.0
0.749000012875 -0.252000004053 0.0410000011325 227.0
0.742999970913 -0.254000008106 0.0399999991059 228.0
0.731000006199 -0.254999995232 0.0399999991059 229.0
0.753000020981 -0.268000006676 0.0410000011325 222.0
0.755999982357 -0.273999989033 0.0410000011325 236.0
0.755999982357 -0.279000014067 0.0410000011325 227.0
0.862999975681 -0.324999988079 0.0480000004172 538.0
0.917999982834 -0.352999985218 0.0509999990463 1383.0
0.920000016689 -0.360000014305 0.0509999990463 1491.0
0.917999982834 -0.365000009537 0.0509999990463 1524.0
0.916000008583 -0.370999991894 0.0509999990463 1509.0
0.916000008583 -0.377000004053 0.0520000010729 1522.0
0.911000013351 -0.381999999285 0.0509999990463 1519.0
0.902999997139 -0.384000003338 0.0509999990463 1511.0
0.90600001812 -0.391999989748 0.0509999990463 1533.0
0.90499997139 -0.398000001907 0.0509999990463 1504.0
0.898999989033 -0.402000010014 0.0509999990463 1533.0
0.901000022888 -0.409999996424 0.0520000010729 1527.0
0.893999993801 -0.412999987602 0.0509999990463 1530.0
0.898000001907 -0.421000003815 0.0520000010729 1521.0
0.864000022411 -0.412000000477 0.0500000007451 746.0
0.722000002861 -0.349000006914 0.0410000011325 282.0
0.680999994278 -0.333999991417 0.0390000008047 232.0
0.651000022888 -0.324000000954 0.0370000004768 237.0
0.694999992847 -0.351000010967 0.0399999991059 234.0
0.643999993801 -0.330000013113 0.0370000004768 246.0
0.67199999094 -0.34999999404 0.0390000008047 246.0
0.638999998569 -0.337999999523 0.0370000004768 236.0
0.64099997282 -0.344000011683 0.0370000004768 237.0
0.621999979019 -0.338999986649 0.0359999984503 241.0
0.619000017643 -0.342000007629 0.0359999984503 243.0
0.870000004768 0.499000012875 0.0419999994338 855.0
0.884000003338 0.5 0.0419999994338 873.0
0.875999987125 0.488000005484 0.0419999994338 878.0
0.875 0.479999989271 0.0419999994338 881.0
0.883000016212 0.477999985218 0.0419999994338 911.0
0.883000016212 0.469999998808 0.0419999994338 935.0
0.879999995232 0.462000012398 0.0419999994338 934.0
0.887000024319 0.458999991417 0.0419999994338 940.0
0.889999985695 0.45300000906 0.0419999994338 946.0
0.89200001955 0.448000013828 0.0419999994338 962.0
0.893999993801 0.442000001669 0.0419999994338 952.0
0.907000005245 0.441000014544 0.0430000014603 980.0
0.901000022888 0.432000011206 0.0419999994338 1004.0
0.90600001812 0.426999986172 0.0419999994338 992.0
0.902000010014 0.418999999762 0.0419999994338 1029.0
0.899999976158 0.411000013351 0.0419999994338 1032.0
0.90600001812 0.407000005245 0.0419999994338 1029.0
0.911000013351 0.402999997139 0.0419999994338 1028.0
0.910000026226 0.395999997854 0.0419999994338 1034.0
0.919000029564 0.393000006676 0.0419999994338 1035.0
0.907999992371 0.381999999285 0.0419999994338 1051.0
0.916000008583 0.379000008106 0.0419999994338 1078.0
0.917999982834 0.374000012875 0.0419999994338 1097.0
0.922999978065 0.368999987841 0.0419999994338 1096.0
0.925000011921 0.363999992609 0.0419999994338 1107.0
0.924000024796 0.356999993324 0.0419999994338 1123.0
0.925999999046 0.351000010967 0.0419999994338 1149.0
0.926999986172 0.344999998808 0.0419999994338 1142.0
0.931999981403 0.340999990702 0.0430000014603 1158.0
0.934000015259 0.335000008345 0.0430000014603 1153.0
0.930000007153 0.32800000906 0.0419999994338 1151.0
0.93599998951 0.324000000954 0.0430000014603 1149.0
0.929000020027 0.314999997616 0.0419999994338 1161.0
0.935000002384 0.31099998951 0.0419999994338 1199.0
0.934000015259 0.305000007153 0.0419999994338 1195.0
0.934000015259 0.298999994993 0.0419999994338 1200.0
0.936999976635 0.293000012636 0.0419999994338 1240.0
0.945999979973 0.289999991655 0.0430000014603 1232.0
0.945999979973 0.284000009298 0.0430000014603 1241.0
0.936999976635 0.275999993086 0.0419999994338 1256.0
0.945999979973 0.272000014782 0.0430000014603 1266.0
0.945999979973 0.266000002623 0.0430000014603 1280.0
0.945999979973 0.259999990463 0.0430000014603 1331.0
0.948000013828 0.254999995232 0.0430000014603 1333.0
0.949000000954 0.248999997973 0.0430000014603 1365.0
0.954999983311 0.245000004768 0.0430000014603 1363.0
0.958000004292 0.239999994636 0.0430000014603 1381.0
0.957000017166 0.232999995351 0.0430000014603 1384.0
0.959999978542 0.228000000119 0.0430000014603 1360.0
0.958000004292 0.222000002861 0.0430000014603 1356.0
0.959999978542 0.216999992728 0.0430000014603 1388.0
0.962999999523 0.21099999547 0.0430000014603 1427.0
0.962000012398 0.204999998212 0.0430000014603 1456.0
0.959999978542 0.199000000954 0.0430000014603 1484.0
0.962000012398 0.194000005722 0.0430000014603 1486.0
0.967000007629 0.188999995589 0.0430000014603 1498.0
0.967000007629 0.182999998331 0.0430000014603 1535.0
0.96899998188 0.178000003099 0.0430000014603 1549.0
0.967000007629 0.172000005841 0.0430000014603 1556.0
0.967999994755 0.165999993682 0.0430000014603 1589.0
0.971000015736 0.16099999845 0.0430000014603 1623.0
0.972000002861 0.155000001192 0.0430000014603 1605.0
0.971000015736 0.149000003934 0.0430000014603 1590.0
0.975000023842 0.143999993801 0.0439999997616 1579.0
0.973999977112 0.137999996543 0.0430000014603 1551.0
0.975000023842 0.133000001311 0.0439999997616 1556.0
0.976000010967 0.127000004053 0.0439999997616 1514.0
0.973999977112 0.120999999344 0.0430000014603 1489.0
0.976999998093 0.115999996662 0.0439999997616 1486.0
0.977999985218 0.109999999404 0.0439999997616 1429.0
0.976999998093 0.104999996722 0.0439999997616 1346.0
0.977999985218 0.0989999994636 0.0439999997616 1315.0
0.978999972343 0.0930000022054 0.0439999997616 1271.0
0.975000023842 0.0869999974966 0.0439999997616 1235.0
0.977999985218 0.082000002265 0.0439999997616 1212.0
0.975000023842 0.0759999975562 0.0439999997616 1175.0
0.98400002718 0.0710000023246 0.0439999997616 1149.0
0.978999972343 0.0649999976158 0.0439999997616 882.0
0.882000029087 0.0540000014007 0.0390000008047 200.0
0.0489999987185 0.00400000018999 0.0 47.0
0.0879999995232 0.0 0.00200000009499 55.0
0.270000010729 -0.00300000002608 0.0109999999404 57.0
0.985000014305 -0.0240000002086 0.0439999997616 611.0
1.00499999523 -0.0299999993294 0.0450000017881 1166.0
1.00499999523 -0.0359999984503 0.0450000017881 1180.0
1.00199997425 -0.0419999994338 0.0450000017881 1192.0
0.998000025749 -0.0469999983907 0.0450000017881 1192.0
0.998000025749 -0.0529999993742 0.0450000017881 1203.0
0.998000025749 -0.0590000003576 0.0450000017881 1214.0
0.996999979019 -0.0640000030398 0.0450000017881 1211.0
0.989000022411 -0.070000000298 0.0450000017881 1217.0
0.990000009537 -0.0750000029802 0.0450000017881 1216.0
0.990999996662 -0.0810000002384 0.0450000017881 1221.0
0.989000022411 -0.0869999974966 0.0450000017881 1232.0
0.987999975681 -0.0920000001788 0.0450000017881 1241.0
0.986000001431 -0.097999997437 0.0450000017881 1242.0
0.986999988556 -0.104000002146 0.0450000017881 1227.0
0.98400002718 -0.108999997377 0.0450000017881 1037.0
0.888999998569 -0.103000000119 0.0410000011325 283.0
0.822000026703 -0.10000000149 0.0370000004768 195.0
0.791999995708 -0.101000003517 0.0359999984503 197.0
0.791000008583 -0.104999996722 0.0359999984503 193.0
0.810000002384 -0.112999998033 0.0370000004768 199.0
0.808000028133 -0.116999998689 0.0370000004768 200.0
0.77999997139 -0.118000000715 0.0359999984503 200.0
0.777000010014 -0.122000001371 0.0359999984503 205.0
0.823000013828 -0.134000003338 0.0379999987781 206.0
0.815999984741 -0.137999996543 0.0370000004768 208.0
0.805999994278 -0.141000002623 0.0370000004768 208.0
0.79699999094 -0.143999993801 0.0370000004768 211.0
0.785000026226 -0.145999997854 0.0359999984503 213.0
0.822000026703 -0.158000007272 0.0379999987781 236.0
0.949999988079 -0.188999995589 0.0439999997616 989.0
0.962999999523 -0.197999998927 0.0450000017881 1361.0
0.962000012398 -0.202999994159 0.0450000017881 1399.0
0.958000004292 -0.208000004292 0.0450000017881 1403.0
0.962000012398 -0.215000003576 0.0450000017881 1405.0
0.958000004292 -0.219999998808 0.0450000017881 1409.0
0.953999996185 -0.22499999404 0.0450000017881 1410.0
0.953999996185 -0.231000006199 0.0450000017881 1423.0
0.95300000906 -0.236000001431 0.0450000017881 1434.0
0.955999970436 -0.243000000715 0.0450000017881 1436.0
0.952000021935 -0.247999995947 0.0450000017881 1444.0
0.947000026703 -0.252999991179 0.0450000017881 1437.0
0.952000021935 -0.259999990463 0.0450000017881 1438.0
0.944000005722 -0.263999998569 0.0450000017881 1438.0
0.931999981403 -0.266000002623 0.0450000017881 1003.0
0.814999997616 -0.237000003457 0.0390000008047 280.0
0.790000021458 -0.234999999404 0.0379999987781 219.0
0.76700001955 -0.232999995351 0.0370000004768 220.0
0.777000010014 -0.240999996662 0.0370000004768 222.0
0.78100001812 -0.24699999392 0.0370000004768 226.0
0.76599997282 -0.24699999392 0.0370000004768 233.0
0.769999980927 -0.254000008106 0.0370000004768 224.0
0.748000025749 -0.250999987125 0.0359999984503 235.0
0.745000004768 -0.254999995232 0.0359999984503 229.0
0.750999987125 -0.261999994516 0.0359999984503 229.0
0.736999988556 -0.261999994516 0.0359999984503 226.0
0.731000006199 -0.264999985695 0.0359999984503 230.0
0.740999996662 -0.273999989033 0.0359999984503 230.0
0.865999996662 -0.326000005007 0.0430000014603 526.0
0.919000029564 -0.352999985218 0.0450000017881 1389.0
0.917999982834 -0.358999997377 0.0460000000894 1510.0
0.913999974728 -0.363000005484 0.0450000017881 1506.0
0.919000029564 -0.372000008821 0.0460000000894 1502.0
0.913999974728 -0.375999987125 0.0460000000894 1521.0
0.915000021458 -0.38299998641 0.0460000000894 1534.0
0.908999979496 -0.386999994516 0.0460000000894 1523.0
0.910000026226 -0.393999993801 0.0460000000894 1532.0
0.907000005245 -0.398999989033 0.0460000000894 1518.0
0.90600001812 -0.405000001192 0.0460000000894 1546.0
0.899999976158 -0.409000009298 0.0460000000894 1553.0
0.897000014782 -0.41400000453 0.0460000000894 1528.0
0.894999980927 -0.419999986887 0.0460000000894 1527.0
0.860000014305 -0.409999996424 0.0439999997616 745.0
0.72000002861 -0.347999989986 0.0370000004768 276.0
0.674000024796 -0.330000013113 0.0340000018477 240.0
0.688000023365 -0.342000007629 0.035000000149 238.0
0.694999992847 -0.351000010967 0.0359999984503 246.0
0.657999992371 -0.337000012398 0.0340000018477 245.0
0.649999976158 -0.337999999523 0.0340000018477 240.0
0.660000026226 -0.349000006914 0.0340000018477 241.0
0.634000003338 -0.340000003576 0.0329999998212 241.0
0.633000016212 -0.344000011683 0.0329999998212 248.0
0.612999975681 -0.337999999523 0.0320000015199 252.0
0.884999990463 0.507000029087 0.0370000004768 1031.0
0.873000025749 0.493000000715 0.0359999984503 1043.0
0.887000024319 0.493999987841 0.0370000004768 1054.0
0.893000006676 0.490000009537 0.0370000004768 1049.0
0.882000029087 0.476999998093 0.0359999984503 1067.0
0.889999985695 0.474000006914 0.0370000004768 1105.0
0.893999993801 0.469000011683 0.0370000004768 1112.0
0.896000027657 0.462999999523 0.0370000004768 1120.0
0.898000001907 0.456999987364 0.0370000004768 1112.0
0.901000022888 0.451999992132 0.0370000004768 1127.0
0.908999979496 0.449000000954 0.0370000004768 1120.0
0.90499997139 0.439999997616 0.0370000004768 1157.0
0.90499997139 0.433999985456 0.0370000004768 1144.0
0.902999997139 0.425999999046 0.0370000004768 1149.0
0.90600001812 0.419999986887 0.0370000004768 1176.0
0.907999992371 0.414999991655 0.0370000004768 1176.0
0.907999992371 0.407999992371 0.0370000004768 1188.0
0.908999979496 0.402000010014 0.0370000004768 1215.0
0.910000026226 0.395999997854 0.0370000004768 1195.0
0.912000000477 0.389999985695 0.0370000004768 1209.0
0.920000016689 0.386999994516 0.0370000004768 1187.0
0.922999978065 0.381999999285 0.0370000004768 1218.0
0.919000029564 0.374000012875 0.0370000004768 1223.0
0.924000024796 0.370000004768 0.0370000004768 1228.0
0.922999978065 0.363000005484 0.0370000004768 1236.0
0.921000003815 0.356000006199 0.0370000004768 1262.0
0.926999986172 0.351000010967 0.0370000004768 1274.0
0.926999986172 0.344999998808 0.0370000004768 1273.0
0.929000020027 0.340000003576 0.0370000004768 1272.0
0.93599998951 0.33599999547 0.0370000004768 1275.0
0.930999994278 0.32800000906 0.0370000004768 1250.0
0.93599998951 0.324000000954 0.0370000004768 1259.0
0.93599998951 0.317000001669 0.0370000004768 1300.0
0.935000002384 0.31099998951 0.0370000004768 1313.0
0.938000023365 0.305999994278 0.0370000004768 1328.0
0.939999997616 0.300000011921 0.0370000004768 1352.0
0.943000018597 0.294999986887 0.0370000004768 1353.0
0.947000026703 0.289999991655 0.0370000004768 1356.0
0.944000005722 0.282999992371 0.0370000004768 1360.0
0.952000021935 0.280000001192 0.0370000004768 1376.0
0.949000000954 0.273000001907 0.0370000004768 1383.0
0.95300000906 0.268000006676 0.0370000004768 1398.0
0.949999988079 0.261000007391 0.0370000004768 1418.0
0.949999988079 0.254999995232 0.0370000004768 1420.0
0.955999970436 0.250999987125 0.0370000004768 1461.0
0.954999983311 0.245000004768 0.0370000004768 1484.0
0.955999970436 0.238999992609 0.0370000004768 1524.0
0.962000012398 0.234999999404 0.0379999987781 1532.0
0.959999978542 0.228000000119 0.0370000004768 1534.0
0.962999999523 0.223000004888 0.0379999987781 1540.0
0.958000004292 0.216000005603 0.0370000004768 1564.0
0.961000025272 0.21099999547 0.0370000004768 1578.0
0.961000025272 0.204999998212 0.0370000004768 1606.0
0.963999986649 0.20000000298 0.0379999987781 1654.0
0.962000012398 0.194000005722 0.0370000004768 1686.0
0.962000012398 0.187999993563 0.0370000004768 1685.0
0.967999994755 0.182999998331 0.0379999987781 1672.0
0.972000002861 0.178000003099 0.0379999987781 1739.0
0.971000015736 0.172000005841 0.0379999987781 1725.0
0.97000002861 0.165999993682 0.0379999987781 1786.0
0.971000015736 0.16099999845 0.0379999987781 1791.0
0.971000015736 0.155000001192 0.0379999987781 1849.0
0.976000010967 0.15000000596 0.0379999987781 1782.0
0.972000002861 0.143999993801 0.0379999987781 1780.0
0.978999972343 0.138999998569 0.0379999987781 1756.0
0.972999989986 0.131999999285 0.0379999987781 1722.0
0.980000019073 0.12800000608 0.0379999987781 1744.0
0.972999989986 0.120999999344 0.0379999987781 1745.0
0.975000023842 0.115999996662 0.0379999987781 1723.0
0.976000010967 0.109999999404 0.0379999987781 1615.0
0.976000010967 0.104000002146 0.0379999987781 1560.0
0.976000010967 0.0989999994636 0.0379999987781 1519.0
0.976999998093 0.0930000022054 0.0379999987781 1440.0
0.98299998045 0.0879999995232 0.0379999987781 1453.0
0.976000010967 0.082000002265 0.0379999987781 1422.0
0.985000014305 0.0769999995828 0.0379999987781 1385.0
0.980000019073 0.0710000023246 0.0379999987781 1424.0
0.980000019073 0.0649999976158 0.0379999987781 1177.0
0.899999976158 0.054999999702 0.035000000149 180.0
0.338999986649 -0.00400000018999 0.0120000001043 52.0
0.987999975681 -0.0240000002086 0.0390000008047 630.0
1.0 -0.0299999993294 0.0390000008047 1161.0
1.00600004196 -0.0359999984503 0.0399999991059 1178.0
1.0039999485 -0.0419999994338 0.0399999991059 1186.0
0.995999991894 -0.0469999983907 0.0390000008047 1194.0
1.0 -0.0529999993742 0.0399999991059 1199.0
1.00100004673 -0.0590000003576 0.0399999991059 1201.0
0.990999996662 -0.0640000030398 0.0390000008047 1207.0
0.990000009537 -0.070000000298 0.0390000008047 1219.0
0.991999983788 -0.0750000029802 0.0390000008047 1212.0
0.986000001431 -0.0810000002384 0.0390000008047 1218.0
0.990000009537 -0.0869999974966 0.0390000008047 1227.0
0.990999996662 -0.0930000022054 0.0390000008047 1235.0
0.986000001431 -0.097999997437 0.0390000008047 1246.0
0.989000022411 -0.104000002146 0.0399999991059 1241.0
0.976000010967 -0.108000002801 0.0390000008047 1027.0
0.867999970913 -0.101000003517 0.035000000149 273.0
0.81400001049 -0.0989999994636 0.0320000015199 191.0
0.800000011921 -0.101999998093 0.0320000015199 201.0
0.806999981403 -0.108000002801 0.0320000015199 199.0
0.815999984741 -0.11400000006 0.0329999998212 200.0
0.81099998951 -0.118000000715 0.0320000015199 201.0
0.785000026226 -0.118000000715 0.0309999994934 194.0
0.800999999046 -0.126000002027 0.0320000015199 202.0
0.81099998951 -0.131999999285 0.0320000015199 204.0
0.806999981403 -0.136000007391 0.0320000015199 199.0
0.796000003815 -0.138999998569 0.0320000015199 208.0
0.792999982834 -0.143000006676 0.0320000015199 205.0
0.804000020027 -0.15000000596 0.0320000015199 217.0
0.833000004292 -0.16099999845 0.0340000018477 247.0
0.947000026703 -0.188999995589 0.0390000008047 1000.0
0.963999986649 -0.197999998927 0.0390000008047 1378.0
0.963999986649 -0.203999996185 0.0390000008047 1398.0
0.958000004292 -0.208000004292 0.0390000008047 1400.0
0.957000017166 -0.21400000155 0.0390000008047 1406.0
0.959999978542 -0.221000000834 0.0399999991059 1397.0
0.955999970436 -0.22499999404 0.0390000008047 1409.0
0.958999991417 -0.231999993324 0.0399999991059 1412.0
0.955999970436 -0.237000003457 0.0399999991059 1423.0
0.950999975204 -0.241999998689 0.0390000008047 1439.0
0.949000000954 -0.24699999392 0.0390000008047 1445.0
0.949999988079 -0.252999991179 0.0399999991059 1450.0
0.948000013828 -0.259000003338 0.0399999991059 1457.0
0.943000018597 -0.263000011444 0.0390000008047 1436.0
0.930000007153 -0.266000002623 0.0390000008047 1002.0
0.825999975204 -0.239999994636 0.0340000018477 290.0
0.777000010014 -0.231000006199 0.0320000015199 226.0
0.78100001812 -0.237000003457 0.0329999998212 232.0
0.768000006676 -0.238000005484 0.0320000015199 232.0
0.764999985695 -0.241999998689 0.0320000015199 225.0
0.76599997282 -0.24699999392 0.0320000015199 234.0
0.763999998569 -0.252000004053 0.0320000015199 230.0
0.754999995232 -0.254000008106 0.0320000015199 236.0
0.757000029087 -0.259000003338 0.0320000015199 236.0
0.777000010014 -0.272000014782 0.0329999998212 223.0
0.774999976158 -0.275999993086 0.0329999998212 229.0
0.769999980927 -0.279000014067 0.0329999998212 229.0
0.750999987125 -0.277000010014 0.0320000015199 234.0
0.870999991894 -0.32800000906 0.0379999987781 527.0
0.915000021458 -0.351000010967 0.0399999991059 1394.0
0.917999982834 -0.358999997377 0.0399999991059 1508.0
0.916999995708 -0.365000009537 0.0399999991059 1522.0
0.912000000477 -0.368999987841 0.0399999991059 1510.0
0.907999992371 -0.374000012875 0.0399999991059 1518.0
0.910000026226 -0.381000012159 0.0399999991059 1519.0
0.90499997139 -0.384999990463 0.0399999991059 1535.0
0.903999984264 -0.391000002623 0.0399999991059 1522.0
0.90600001812 -0.398999989033 0.0399999991059 1527.0
0.902000010014 -0.402999997139 0.0399999991059 1545.0
0.902999997139 -0.409999996424 0.0399999991059 1539.0
0.902999997139 -0.416999995708 0.0410000011325 1537.0
0.896000027657 -0.421000003815 0.0399999991059 1541.0
0.869000017643 -0.41400000453 0.0390000008047 754.0
0.708000004292 -0.342000007629 0.0320000015199 281.0
0.679000020027 -0.333000004292 0.0299999993294 247.0
0.651000022888 -0.324000000954 0.0289999991655 240.0
0.672999978065 -0.340000003576 0.0299999993294 242.0
0.663999974728 -0.340000003576 0.0299999993294 245.0
0.648000001907 -0.337000012398 0.0289999991655 236.0
0.633000016212 -0.333999991417 0.0289999991655 243.0
0.661000013351 -0.354000002146 0.0299999993294 246.0
0.614000022411 -0.333999991417 0.0280000008643 252.0
0.64099997282 -0.354000002146 0.0289999991655 250.0
0.878000020981 0.503000020981 0.0309999994934 1032.0
0.879999995232 0.497000008821 0.0309999994934 1017.0
0.882000029087 0.490999996662 0.0309999994934 1032.0
0.883000016212 0.485000014305 0.0309999994934 1025.0
0.889999985695 0.481000006199 0.0309999994934 1033.0
0.887000024319 0.472000002861 0.0309999994934 1060.0
0.882000029087 0.462999999523 0.0309999994934 1067.0
0.89200001955 0.46099999547 0.0309999994934 1070.0
0.893999993801 0.455000013113 0.0309999994934 1067.0
0.897000014782 0.449999988079 0.0309999994934 1081.0
0.903999984264 0.446000009775 0.0309999994934 1087.0
0.907000005245 0.441000014544 0.0309999994934 1104.0
0.902999997139 0.432999998331 0.0309999994934 1084.0
0.90499997139 0.426999986172 0.0309999994934 1091.0
0.903999984264 0.419999986887 0.0309999994934 1106.0
0.912999987602 0.416999995708 0.0309999994934 1104.0
0.90499997139 0.407000005245 0.0309999994934 1108.0
0.917999982834 0.405999988317 0.0309999994934 1140.0
0.916999995708 0.398999989033 0.0309999994934 1145.0
0.910000026226 0.388999998569 0.0309999994934 1134.0
0.916000008583 0.386000007391 0.0309999994934 1131.0
0.917999982834 0.379999995232 0.0309999994934 1127.0
0.924000024796 0.375999987125 0.0309999994934 1156.0
0.917999982834 0.36700001359 0.0309999994934 1140.0
0.924000024796 0.363000005484 0.0309999994934 1145.0
0.927999973297 0.358000010252 0.0309999994934 1177.0
0.924000024796 0.34999999404 0.0309999994934 1206.0
0.930000007153 0.345999985933 0.0309999994934 1184.0
0.933000028133 0.340999990702 0.0309999994934 1187.0
0.934000015259 0.335000008345 0.0309999994934 1195.0
0.930000007153 0.32800000906 0.0309999994934 1174.0
0.934000015259 0.323000013828 0.0309999994934 1183.0
0.930999994278 0.316000014544 0.0309999994934 1191.0
0.93900001049 0.312000006437 0.0309999994934 1214.0
0.939999997616 0.305999994278 0.0309999994934 1235.0
0.938000023365 0.300000011921 0.0309999994934 1250.0
0.940999984741 0.294999986887 0.0309999994934 1239.0
0.945999979973 0.289999991655 0.0309999994934 1273.0
0.944999992847 0.284000009298 0.0309999994934 1273.0
0.949000000954 0.279000014067 0.0320000015199 1251.0
0.944000005722 0.270999997854 0.0309999994934 1270.0
0.943000018597 0.264999985695 0.0309999994934 1298.0
0.952000021935 0.261999994516 0.0320000015199 1312.0
0.95300000906 0.256000012159 0.0320000015199 1318.0
0.958000004292 0.250999987125 0.0320000015199 1358.0
0.95300000906 0.244000002742 0.0320000015199 1338.0
0.950999975204 0.238000005484 0.0309999994934 1361.0
0.953999996185 0.232999995351 0.0320000015199 1361.0
0.954999983311 0.226999998093 0.0320000015199 1369.0
0.959999978542 0.222000002861 0.0320000015199 1400.0
0.957000017166 0.216000005603 0.0320000015199 1422.0
0.961000025272 0.21099999547 0.0320000015199 1450.0
0.963999986649 0.206000000238 0.0320000015199 1460.0
0.963999986649 0.20000000298 0.0320000015199 1494.0
0.962999999523 0.194000005722 0.0320000015199 1527.0
0.964999973774 0.187999993563 0.0320000015199 1525.0
0.962000012398 0.181999996305 0.0320000015199 1513.0
0.967000007629 0.177000001073 0.0320000015199 1564.0
0.967000007629 0.171000003815 0.0320000015199 1557.0
0.967999994755 0.165999993682 0.0320000015199 1562.0
0.971000015736 0.16099999845 0.0320000015199 1591.0
0.972999989986 0.155000001192 0.0320000015199 1633.0
0.978999972343 0.15000000596 0.0320000015199 1621.0
0.977999985218 0.143999993801 0.0320000015199 1628.0
0.977999985218 0.138999998569 0.0320000015199 1633.0
0.972999989986 0.131999999285 0.0320000015199 1637.0
0.973999977112 0.127000004053 0.0320000015199 1632.0
0.981000006199 0.122000001371 0.0320000015199 1583.0
0.976000010967 0.115999996662 0.0320000015199 1532.0
0.975000023842 0.109999999404 0.0320000015199 1438.0
0.976000010967 0.104000002146 0.0320000015199 1488.0
0.976000010967 0.0989999994636 0.0320000015199 1449.0
0.981000006199 0.0930000022054 0.0329999998212 1381.0
0.976999998093 0.0869999974966 0.0320000015199 1381.0
0.981000006199 0.082000002265 0.0329999998212 1390.0
0.981000006199 0.0759999975562 0.0329999998212 1349.0
0.980000019073 0.0710000023246 0.0329999998212 1336.0
0.972999989986 0.0649999976158 0.0320000015199 1111.0
0.860000014305 0.0520000010729 0.0280000008643 180.0
0.118000000715 0.0 0.00200000009499 47.0
0.361000001431 -0.00499999988824 0.0109999999404 57.0
0.976000010967 -0.0240000002086 0.0329999998212 651.0
0.999000012875 -0.0299999993294 0.0340000018477 1162.0
1.00499999523 -0.0359999984503 0.0340000018477 1150.0
1.0 -0.0419999994338 0.0340000018477 1172.0
1.00100004673 -0.0469999983907 0.0340000018477 1185.0
0.995000004768 -0.0529999993742 0.0340000018477 1178.0
0.998000025749 -0.0590000003576 0.0340000018477 1192.0
0.991999983788 -0.0640000030398 0.0340000018477 1191.0
0.995000004768 -0.070000000298 0.0340000018477 1208.0
0.995000004768 -0.0759999975562 0.0340000018477 1197.0
0.991999983788 -0.0810000002384 0.0340000018477 1207.0
0.987999975681 -0.0869999974966 0.0340000018477 1206.0
0.986999988556 -0.0920000001788 0.0340000018477 1227.0
0.986000001431 -0.097999997437 0.0340000018477 1225.0
0.986000001431 -0.104000002146 0.0340000018477 1230.0
0.976000010967 -0.108000002801 0.0329999998212 1005.0
0.871999979019 -0.101000003517 0.0299999993294 277.0
0.824000000954 -0.10000000149 0.0280000008643 206.0
0.82800000906 -0.105999998748 0.0280000008643 205.0
0.809000015259 -0.108000002801 0.0270000007004 199.0
0.809000015259 -0.112999998033 0.0280000008643 207.0
0.808000028133 -0.116999998689 0.0280000008643 207.0
0.800999999046 -0.120999999344 0.0270000007004 205.0
0.815999984741 -0.12800000608 0.0280000008643 210.0
0.800999999046 -0.129999995232 0.0270000007004 208.0
0.802999973297 -0.135000005364 0.0280000008643 212.0
0.805999994278 -0.141000002623 0.0280000008643 213.0
0.806999981403 -0.145999997854 0.0280000008643 213.0
0.800999999046 -0.149000003934 0.0280000008643 210.0
