ply
format ascii 1.0
element vertex 941
property float x
property float y
property float z
property float intensity
end_header
0.875999987125 -0.374000012875 0.27500000596 1314.0
0.876999974251 -0.381000012159 0.275999993086 1320.0
0.871999979019 -0.384999990463 0.27500000596 1316.0
0.869000017643 -0.389999985695 0.27500000596 1329.0
0.864000022411 -0.395000010729 0.273999989033 1316.0
0.870000004768 -0.404000014067 0.277000010014 1314.0
0.867999970913 -0.409999996424 0.277000010014 1286.0
0.861999988556 -0.412999987602 0.275999993086 1304.0
0.869000017643 -0.423999994993 0.279000014067 1291.0
0.869000017643 -0.430999994278 0.280000001192 1303.0
0.869000017643 -0.437000006437 0.280000001192 1303.0
0.871999979019 -0.446000009775 0.282000005245 1319.0
0.866999983788 -0.449999988079 0.280999988317 1260.0
0.861999988556 -0.455000013113 0.280999988317 1292.0
0.864000022411 -0.462999999523 0.282000005245 1292.0
0.864000022411 -0.469999998808 0.282999992371 1308.0
0.856000006199 -0.472000002861 0.280999988317 1279.0
0.85900002718 -0.481000006199 0.282999992371 1273.0
0.864000022411 -0.490999996662 0.286000013351 1270.0
0.862999975681 -0.499000012875 0.286000013351 1285.0
1.73599994183 1.04100000858 0.560000002384 220.0
1.76199996471 1.04200005531 0.566999971867 175.0
1.78299999237 1.0379999876 0.572000026703 91.0
1.99899995327 1.13100004196 0.638000011444 190.0
2.03399991989 1.13300001621 0.647000014782 272.0
2.06100010872 1.13100004196 0.652999997139 299.0
2.05100011826 1.10899996758 0.648999989033 303.0
2.03999996185 1.08599996567 0.643000006676 290.0
2.06399989128 1.08200001717 0.648999989033 252.0
2.09899997711 1.08299994469 0.657999992371 139.0
2.12299990654 1.07899999619 0.663999974728 134.0
2.14100003242 1.07099997997 0.667999982834 229.0
2.17700004578 1.0720000267 0.676999986172 246.0
2.23099994659 1.08099997044 0.691999971867 113.0
3.23200011253 1.1629999876 0.967999994755 96.0
3.26799988747 1.15400004387 0.976999998093 82.0
3.60800004005 1.24899995327 1.07700002193 67.0
3.72600007057 1.26400005817 1.11000001431 107.0
3.7349998951 1.24199998379 1.11099994183 111.0
3.71000003815 1.20899999142 1.10199999809 95.0
3.93300008774 1.25499999523 1.16700005531 66.0
4.08199977875 1.24800002575 1.20700001717 71.0
4.10099983215 1.22599995136 1.21099996567 103.0
4.0609998703 1.18799996376 1.19799995422 111.0
4.06300020218 1.16100001335 1.1970000267 116.0
4.03999996185 1.12800002098 1.18799996376 107.0
4.01399993896 1.09500002861 1.17900002003 107.0
4.0640001297 1.08200001717 1.19200003147 114.0
4.08099985123 1.05999994278 1.19599997997 107.0
4.03299999237 1.02199995518 1.17999994755 103.0
4.04400014877 0.999000012875 1.18200004101 106.0
4.04300022125 0.972999989986 1.17999994755 109.0
4.08900022507 0.957000017166 1.19200003147 111.0
4.08400011063 0.930999994278 1.18900001049 106.0
4.10699987411 0.910000026226 1.19500005245 108.0
4.08300018311 0.879000008106 1.18700003624 108.0
4.0640001297 0.848999977112 1.17999994755 107.0
4.09800004959 0.829999983311 1.18900001049 111.0
4.0720000267 0.800000011921 1.17999994755 112.0
4.01499986649 0.763999998569 1.16199994087 115.0
4.07899999619 0.750999987125 1.17999994755 112.0
4.09800004959 0.728999972343 1.18499994278 111.0
4.09999990463 0.703999996185 1.18400001526 108.0
4.09800004959 0.677999973297 1.18299996853 107.0
4.08199977875 0.651000022888 1.17700004578 106.0
4.09600019455 0.628000020981 1.17999994755 103.0
4.09399986267 0.601999998093 1.17900002003 74.0
0.931999981403 -0.082999996841 0.266000002623 1134.0
0.912000000477 -0.0869999974966 0.259999990463 1272.0
0.907999992371 -0.0920000001788 0.259000003338 1305.0
0.910000026226 -0.097000002861 0.259999990463 1260.0
0.912000000477 -0.103000000119 0.261000007391 1301.0
0.911000013351 -0.108000002801 0.259999990463 1337.0
0.911000013351 -0.11400000006 0.261000007391 1302.0
0.908999979496 -0.119000002742 0.259999990463 1333.0
0.90499997139 -0.123999997973 0.259000003338 1290.0
0.907000005245 -0.129999995232 0.259999990463 1310.0
0.907000005245 -0.135000005364 0.259999990463 1287.0
0.907999992371 -0.141000002623 0.261000007391 1288.0
0.90499997139 -0.145999997854 0.259999990463 1305.0
0.90499997139 -0.151999995112 0.259999990463 1295.0
0.902999997139 -0.157000005245 0.259999990463 1317.0
0.902000010014 -0.162000000477 0.259999990463 1323.0
0.90499997139 -0.167999997735 0.261000007391 1313.0
0.902999997139 -0.172999992967 0.261000007391 1338.0
0.901000022888 -0.179000005126 0.261000007391 1353.0
0.893999993801 -0.182999998331 0.259000003338 1296.0
0.902000010014 -0.189999997616 0.261999994516 1308.0
0.896000027657 -0.194999992847 0.259999990463 1314.0
0.897000014782 -0.20000000298 0.261000007391 1311.0
0.896000027657 -0.206000000238 0.261000007391 1290.0
0.898000001907 -0.211999997497 0.261999994516 1270.0
0.897000014782 -0.216999992728 0.261999994516 1302.0
0.899999976158 -0.224000006914 0.263000011444 1313.0
0.898000001907 -0.229000002146 0.263000011444 1341.0
0.89200001955 -0.232999995351 0.261000007391 1325.0
0.889999985695 -0.238999992609 0.261000007391 1340.0
0.896000027657 -0.246000006795 0.263000011444 1341.0
0.884999990463 -0.248999997973 0.259999990463 1337.0
0.89099997282 -0.256000012159 0.263000011444 1327.0
0.888000011444 -0.261000007391 0.261999994516 1361.0
0.89099997282 -0.268000006676 0.263999998569 1340.0
0.887000024319 -0.273000001907 0.263000011444 1335.0
0.888000011444 -0.279000014067 0.263999998569 1340.0
0.883000016212 -0.282999992371 0.263000011444 1369.0
0.888999998569 -0.291000008583 0.264999985695 1369.0
0.89099997282 -0.298000007868 0.266000002623 1389.0
0.888000011444 -0.303000003099 0.266000002623 1361.0
0.878000020981 -0.305999994278 0.263000011444 1369.0
0.89099997282 -0.316000014544 0.268000006676 1363.0
0.879999995232 -0.317999988794 0.264999985695 1355.0
0.882000029087 -0.324999988079 0.266000002623 1325.0
0.875 -0.328999996185 0.263999998569 1331.0
0.879000008106 -0.33599999547 0.266000002623 1308.0
0.880999982357 -0.342999994755 0.266999989748 1319.0
0.874000012875 -0.347000002861 0.266000002623 1351.0
0.879000008106 -0.354999989271 0.268000006676 1353.0
0.879999995232 -0.361999988556 0.268999993801 1356.0
0.871999979019 -0.365000009537 0.266999989748 1320.0
0.870000004768 -0.370999991894 0.266999989748 1307.0
0.878000020981 -0.381000012159 0.270000010729 1331.0
0.871999979019 -0.384000003338 0.268999993801 1319.0
0.873000025749 -0.391000002623 0.270000010729 1329.0
0.871999979019 -0.397000014782 0.270000010729 1318.0
0.873000025749 -0.405000001192 0.272000014782 1312.0
0.867999970913 -0.409000009298 0.270999997854 1311.0
0.866999983788 -0.414999991655 0.270999997854 1268.0
0.874000012875 -0.425000011921 0.273999989033 1288.0
0.867999970913 -0.428999990225 0.273000001907 1299.0
0.870999991894 -0.437000006437 0.27500000596 1323.0
0.864000022411 -0.441000014544 0.273999989033 1303.0
0.867999970913 -0.449999988079 0.275999993086 1279.0
0.873000025749 -0.458999991417 0.277999997139 1307.0
0.865999996662 -0.462999999523 0.277000010014 1315.0
0.866999983788 -0.470999985933 0.277999997139 1290.0
0.853999972343 -0.470999985933 0.273999989033 1273.0
0.85799998045 -0.479999989271 0.275999993086 1253.0
0.864000022411 -0.490000009537 0.279000014067 1281.0
0.851999998093 -0.490999996662 0.275999993086 1296.0
1.75300002098 1.0490000248 0.552999973297 226.0
1.8029999733 1.06400001049 0.566999971867 148.0
1.9620000124 1.10699999332 0.611000001431 115.0
2.01200008392 1.11899995804 0.625 233.0
2.03200006485 1.11300003529 0.629999995232 310.0
2.05599999428 1.10899996758 0.634999990463 296.0
2.05599999428 1.09300005436 0.634000003338 295.0
2.0569999218 1.0759999752 0.632000029087 247.0
2.08599996567 1.07500004768 0.638999998569 132.0
2.10199999809 1.06599998474 0.64200001955 141.0
2.1289999485 1.06299996376 0.648999989033 257.0
2.20399999619 1.08299994469 0.670000016689 228.0
2.27500009537 1.10099995136 0.689999997616 116.0
3.21000003815 1.15400004387 0.939999997616 91.0
3.28500008583 1.15799999237 0.959999978542 77.0
3.58800005913 1.24000000954 1.04700005054 69.0
3.72399997711 1.26199996471 1.08500003815 109.0
3.75999999046 1.24800002575 1.09399998188 110.0
3.75900006294 1.22300004959 1.09200000763 91.0
3.89599990845 1.24100005627 1.12999999523 65.0
4.05100011826 1.23599994183 1.17100000381 76.0
4.03900003433 1.20599997044 1.16600000858 103.0
4.0640001297 1.18599998951 1.17200005054 109.0
4.03900003433 1.15199995041 1.1629999876 107.0
4.02799987793 1.12300002575 1.15799999237 110.0
4.09399986267 1.11500000954 1.17499995232 112.0
4.09299993515 1.08800005913 1.1740000248 106.0
4.08799982071 1.05999994278 1.17100000381 105.0
4.06500005722 1.02799999714 1.1629999876 111.0
4.01999998093 0.990999996662 1.14800000191 109.0
4.03700017929 0.97000002861 1.15199995041 101.0
4.08099985123 0.953999996185 1.1629999876 106.0
4.11199998856 0.935000002384 1.17100000381 109.0
4.08900022507 0.903999984264 1.1629999876 113.0
4.04199981689 0.867999970913 1.14800000191 109.0
4.09000015259 0.852999985218 1.16100001335 111.0
4.09299993515 0.82800000906 1.16100001335 109.0
4.08599996567 0.800999999046 1.15799999237 112.0
4.05900001526 0.771000027657 1.14900004864 111.0
4.08500003815 0.750999987125 1.15600001812 111.0
4.09700012207 0.726999998093 1.15799999237 106.0
4.07999992371 0.699000000954 1.15199995041 107.0
4.05499982834 0.670000016689 1.14400005341 103.0
4.04500007629 0.643999993801 1.14100003242 105.0
4.05200004578 0.620000004768 1.14199995995 103.0
0.927999973297 -0.082999996841 0.25799998641 1128.0
0.912000000477 -0.0869999974966 0.254000008106 1296.0
0.915000021458 -0.0920000001788 0.254999995232 1316.0
0.912999987602 -0.097000002861 0.254999995232 1272.0
0.912999987602 -0.103000000119 0.254999995232 1283.0
0.90499997139 -0.108000002801 0.252999991179 1318.0
0.908999979496 -0.112999998033 0.254000008106 1299.0
0.912000000477 -0.119000002742 0.254999995232 1302.0
0.916000008583 -0.125 0.256999999285 1297.0
0.902999997139 -0.128999993205 0.252999991179 1297.0
0.910000026226 -0.136000007391 0.254999995232 1300.0
0.90600001812 -0.141000002623 0.254999995232 1291.0
0.908999979496 -0.146999999881 0.256000012159 1307.0
0.90600001812 -0.151999995112 0.254999995232 1300.0
0.907000005245 -0.157000005245 0.254999995232 1307.0
0.90600001812 -0.163000002503 0.254999995232 1332.0
0.902000010014 -0.167999997735 0.254999995232 1322.0
0.907000005245 -0.173999994993 0.256000012159 1326.0
0.896000027657 -0.177000001073 0.252999991179 1344.0
0.902999997139 -0.184000000358 0.256000012159 1318.0
0.902999997139 -0.189999997616 0.256000012159 1316.0
0.897000014782 -0.194999992847 0.254999995232 1330.0
0.897000014782 -0.20000000298 0.254999995232 1326.0
0.897000014782 -0.206000000238 0.254999995232 1300.0
0.899999976158 -0.211999997497 0.256000012159 1294.0
0.897000014782 -0.216999992728 0.256000012159 1326.0
0.894999980927 -0.222000002861 0.256000012159 1334.0
0.898999989033 -0.229000002146 0.256999999285 1329.0
0.89200001955 -0.232999995351 0.256000012159 1342.0
0.888000011444 -0.238000005484 0.254999995232 1344.0
0.893999993801 -0.245000004768 0.256999999285 1342.0
0.89099997282 -0.25 0.256999999285 1355.0
0.89099997282 -0.256000012159 0.256999999285 1326.0
0.888000011444 -0.261000007391 0.256000012159 1343.0
0.887000024319 -0.266000002623 0.256999999285 1356.0
0.884000003338 -0.270999997854 0.256000012159 1360.0
0.889999985695 -0.279000014067 0.25799998641 1353.0
0.883000016212 -0.282999992371 0.256999999285 1371.0
0.883000016212 -0.28900000453 0.256999999285 1389.0
0.880999982357 -0.293999999762 0.256999999285 1384.0
0.884999990463 -0.300999999046 0.259000003338 1376.0
0.884000003338 -0.307000011206 0.259000003338 1378.0
0.884999990463 -0.31400001049 0.259999990463 1366.0
0.883000016212 -0.319000005722 0.259999990463 1370.0
0.879999995232 -0.324000000954 0.259000003338 1354.0
0.884000003338 -0.331999987364 0.261000007391 1311.0
0.879000008106 -0.33599999547 0.259999990463 1318.0
0.876999974251 -0.340999990702 0.259999990463 1324.0
0.876999974251 -0.347999989986 0.261000007391 1364.0
0.875 -0.352999985218 0.261000007391 1393.0
0.878000020981 -0.360000014305 0.261999994516 1383.0
0.871999979019 -0.363999992609 0.261000007391 1369.0
0.875999987125 -0.372999995947 0.263000011444 1320.0
0.870000004768 -0.375999987125 0.261999994516 1312.0
0.878000020981 -0.386999994516 0.264999985695 1316.0
0.873000025749 -0.391000002623 0.263999998569 1313.0
0.870000004768 -0.395999997854 0.263999998569 1341.0
0.874000012875 -0.405000001192 0.266000002623 1317.0
0.867999970913 -0.407999992371 0.264999985695 1315.0
0.864000022411 -0.412999987602 0.263999998569 1267.0
0.861999988556 -0.418999999762 0.263999998569 1298.0
0.867999970913 -0.428999990225 0.266999989748 1314.0
0.866999983788 -0.435000002384 0.266999989748 1305.0
0.865999996662 -0.441000014544 0.268000006676 1300.0
0.869000017643 -0.449000000954 0.268999993801 1278.0
0.866999983788 -0.456000000238 0.270000010729 1292.0
0.865000009537 -0.462000012398 0.270000010729 1314.0
0.860000014305 -0.465999990702 0.268999993801 1304.0
0.865000009537 -0.476000010967 0.272000014782 1278.0
0.862999975681 -0.481999993324 0.272000014782 1289.0
0.861000001431 -0.488000005484 0.272000014782 1275.0
0.85799998045 -0.493999987841 0.272000014782 1301.0
1.74399995804 1.04200005531 0.537000000477 223.0
1.77999997139 1.0490000248 0.54699999094 134.0
1.97200000286 1.12800002098 0.601999998093 113.0
1.99300003052 1.12300002575 0.606999993324 158.0
2.03200006485 1.12800002098 0.616999983788 282.0
2.03200006485 1.11099994183 0.615000009537 297.0
2.03399991989 1.09500002861 0.614000022411 310.0
2.06900000572 1.09700000286 0.623000025749 290.0
2.06100010872 1.07700002193 0.619000017643 219.0
2.05900001526 1.05900001526 0.615999996662 120.0
2.11199998856 1.06900000572 0.629999995232 144.0
2.14700007439 1.07000005245 0.638999998569 269.0
2.1930000782 1.0759999752 0.651000022888 204.0
2.23399996758 1.07899999619 0.662000000477 119.0
3.25500011444 1.16799998283 0.930999994278 96.0
3.33500003815 1.1740000248 0.952000021935 74.0
3.70600008965 1.2539999485 1.05499994755 107.0
3.69400000572 1.22399997711 1.04999995232 106.0
3.72900009155 1.21099996567 1.05799996853 92.0
3.99499988556 1.24399995804 1.12999999523 66.0
3.98200011253 1.21300005913 1.125 71.0
4.01499986649 1.1970000267 1.13300001621 109.0
4.05999994278 1.18299996853 1.14400005341 115.0
4.07700014114 1.16199994087 1.14699995518 106.0
4.03800010681 1.12399995327 1.13399994373 110.0
4.07700014114 1.10800004005 1.14400005341 107.0
4.11299991608 1.09200000763 1.15199995041 112.0
4.08799982071 1.05900001526 1.14400005341 108.0
4.04500007629 1.02199995518 1.13100004196 113.0
4.09999990463 1.00899994373 1.14499998093 108.0
4.01900005341 0.963999986649 1.1210000515 104.0
4.05700016022 0.947000026703 1.12999999523 111.0
4.06599998474 0.922999978065 1.13100004196 105.0
4.11100006104 0.907999992371 1.14300000668 109.0
4.08799982071 0.876999974251 1.13499999046 112.0
4.08400011063 0.851000010967 1.13300001621 110.0
4.04199981689 0.816999971867 1.12000000477 113.0
4.09200000763 0.800999999046 1.13300001621 105.0
4.08400011063 0.773999989033 1.12999999523 114.0
4.07499980927 0.746999979019 1.12600004673 113.0
4.12799978256 0.731999993324 1.13999998569 110.0
4.12400007248 0.705999970436 1.13800001144 111.0
4.07999992371 0.672999978065 1.125 100.0
4.03900003433 0.64200001955 1.11300003529 100.0
4.00099992752 0.611000001431 1.10199999809 98.0
4.0529999733 0.59399998188 1.11500000954 84.0
0.934000015259 -0.082999996841 0.254000008106 1144.0
0.912999987602 -0.0860000029206 0.248999997973 1295.0
0.912000000477 -0.0920000001788 0.248999997973 1325.0
0.908999979496 -0.097000002861 0.247999995947 1275.0
0.908999979496 -0.101999998093 0.247999995947 1276.0
0.908999979496 -0.108000002801 0.247999995947 1313.0
0.910000026226 -0.112999998033 0.248999997973 1289.0
0.912999987602 -0.119000002742 0.25 1318.0
0.910000026226 -0.123999997973 0.248999997973 1312.0
0.907000005245 -0.128999993205 0.247999995947 1300.0
0.908999979496 -0.135000005364 0.248999997973 1305.0
0.90600001812 -0.140000000596 0.248999997973 1299.0
0.907000005245 -0.145999997854 0.248999997973 1307.0
0.90499997139 -0.150999993086 0.248999997973 1300.0
0.907000005245 -0.157000005245 0.25 1305.0
0.902000010014 -0.162000000477 0.248999997973 1325.0
0.908999979496 -0.168999999762 0.250999987125 1336.0
0.901000022888 -0.172999992967 0.248999997973 1316.0
0.902999997139 -0.179000005126 0.25 1373.0
0.898000001907 -0.182999998331 0.247999995947 1336.0
0.902000010014 -0.189999997616 0.25 1323.0
0.898000001907 -0.194000005722 0.248999997973 1335.0
0.897000014782 -0.20000000298 0.248999997973 1337.0
0.887000024319 -0.202999994159 0.24699999392 1319.0
0.896000027657 -0.21099999547 0.248999997973 1345.0
0.894999980927 -0.216000005603 0.25 1360.0
0.893000006676 -0.222000002861 0.248999997973 1336.0
0.896000027657 -0.228000000119 0.250999987125 1334.0
0.888999998569 -0.231999993324 0.248999997973 1349.0
0.888000011444 -0.237000003457 0.248999997973 1348.0
0.893999993801 -0.245000004768 0.250999987125 1337.0
0.893000006676 -0.25 0.250999987125 1354.0
0.888000011444 -0.254999995232 0.25 1334.0
0.893000006676 -0.261999994516 0.252000004053 1327.0
0.888999998569 -0.266999989748 0.250999987125 1385.0
0.888000011444 -0.272000014782 0.252000004053 1389.0
0.885999977589 -0.277999997139 0.250999987125 1367.0
0.885999977589 -0.282999992371 0.252000004053 1364.0
0.879999995232 -0.287000000477 0.250999987125 1383.0
0.888000011444 -0.296000003815 0.252999991179 1389.0
0.89099997282 -0.303000003099 0.254999995232 1382.0
0.879000008106 -0.305000007153 0.252000004053 1381.0
0.883000016212 -0.312999993563 0.254000008106 1370.0
0.883000016212 -0.317999988794 0.254000008106 1379.0
0.879999995232 -0.323000013828 0.252999991179 1371.0
0.876999974251 -0.32800000906 0.252999991179 1341.0
0.884000003338 -0.337000012398 0.256000012159 1333.0
0.882000029087 -0.342999994755 0.256000012159 1350.0
0.876999974251 -0.347000002861 0.254999995232 1347.0
0.876999974251 -0.352999985218 0.254999995232 1367.0
0.875 -0.358999997377 0.256000012159 1379.0
0.878000020981 -0.365999996662 0.256999999285 1355.0
0.871999979019 -0.370000004768 0.256000012159 1359.0
0.871999979019 -0.377000004053 0.256000012159 1322.0
0.876999974251 -0.384999990463 0.259000003338 1312.0
0.870999991894 -0.388999998569 0.25799998641 1300.0
0.867999970913 -0.393999993801 0.256999999285 1326.0
0.870999991894 -0.402000010014 0.259000003338 1313.0
0.870999991894 -0.409000009298 0.259999990463 1319.0
0.864000022411 -0.412000000477 0.25799998641 1287.0
0.873000025749 -0.423999994993 0.261999994516 1289.0
0.865999996662 -0.426999986172 0.259999990463 1312.0
0.861999988556 -0.430999994278 0.259999990463 1287.0
0.865000009537 -0.439999997616 0.261000007391 1271.0
0.862999975681 -0.446000009775 0.261999994516 1280.0
0.865000009537 -0.453999996185 0.263000011444 1323.0
0.869000017643 -0.462999999523 0.264999985695 1329.0
0.865999996662 -0.467999994755 0.264999985695 1298.0
0.864000022411 -0.474000006914 0.264999985695 1280.0
0.865999996662 -0.483000010252 0.266999989748 1312.0
0.85900002718 -0.486000001431 0.264999985695 1297.0
0.867999970913 -0.499000012875 0.268999993801 1311.0
1.74199998379 1.03900003433 0.523999989033 216.0
1.8029999733 1.05999994278 0.541000008583 138.0
1.95500004292 1.11600005627 0.583000004292 126.0
2.00500011444 1.12800002098 0.596000015736 247.0
2.02800011635 1.12399995327 0.601000010967 295.0
2.04699993134 1.11699998379 0.605000019073 299.0
2.03699994087 1.09500002861 0.600000023842 305.0
2.07699990273 1.10000002384 0.611000001431 293.0
2.09400010109 1.09200000763 0.614000022411 214.0
2.08999991417 1.07299995422 0.611000001431 119.0
2.09400010109 1.05799996853 0.610000014305 153.0
2.13800001144 1.06400001049 0.621999979019 269.0
2.18799996376 1.0720000267 0.634999990463 186.0
2.19899988174 1.05999994278 0.635999977589 107.0
3.3220000267 1.21300005913 0.930000007153 71.0
3.24300003052 1.16199994087 0.90600001812 84.0
3.65799999237 1.25999999046 1.01900005341 89.0
3.66199994087 1.23599994183 1.01800000668 118.0
3.70600008965 1.22599995136 1.02900004387 107.0
3.69099998474 1.1970000267 1.02300000191 87.0
4.03700017929 1.28199994564 1.11699998379 65.0
4.0 1.24300003052 1.10500001907 67.0
4.03200006485 1.22599995136 1.11300003529 75.0
4.03000020981 1.19900000095 1.11000001431 110.0
4.03299999237 1.17299997807 1.11000001431 110.0
4.01499986649 1.14199995995 1.10300004482 105.0
4.01800012589 1.11699998379 1.10300004482 113.0
4.08099985123 1.10800004005 1.11800003052 113.0
4.04199981689 1.07099997997 1.10599994659 103.0
4.08599996567 1.05599999428 1.11699998379 106.0
4.07499980927 1.02699995041 1.11199998856 115.0
4.08699989319 1.0039999485 1.11399996281 111.0
4.06699991226 0.973999977112 1.10800004005 106.0
4.07100009918 0.949000000954 1.10800004005 109.0
4.09200000763 0.927999973297 1.11199998856 106.0
4.09700012207 0.902999997139 1.11199998856 104.0
4.07399988174 0.873000025749 1.10500001907 110.0
4.11899995804 0.856000006199 1.11600005627 109.0
4.11800003052 0.830999970436 1.11500000954 111.0
4.08400011063 0.797999978065 1.10500001907 108.0
4.15799999237 0.787000000477 1.12399995327 108.0
4.08199977875 0.746999979019 1.10199999809 109.0
4.06799983978 0.72000002861 1.09700000286 108.0
4.08300018311 0.698000013828 1.10099995136 110.0
4.04099988937 0.666000008583 1.08899998665 103.0
4.08400011063 0.648000001907 1.09899997711 99.0
4.1139998436 0.626999974251 1.10699999332 100.0
0.931999981403 -0.082999996841 0.247999995947 1145.0
0.916999995708 -0.0869999974966 0.244000002742 1293.0
0.90600001812 -0.0909999981523 0.240999996662 1329.0
0.911000013351 -0.097000002861 0.243000000715 1295.0
0.907999992371 -0.101999998093 0.241999998689 1268.0
0.908999979496 -0.108000002801 0.243000000715 1299.0
0.908999979496 -0.112999998033 0.243000000715 1312.0
0.90600001812 -0.118000000715 0.241999998689 1320.0
0.908999979496 -0.123999997973 0.243000000715 1325.0
0.899999976158 -0.12800000608 0.240999996662 1320.0
0.903999984264 -0.134000003338 0.241999998689 1326.0
0.907999992371 -0.141000002623 0.244000002742 1326.0
0.898999989033 -0.144999995828 0.240999996662 1324.0
0.902000010014 -0.150999993086 0.241999998689 1307.0
0.907000005245 -0.157000005245 0.244000002742 1310.0
0.902000010014 -0.162000000477 0.243000000715 1331.0
0.902999997139 -0.166999995708 0.243000000715 1339.0
0.898000001907 -0.172000005841 0.241999998689 1342.0
0.897000014782 -0.177000001073 0.241999998689 1359.0
0.897000014782 -0.182999998331 0.241999998689 1368.0
0.901000022888 -0.188999995589 0.244000002742 1317.0
0.902000010014 -0.194999992847 0.244000002742 1344.0
0.898999989033 -0.20000000298 0.244000002742 1338.0
0.89099997282 -0.203999996185 0.241999998689 1345.0
0.899999976158 -0.211999997497 0.245000004768 1357.0
0.896000027657 -0.216000005603 0.244000002742 1385.0
0.888999998569 -0.219999998808 0.243000000715 1365.0
0.894999980927 -0.226999998093 0.244000002742 1346.0
0.888999998569 -0.231999993324 0.243000000715 1356.0
0.893999993801 -0.238999992609 0.245000004768 1389.0
0.89200001955 -0.244000002742 0.245000004768 1361.0
0.896000027657 -0.250999987125 0.246000006795 1354.0
0.888999998569 -0.254999995232 0.245000004768 1359.0
0.893999993801 -0.261999994516 0.24699999392 1341.0
0.888000011444 -0.266000002623 0.245000004768 1379.0
0.888000011444 -0.272000014782 0.246000006795 1391.0
0.889999985695 -0.277999997139 0.24699999392 1387.0
0.882000029087 -0.282000005245 0.245000004768 1362.0
0.888000011444 -0.28900000453 0.24699999392 1370.0
0.888999998569 -0.296000003815 0.247999995947 1399.0
0.883000016212 -0.300000011921 0.246000006795 1386.0
0.879000008106 -0.305000007153 0.246000006795 1401.0
0.883000016212 -0.312000006437 0.24699999392 1364.0
0.880999982357 -0.317000001669 0.24699999392 1356.0
0.880999982357 -0.323000013828 0.247999995947 1373.0
0.880999982357 -0.330000013113 0.248999997973 1358.0
0.879000008106 -0.335000008345 0.247999995947 1349.0
0.880999982357 -0.342000007629 0.25 1342.0
0.875 -0.345999985933 0.248999997973 1331.0
0.875999987125 -0.351999998093 0.248999997973 1328.0
0.879000008106 -0.360000014305 0.250999987125 1364.0
0.876999974251 -0.365000009537 0.250999987125 1359.0
0.878000020981 -0.372000008821 0.252000004053 1356.0
0.870999991894 -0.375999987125 0.25 1373.0
0.870000004768 -0.381999999285 0.250999987125 1310.0
0.870000004768 -0.388000011444 0.250999987125 1329.0
0.869000017643 -0.393999993801 0.252000004053 1322.0
0.875999987125 -0.404000014067 0.254000008106 1315.0
0.867999970913 -0.407000005245 0.252999991179 1324.0
0.869000017643 -0.41400000453 0.252999991179 1307.0
0.865999996662 -0.418999999762 0.252999991179 1280.0
0.864000022411 -0.425000011921 0.252999991179 1299.0
0.865999996662 -0.432999998331 0.254999995232 1297.0
0.869000017643 -0.441000014544 0.256000012159 1298.0
0.871999979019 -0.449999988079 0.25799998641 1280.0
0.862999975681 -0.451999992132 0.256000012159 1328.0
0.864000022411 -0.460000008345 0.256999999285 1306.0
0.864000022411 -0.467000007629 0.25799998641 1315.0
0.867999970913 -0.476000010967 0.259999990463 1302.0
0.85900002718 -0.477999985218 0.25799998641 1329.0
0.85799998045 -0.485000014305 0.259000003338 1315.0
0.852999985218 -0.488999992609 0.25799998641 1319.0
1.73899996281 1.03499996662 0.509999990463 210.0
1.76699995995 1.03699994087 0.51700001955 128.0
1.97200000286 1.12399995327 0.574000000954 114.0
2.00300002098 1.125 0.580999970436 157.0
2.05200004578 1.13499999046 0.59399998188 276.0
2.04800009727 1.11600005627 0.591000020504 294.0
2.04999995232 1.10000002384 0.589999973774 301.0
2.04999995232 1.08399999142 0.587999999523 283.0
2.08200001717 1.08399999142 0.596000015736 188.0
2.10199999809 1.07700002193 0.600000023842 123.0
2.08599996567 1.05200004578 0.592999994755 164.0
2.16100001335 1.07400000095 0.612999975681 273.0
2.21799993515 1.08399999142 0.628000020981 182.0
2.257999897 1.08599996567 0.638000011444 96.0
3.26099991798 1.16600000858 0.888999998569 87.0
3.33699989319 1.17100000381 0.908999979496 74.0
3.67600011826 1.23899996281 0.998000025749 106.0
3.67600011826 1.21500003338 0.995999991894 106.0
3.91799998283 1.24199998379 1.05900001526 63.0
4.02199983597 1.22200000286 1.08399999142 81.0
4.07999992371 1.2120000124 1.09800004959 117.0
4.03499984741 1.17200005054 1.08399999142 108.0
4.05200004578 1.15100002289 1.0870000124 108.0
4.01200008392 1.11300003529 1.07500004768 115.0
4.06799983978 1.10300004482 1.08800005913 112.0
4.09000015259 1.08200001717 1.09300005436 118.0
4.09700012207 1.05799996853 1.09300005436 106.0
4.07399988174 1.02600002289 1.08599996567 109.0
4.07299995422 0.999000012875 1.08399999142 110.0
4.0720000267 0.972999989986 1.08299994469 113.0
4.01300001144 0.934000015259 1.06599998474 105.0
4.10099983215 0.927999973297 1.08800005913 105.0
4.07000017166 0.896000027657 1.07899999619 110.0
4.03399991989 0.862999975681 1.06799995899 115.0
4.05100011826 0.841000020504 1.0720000267 112.0
4.125 0.830999970436 1.09000003338 106.0
4.15600013733 0.81099998951 1.09800004959 110.0
4.03800010681 0.763000011444 1.06500005722 106.0
4.13700008392 0.757000029087 1.0909999609 114.0
4.14300012589 0.731999993324 1.0909999609 106.0
4.10699987411 0.700999975204 1.08099997044 112.0
4.03200006485 0.662999987602 1.05999994278 106.0
4.09700012207 0.648999989033 1.07700002193 100.0
4.0529999733 0.616999983788 1.06500005722 100.0
4.0640001297 0.59399998188 1.06700003147 78.0
0.927999973297 -0.082000002265 0.240999996662 1147.0
0.912999987602 -0.0860000029206 0.237000003457 1296.0
0.911000013351 -0.0920000001788 0.237000003457 1327.0
0.910000026226 -0.097000002861 0.237000003457 1300.0
0.912000000477 -0.103000000119 0.238000005484 1289.0
0.907999992371 -0.108000002801 0.237000003457 1322.0
0.907999992371 -0.112999998033 0.237000003457 1341.0
0.907000005245 -0.118000000715 0.237000003457 1349.0
0.899999976158 -0.123000003397 0.234999999404 1319.0
0.903999984264 -0.128999993205 0.236000001431 1337.0
0.908999979496 -0.135000005364 0.238000005484 1335.0
0.902999997139 -0.140000000596 0.237000003457 1338.0
0.902999997139 -0.144999995828 0.237000003457 1342.0
0.907000005245 -0.150999993086 0.238000005484 1340.0
0.902000010014 -0.156000003219 0.237000003457 1344.0
0.901000022888 -0.16099999845 0.237000003457 1365.0
0.902999997139 -0.166999995708 0.237000003457 1371.0
0.902999997139 -0.172999992967 0.238000005484 1355.0
0.903999984264 -0.178000003099 0.238000005484 1351.0
0.898000001907 -0.182999998331 0.237000003457 1356.0
0.898000001907 -0.187999993563 0.237000003457 1335.0
0.899999976158 -0.194000005722 0.238000005484 1336.0
0.897000014782 -0.199000000954 0.238000005484 1358.0
0.898999989033 -0.204999998212 0.238999992609 1363.0
0.894999980927 -0.209999993443 0.238000005484 1376.0
0.898999989033 -0.216999992728 0.238999992609 1374.0
0.894999980927 -0.222000002861 0.238000005484 1356.0
0.896000027657 -0.226999998093 0.238999992609 1344.0
0.89200001955 -0.231999993324 0.238000005484 1360.0
0.893999993801 -0.238000005484 0.238999992609 1379.0
0.888999998569 -0.243000000715 0.238000005484 1380.0
0.89200001955 -0.248999997973 0.238999992609 1359.0
0.893000006676 -0.254999995232 0.239999994636 1367.0
0.888000011444 -0.259999990463 0.238999992609 1371.0
0.894999980927 -0.268000006676 0.240999996662 1363.0
0.887000024319 -0.270999997854 0.239999994636 1381.0
0.884999990463 -0.277000010014 0.239999994636 1396.0
0.888000011444 -0.282999992371 0.240999996662 1373.0
0.887000024319 -0.28900000453 0.240999996662 1383.0
0.888999998569 -0.296000003815 0.241999998689 1398.0
0.885999977589 -0.300999999046 0.241999998689 1403.0
0.887000024319 -0.307000011206 0.241999998689 1414.0
0.876999974251 -0.308999985456 0.239999994636 1411.0
0.887000024319 -0.319000005722 0.243000000715 1384.0
0.884000003338 -0.324000000954 0.243000000715 1387.0
0.879000008106 -0.32800000906 0.241999998689 1390.0
0.875999987125 -0.333000004292 0.241999998689 1365.0
0.882000029087 -0.342000007629 0.244000002742 1353.0
0.879000008106 -0.347000002861 0.244000002742 1350.0
0.883000016212 -0.354999989271 0.245000004768 1363.0
0.879000008106 -0.358999997377 0.245000004768 1350.0
0.879999995232 -0.365999996662 0.246000006795 1396.0
0.876999974251 -0.370999991894 0.245000004768 1387.0
0.874000012875 -0.377000004053 0.245000004768 1370.0
0.873000025749 -0.38299998641 0.245000004768 1387.0
0.867999970913 -0.386999994516 0.245000004768 1388.0
0.870000004768 -0.393999993801 0.246000006795 1346.0
0.873000025749 -0.402000010014 0.24699999392 1319.0
0.870000004768 -0.407999992371 0.24699999392 1324.0
0.865999996662 -0.412000000477 0.24699999392 1303.0
0.870000004768 -0.421000003815 0.247999995947 1310.0
0.862999975681 -0.423999994993 0.24699999392 1314.0
0.870999991894 -0.435000002384 0.25 1320.0
0.869000017643 -0.441000014544 0.25 1325.0
0.873000025749 -0.449000000954 0.252000004053 1339.0
0.860000014305 -0.449999988079 0.248999997973 1323.0
0.866999983788 -0.46099999547 0.252000004053 1327.0
0.864000022411 -0.465999990702 0.252000004053 1321.0
0.862999975681 -0.472999989986 0.252999991179 1324.0
0.861999988556 -0.479000002146 0.252999991179 1356.0
0.864000022411 -0.488000005484 0.254999995232 1341.0
0.861000001431 -0.493000000715 0.254000008106 1340.0
1.74800002575 1.03900003433 0.500999987125 196.0
1.8029999733 1.05599999428 0.514999985695 103.0
1.85699999332 1.0720000267 0.528999984264 86.0
1.90699994564 1.08500003815 0.541000008583 111.0
2.02099990845 1.13300001621 0.572000026703 209.0
2.03600001335 1.12399995327 0.574000000954 317.0
2.03099989891 1.10500001907 0.572000026703 311.0
2.04099988937 1.09399998188 0.573000013828 304.0
2.04800009727 1.08099997044 0.573000013828 277.0
2.0490000248 1.06500005722 0.572000026703 177.0
2.05500006676 1.05200004578 0.572000026703 126.0
2.10500001907 1.05999994278 0.583999991417 190.0
2.15199995041 1.06700003147 0.596000015736 279.0
2.21199989319 1.08000004292 0.611000001431 161.0
3.24900007248 1.18299996853 0.865999996662 70.0
3.29600000381 1.17700004578 0.876999974251 88.0
3.67300009727 1.26100003719 0.973999977112 83.0
3.69899988174 1.24500000477 0.980000019073 110.0
3.6930000782 1.21800005436 0.976999998093 108.0
4.21799993515 1.30700004101 1.11099994183 66.0
4.07899999619 1.23699998856 1.0720000267 86.0
4.04699993134 1.2009999752 1.06200003624 110.0
4.03299999237 1.16999995708 1.05700004101 115.0
4.11000013351 1.16499996185 1.0759999752 113.0
4.08400011063 1.13100004196 1.06799995899 107.0
4.08400011063 1.10500001907 1.06599998474 112.0
4.09499979019 1.08200001717 1.06799995899 110.0
4.10200023651 1.05700004101 1.06799995899 104.0
4.07800006866 1.02499997616 1.06099998951 113.0
4.08199977875 1.0 1.06099998951 106.0
4.04400014877 0.964999973774 1.0490000248 106.0
4.08300018311 0.949000000954 1.05900001526 104.0
4.09200000763 0.925000011921 1.05999994278 112.0
4.07899999619 0.896000027657 1.05499994755 110.0
4.09800004959 0.875 1.05900001526 114.0
4.02799987793 0.834999978542 1.03999996185 109.0
4.06599998474 0.818000018597 1.0490000248 111.0
4.10099983215 0.799000024796 1.05700004101 106.0
4.08099985123 0.769999980927 1.05099999905 106.0
4.12900018692 0.754000008106 1.06200003624 111.0
4.117000103 0.726000010967 1.05799996853 106.0
4.04199981689 0.688000023365 1.0379999876 115.0
4.05399990082 0.666000008583 1.04100000858 100.0
4.06699991226 0.643000006676 1.04299998283 106.0
4.04099988937 0.614000022411 1.03600001335 102.0
0.925000011921 -0.082000002265 0.233999997377 1159.0
0.913999974728 -0.0860000029206 0.231999993324 1290.0
0.911000013351 -0.0920000001788 0.231000006199 1338.0
0.90600001812 -0.0960000008345 0.230000004172 1321.0
0.910000026226 -0.101999998093 0.231000006199 1280.0
0.912000000477 -0.108000002801 0.231999993324 1328.0
0.912000000477 -0.112999998033 0.231999993324 1359.0
0.911000013351 -0.119000002742 0.231999993324 1362.0
0.907000005245 -0.123999997973 0.231000006199 1326.0
0.915000021458 -0.129999995232 0.232999995351 1343.0
0.902000010014 -0.134000003338 0.230000004172 1338.0
0.907999992371 -0.140000000596 0.231999993324 1337.0
0.90600001812 -0.144999995828 0.231999993324 1359.0
0.90499997139 -0.150999993086 0.231999993324 1365.0
0.896000027657 -0.155000001192 0.230000004172 1355.0
0.902000010014 -0.16099999845 0.231000006199 1351.0
0.903999984264 -0.166999995708 0.231999993324 1369.0
0.902000010014 -0.172000005841 0.231999993324 1370.0
0.898999989033 -0.177000001073 0.231000006199 1343.0
0.897000014782 -0.181999996305 0.231000006199 1369.0
0.894999980927 -0.187000006437 0.231000006199 1370.0
0.896000027657 -0.193000003695 0.231000006199 1356.0
0.894999980927 -0.199000000954 0.231000006199 1359.0
0.897000014782 -0.204999998212 0.231999993324 1367.0
0.894999980927 -0.209999993443 0.231999993324 1379.0
0.894999980927 -0.215000003576 0.231999993324 1367.0
0.894999980927 -0.221000000834 0.232999995351 1337.0
0.888999998569 -0.22499999404 0.231000006199 1349.0
0.89200001955 -0.231999993324 0.232999995351 1368.0
0.887000024319 -0.236000001431 0.231000006199 1375.0
0.89099997282 -0.243000000715 0.232999995351 1380.0
0.887000024319 -0.247999995947 0.231999993324 1386.0
0.888999998569 -0.254000008106 0.232999995351 1371.0
0.888999998569 -0.259999990463 0.233999997377 1389.0
0.883000016212 -0.263999998569 0.231999993324 1390.0
0.884999990463 -0.270000010729 0.232999995351 1373.0
0.888000011444 -0.277000010014 0.234999999404 1404.0
0.888000011444 -0.282999992371 0.234999999404 1407.0
0.889999985695 -0.28900000453 0.236000001431 1387.0
0.883000016212 -0.293000012636 0.234999999404 1400.0
0.880999982357 -0.298000007868 0.233999997377 1420.0
0.885999977589 -0.305999994278 0.236000001431 1435.0
0.879000008106 -0.310000002384 0.234999999404 1426.0
0.884000003338 -0.317999988794 0.237000003457 1403.0
0.884999990463 -0.324000000954 0.237000003457 1422.0
0.884000003338 -0.330000013113 0.237000003457 1435.0
0.878000020981 -0.333999991417 0.237000003457 1416.0
0.880999982357 -0.340999990702 0.238000005484 1387.0
0.879999995232 -0.347000002861 0.238000005484 1392.0
0.878000020981 -0.351999998093 0.238000005484 1387.0
0.874000012875 -0.356999993324 0.238000005484 1370.0
0.873000025749 -0.363000005484 0.238000005484 1374.0
0.878000020981 -0.370999991894 0.239999994636 1429.0
0.874000012875 -0.375999987125 0.238999992609 1421.0
0.873000025749 -0.381999999285 0.239999994636 1431.0
0.865999996662 -0.384999990463 0.238000005484 1412.0
0.866999983788 -0.391999989748 0.238999992609 1386.0
0.870999991894 -0.400999993086 0.240999996662 1357.0
0.865999996662 -0.405000001192 0.239999994636 1327.0
0.870000004768 -0.412999987602 0.241999998689 1317.0
0.866999983788 -0.418999999762 0.241999998689 1316.0
0.861999988556 -0.423000007868 0.240999996662 1355.0
0.861999988556 -0.430000007153 0.241999998689 1345.0
0.861999988556 -0.437000006437 0.243000000715 1336.0
0.866999983788 -0.446000009775 0.245000004768 1350.0
0.862999975681 -0.451000005007 0.244000002742 1338.0
0.862999975681 -0.458000004292 0.245000004768 1343.0
0.861999988556 -0.463999986649 0.246000006795 1328.0
0.861999988556 -0.470999985933 0.246000006795 1349.0
0.861999988556 -0.477999985218 0.24699999392 1371.0
0.853999972343 -0.481000006199 0.245000004768 1376.0
0.851000010967 -0.486999988556 0.245000004768 1348.0
1.73199999332 1.02799999714 0.483000010252 181.0
1.96099996567 1.11399996281 0.542999982834 161.0
2.03200006485 1.13699996471 0.56099998951 271.0
2.04200005531 1.12600004673 0.561999976635 304.0
2.05599999428 1.11699998379 0.56400001049 308.0
2.06299996376 1.10399997234 0.564999997616 303.0
2.06599998474 1.08899998665 0.56400001049 272.0
2.09100008011 1.08500003815 0.569000005722 151.0
2.04600000381 1.04499995708 0.555000007153 125.0
2.1210000515 1.06700003147 0.574000000954 208.0
2.15799999237 1.06799995899 0.583000004292 272.0
2.18799996376 1.06599998474 0.588999986649 147.0
2.35500001907 1.12999999523 0.633000016212 78.0
3.28999996185 1.17299997807 0.853999972343 85.0
3.63700008392 1.24699997902 0.940999984741 92.0
3.63499999046 1.22200000286 0.93900001049 103.0
3.73200011253 1.22899997234 0.962999999523 100.0
3.98399996758 1.25899994373 1.02400004864 64.0
3.98000001907 1.23099994659 1.02199995518 62.0
4.01000022888 1.21399998665 1.02799999714 77.0
4.07299995422 1.20700001717 1.04299998283 108.0
4.04199981689 1.17100000381 1.03299999237 107.0
4.04600000381 1.14600002766 1.03299999237 113.0
4.03900003433 1.11800003052 1.02999997139 107.0
4.09600019455 1.10699999332 1.04299998283 100.0
4.08500003815 1.07799994946 1.03900003433 108.0
4.01800012589 1.0340000391 1.02100002766 111.0
4.12200021744 1.03499996662 1.04600000381 104.0
4.07999992371 0.998000025749 1.0340000391 110.0
4.06199979782 0.967999994755 1.02799999714 105.0
4.10099983215 0.952000021935 1.03699994087 107.0
4.09999990463 0.925999999046 1.03600001335 107.0
4.08699989319 0.897000014782 1.03100001812 112.0
4.08500003815 0.870999991894 1.02999997139 108.0
4.03399991989 0.834999978542 1.01600003242 110.0
4.06599998474 0.815999984741 1.02300000191 102.0
4.0640001297 0.791000008583 1.02199995518 106.0
4.07100009918 0.76700001955 1.02199995518 106.0
4.11999988556 0.750999987125 1.0340000391 111.0
4.08699989319 0.72000002861 1.02499997616 107.0
4.08300018311 0.694000005722 1.02300000191 106.0
4.11100006104 0.674000024796 1.02999997139 107.0
4.09600019455 0.647000014782 1.02499997616 108.0
4.10799980164 0.624000012875 1.02699995041 96.0
0.931999981403 -0.082999996841 0.231000006199 1166.0
0.912999987602 -0.0860000029206 0.225999996066 1292.0
0.917999982834 -0.0920000001788 0.226999998093 1335.0
0.907000005245 -0.0960000008345 0.22499999404 1335.0
0.911000013351 -0.101999998093 0.225999996066 1302.0
0.912000000477 -0.108000002801 0.225999996066 1329.0
0.910000026226 -0.112999998033 0.225999996066 1348.0
0.907000005245 -0.118000000715 0.22499999404 1382.0
0.90600001812 -0.123000003397 0.22499999404 1340.0
0.907000005245 -0.128999993205 0.225999996066 1327.0
0.903999984264 -0.134000003338 0.22499999404 1327.0
0.910000026226 -0.140000000596 0.226999998093 1337.0
0.902000010014 -0.144999995828 0.22499999404 1343.0
0.899999976158 -0.15000000596 0.22499999404 1347.0
0.902000010014 -0.155000001192 0.22499999404 1337.0
0.907000005245 -0.162000000477 0.226999998093 1373.0
0.903999984264 -0.166999995708 0.226999998093 1389.0
0.898999989033 -0.172000005841 0.22499999404 1374.0
0.893999993801 -0.175999999046 0.224000006914 1334.0
0.901000022888 -0.182999998331 0.225999996066 1346.0
0.894999980927 -0.187000006437 0.22499999404 1393.0
0.894999980927 -0.193000003695 0.22499999404 1379.0
0.898999989033 -0.199000000954 0.226999998093 1372.0
0.896000027657 -0.203999996185 0.225999996066 1369.0
0.898000001907 -0.209999993443 0.226999998093 1378.0
0.898999989033 -0.216000005603 0.228000000119 1369.0
0.896000027657 -0.221000000834 0.226999998093 1349.0
0.893000006676 -0.225999996066 0.226999998093 1362.0
0.896000027657 -0.232999995351 0.228000000119 1370.0
0.898000001907 -0.238999992609 0.229000002146 1372.0
0.89200001955 -0.243000000715 0.228000000119 1385.0
0.884000003338 -0.246000006795 0.225999996066 1393.0
0.889999985695 -0.254000008106 0.228000000119 1372.0
0.893000006676 -0.259999990463 0.229000002146 1397.0
0.887000024319 -0.264999985695 0.228000000119 1390.0
0.884999990463 -0.270000010729 0.226999998093 1391.0
0.884000003338 -0.27500000596 0.228000000119 1404.0
0.887000024319 -0.282000005245 0.229000002146 1415.0
0.882000029087 -0.286000013351 0.228000000119 1415.0
0.879999995232 -0.291999995708 0.228000000119 1413.0
0.882000029087 -0.298000007868 0.229000002146 1451.0
0.885999977589 -0.305999994278 0.230000004172 1438.0
0.888000011444 -0.312000006437 0.231000006199 1421.0
0.883000016212 -0.317000001669 0.231000006199 1418.0
0.882000029087 -0.321999996901 0.231000006199 1417.0
0.880999982357 -0.32800000906 0.231000006199 1429.0
0.887000024319 -0.337000012398 0.232999995351 1392.0
0.875999987125 -0.338999986649 0.231000006199 1403.0
0.883000016212 -0.347999989986 0.232999995351 1389.0
0.871999979019 -0.349000006914 0.231000006199 1430.0
0.879999995232 -0.358999997377 0.232999995351 1397.0
0.879000008106 -0.365000009537 0.233999997377 1376.0
0.874000012875 -0.368999987841 0.232999995351 1415.0
0.870000004768 -0.374000012875 0.231999993324 1423.0
0.875 -0.381999999285 0.233999997377 1404.0
0.880999982357 -0.391000002623 0.236000001431 1407.0
0.862999975681 -0.389999985695 0.231999993324 1393.0
0.866999983788 -0.398000001907 0.233999997377 1384.0
0.865000009537 -0.404000014067 0.233999997377 1379.0
0.864000022411 -0.409999996424 0.233999997377 1359.0
0.861999988556 -0.416000008583 0.233999997377 1335.0
0.864000022411 -0.423000007868 0.236000001431 1350.0
0.870000004768 -0.432999998331 0.238000005484 1361.0
0.861999988556 -0.43599998951 0.236000001431 1356.0
0.867999970913 -0.446000009775 0.238999992609 1315.0
0.864000022411 -0.451000005007 0.238000005484 1332.0
0.861999988556 -0.456000000238 0.238000005484 1341.0
0.864000022411 -0.465000003576 0.239999994636 1347.0
0.864000022411 -0.470999985933 0.240999996662 1392.0
0.855000019073 -0.474000006914 0.238999992609 1389.0
0.85799998045 -0.483000010252 0.239999994636 1360.0
0.856000006199 -0.488999992609 0.240999996662 1356.0
1.7460000515 1.03499996662 0.47499999404 169.0
1.85500001907 1.06700003147 0.500999987125 84.0
1.9659999609 1.11500000954 0.52999997139 119.0
2.02699995041 1.13300001621 0.545000016689 193.0
2.04600000381 1.12600004673 0.549000024796 296.0
2.05200004578 1.11300003529 0.549000024796 304.0
2.05500006676 1.09800004959 0.547999978065 294.0
2.05399990082 1.08000004292 0.546000003815 265.0
2.08899998665 1.08200001717 0.554000020027 155.0
2.09899997711 1.07099997997 0.555000007153 130.0
2.10700011253 1.05799996853 0.555999994278 219.0
2.17499995232 1.07500004768 0.572000026703 263.0
2.23600006104 1.08800005913 0.587000012398 142.0
2.50900006294 1.12600004673 0.651000022888 74.0
3.30399990082 1.17599999905 0.836000025272 86.0
3.76399993896 1.28900003433 0.949000000954 90.0
3.68600010872 1.23699998856 0.927999973297 110.0
3.67000007629 1.20700001717 0.922999978065 103.0
3.8069999218 1.22699999809 0.954999983311 76.0
4.09100008011 1.23699998856 1.02199995518 83.0
4.03000020981 1.19200003147 1.00600004196 114.0
4.01700019836 1.16199994087 1.00100004673 108.0
4.06199979782 1.14900004864 1.01100003719 112.0
4.06500005722 1.12300002575 1.00999999046 109.0
4.01800012589 1.08399999142 0.996999979019 113.0
4.10200023651 1.08099997044 1.01699995995 108.0
4.06599998474 1.04499995708 1.00699996948 110.0
4.05999994278 1.01800000668 1.0039999485 116.0
4.0529999733 0.990000009537 1.00100004673 101.0
4.11299991608 0.978999972343 1.01499998569 99.0
4.13100004196 0.957000017166 1.01800000668 107.0
4.06699991226 0.916999995708 1.00100004673 104.0
4.12900018692 0.90499997139 1.01600003242 110.0
4.13800001144 0.880999982357 1.01699995995 101.0
4.13199996948 0.853999972343 1.01400005817 108.0
4.07000017166 0.815999984741 0.998000025749 115.0
4.06699991226 0.790000021458 0.996999979019 105.0
4.05100011826 0.762000024319 0.991999983788 110.0
4.09000015259 0.745000004768 1.00100004673 107.0
4.1139998436 0.723999977112 1.00600004196 105.0
4.05200004578 0.688000023365 0.990000009537 109.0
4.05800008774 0.663999974728 0.990999996662 105.0
4.10200023651 0.647000014782 1.00100004673 104.0
4.08799982071 0.620000004768 0.996999979019 94.0
0.930999994278 -0.082000002265 0.22499999404 1172.0
0.916000008583 -0.0860000029206 0.221000000834 1300.0
0.910000026226 -0.0909999981523 0.219999998808 1321.0
0.907999992371 -0.0960000008345 0.218999996781 1349.0
0.912999987602 -0.101999998093 0.221000000834 1310.0
0.910000026226 -0.107000000775 0.219999998808 1333.0
0.907999992371 -0.112999998033 0.219999998808 1358.0
0.910000026226 -0.118000000715 0.219999998808 1367.0
0.902999997139 -0.123000003397 0.218999996781 1345.0
0.898999989033 -0.12800000608 0.217999994755 1331.0
0.902000010014 -0.134000003338 0.218999996781 1334.0
0.899999976158 -0.138999998569 0.218999996781 1345.0
0.901000022888 -0.143999993801 0.218999996781 1348.0
0.899999976158 -0.15000000596 0.218999996781 1322.0
0.901000022888 -0.155000001192 0.218999996781 1348.0
0.902000010014 -0.16099999845 0.219999998808 1397.0
0.903999984264 -0.166999995708 0.221000000834 1411.0
0.899999976158 -0.171000003815 0.219999998808 1385.0
0.898999989033 -0.177000001073 0.219999998808 1327.0
0.902000010014 -0.182999998331 0.221000000834 1349.0
0.898999989033 -0.187999993563 0.221000000834 1398.0
0.893000006676 -0.192000001669 0.218999996781 1409.0
0.899999976158 -0.199000000954 0.221000000834 1350.0
0.893000006676 -0.202999994159 0.219999998808 1350.0
0.898999989033 -0.209999993443 0.222000002861 1365.0
0.89099997282 -0.21400000155 0.219999998808 1403.0
0.893000006676 -0.219999998808 0.221000000834 1370.0
0.896000027657 -0.226999998093 0.222000002861 1381.0
0.889999985695 -0.231000006199 0.221000000834 1369.0
0.896000027657 -0.238000005484 0.223000004888 1394.0
0.893000006676 -0.243000000715 0.222000002861 1406.0
0.893000006676 -0.248999997973 0.222000002861 1402.0
0.889999985695 -0.254000008106 0.222000002861 1392.0
0.888999998569 -0.259000003338 0.222000002861 1374.0
0.888999998569 -0.264999985695 0.222000002861 1386.0
0.885999977589 -0.270000010729 0.222000002861 1398.0
0.888000011444 -0.275999993086 0.223000004888 1400.0
0.883000016212 -0.280999988317 0.222000002861 1435.0
0.882000029087 -0.286000013351 0.222000002861 1420.0
0.885999977589 -0.293000012636 0.224000006914 1415.0
0.884999990463 -0.298999994993 0.224000006914 1448.0
0.884999990463 -0.305000007153 0.224000006914 1457.0
0.879999995232 -0.308999985456 0.224000006914 1440.0
0.883000016212 -0.316000014544 0.22499999404 1428.0
0.879999995232 -0.321000009775 0.224000006914 1436.0
0.882000029087 -0.32800000906 0.22499999404 1429.0
0.878000020981 -0.333000004292 0.22499999404 1401.0
0.876999974251 -0.338999986649 0.22499999404 1410.0
0.875 -0.344000011683 0.22499999404 1395.0
0.876999974251 -0.351000010967 0.225999996066 1404.0
0.871999979019 -0.354999989271 0.22499999404 1404.0
0.873000025749 -0.361999988556 0.225999996066 1371.0
0.873000025749 -0.368000000715 0.226999998093 1404.0
0.878000020981 -0.377000004053 0.229000002146 1417.0
