ply
format ascii 1.0
element vertex 907
property float x
property float y
property float z
property float intensity
end_header
4.19500017166 0.994000017643 -0.201000005007 100.0
4.17600011826 0.963999986649 -0.199000000954 101.0
4.10500001907 0.92199999094 -0.195999994874 100.0
4.14400005341 0.90600001812 -0.196999996901 116.0
4.13000011444 0.876999974251 -0.195999994874 109.0
4.14799976349 0.856000006199 -0.196999996901 113.0
4.11800003052 0.824999988079 -0.194999992847 113.0
4.15899991989 0.808000028133 -0.196999996901 117.0
4.07600021362 0.76700001955 -0.192000001669 114.0
4.10400009155 0.748000025749 -0.194000005722 121.0
4.13100004196 0.727999985218 -0.194999992847 117.0
4.10900020599 0.699999988079 -0.193000003695 126.0
4.09200000763 0.672999978065 -0.192000001669 117.0
4.14799976349 0.657000005245 -0.194000005722 108.0
4.12400007248 0.629000008106 -0.193000003695 118.0
4.12200021744 0.603999972343 -0.193000003695 129.0
4.13500022888 0.582000017166 -0.193000003695 126.0
4.1360001564 0.558000028133 -0.193000003695 132.0
4.1360001564 0.532999992371 -0.193000003695 116.0
4.10300016403 0.504999995232 -0.190999999642 108.0
4.10599994659 0.481000006199 -0.190999999642 119.0
4.12900018692 0.460000008345 -0.192000001669 113.0
4.29699993134 0.45300000906 -0.199000000954 75.0
4.62699985504 0.46099999547 -0.21400000155 66.0
4.61800003052 0.433999985456 -0.21400000155 73.0
4.61800003052 0.407000005245 -0.212999999523 80.0
4.59499979019 0.377999991179 -0.211999997497 73.0
4.64499998093 0.354999989271 -0.21400000155 67.0
4.60900020599 0.326000005007 -0.211999997497 66.0
4.59700012207 0.298000007868 -0.211999997497 68.0
4.61299991608 0.273000001907 -0.211999997497 63.0
4.59399986267 0.245000004768 -0.21099999547 69.0
4.60099983215 0.218999996781 -0.21099999547 71.0
4.69799995422 0.195999994874 -0.216000005603 71.0
4.71299982071 0.170000001788 -0.216000005603 61.0
4.73600006104 0.143000006676 -0.216999992728 67.0
4.73999977112 0.115999996662 -0.216999992728 67.0
4.72800016403 0.0890000015497 -0.216000005603 71.0
4.77799987793 0.0619999989867 -0.217999994755 63.0
4.69199991226 0.0340000018477 -0.21400000155 60.0
4.73299980164 0.00700000021607 -0.216000005603 59.0
4.79300022125 -0.0189999993891 -0.218999996781 60.0
4.74300003052 -0.0469999983907 -0.216000005603 61.0
4.74700021744 -0.0740000009537 -0.216000005603 62.0
4.82499980927 -0.103000000119 -0.219999998808 57.0
4.77600002289 -0.128999993205 -0.216999992728 59.0
4.80200004578 -0.158000007272 -0.218999996781 56.0
4.80100011826 -0.185000002384 -0.217999994755 60.0
4.84999990463 -0.215000003576 -0.221000000834 54.0
4.85200023651 -0.243000000715 -0.221000000834 56.0
4.9359998703 -0.275999993086 -0.224000006914 54.0
4.89300012589 -0.301999986172 -0.222000002861 53.0
0.889999985695 -0.11400000006 -0.0410000011325 1272.0
0.89099997282 -0.119999997318 -0.0410000011325 1862.0
0.888999998569 -0.125 -0.0410000011325 1950.0
0.89099997282 -0.129999995232 -0.0410000011325 2043.0
0.884000003338 -0.134000003338 -0.0399999991059 1998.0
0.887000024319 -0.140000000596 -0.0410000011325 1963.0
0.888000011444 -0.144999995828 -0.0410000011325 1856.0
0.880999982357 -0.149000003934 -0.0399999991059 1892.0
0.883000016212 -0.155000001192 -0.0399999991059 1949.0
0.882000029087 -0.159999996424 -0.0399999991059 1936.0
0.879999995232 -0.165000006557 -0.0399999991059 2019.0
0.885999977589 -0.171000003815 -0.0410000011325 1952.0
0.875999987125 -0.17499999702 -0.0399999991059 1923.0
0.879999995232 -0.180999994278 -0.0399999991059 1890.0
0.880999982357 -0.186000004411 -0.0399999991059 1976.0
0.878000020981 -0.190999999642 -0.0399999991059 1985.0
0.878000020981 -0.195999994874 -0.0399999991059 1988.0
0.876999974251 -0.201000005007 -0.0399999991059 1934.0
0.871999979019 -0.206000000238 -0.0399999991059 1930.0
0.875 -0.211999997497 -0.0399999991059 1982.0
0.873000025749 -0.216999992728 -0.0399999991059 1981.0
0.875 -0.222000002861 -0.0399999991059 1992.0
0.870999991894 -0.226999998093 -0.0399999991059 1944.0
0.867999970913 -0.231000006199 -0.0399999991059 1903.0
0.867999970913 -0.237000003457 -0.0399999991059 2015.0
0.865999996662 -0.241999998689 -0.0399999991059 2055.0
0.869000017643 -0.247999995947 -0.0399999991059 2050.0
0.865000009537 -0.252999991179 -0.0399999991059 1985.0
0.865999996662 -0.25799998641 -0.0399999991059 1989.0
0.865999996662 -0.263999998569 -0.0399999991059 1981.0
0.865000009537 -0.268999993801 -0.0399999991059 1948.0
0.864000022411 -0.273999989033 -0.0399999991059 1902.0
0.85799998045 -0.277999997139 -0.0399999991059 1876.0
0.861000001431 -0.284999996424 -0.0399999991059 1940.0
0.856000006199 -0.287999987602 -0.0399999991059 1983.0
0.852999985218 -0.293000012636 -0.0399999991059 1990.0
0.856000006199 -0.300000011921 -0.0399999991059 1993.0
0.856000006199 -0.305000007153 -0.0399999991059 2031.0
0.852999985218 -0.310000002384 -0.0399999991059 2009.0
0.853999972343 -0.316000014544 -0.0399999991059 1950.0
0.852999985218 -0.321999996901 -0.0399999991059 1978.0
0.851000010967 -0.326999992132 -0.0399999991059 2027.0
0.850000023842 -0.331999987364 -0.0399999991059 2001.0
0.851000010967 -0.338999986649 -0.0399999991059 1974.0
0.851999998093 -0.344999998808 -0.0399999991059 1905.0
0.848999977112 -0.34999999404 -0.0399999991059 1918.0
0.847999989986 -0.354999989271 -0.0399999991059 2003.0
0.84399998188 -0.358999997377 -0.0399999991059 1899.0
0.84500002861 -0.365999996662 -0.0399999991059 2021.0
0.842999994755 -0.370999991894 -0.0399999991059 1963.0
0.842999994755 -0.377000004053 -0.0399999991059 2078.0
0.837999999523 -0.381000012159 -0.0399999991059 2070.0
0.837000012398 -0.386999994516 -0.0399999991059 2085.0
0.838999986649 -0.393999993801 -0.0399999991059 2088.0
0.836000025272 -0.398999989033 -0.0399999991059 2110.0
0.837000012398 -0.405000001192 -0.0399999991059 2108.0
0.837000012398 -0.412000000477 -0.0399999991059 2091.0
0.833000004292 -0.416000008583 -0.0399999991059 2127.0
0.832000017166 -0.42199999094 -0.0399999991059 2092.0
0.834999978542 -0.430000007153 -0.0399999991059 2065.0
0.833000004292 -0.435000002384 -0.0399999991059 2005.0
0.834999978542 -0.442999988794 -0.0410000011325 2004.0
0.829999983311 -0.446999996901 -0.0399999991059 1945.0
0.829999983311 -0.453999996185 -0.0410000011325 1919.0
0.828999996185 -0.460000008345 -0.0410000011325 1945.0
0.90600001812 0.518999993801 -0.054999999702 708.0
0.908999979496 0.513999998569 -0.054999999702 712.0
0.90499997139 0.504000008106 -0.054999999702 656.0
0.907000005245 0.497999995947 -0.054999999702 624.0
0.917999982834 0.495999991894 -0.054999999702 601.0
0.925999999046 0.493000000715 -0.0560000017285 533.0
0.954999983311 0.500999987125 -0.0570000000298 461.0
0.987999975681 0.509999990463 -0.0590000003576 399.0
0.991999983788 0.504999995232 -0.0590000003576 366.0
1.01900005341 0.510999977589 -0.0599999986589 323.0
1.05499994755 0.521000027657 -0.0619999989867 288.0
1.12000000477 0.545000016689 -0.0659999996424 254.0
1.19000005722 0.569999992847 -0.070000000298 206.0
1.15400004387 0.544000029564 -0.0670000016689 186.0
1.13300001621 0.526000022888 -0.0659999996424 139.0
1.48000001907 0.675999999046 -0.0860000029206 102.0
1.98399996758 0.89200001955 -0.115000002086 151.0
1.92200005054 0.850000023842 -0.111000001431 96.0
1.1740000248 0.510999977589 -0.0680000036955 76.0
3.85599994659 1.10699999332 -0.209999993443 64.0
4.07700014114 1.14400005341 -0.222000002861 57.0
3.89599990845 1.06900000572 -0.211999997497 66.0
4.01900005341 1.07700002193 -0.217999994755 74.0
4.22499990463 1.10599994659 -0.229000002146 59.0
4.26900005341 1.0909999609 -0.231000006199 81.0
4.23400020599 1.05599999428 -0.228000000119 70.0
4.25199985504 1.0340000391 -0.229000002146 75.0
4.19199991226 0.992999970913 -0.22499999404 76.0
4.22200012207 0.973999977112 -0.226999998093 65.0
4.22499990463 0.949000000954 -0.225999996066 68.0
4.22499990463 0.922999978065 -0.225999996066 78.0
4.21600008011 0.896000027657 -0.22499999404 73.0
4.19299983978 0.865000009537 -0.224000006914 84.0
4.21600008011 0.84500002861 -0.224000006914 80.0
4.2389998436 0.824000000954 -0.22499999404 78.0
4.21400022507 0.792999982834 -0.224000006914 80.0
4.19099998474 0.763999998569 -0.222000002861 84.0
4.17199993134 0.736000001431 -0.221000000834 82.0
4.19299983978 0.713999986649 -0.222000002861 87.0
4.17600011826 0.686999976635 -0.221000000834 84.0
4.19899988174 0.665000021458 -0.221000000834 82.0
4.17199993134 0.635999977589 -0.219999998808 92.0
4.12400007248 0.605000019073 -0.216999992728 97.0
4.15899991989 0.584999978542 -0.218999996781 101.0
4.19299983978 0.564999997616 -0.219999998808 109.0
4.1970000267 0.541000008583 -0.219999998808 99.0
4.15600013733 0.512000024319 -0.217999994755 94.0
4.13500022888 0.485000014305 -0.216000005603 101.0
4.09200000763 0.456000000238 -0.21400000155 99.0
4.32899999619 0.456999987364 -0.225999996066 68.0
4.63800001144 0.462000012398 -0.241999998689 57.0
4.65100002289 0.437000006437 -0.241999998689 68.0
4.6139998436 0.405999988317 -0.239999994636 71.0
4.67399978638 0.384000003338 -0.243000000715 64.0
4.632999897 0.354000002146 -0.240999996662 61.0
4.60599994659 0.324999988079 -0.238999992609 64.0
4.69999980927 0.305000007153 -0.244000002742 64.0
4.59999990463 0.272000014782 -0.238000005484 66.0
4.65100002289 0.247999995947 -0.240999996662 62.0
4.65000009537 0.221000000834 -0.239999994636 64.0
4.75099992752 0.197999998927 -0.245000004768 69.0
4.6859998703 0.168999999762 -0.241999998689 65.0
4.72800016403 0.143000006676 -0.244000002742 62.0
4.70800018311 0.115000002086 -0.243000000715 64.0
4.65999984741 0.0869999974966 -0.239999994636 65.0
4.72200012207 0.0610000006855 -0.243000000715 63.0
4.77099990845 0.0340000018477 -0.246000006795 63.0
4.70900011063 0.00700000021607 -0.241999998689 61.0
4.74300003052 -0.0189999993891 -0.244000002742 57.0
4.80000019073 -0.0469999983907 -0.24699999392 63.0
4.78800010681 -0.0750000029802 -0.246000006795 61.0
4.79199981689 -0.101999998093 -0.246000006795 61.0
4.74499988556 -0.128999993205 -0.243000000715 59.0
4.8060002327 -0.158000007272 -0.24699999392 56.0
4.8860001564 -0.188999995589 -0.250999987125 59.0
4.86600017548 -0.216000005603 -0.248999997973 55.0
4.84600019455 -0.243000000715 -0.247999995947 59.0
4.88899993896 -0.273999989033 -0.25 55.0
0.998000025749 -0.123000003397 -0.0509999990463 114.0
0.89200001955 -0.115000002086 -0.0460000000894 1282.0
0.89099997282 -0.119999997318 -0.0460000000894 1823.0
0.889999985695 -0.125 -0.0460000000894 1954.0
0.885999977589 -0.128999993205 -0.0460000000894 2029.0
0.888999998569 -0.135000005364 -0.0460000000894 1999.0
0.89099997282 -0.141000002623 -0.0460000000894 1966.0
0.884999990463 -0.144999995828 -0.0460000000894 1898.0
0.882000029087 -0.15000000596 -0.0450000017881 1888.0
0.880999982357 -0.155000001192 -0.0450000017881 1993.0
0.884999990463 -0.16099999845 -0.0460000000894 1955.0
0.880999982357 -0.165000006557 -0.0450000017881 2023.0
0.880999982357 -0.170000001788 -0.0450000017881 1975.0
0.882000029087 -0.175999999046 -0.0460000000894 1938.0
0.878000020981 -0.180000007153 -0.0450000017881 1876.0
0.879999995232 -0.186000004411 -0.0450000017881 1970.0
0.879999995232 -0.192000001669 -0.0460000000894 1994.0
0.875999987125 -0.195999994874 -0.0450000017881 1964.0
0.875999987125 -0.201000005007 -0.0450000017881 1968.0
0.875999987125 -0.207000002265 -0.0450000017881 1960.0
0.873000025749 -0.21099999547 -0.0450000017881 1960.0
0.870999991894 -0.216000005603 -0.0450000017881 1941.0
0.873000025749 -0.222000002861 -0.0450000017881 1970.0
0.869000017643 -0.225999996066 -0.0450000017881 1946.0
0.873000025749 -0.232999995351 -0.0450000017881 1902.0
0.866999983788 -0.237000003457 -0.0450000017881 1951.0
0.865999996662 -0.241999998689 -0.0450000017881 2024.0
0.865000009537 -0.24699999392 -0.0450000017881 2071.0
0.870000004768 -0.254000008106 -0.0450000017881 1980.0
0.862999975681 -0.25799998641 -0.0450000017881 2022.0
0.864000022411 -0.263000011444 -0.0450000017881 2050.0
0.864000022411 -0.268999993801 -0.0450000017881 2004.0
0.860000014305 -0.273000001907 -0.0450000017881 1967.0
0.865000009537 -0.280000001192 -0.0450000017881 1956.0
0.856000006199 -0.282999992371 -0.0450000017881 1964.0
0.85799998045 -0.28900000453 -0.0450000017881 2029.0
0.856000006199 -0.293999999762 -0.0450000017881 2034.0
0.85799998045 -0.300999999046 -0.0450000017881 2008.0
0.85900002718 -0.307000011206 -0.0450000017881 2070.0
0.856000006199 -0.31099998951 -0.0450000017881 2035.0
0.855000019073 -0.317000001669 -0.0450000017881 1999.0
0.852999985218 -0.321999996901 -0.0450000017881 2036.0
0.847000002861 -0.324999988079 -0.0450000017881 2031.0
0.850000023842 -0.333000004292 -0.0450000017881 2058.0
0.847999989986 -0.337000012398 -0.0450000017881 2000.0
0.855000019073 -0.345999985933 -0.0450000017881 1949.0
0.846000015736 -0.349000006914 -0.0450000017881 1970.0
0.847999989986 -0.354999989271 -0.0450000017881 2045.0
0.84500002861 -0.360000014305 -0.0450000017881 2011.0
0.841000020504 -0.363999992609 -0.0450000017881 1979.0
0.846000015736 -0.372999995947 -0.0450000017881 1958.0
0.847000002861 -0.379000008106 -0.0460000000894 2021.0
0.842000007629 -0.38299998641 -0.0450000017881 2077.0
0.842000007629 -0.388999998569 -0.0450000017881 2083.0
0.837000012398 -0.393000006676 -0.0450000017881 2084.0
0.837999999523 -0.40000000596 -0.0450000017881 2077.0
0.833000004292 -0.402999997139 -0.0450000017881 2096.0
0.837000012398 -0.412000000477 -0.0460000000894 2134.0
0.830999970436 -0.414999991655 -0.0450000017881 2119.0
0.833000004292 -0.423000007868 -0.0460000000894 2037.0
0.824999988079 -0.425000011921 -0.0450000017881 2047.0
0.832000017166 -0.435000002384 -0.0460000000894 2016.0
0.829999983311 -0.441000014544 -0.0460000000894 1985.0
0.832000017166 -0.449000000954 -0.0460000000894 1924.0
0.829999983311 -0.453999996185 -0.0460000000894 1915.0
0.823000013828 -0.456999987364 -0.0460000000894 1964.0
0.874000012875 0.500999987125 -0.0590000003576 974.0
0.873000025749 0.493000000715 -0.0590000003576 978.0
0.880999982357 0.490999996662 -0.0590000003576 958.0
0.869000017643 0.476999998093 -0.0579999983311 962.0
0.888000011444 0.479999989271 -0.0590000003576 964.0
0.880999982357 0.469000011683 -0.0590000003576 965.0
0.878000020981 0.46099999547 -0.0579999983311 950.0
0.879999995232 0.455000013113 -0.0579999983311 928.0
0.879999995232 0.448000013828 -0.0579999983311 923.0
0.887000024319 0.444999992847 -0.0579999983311 901.0
0.887000024319 0.437999993563 -0.0579999983311 892.0
0.888999998569 0.432000011206 -0.0579999983311 882.0
0.89200001955 0.426999986172 -0.0579999983311 833.0
0.884999990463 0.416999995708 -0.0570000000298 790.0
0.884999990463 0.409999996424 -0.0570000000298 747.0
0.893999993801 0.407999992371 -0.0579999983311 724.0
0.90600001812 0.407000005245 -0.0579999983311 663.0
0.907999992371 0.400999993086 -0.0579999983311 618.0
0.899999976158 0.391000002623 -0.0579999983311 583.0
0.902000010014 0.386000007391 -0.0570000000298 511.0
0.902999997139 0.379999995232 -0.0570000000298 463.0
0.898000001907 0.370999991894 -0.0570000000298 418.0
0.910000026226 0.370000004768 -0.0579999983311 402.0
0.90600001812 0.361999988556 -0.0570000000298 355.0
0.908999979496 0.356999993324 -0.0570000000298 316.0
0.899999976158 0.347000002861 -0.0570000000298 275.0
0.899999976158 0.340999990702 -0.0560000017285 298.0
0.893999993801 0.326999992132 -0.0560000017285 267.0
0.90600001812 0.319000005722 -0.0560000017285 161.0
3.96000003815 1.16199994087 -0.239999994636 58.0
3.88400006294 1.11500000954 -0.234999999404 64.0
3.76099991798 1.05599999428 -0.226999998093 57.0
4.07000017166 1.0909999609 -0.245000004768 70.0
4.24100017548 1.11000001431 -0.254999995232 60.0
4.29600000381 1.09800004959 -0.25799998641 73.0
4.3220000267 1.07799994946 -0.259000003338 76.0
4.25600004196 1.03499996662 -0.254000008106 67.0
4.22300004959 1.00100004673 -0.252000004053 80.0
4.3220000267 0.998000025749 -0.256999999285 66.0
4.34299993515 0.976000010967 -0.25799998641 65.0
4.26499986649 0.931999981403 -0.252999991179 70.0
4.35400009155 0.925000011921 -0.25799998641 69.0
4.34600019455 0.897000014782 -0.256999999285 69.0
4.21700000763 0.84500002861 -0.248999997973 68.0
4.26800012589 0.828999996185 -0.252000004053 69.0
4.28100013733 0.805999994278 -0.252000004053 70.0
4.32000017166 0.787999987602 -0.254000008106 64.0
4.30200004578 0.759000003338 -0.252999991179 72.0
4.32800006866 0.736999988556 -0.254000008106 68.0
4.21899986267 0.694000005722 -0.24699999392 67.0
4.34999990463 0.68900001049 -0.254999995232 61.0
4.22300004959 0.643999993801 -0.24699999392 71.0
4.257999897 0.624000012875 -0.248999997973 72.0
4.2389998436 0.596000015736 -0.24699999392 76.0
4.25400018692 0.573000013828 -0.247999995947 77.0
4.22900009155 0.545000016689 -0.246000006795 71.0
4.15999984741 0.512000024319 -0.241999998689 65.0
4.12400007248 0.483000010252 -0.239999994636 66.0
4.22599983215 0.470999985933 -0.245000004768 73.0
4.32000017166 0.456000000238 -0.250999987125 57.0
4.67899990082 0.43900001049 -0.270999997854 57.0
4.69500017166 0.412999987602 -0.272000014782 58.0
4.73199987411 0.388999998569 -0.273000001907 56.0
4.6360001564 0.354000002146 -0.268000006676 48.0
4.74700021744 0.335000008345 -0.273999989033 47.0
4.67500019073 0.303000003099 -0.268999993801 51.0
4.63500022888 0.273999989033 -0.266999989748 54.0
4.71400022507 0.250999987125 -0.270999997854 58.0
4.69199991226 0.223000004888 -0.270000010729 61.0
4.67399978638 0.194999992847 -0.268999993801 63.0
4.65899991989 0.167999997735 -0.268000006676 68.0
4.66900014877 0.141000002623 -0.268000006676 63.0
4.73099994659 0.115999996662 -0.270999997854 56.0
4.74800014496 0.0890000015497 -0.272000014782 62.0
4.69899988174 0.0610000006855 -0.268999993801 62.0
4.73500013351 0.0340000018477 -0.270999997854 61.0
4.74900007248 0.00700000021607 -0.272000014782 67.0
4.76700019836 -0.019999999553 -0.273000001907 61.0
4.74399995804 -0.0469999983907 -0.270999997854 59.0
4.76700019836 -0.0750000029802 -0.272000014782 57.0
4.83300018311 -0.103000000119 -0.275999993086 61.0
4.73400020599 -0.128999993205 -0.270000010729 67.0
4.78800010681 -0.158000007272 -0.273000001907 56.0
4.81599998474 -0.186000004411 -0.27500000596 55.0
4.86199998856 -0.216000005603 -0.277000010014 62.0
4.875 -0.245000004768 -0.277999997139 57.0
4.9439997673 -0.277000010014 -0.282000005245 52.0
4.79199981689 -0.296000003815 -0.273000001907 47.0
0.929000020027 -0.11400000006 -0.0529999993742 129.0
0.887000024319 -0.11400000006 -0.0509999990463 1316.0
0.89200001955 -0.119999997318 -0.0509999990463 1836.0
0.888999998569 -0.125 -0.0509999990463 1972.0
0.884000003338 -0.128999993205 -0.0509999990463 2035.0
0.889999985695 -0.135000005364 -0.0509999990463 1986.0
0.884999990463 -0.140000000596 -0.0509999990463 1950.0
0.887000024319 -0.144999995828 -0.0509999990463 1863.0
0.884000003338 -0.15000000596 -0.0509999990463 1872.0
0.879000008106 -0.153999999166 -0.0500000007451 2026.0
0.883000016212 -0.159999996424 -0.0509999990463 1960.0
0.879000008106 -0.165000006557 -0.0500000007451 2019.0
0.885999977589 -0.172000005841 -0.0509999990463 1993.0
0.880999982357 -0.175999999046 -0.0509999990463 1955.0
0.880999982357 -0.180999994278 -0.0509999990463 1904.0
0.884000003338 -0.187000006437 -0.0509999990463 2002.0
0.876999974251 -0.190999999642 -0.0500000007451 1995.0
0.874000012875 -0.195999994874 -0.0500000007451 1984.0
0.874000012875 -0.201000005007 -0.0500000007451 1980.0
0.873000025749 -0.206000000238 -0.0500000007451 1973.0
0.867999970913 -0.209999993443 -0.0500000007451 1964.0
0.871999979019 -0.216999992728 -0.0500000007451 1922.0
0.866999983788 -0.221000000834 -0.0500000007451 1967.0
0.871999979019 -0.226999998093 -0.0500000007451 1968.0
0.864000022411 -0.231000006199 -0.0500000007451 1920.0
0.865000009537 -0.236000001431 -0.0500000007451 1924.0
0.865000009537 -0.241999998689 -0.0500000007451 2018.0
0.865000009537 -0.24699999392 -0.0500000007451 2117.0
0.861999988556 -0.252000004053 -0.0500000007451 2055.0
0.864000022411 -0.25799998641 -0.0500000007451 2081.0
0.861000001431 -0.261999994516 -0.0500000007451 2094.0
0.85799998045 -0.266999989748 -0.0500000007451 2073.0
0.860000014305 -0.273000001907 -0.0500000007451 2093.0
0.860000014305 -0.279000014067 -0.0500000007451 2023.0
0.862999975681 -0.284999996424 -0.0500000007451 1973.0
0.85799998045 -0.28900000453 -0.0500000007451 2088.0
0.852999985218 -0.293000012636 -0.0500000007451 2068.0
0.856999993324 -0.300000011921 -0.0500000007451 2003.0
0.855000019073 -0.305000007153 -0.0500000007451 2069.0
0.85799998045 -0.312000006437 -0.0500000007451 2044.0
0.850000023842 -0.314999997616 -0.0500000007451 2020.0
0.848999977112 -0.319999992847 -0.0500000007451 2044.0
0.851000010967 -0.326999992132 -0.0500000007451 2018.0
0.851000010967 -0.333000004292 -0.0500000007451 2088.0
0.850000023842 -0.337999999523 -0.0500000007451 2043.0
0.848999977112 -0.344000011683 -0.0500000007451 2025.0
0.847999989986 -0.349000006914 -0.0500000007451 2018.0
0.842999994755 -0.352999985218 -0.0500000007451 2055.0
0.84399998188 -0.358999997377 -0.0500000007451 2003.0
0.841000020504 -0.363999992609 -0.0500000007451 1979.0
0.84500002861 -0.372000008821 -0.0509999990463 1940.0
0.839999973774 -0.375999987125 -0.0500000007451 2014.0
0.842999994755 -0.384000003338 -0.0509999990463 2123.0
0.838999986649 -0.388000011444 -0.0509999990463 2126.0
0.833999991417 -0.391999989748 -0.0500000007451 2096.0
0.837999999523 -0.40000000596 -0.0509999990463 2060.0
0.836000025272 -0.405000001192 -0.0509999990463 2095.0
0.834999978542 -0.411000013351 -0.0509999990463 2108.0
0.833000004292 -0.416999995708 -0.0509999990463 2075.0
0.834999978542 -0.423999994993 -0.0509999990463 1977.0
0.833000004292 -0.428999990225 -0.0509999990463 2021.0
0.832000017166 -0.435000002384 -0.0509999990463 2051.0
0.832000017166 -0.442000001669 -0.0509999990463 1992.0
0.827000021935 -0.446000009775 -0.0509999990463 1959.0
0.827000021935 -0.45300000906 -0.0509999990463 1973.0
0.82800000906 -0.460000008345 -0.0509999990463 2048.0
0.884000003338 0.507000029087 -0.0659999996424 971.0
0.874000012875 0.493999987841 -0.0649999976158 1007.0
0.880999982357 0.490999996662 -0.0649999976158 1014.0
0.870000004768 0.476999998093 -0.0640000030398 1020.0
0.874000012875 0.472000002861 -0.0640000030398 1043.0
0.879999995232 0.469000011683 -0.0640000030398 1047.0
0.875 0.458999991417 -0.0640000030398 1047.0
0.879000008106 0.453999996185 -0.0640000030398 1051.0
0.871999979019 0.444000005722 -0.0630000010133 1061.0
0.882000029087 0.442000001669 -0.0640000030398 1086.0
0.875 0.432000011206 -0.0630000010133 1072.0
0.869000017643 0.42199999094 -0.0619999989867 1088.0
0.878000020981 0.419999986887 -0.0630000010133 1090.0
0.865999996662 0.407999992371 -0.0619999989867 1070.0
0.875999987125 0.405999988317 -0.0619999989867 1078.0
0.871999979019 0.398000001907 -0.0619999989867 1117.0
0.867999970913 0.389999985695 -0.0610000006855 1103.0
0.876999974251 0.388000011444 -0.0619999989867 1100.0
0.875 0.379999995232 -0.0610000006855 1080.0
0.873000025749 0.372999995947 -0.0610000006855 1057.0
0.876999974251 0.368999987841 -0.0610000006855 1036.0
0.865999996662 0.358000010252 -0.0599999986589 1038.0
0.875 0.356000006199 -0.0610000006855 1023.0
0.867999970913 0.347000002861 -0.0599999986589 978.0
0.875 0.344000011683 -0.0599999986589 955.0
0.875999987125 0.337999999523 -0.0599999986589 951.0
0.875999987125 0.331999987364 -0.0599999986589 955.0
0.871999979019 0.324000000954 -0.0599999986589 909.0
0.878000020981 0.321000009775 -0.0599999986589 866.0
0.875999987125 0.31400001049 -0.0599999986589 829.0
0.879000008106 0.310000002384 -0.0599999986589 810.0
0.875 0.301999986172 -0.0599999986589 780.0
0.883000016212 0.298999994993 -0.0599999986589 728.0
0.878000020981 0.291999995708 -0.0590000003576 660.0
0.875999987125 0.286000013351 -0.0590000003576 614.0
0.878000020981 0.280000001192 -0.0590000003576 563.0
0.883000016212 0.275999993086 -0.0590000003576 528.0
0.887000024319 0.272000014782 -0.0599999986589 467.0
0.867999970913 0.259999990463 -0.0579999983311 409.0
0.842999994755 0.24699999392 -0.0560000017285 361.0
0.841000020504 0.241999998689 -0.0560000017285 305.0
0.833000004292 0.233999997377 -0.0560000017285 260.0
0.850000023842 0.233999997377 -0.0570000000298 391.0
0.75 0.201000005007 -0.0500000007451 210.0
0.834999978542 0.218999996781 -0.054999999702 260.0
0.474000006914 0.120999999344 -0.0309999994934 107.0
0.316000014544 0.0790000036359 -0.0209999997169 90.0
0.140000000596 0.035000000149 -0.00999999977648 75.0
0.01600000076 0.00400000018999 -0.0010000000475 64.0
0.082999996841 0.019999999553 -0.00600000005215 56.0
4.68499994278 1.0529999733 -0.305999994278 52.0
4.58599996567 1.00300002098 -0.298999994993 62.0
4.46899986267 0.949999988079 -0.291000008583 65.0
4.44600009918 0.917999982834 -0.28900000453 68.0
4.42500019073 0.887000024319 -0.287999987602 67.0
4.36999988556 0.848999977112 -0.284000009298 61.0
4.32800006866 0.814999997616 -0.280999988317 60.0
4.26399993896 0.777000010014 -0.275999993086 65.0
4.31799983978 0.760999977589 -0.279000014067 65.0
4.31500005722 0.735000014305 -0.279000014067 68.0
4.26000022888 0.699999988079 -0.27500000596 59.0
4.32600021362 0.68599998951 -0.279000014067 61.0
4.26300001144 0.649999976158 -0.273999989033 71.0
4.26700019836 0.625999987125 -0.273999989033 69.0
4.30200004578 0.605000019073 -0.275999993086 65.0
4.26700019836 0.574999988079 -0.273999989033 74.0
4.24700021744 0.547999978065 -0.272000014782 60.0
4.25199985504 0.523000001907 -0.272000014782 57.0
4.19199991226 0.490999996662 -0.268000006676 66.0
4.34200000763 0.483999997377 -0.277000010014 56.0
4.74700021744 0.446000009775 -0.301999986172 51.0
4.75400018692 0.418000012636 -0.303000003099 54.0
4.78800010681 0.310000002384 -0.303999990225 51.0
4.71000003815 0.277999997139 -0.298999994993 52.0
4.63100004196 0.24699999392 -0.293000012636 59.0
4.72300004959 0.224000006914 -0.298999994993 56.0
4.70399999619 0.195999994874 -0.298000007868 63.0
4.67299985886 0.167999997735 -0.294999986887 65.0
4.67600011826 0.141000002623 -0.294999986887 69.0
4.70599985123 0.115000002086 -0.29699999094 58.0
4.72599983215 0.0879999995232 -0.298000007868 61.0
4.69799995422 0.0610000006855 -0.296000003815 60.0
4.71999979019 0.0340000018477 -0.298000007868 59.0
4.70900011063 0.00700000021607 -0.29699999094 57.0
4.78299999237 -0.019999999553 -0.300999999046 62.0
4.78700017929 -0.0469999983907 -0.300999999046 63.0
4.79199981689 -0.0750000029802 -0.301999986172 57.0
4.80999994278 -0.103000000119 -0.303000003099 56.0
4.80100011826 -0.130999997258 -0.301999986172 57.0
4.87099981308 -0.16099999845 -0.305999994278 56.0
4.82499980927 -0.187000006437 -0.303000003099 53.0
4.89799976349 -0.217999994755 -0.307999998331 56.0
4.83099985123 -0.243000000715 -0.303000003099 55.0
4.92199993134 -0.275999993086 -0.308999985456 50.0
0.943000018597 -0.115999996662 -0.0590000003576 144.0
0.893999993801 -0.115000002086 -0.0560000017285 1346.0
0.888000011444 -0.119000002742 -0.0560000017285 1852.0
0.888000011444 -0.125 -0.0560000017285 1928.0
0.885999977589 -0.128999993205 -0.0560000017285 1985.0
0.884000003338 -0.134000003338 -0.0560000017285 1953.0
0.884999990463 -0.140000000596 -0.0560000017285 1952.0
0.884999990463 -0.144999995828 -0.0560000017285 1894.0
0.882000029087 -0.15000000596 -0.0560000017285 1836.0
0.883000016212 -0.155000001192 -0.0560000017285 1984.0
0.884000003338 -0.16099999845 -0.0560000017285 1968.0
0.879999995232 -0.165000006557 -0.0560000017285 2014.0
0.884999990463 -0.171000003815 -0.0560000017285 1989.0
0.876999974251 -0.17499999702 -0.0560000017285 1927.0
0.875 -0.180000007153 -0.054999999702 1902.0
0.879999995232 -0.186000004411 -0.0560000017285 1983.0
0.875 -0.190999999642 -0.0560000017285 1982.0
0.874000012875 -0.195999994874 -0.054999999702 1928.0
0.871999979019 -0.201000005007 -0.054999999702 1972.0
0.870999991894 -0.206000000238 -0.054999999702 1974.0
0.875 -0.211999997497 -0.0560000017285 1972.0
0.870999991894 -0.216000005603 -0.054999999702 1908.0
0.871999979019 -0.222000002861 -0.0560000017285 1939.0
0.874000012875 -0.228000000119 -0.0560000017285 1981.0
0.873000025749 -0.232999995351 -0.0560000017285 1919.0
0.866999983788 -0.237000003457 -0.054999999702 1901.0
0.865999996662 -0.241999998689 -0.054999999702 2007.0
0.866999983788 -0.247999995947 -0.054999999702 2102.0
0.865999996662 -0.252999991179 -0.0560000017285 2050.0
0.864000022411 -0.25799998641 -0.054999999702 2048.0
0.862999975681 -0.263000011444 -0.054999999702 2106.0
0.864000022411 -0.268999993801 -0.0560000017285 2121.0
0.85900002718 -0.273000001907 -0.054999999702 2122.0
0.860000014305 -0.279000014067 -0.054999999702 2023.0
0.861999988556 -0.284999996424 -0.0560000017285 2053.0
0.85900002718 -0.289999991655 -0.0560000017285 2127.0
0.861999988556 -0.296000003815 -0.0560000017285 2124.0
0.851999998093 -0.298999994993 -0.054999999702 2009.0
0.853999972343 -0.305000007153 -0.054999999702 2078.0
0.853999972343 -0.31099998951 -0.054999999702 2044.0
0.852999985218 -0.316000014544 -0.054999999702 2024.0
0.856000006199 -0.323000013828 -0.0560000017285 2033.0
0.850000023842 -0.326999992132 -0.054999999702 2002.0
0.850000023842 -0.331999987364 -0.054999999702 2092.0
0.851000010967 -0.338999986649 -0.0560000017285 2092.0
0.847999989986 -0.344000011683 -0.0560000017285 2057.0
0.847999989986 -0.34999999404 -0.0560000017285 2023.0
0.847999989986 -0.354999989271 -0.0560000017285 2014.0
0.846000015736 -0.361000001431 -0.0560000017285 2020.0
0.842000007629 -0.365000009537 -0.0560000017285 2004.0
0.842999994755 -0.370999991894 -0.0560000017285 1967.0
0.839999973774 -0.375999987125 -0.0560000017285 2000.0
0.837000012398 -0.381000012159 -0.0560000017285 2145.0
0.837999999523 -0.386999994516 -0.0560000017285 2130.0
0.841000020504 -0.395000010729 -0.0560000017285 2076.0
0.834999978542 -0.398999989033 -0.0560000017285 2096.0
0.837000012398 -0.405999988317 -0.0560000017285 2108.0
0.838999986649 -0.412999987602 -0.0560000017285 2073.0
0.832000017166 -0.416000008583 -0.0560000017285 2016.0
0.834999978542 -0.423999994993 -0.0560000017285 2028.0
0.833999991417 -0.430000007153 -0.0560000017285 1994.0
0.824999988079 -0.432000011206 -0.0560000017285 2008.0
0.832000017166 -0.442000001669 -0.0560000017285 2017.0
0.82800000906 -0.446999996901 -0.0560000017285 1994.0
0.824999988079 -0.451000005007 -0.0560000017285 2048.0
0.82800000906 -0.460000008345 -0.0570000000298 2067.0
0.910000026226 0.522000014782 -0.0729999989271 687.0
0.899999976158 0.508000016212 -0.0719999969006 732.0
0.887000024319 0.493999987841 -0.0710000023246 771.0
0.889999985695 0.488999992609 -0.0710000023246 810.0
0.888000011444 0.481000006199 -0.0710000023246 842.0
0.883000016212 0.470999985933 -0.070000000298 890.0
0.887000024319 0.465999990702 -0.070000000298 921.0
0.878000020981 0.453999996185 -0.0689999982715 940.0
0.879999995232 0.448000013828 -0.0689999982715 973.0
0.873000025749 0.437999993563 -0.0680000036955 1001.0
0.874000012875 0.432000011206 -0.0680000036955 1032.0
0.873000025749 0.425000011921 -0.0680000036955 1042.0
0.865999996662 0.414999991655 -0.0670000016689 1062.0
0.870000004768 0.409999996424 -0.0670000016689 1091.0
0.869000017643 0.404000014067 -0.0670000016689 1114.0
0.862999975681 0.393999993801 -0.0659999996424 1128.0
0.865999996662 0.388999998569 -0.0670000016689 1140.0
0.870999991894 0.384999990463 -0.0670000016689 1151.0
0.867999970913 0.377999991179 -0.0659999996424 1159.0
0.867999970913 0.372000008821 -0.0659999996424 1164.0
0.870999991894 0.365999996662 -0.0659999996424 1173.0
0.865999996662 0.358000010252 -0.0659999996424 1195.0
0.870999991894 0.354000002146 -0.0659999996424 1199.0
0.865000009537 0.345999985933 -0.0649999976158 1209.0
0.861999988556 0.338999986649 -0.0649999976158 1206.0
0.865000009537 0.333999991417 -0.0649999976158 1231.0
0.862999975681 0.326999992132 -0.0649999976158 1214.0
0.865000009537 0.321999996901 -0.0649999976158 1201.0
0.869000017643 0.317999988794 -0.0649999976158 1181.0
0.869000017643 0.312000006437 -0.0649999976158 1199.0
0.873000025749 0.307000011206 -0.0649999976158 1181.0
0.85799998045 0.29699999094 -0.0640000030398 1190.0
0.870999991894 0.294999986887 -0.0640000030398 1173.0
0.861000001431 0.286000013351 -0.0630000010133 1170.0
0.865000009537 0.282000005245 -0.0640000030398 1171.0
0.864000022411 0.275999993086 -0.0630000010133 1159.0
0.860000014305 0.268999993801 -0.0630000010133 1150.0
0.865000009537 0.264999985695 -0.0630000010133 1175.0
0.870000004768 0.261000007391 -0.0640000030398 1149.0
0.865000009537 0.254000008106 -0.0630000010133 1145.0
0.865999996662 0.248999997973 -0.0630000010133 1117.0
0.864000022411 0.243000000715 -0.0630000010133 1081.0
0.856999993324 0.234999999404 -0.0619999989867 1044.0
0.865000009537 0.231999993324 -0.0630000010133 994.0
0.862999975681 0.225999996066 -0.0619999989867 957.0
0.870999991894 0.223000004888 -0.0630000010133 927.0
0.870000004768 0.216999992728 -0.0630000010133 874.0
0.864000022411 0.21099999547 -0.0619999989867 837.0
0.865000009537 0.206000000238 -0.0619999989867 780.0
0.853999972343 0.197999998927 -0.0610000006855 734.0
0.870000004768 0.195999994874 -0.0619999989867 688.0
0.85900002718 0.187999993563 -0.0610000006855 626.0
0.861000001431 0.184000000358 -0.0610000006855 571.0
0.838999986649 0.173999994993 -0.0599999986589 525.0
0.822000026703 0.165000006557 -0.0590000003576 473.0
0.839999973774 0.16400000453 -0.0599999986589 430.0
0.838999986649 0.158999994397 -0.0599999986589 372.0
0.816999971867 0.15000000596 -0.0579999983311 320.0
0.774999976158 0.136999994516 -0.054999999702 278.0
0.76599997282 0.130999997258 -0.0540000014007 231.0
0.754000008106 0.125 -0.0529999993742 240.0
0.716000020504 0.11400000006 -0.0509999990463 191.0
0.544000029564 0.0839999988675 -0.0379999987781 115.0
0.425999999046 0.0630000010133 -0.0299999993294 103.0
0.209999993443 0.0299999993294 -0.0149999996647 82.0
0.123000003397 0.0179999992251 -0.00899999961257 70.0
4.93300008774 0.635999977589 -0.344999998808 61.0
4.90700006485 0.603999972343 -0.342999994755 57.0
4.68499994278 0.549000024796 -0.326999992132 52.0
4.61299991608 0.513999998569 -0.321999996901 55.0
4.85799980164 0.513000011444 -0.337999999523 48.0
0.133000001311 0.0140000004321 -0.00999999977648 51.0
4.97900009155 0.437999993563 -0.345999985933 50.0
4.80999994278 0.395000010729 -0.333999991417 49.0
4.79099988937 0.31099998951 -0.331999987364 53.0
4.70499992371 0.277999997139 -0.326000005007 52.0
4.73000001907 0.252000004053 -0.326999992132 52.0
4.75699996948 0.225999996066 -0.328999996185 55.0
4.65399980545 0.194000005722 -0.321000009775 62.0
4.63800001144 0.166999995708 -0.319999992847 68.0
4.78999996185 0.143999993801 -0.330000013113 62.0
4.73400020599 0.0879999995232 -0.326000005007 60.0
4.6779999733 0.0599999986589 -0.321999996901 59.0
4.78299999237 0.0340000018477 -0.328999996185 60.0
4.77299976349 0.00600000005215 -0.32800000906 62.0
4.76499986649 -0.019999999553 -0.32800000906 61.0
4.79300022125 -0.0480000004172 -0.330000013113 62.0
4.82700014114 -0.0759999975562 -0.331999987364 59.0
4.83699989319 -0.104000002146 -0.331999987364 59.0
4.84100008011 -0.131999999285 -0.333000004292 58.0
4.80499982834 -0.158999994397 -0.330000013113 61.0
4.88800001144 -0.189999997616 -0.33599999547 56.0
4.86199998856 -0.216999992728 -0.333999991417 56.0
4.85599994659 -0.244000002742 -0.333000004292 55.0
4.87200021744 -0.273000001907 -0.333999991417 55.0
0.940999984741 -0.115999996662 -0.0649999976158 170.0
0.888999998569 -0.11400000006 -0.0610000006855 1365.0
0.887000024319 -0.119000002742 -0.0610000006855 1853.0
0.889999985695 -0.125 -0.0610000006855 1895.0
0.888999998569 -0.129999995232 -0.0610000006855 1944.0
0.885999977589 -0.135000005364 -0.0610000006855 1938.0
0.884999990463 -0.140000000596 -0.0610000006855 2001.0
0.884999990463 -0.144999995828 -0.0610000006855 1927.0
0.882000029087 -0.15000000596 -0.0610000006855 1853.0
0.885999977589 -0.156000003219 -0.0610000006855 1966.0
0.882000029087 -0.159999996424 -0.0610000006855 2025.0
0.880999982357 -0.165000006557 -0.0610000006855 1988.0
0.880999982357 -0.171000003815 -0.0610000006855 1982.0
0.879000008106 -0.175999999046 -0.0610000006855 1935.0
0.879999995232 -0.180999994278 -0.0610000006855 1928.0
0.879999995232 -0.186000004411 -0.0610000006855 1920.0
0.876999974251 -0.190999999642 -0.0610000006855 1927.0
0.873000025749 -0.195999994874 -0.0610000006855 1880.0
0.871999979019 -0.201000005007 -0.0610000006855 1913.0
0.876999974251 -0.207000002265 -0.0610000006855 2000.0
0.871999979019 -0.21099999547 -0.0610000006855 1955.0
0.873000025749 -0.216999992728 -0.0610000006855 1908.0
0.873000025749 -0.222000002861 -0.0610000006855 1963.0
0.866999983788 -0.225999996066 -0.0599999986589 1992.0
0.867999970913 -0.231999993324 -0.0610000006855 1910.0
0.873000025749 -0.238999992609 -0.0610000006855 1938.0
0.865999996662 -0.241999998689 -0.0599999986589 1956.0
0.866999983788 -0.247999995947 -0.0610000006855 2127.0
0.867999970913 -0.254000008106 -0.0610000006855 2096.0
0.861000001431 -0.256999999285 -0.0599999986589 2020.0
0.865000009537 -0.263999998569 -0.0610000006855 2058.0
0.860000014305 -0.268000006676 -0.0599999986589 2095.0
0.85900002718 -0.273000001907 -0.0599999986589 2073.0
0.860000014305 -0.279000014067 -0.0610000006855 2036.0
0.860000014305 -0.284999996424 -0.0610000006855 2058.0
0.85900002718 -0.289999991655 -0.0610000006855 2074.0
0.856000006199 -0.294999986887 -0.0610000006855 2098.0
0.853999972343 -0.300000011921 -0.0599999986589 2027.0
0.852999985218 -0.305000007153 -0.0599999986589 2033.0
0.853999972343 -0.31099998951 -0.0610000006855 2064.0
0.856000006199 -0.317999988794 -0.0610000006855 2030.0
0.851999998093 -0.321999996901 -0.0610000006855 2021.0
0.851000010967 -0.326999992132 -0.0610000006855 1983.0
0.850000023842 -0.333000004292 -0.0610000006855 2056.0
0.84399998188 -0.33599999547 -0.0599999986589 2089.0
0.846000015736 -0.342999994755 -0.0610000006855 2028.0
0.846000015736 -0.349000006914 -0.0610000006855 2031.0
0.847999989986 -0.356000006199 -0.0610000006855 2022.0
0.848999977112 -0.361999988556 -0.0610000006855 1996.0
0.842000007629 -0.365000009537 -0.0610000006855 2019.0
0.841000020504 -0.370999991894 -0.0610000006855 1964.0
0.838999986649 -0.375999987125 -0.0610000006855 1993.0
0.838999986649 -0.381999999285 -0.0610000006855 2148.0
0.837000012398 -0.386999994516 -0.0610000006855 2121.0
0.837999999523 -0.393999993801 -0.0610000006855 2101.0
0.833000004292 -0.398000001907 -0.0610000006855 2120.0
0.838999986649 -0.407000005245 -0.0610000006855 2087.0
0.832000017166 -0.409999996424 -0.0610000006855 2068.0
0.828999996185 -0.414999991655 -0.0610000006855 2009.0
0.832000017166 -0.423000007868 -0.0610000006855 2112.0
0.832000017166 -0.428999990225 -0.0610000006855 2025.0
0.830999970436 -0.435000002384 -0.0619999989867 1983.0
0.828999996185 -0.439999997616 -0.0619999989867 2057.0
0.824000000954 -0.444999992847 -0.0610000006855 2027.0
0.829999983311 -0.453999996185 -0.0619999989867 2030.0
0.824999988079 -0.458000004292 -0.0619999989867 2026.0
1.33000004292 0.763999998569 -0.115999996662 314.0
1.20599997044 0.683000028133 -0.104999996722 288.0
1.06700003147 0.59500002861 -0.0920000001788 263.0
1.0379999876 0.569999992847 -0.0900000035763 301.0
0.994000017643 0.537999987602 -0.0860000029206 340.0
0.947000026703 0.504999995232 -0.0810000002384 385.0
0.938000023365 0.493000000715 -0.0799999982119 435.0
0.930000007153 0.481000006199 -0.0790000036359 484.0
0.925999999046 0.472000002861 -0.0790000036359 546.0
0.911000013351 0.456999987364 -0.0769999995828 610.0
0.90600001812 0.448000013828 -0.0769999995828 671.0
0.899999976158 0.437999993563 -0.0759999975562 705.0
0.89099997282 0.426999986172 -0.0750000029802 740.0
0.888999998569 0.418999999762 -0.0740000009537 795.0
0.887000024319 0.412000000477 -0.0740000009537 838.0
0.880999982357 0.402999997139 -0.0729999989271 869.0
0.875 0.393999993801 -0.0729999989271 919.0
0.875999987125 0.386999994516 -0.0729999989271 974.0
0.871999979019 0.379000008106 -0.0719999969006 987.0
0.870999991894 0.372999995947 -0.0719999969006 1015.0
0.875 0.368000000715 -0.0719999969006 1050.0
0.865999996662 0.358000010252 -0.0710000023246 1083.0
0.860000014305 0.34999999404 -0.070000000298 1123.0
0.866999983788 0.347000002861 -0.0710000023246 1148.0
0.866999983788 0.340999990702 -0.0710000023246 1147.0
0.862999975681 0.333000004292 -0.070000000298 1190.0
0.861000001431 0.326000005007 -0.070000000298 1212.0
0.862999975681 0.321999996901 -0.070000000298 1216.0
0.862999975681 0.316000014544 -0.070000000298 1238.0
0.861999988556 0.310000002384 -0.0689999982715 1260.0
0.85900002718 0.303000003099 -0.0689999982715 1295.0
0.862999975681 0.298000007868 -0.0689999982715 1292.0
0.85799998045 0.291000008583 -0.0689999982715 1302.0
0.861999988556 0.287000000477 -0.0689999982715 1326.0
0.85900002718 0.280000001192 -0.0680000036955 1344.0
0.861000001431 0.27500000596 -0.0680000036955 1342.0
0.855000019073 0.268000006676 -0.0680000036955 1364.0
0.864000022411 0.264999985695 -0.0680000036955 1355.0
0.85900002718 0.25799998641 -0.0680000036955 1348.0
0.865999996662 0.254000008106 -0.0680000036955 1377.0
0.862999975681 0.247999995947 -0.0680000036955 1381.0
0.856999993324 0.240999996662 -0.0670000016689 1385.0
0.855000019073 0.234999999404 -0.0670000016689 1377.0
0.851999998093 0.229000002146 -0.0670000016689 1382.0
0.862999975681 0.225999996066 -0.0670000016689 1371.0
0.85900002718 0.219999998808 -0.0670000016689 1375.0
0.855000019073 0.21400000155 -0.0670000016689 1376.0
0.862999975681 0.209999993443 -0.0670000016689 1348.0
0.851000010967 0.202000007033 -0.0659999996424 1360.0
0.851999998093 0.196999996901 -0.0659999996424 1338.0
0.855000019073 0.193000003695 -0.0659999996424 1336.0
0.853999972343 0.187000006437 -0.0659999996424 1299.0
0.856999993324 0.182999998331 -0.0659999996424 1286.0
0.852999985218 0.177000001073 -0.0659999996424 1288.0
0.856999993324 0.172000005841 -0.0659999996424 1294.0
0.856000006199 0.166999995708 -0.0659999996424 1265.0
0.856000006199 0.162000000477 -0.0659999996424 1234.0
0.856000006199 0.157000005245 -0.0659999996424 1180.0
0.855000019073 0.151999995112 -0.0659999996424 1160.0
0.856999993324 0.146999999881 -0.0659999996424 1117.0
0.853999972343 0.141000002623 -0.0649999976158 1071.0
0.85900002718 0.136999994516 -0.0659999996424 1009.0
0.85799998045 0.131999999285 -0.0649999976158 957.0
0.851999998093 0.126000002027 -0.0649999976158 941.0
0.855000019073 0.120999999344 -0.0649999976158 881.0
0.851999998093 0.115999996662 -0.0649999976158 840.0
0.847000002861 0.109999999404 -0.0640000030398 799.0
0.856000006199 0.105999998748 -0.0649999976158 752.0
0.842000007629 0.10000000149 -0.0640000030398 683.0
0.862999975681 0.097000002861 -0.0649999976158 638.0
0.842999994755 0.0900000035763 -0.0640000030398 582.0
0.847000002861 0.0850000008941 -0.0640000030398 548.0
0.839999973774 0.0799999982119 -0.0630000010133 515.0
0.837999999523 0.0750000029802 -0.0630000010133 455.0
0.837999999523 0.070000000298 -0.0630000010133 393.0
0.824999988079 0.0640000030398 -0.0619999989867 346.0
0.810000002384 0.0579999983311 -0.0610000006855 301.0
0.79699999094 0.0529999993742 -0.0599999986589 265.0
0.725000023842 0.0439999997616 -0.054999999702 213.0
0.158000007272 0.00999999977648 -0.0120000001043 68.0
4.6810002327 0.222000002861 -0.351000010967 55.0
4.71000003815 0.195999994874 -0.352999985218 64.0
4.6939997673 0.168999999762 -0.351000010967 66.0
4.71799993515 0.142000004649 -0.352999985218 61.0
4.73400020599 0.115000002086 -0.354000002146 65.0
4.72100019455 0.0879999995232 -0.352999985218 62.0
4.77899980545 0.0610000006855 -0.356999993324 64.0
4.757999897 0.0340000018477 -0.354999989271 59.0
4.80499982834 0.00600000005215 -0.358999997377 60.0
4.77600002289 -0.019999999553 -0.356000006199 59.0
4.76999998093 -0.0480000004172 -0.356000006199 54.0
4.80499982834 -0.0759999975562 -0.358000010252 61.0
4.81500005722 -0.104000002146 -0.358999997377 61.0
4.80499982834 -0.130999997258 -0.358000010252 58.0
4.84100008011 -0.159999996424 -0.361000001431 58.0
4.87200021744 -0.188999995589 -0.363000005484 55.0
4.86899995804 -0.216999992728 -0.361999988556 56.0
4.92299985886 -0.247999995947 -0.365999996662 55.0
4.94000005722 -0.277000010014 -0.368000000715 54.0
0.888999998569 -0.11400000006 -0.0659999996424 1345.0
0.887000024319 -0.119000002742 -0.0659999996424 1838.0
0.888999998569 -0.125 -0.0659999996424 1923.0
0.889999985695 -0.129999995232 -0.0670000016689 1904.0
0.888000011444 -0.135000005364 -0.0659999996424 1914.0
0.885999977589 -0.140000000596 -0.0659999996424 1995.0
0.884999990463 -0.144999995828 -0.0659999996424 1946.0
0.884000003338 -0.15000000596 -0.0659999996424 1913.0
0.880999982357 -0.155000001192 -0.0659999996424 1959.0
0.880999982357 -0.159999996424 -0.0659999996424 2038.0
0.880999982357 -0.165999993682 -0.0659999996424 1954.0
0.879999995232 -0.171000003815 -0.0659999996424 1958.0
0.879999995232 -0.175999999046 -0.0659999996424 1937.0
0.879999995232 -0.180999994278 -0.0659999996424 1928.0
0.878000020981 -0.186000004411 -0.0659999996424 1909.0
0.875 -0.190999999642 -0.0659999996424 1921.0
0.879999995232 -0.196999996901 -0.0659999996424 1908.0
0.873000025749 -0.201000005007 -0.0659999996424 1905.0
0.874000012875 -0.206000000238 -0.0659999996424 1993.0
0.875999987125 -0.211999997497 -0.0659999996424 1929.0
0.873000025749 -0.216999992728 -0.0659999996424 1894.0
0.870000004768 -0.222000002861 -0.0659999996424 1910.0
0.871999979019 -0.226999998093 -0.0659999996424 1963.0
0.870000004768 -0.231999993324 -0.0659999996424 1909.0
0.865000009537 -0.237000003457 -0.0659999996424 1909.0
0.869000017643 -0.243000000715 -0.0659999996424 1903.0
0.865000009537 -0.247999995947 -0.0659999996424 2041.0
0.856999993324 -0.250999987125 -0.0649999976158 2053.0
0.861000001431 -0.256999999285 -0.0659999996424 2025.0
0.85900002718 -0.261999994516 -0.0649999976158 2075.0
0.861999988556 -0.268999993801 -0.0659999996424 2094.0
0.856999993324 -0.273000001907 -0.0649999976158 2054.0
0.860000014305 -0.279000014067 -0.0659999996424 2053.0
0.856999993324 -0.284000009298 -0.0659999996424 2002.0
0.855000019073 -0.28900000453 -0.0659999996424 2027.0
0.85799998045 -0.294999986887 -0.0659999996424 2063.0
0.851999998093 -0.298999994993 -0.0659999996424 2048.0
0.853999972343 -0.305999994278 -0.0659999996424 2018.0
0.852999985218 -0.31099998951 -0.0659999996424 2090.0
0.848999977112 -0.314999997616 -0.0659999996424 2021.0
0.851999998093 -0.321999996901 -0.0659999996424 2036.0
0.848999977112 -0.326999992132 -0.0659999996424 1970.0
0.847999989986 -0.331999987364 -0.0659999996424 2031.0
0.847999989986 -0.337999999523 -0.0659999996424 2078.0
0.848999977112 -0.344000011683 -0.0659999996424 2050.0
0.847000002861 -0.349000006914 -0.0659999996424 2042.0
0.848999977112 -0.356000006199 -0.0659999996424 2010.0
0.846000015736 -0.361000001431 -0.0659999996424 1985.0
0.842000007629 -0.365000009537 -0.0659999996424 1991.0
0.839999973774 -0.370999991894 -0.0659999996424 1977.0
0.839999973774 -0.377000004053 -0.0659999996424 2008.0
0.839999973774 -0.38299998641 -0.0659999996424 2172.0
0.837000012398 -0.386999994516 -0.0659999996424 2153.0
0.837999999523 -0.393999993801 -0.0659999996424 2112.0
0.834999978542 -0.398999989033 -0.0659999996424 2150.0
0.836000025272 -0.405999988317 -0.0670000016689 2088.0
0.837000012398 -0.412999987602 -0.0670000016689 2141.0
0.836000025272 -0.418999999762 -0.0670000016689 2130.0
0.829999983311 -0.42199999094 -0.0659999996424 2181.0
0.82800000906 -0.426999986172 -0.0670000016689 2070.0
0.82800000906 -0.433999985456 -0.0670000016689 2025.0
0.829999983311 -0.441000014544 -0.0670000016689 2073.0
0.82800000906 -0.446999996901 -0.0670000016689 2068.0
0.824999988079 -0.451999992132 -0.0670000016689 1970.0
0.820999979973 -0.456000000238 -0.0670000016689 2006.0
1.66799998283 0.958999991417 -0.156000003219 331.0
1.66799998283 0.944999992847 -0.156000003219 282.0
1.64800000191 0.920000016689 -0.152999997139 141.0
1.68499994278 0.926999986172 -0.156000003219 127.0
1.72000002861 0.931999981403 -0.158999994397 126.0
1.79499995708 0.958999991417 -0.165000006557 84.0
1.82400000095 0.958999991417 -0.167999997735 96.0
