ply
format ascii 1.0
element vertex 914
property float x
property float y
property float z
property float intensity
end_header
0.870999991894 0.405000001192 0.0570000000298 1170.0
0.869000017643 0.398000001907 0.0570000000298 1181.0
0.865999996662 0.389999985695 0.0560000017285 1188.0
0.870000004768 0.384999990463 0.0570000000298 1208.0
0.873000025749 0.379999995232 0.0570000000298 1219.0
0.875 0.375 0.0570000000298 1235.0
0.876999974251 0.370000004768 0.0570000000298 1261.0
0.871999979019 0.361000001431 0.0560000017285 1276.0
0.871999979019 0.354999989271 0.0560000017285 1273.0
0.873000025749 0.34999999404 0.0560000017285 1287.0
0.867999970913 0.342000007629 0.0560000017285 1297.0
0.871999979019 0.337000012398 0.0560000017285 1321.0
0.869000017643 0.330000013113 0.0560000017285 1319.0
0.873000025749 0.326000005007 0.0560000017285 1320.0
0.870000004768 0.319000005722 0.054999999702 1315.0
0.875999987125 0.314999997616 0.0560000017285 1348.0
0.870999991894 0.307000011206 0.054999999702 1339.0
0.867999970913 0.300999999046 0.054999999702 1339.0
0.869000017643 0.294999986887 0.054999999702 1334.0
0.875 0.291000008583 0.054999999702 1373.0
0.867999970913 0.282999992371 0.054999999702 1370.0
0.865999996662 0.277000010014 0.054999999702 1376.0
0.867999970913 0.272000014782 0.054999999702 1392.0
0.870999991894 0.268000006676 0.054999999702 1419.0
0.864000022411 0.259999990463 0.0540000014007 1429.0
0.870000004768 0.256000012159 0.054999999702 1433.0
0.871999979019 0.250999987125 0.054999999702 1438.0
0.865000009537 0.244000002742 0.0540000014007 1450.0
0.867999970913 0.238999992609 0.0540000014007 1466.0
0.861000001431 0.231999993324 0.0540000014007 1473.0
0.869000017643 0.228000000119 0.0540000014007 1484.0
0.861000001431 0.221000000834 0.0540000014007 1522.0
0.865999996662 0.216999992728 0.0540000014007 1549.0
0.861999988556 0.21099999547 0.0540000014007 1533.0
0.865000009537 0.206000000238 0.0540000014007 1526.0
0.862999975681 0.20000000298 0.0540000014007 1554.0
0.867999970913 0.195999994874 0.0540000014007 1542.0
0.861000001431 0.188999995589 0.0540000014007 1544.0
0.864000022411 0.185000002384 0.0540000014007 1558.0
0.862999975681 0.179000005126 0.0540000014007 1594.0
0.862999975681 0.173999994993 0.0540000014007 1600.0
0.862999975681 0.168999999762 0.0540000014007 1592.0
0.856000006199 0.162000000477 0.0529999993742 1592.0
0.862999975681 0.158999994397 0.0540000014007 1598.0
0.85900002718 0.152999997139 0.0529999993742 1608.0
0.866999983788 0.149000003934 0.0540000014007 1625.0
0.864000022411 0.143000006676 0.0529999993742 1628.0
0.861999988556 0.137999996543 0.0529999993742 1639.0
0.861999988556 0.133000001311 0.0529999993742 1656.0
0.860000014305 0.127000004053 0.0529999993742 1688.0
0.861999988556 0.123000003397 0.0529999993742 1700.0
0.860000014305 0.116999998689 0.0529999993742 1734.0
0.860000014305 0.112000003457 0.0529999993742 1762.0
0.85799998045 0.107000000775 0.0529999993742 1742.0
0.856000006199 0.101999998093 0.0529999993742 1756.0
0.85900002718 0.097000002861 0.0529999993742 1768.0
0.860000014305 0.0920000001788 0.0529999993742 1754.0
0.860000014305 0.0869999974966 0.0529999993742 1703.0
0.876999974251 0.0839999988675 0.0540000014007 1510.0
0.954999983311 0.0860000029206 0.0590000003576 530.0
0.901000022888 -0.104999996722 0.0570000000298 1510.0
0.910000026226 -0.111000001431 0.0570000000298 1594.0
0.907000005245 -0.115999996662 0.0570000000298 1595.0
0.90600001812 -0.120999999344 0.0570000000298 1582.0
0.90499997139 -0.126000002027 0.0570000000298 1618.0
0.90600001812 -0.131999999285 0.0570000000298 1597.0
0.898000001907 -0.136000007391 0.0570000000298 1597.0
0.911000013351 -0.143000006676 0.0579999983311 1602.0
0.898999989033 -0.146999999881 0.0570000000298 1631.0
0.90600001812 -0.152999997139 0.0579999983311 1631.0
0.902999997139 -0.158000007272 0.0579999983311 1632.0
0.901000022888 -0.163000002503 0.0579999983311 1597.0
0.902999997139 -0.168999999762 0.0579999983311 1634.0
0.902000010014 -0.173999994993 0.0579999983311 1637.0
0.898999989033 -0.179000005126 0.0579999983311 1655.0
0.898999989033 -0.184000000358 0.0579999983311 1650.0
0.899999976158 -0.189999997616 0.0579999983311 1664.0
0.896000027657 -0.194999992847 0.0579999983311 1658.0
0.897000014782 -0.20000000298 0.0579999983311 1663.0
0.893999993801 -0.204999998212 0.0579999983311 1658.0
0.893000006676 -0.209999993443 0.0579999983311 1682.0
0.889999985695 -0.215000003576 0.0579999983311 1651.0
0.893000006676 -0.221000000834 0.0579999983311 1661.0
0.888000011444 -0.225999996066 0.0579999983311 1669.0
0.89200001955 -0.231999993324 0.0579999983311 1673.0
0.885999977589 -0.236000001431 0.0579999983311 1678.0
0.885999977589 -0.241999998689 0.0579999983311 1679.0
0.885999977589 -0.24699999392 0.0579999983311 1683.0
0.888000011444 -0.254000008106 0.0579999983311 1690.0
0.884999990463 -0.25799998641 0.0579999983311 1675.0
0.885999977589 -0.263999998569 0.0579999983311 1670.0
0.883000016212 -0.268999993801 0.0579999983311 1658.0
0.879999995232 -0.273999989033 0.0579999983311 1680.0
0.879999995232 -0.279000014067 0.0579999983311 1681.0
0.882000029087 -0.286000013351 0.0590000003576 1687.0
0.879000008106 -0.291000008583 0.0579999983311 1677.0
0.880999982357 -0.29699999094 0.0590000003576 1691.0
0.878000020981 -0.301999986172 0.0590000003576 1680.0
0.875999987125 -0.307000011206 0.0590000003576 1661.0
0.875 -0.312000006437 0.0590000003576 1674.0
0.879000008106 -0.319999992847 0.0590000003576 1670.0
0.874000012875 -0.324000000954 0.0590000003576 1657.0
0.871999979019 -0.328999996185 0.0590000003576 1661.0
0.871999979019 -0.335000008345 0.0590000003576 1660.0
0.874000012875 -0.340999990702 0.0590000003576 1658.0
0.867999970913 -0.344999998808 0.0590000003576 1639.0
0.865000009537 -0.34999999404 0.0590000003576 1647.0
0.867999970913 -0.356999993324 0.0590000003576 1645.0
0.870000004768 -0.363999992609 0.0599999986589 1652.0
0.862999975681 -0.36700001359 0.0590000003576 1632.0
0.866999983788 -0.375999987125 0.0599999986589 1640.0
0.865000009537 -0.381000012159 0.0599999986589 1647.0
0.862999975681 -0.386000007391 0.0599999986589 1667.0
0.861000001431 -0.391000002623 0.0599999986589 1673.0
0.861999988556 -0.398000001907 0.0599999986589 1679.0
0.864000022411 -0.405000001192 0.0599999986589 1686.0
0.85900002718 -0.409000009298 0.0599999986589 1676.0
0.861999988556 -0.418000012636 0.0610000006855 1676.0
0.856000006199 -0.421000003815 0.0599999986589 1673.0
0.852999985218 -0.425999999046 0.0599999986589 1689.0
0.856999993324 -0.435000002384 0.0610000006855 1655.0
0.856000006199 -0.441000014544 0.0610000006855 1623.0
0.85799998045 -0.448000013828 0.0610000006855 1657.0
0.851999998093 -0.451999992132 0.0610000006855 1673.0
0.851000010967 -0.458000004292 0.0610000006855 1680.0
0.851999998093 -0.465999990702 0.0619999989867 1662.0
0.853999972343 -0.474000006914 0.0619999989867 1669.0
0.879000008106 0.504000008106 0.0540000014007 1044.0
0.873000025749 0.493999987841 0.0529999993742 1043.0
0.879999995232 0.490999996662 0.0529999993742 1077.0
0.882000029087 0.483999997377 0.0529999993742 1078.0
0.874000012875 0.472999989986 0.0529999993742 1082.0
0.875 0.467000007629 0.0529999993742 1106.0
0.878000020981 0.46099999547 0.0529999993742 1110.0
0.871999979019 0.451999992132 0.0520000010729 1118.0
0.875999987125 0.446999996901 0.0520000010729 1121.0
0.875 0.439999997616 0.0520000010729 1142.0
0.870999991894 0.430999994278 0.0520000010729 1142.0
0.875999987125 0.426999986172 0.0520000010729 1138.0
0.880999982357 0.42199999094 0.0520000010729 1170.0
0.875 0.412999987602 0.0520000010729 1175.0
0.879999995232 0.409000009298 0.0520000010729 1158.0
0.870000004768 0.398000001907 0.0509999990463 1183.0
0.874000012875 0.393000006676 0.0509999990463 1206.0
0.876999974251 0.388000011444 0.0520000010729 1222.0
0.870999991894 0.379000008106 0.0509999990463 1225.0
0.871999979019 0.374000012875 0.0509999990463 1220.0
0.873000025749 0.368000000715 0.0509999990463 1237.0
0.878000020981 0.363999992609 0.0509999990463 1250.0
0.873000025749 0.354999989271 0.0509999990463 1260.0
0.870000004768 0.347999989986 0.0509999990463 1261.0
0.871999979019 0.342999994755 0.0509999990463 1263.0
0.867999970913 0.33599999547 0.0500000007451 1302.0
0.869000017643 0.330000013113 0.0500000007451 1301.0
0.873000025749 0.326000005007 0.0500000007451 1290.0
0.875999987125 0.321000009775 0.0509999990463 1290.0
0.869000017643 0.312000006437 0.0500000007451 1323.0
0.871999979019 0.307000011206 0.0500000007451 1309.0
0.874000012875 0.301999986172 0.0500000007451 1320.0
0.873000025749 0.296000003815 0.0500000007451 1318.0
0.871999979019 0.289999991655 0.0500000007451 1316.0
0.866999983788 0.282999992371 0.0500000007451 1324.0
0.870000004768 0.277999997139 0.0500000007451 1345.0
0.869000017643 0.272000014782 0.0500000007451 1360.0
0.870999991894 0.266999989748 0.0500000007451 1371.0
0.867999970913 0.261000007391 0.0489999987185 1387.0
0.865000009537 0.254999995232 0.0489999987185 1409.0
0.867999970913 0.25 0.0489999987185 1408.0
0.865000009537 0.244000002742 0.0489999987185 1416.0
0.865999996662 0.238000005484 0.0489999987185 1436.0
0.862999975681 0.231999993324 0.0489999987185 1452.0
0.865999996662 0.228000000119 0.0489999987185 1455.0
0.867999970913 0.223000004888 0.0489999987185 1491.0
0.865999996662 0.216999992728 0.0489999987185 1524.0
0.866999983788 0.211999997497 0.0489999987185 1513.0
0.866999983788 0.206000000238 0.0489999987185 1500.0
0.861000001431 0.20000000298 0.0489999987185 1514.0
0.866999983788 0.195999994874 0.0489999987185 1517.0
0.860000014305 0.188999995589 0.0480000004172 1509.0
0.856999993324 0.182999998331 0.0480000004172 1513.0
0.865000009537 0.180000007153 0.0489999987185 1540.0
0.865999996662 0.17499999702 0.0489999987185 1536.0
0.861999988556 0.168999999762 0.0480000004172 1547.0
0.865999996662 0.16400000453 0.0489999987185 1546.0
0.864000022411 0.158999994397 0.0480000004172 1571.0
0.867999970913 0.153999999166 0.0489999987185 1549.0
0.862999975681 0.148000001907 0.0480000004172 1560.0
0.861000001431 0.143000006676 0.0480000004172 1576.0
0.856000006199 0.136999994516 0.0480000004172 1593.0
0.85900002718 0.131999999285 0.0480000004172 1641.0
0.856000006199 0.127000004053 0.0480000004172 1674.0
0.860000014305 0.122000001371 0.0480000004172 1664.0
0.856999993324 0.116999998689 0.0480000004172 1680.0
0.85900002718 0.112000003457 0.0480000004172 1722.0
0.85900002718 0.107000000775 0.0480000004172 1706.0
0.85799998045 0.101999998093 0.0480000004172 1708.0
0.85900002718 0.097000002861 0.0480000004172 1716.0
0.856999993324 0.0920000001788 0.0480000004172 1725.0
0.861999988556 0.0869999974966 0.0480000004172 1733.0
0.873000025749 0.082999996841 0.0489999987185 1523.0
0.899999976158 -0.104999996722 0.0520000010729 1533.0
0.911000013351 -0.111000001431 0.0520000010729 1621.0
0.912000000477 -0.116999998689 0.0520000010729 1628.0
0.907000005245 -0.120999999344 0.0520000010729 1608.0
0.907000005245 -0.127000004053 0.0520000010729 1634.0
0.907999992371 -0.131999999285 0.0520000010729 1636.0
0.90600001812 -0.136999994516 0.0520000010729 1621.0
0.907000005245 -0.143000006676 0.0520000010729 1624.0
0.901000022888 -0.146999999881 0.0520000010729 1644.0
0.90499997139 -0.152999997139 0.0520000010729 1646.0
0.903999984264 -0.158000007272 0.0520000010729 1653.0
0.902000010014 -0.163000002503 0.0520000010729 1630.0
0.901000022888 -0.168999999762 0.0520000010729 1652.0
0.896000027657 -0.172999992967 0.0520000010729 1645.0
0.898000001907 -0.179000005126 0.0520000010729 1640.0
0.897000014782 -0.184000000358 0.0520000010729 1659.0
0.898999989033 -0.189999997616 0.0529999993742 1663.0
0.898000001907 -0.194999992847 0.0529999993742 1666.0
0.897000014782 -0.20000000298 0.0529999993742 1683.0
0.894999980927 -0.204999998212 0.0529999993742 1674.0
0.893000006676 -0.209999993443 0.0520000010729 1694.0
0.89099997282 -0.215000003576 0.0520000010729 1691.0
0.893000006676 -0.221000000834 0.0529999993742 1676.0
0.888000011444 -0.225999996066 0.0520000010729 1682.0
0.888999998569 -0.231000006199 0.0529999993742 1695.0
0.896000027657 -0.238999992609 0.0529999993742 1701.0
0.880999982357 -0.239999994636 0.0520000010729 1691.0
0.89200001955 -0.248999997973 0.0529999993742 1686.0
0.888999998569 -0.254000008106 0.0529999993742 1706.0
0.885999977589 -0.25799998641 0.0529999993742 1684.0
0.884000003338 -0.263000011444 0.0529999993742 1670.0
0.882000029087 -0.268999993801 0.0529999993742 1657.0
0.884000003338 -0.27500000596 0.0529999993742 1673.0
0.878000020981 -0.279000014067 0.0529999993742 1679.0
0.880999982357 -0.284999996424 0.0529999993742 1674.0
0.878000020981 -0.289999991655 0.0529999993742 1696.0
0.879000008106 -0.296000003815 0.0529999993742 1686.0
0.875999987125 -0.300999999046 0.0529999993742 1688.0
0.879000008106 -0.307999998331 0.0540000014007 1675.0
0.870000004768 -0.310000002384 0.0529999993742 1681.0
0.879000008106 -0.319999992847 0.0540000014007 1689.0
0.874000012875 -0.324000000954 0.0540000014007 1662.0
0.871999979019 -0.328999996185 0.0540000014007 1674.0
0.871999979019 -0.335000008345 0.0540000014007 1663.0
0.875 -0.342000007629 0.0540000014007 1675.0
0.875 -0.347999989986 0.0540000014007 1669.0
0.867999970913 -0.351000010967 0.0540000014007 1680.0
0.871999979019 -0.358999997377 0.0540000014007 1664.0
0.869000017643 -0.363999992609 0.0540000014007 1652.0
0.866999983788 -0.368999987841 0.0540000014007 1638.0
0.865000009537 -0.375 0.0540000014007 1636.0
0.861999988556 -0.379000008106 0.0540000014007 1634.0
0.867999970913 -0.388000011444 0.054999999702 1652.0
0.85900002718 -0.389999985695 0.0540000014007 1666.0
0.860000014305 -0.397000014782 0.054999999702 1679.0
0.861000001431 -0.404000014067 0.054999999702 1697.0
0.860000014305 -0.409999996424 0.054999999702 1680.0
0.856000006199 -0.414999991655 0.054999999702 1690.0
0.851999998093 -0.418999999762 0.054999999702 1696.0
0.851999998093 -0.425000011921 0.054999999702 1683.0
0.85799998045 -0.435000002384 0.0560000017285 1670.0
0.851000010967 -0.437999993563 0.054999999702 1632.0
0.851999998093 -0.446000009775 0.0560000017285 1674.0
0.855000019073 -0.453999996185 0.0560000017285 1665.0
0.850000023842 -0.458000004292 0.0560000017285 1664.0
0.851000010967 -0.465000003576 0.0560000017285 1665.0
0.850000023842 -0.472000002861 0.0560000017285 1661.0
0.880999982357 0.504999995232 0.0480000004172 963.0
0.884000003338 0.5 0.0480000004172 971.0
0.880999982357 0.490999996662 0.0480000004172 978.0
0.89200001955 0.490000009537 0.0480000004172 983.0
0.882000029087 0.476999998093 0.0480000004172 988.0
0.89099997282 0.47499999404 0.0480000004172 997.0
0.889999985695 0.467999994755 0.0480000004172 1009.0
0.884999990463 0.458000004292 0.0480000004172 1002.0
0.883000016212 0.449999988079 0.0469999983907 1023.0
0.883000016212 0.442999988794 0.0469999983907 1030.0
0.884999990463 0.437000006437 0.0469999983907 1025.0
0.888000011444 0.432000011206 0.0469999983907 1002.0
0.883000016212 0.423000007868 0.0469999983907 995.0
0.883000016212 0.416999995708 0.0469999983907 1025.0
0.882000029087 0.409999996424 0.0469999983907 1031.0
0.880999982357 0.402999997139 0.0460000000894 1036.0
0.879000008106 0.395000010729 0.0460000000894 1053.0
0.883000016212 0.391000002623 0.0460000000894 1046.0
0.884000003338 0.384999990463 0.0460000000894 1053.0
0.876999974251 0.375999987125 0.0460000000894 1050.0
0.875999987125 0.368999987841 0.0460000000894 1039.0
0.883000016212 0.365000009537 0.0460000000894 1057.0
0.883000016212 0.358999997377 0.0460000000894 1062.0
0.879999995232 0.351999998093 0.0460000000894 1071.0
0.875999987125 0.344999998808 0.0450000017881 1079.0
0.879999995232 0.340000003576 0.0460000000894 1089.0
0.878000020981 0.333000004292 0.0450000017881 1093.0
0.879000008106 0.32800000906 0.0450000017881 1086.0
0.880999982357 0.321999996901 0.0450000017881 1105.0
0.879000008106 0.316000014544 0.0450000017881 1110.0
0.879000008106 0.310000002384 0.0450000017881 1101.0
0.875999987125 0.303000003099 0.0450000017881 1101.0
0.879000008106 0.298000007868 0.0450000017881 1093.0
0.879000008106 0.291999995708 0.0450000017881 1105.0
0.882000029087 0.287999987602 0.0450000017881 1118.0
0.876999974251 0.280000001192 0.0450000017881 1133.0
0.870999991894 0.273000001907 0.0439999997616 1126.0
0.876999974251 0.268999993801 0.0450000017881 1137.0
0.871999979019 0.261999994516 0.0439999997616 1139.0
0.874000012875 0.256999999285 0.0450000017881 1153.0
0.876999974251 0.252000004053 0.0450000017881 1154.0
0.874000012875 0.246000006795 0.0439999997616 1163.0
0.876999974251 0.240999996662 0.0450000017881 1160.0
0.870999991894 0.233999997377 0.0439999997616 1167.0
0.869000017643 0.228000000119 0.0439999997616 1200.0
0.870000004768 0.223000004888 0.0439999997616 1225.0
0.867999970913 0.216999992728 0.0439999997616 1257.0
0.871999979019 0.212999999523 0.0439999997616 1263.0
0.873000025749 0.208000004292 0.0439999997616 1259.0
0.865999996662 0.201000005007 0.0439999997616 1284.0
0.870999991894 0.196999996901 0.0439999997616 1258.0
0.874000012875 0.192000001669 0.0439999997616 1242.0
0.871999979019 0.186000004411 0.0439999997616 1251.0
0.869000017643 0.180000007153 0.0439999997616 1252.0
0.873000025749 0.175999999046 0.0439999997616 1267.0
0.875 0.171000003815 0.0439999997616 1272.0
0.875 0.165999993682 0.0439999997616 1264.0
0.865999996662 0.158999994397 0.0439999997616 1299.0
0.865000009537 0.153999999166 0.0430000014603 1282.0
0.862999975681 0.148000001907 0.0430000014603 1277.0
0.866999983788 0.143999993801 0.0439999997616 1311.0
0.869000017643 0.138999998569 0.0439999997616 1318.0
0.864000022411 0.133000001311 0.0430000014603 1351.0
0.870999991894 0.128999993205 0.0439999997616 1363.0
0.866999983788 0.123000003397 0.0439999997616 1347.0
0.865999996662 0.118000000715 0.0430000014603 1346.0
0.862999975681 0.112999998033 0.0430000014603 1377.0
0.865000009537 0.108000002801 0.0430000014603 1369.0
0.862999975681 0.103000000119 0.0430000014603 1386.0
0.867999970913 0.097999997437 0.0439999997616 1402.0
0.85900002718 0.0920000001788 0.0430000014603 1404.0
0.864000022411 0.0879999995232 0.0430000014603 1407.0
0.876999974251 0.0839999988675 0.0439999997616 1269.0
0.902999997139 -0.104999996722 0.0460000000894 1531.0
0.90600001812 -0.111000001431 0.0469999983907 1634.0
0.912999987602 -0.116999998689 0.0469999983907 1627.0
0.90600001812 -0.120999999344 0.0469999983907 1609.0
0.907000005245 -0.127000004053 0.0469999983907 1661.0
0.90600001812 -0.131999999285 0.0469999983907 1656.0
0.907999992371 -0.137999996543 0.0469999983907 1657.0
0.903999984264 -0.142000004649 0.0469999983907 1660.0
0.907000005245 -0.148000001907 0.0469999983907 1662.0
0.90499997139 -0.152999997139 0.0469999983907 1645.0
0.901000022888 -0.158000007272 0.0469999983907 1668.0
0.90499997139 -0.16400000453 0.0469999983907 1637.0
0.899999976158 -0.167999997735 0.0469999983907 1654.0
0.902999997139 -0.173999994993 0.0469999983907 1657.0
0.901000022888 -0.179000005126 0.0469999983907 1653.0
0.903999984264 -0.185000002384 0.0469999983907 1675.0
0.897000014782 -0.188999995589 0.0469999983907 1690.0
0.899999976158 -0.194999992847 0.0469999983907 1696.0
0.894999980927 -0.20000000298 0.0469999983907 1705.0
0.893999993801 -0.204999998212 0.0469999983907 1688.0
0.888999998569 -0.209000006318 0.0469999983907 1708.0
0.89200001955 -0.216000005603 0.0469999983907 1683.0
0.893999993801 -0.221000000834 0.0469999983907 1679.0
0.888000011444 -0.225999996066 0.0469999983907 1689.0
0.89099997282 -0.231999993324 0.0469999983907 1696.0
0.889999985695 -0.237000003457 0.0480000004172 1688.0
0.884000003338 -0.240999996662 0.0469999983907 1687.0
0.888000011444 -0.247999995947 0.0480000004172 1691.0
0.880999982357 -0.250999987125 0.0469999983907 1705.0
0.884999990463 -0.25799998641 0.0480000004172 1681.0
0.887000024319 -0.263999998569 0.0480000004172 1667.0
0.884999990463 -0.268999993801 0.0480000004172 1667.0
0.883000016212 -0.27500000596 0.0480000004172 1674.0
0.880999982357 -0.280000001192 0.0480000004172 1674.0
0.879999995232 -0.284999996424 0.0480000004172 1675.0
0.876999974251 -0.289999991655 0.0480000004172 1684.0
0.875999987125 -0.294999986887 0.0480000004172 1689.0
0.874000012875 -0.300000011921 0.0480000004172 1688.0
0.879000008106 -0.307999998331 0.0480000004172 1682.0
0.879999995232 -0.31400001049 0.0480000004172 1694.0
0.875 -0.317999988794 0.0480000004172 1685.0
0.869000017643 -0.321999996901 0.0480000004172 1678.0
0.873000025749 -0.328999996185 0.0480000004172 1694.0
0.873000025749 -0.335000008345 0.0480000004172 1673.0
0.869000017643 -0.338999986649 0.0480000004172 1684.0
0.866999983788 -0.344999998808 0.0480000004172 1680.0
0.870000004768 -0.351999998093 0.0489999987185 1683.0
0.865999996662 -0.356000006199 0.0489999987185 1676.0
0.870000004768 -0.363999992609 0.0489999987185 1672.0
0.861999988556 -0.36700001359 0.0489999987185 1666.0
0.865000009537 -0.374000012875 0.0489999987185 1661.0
0.861000001431 -0.379000008106 0.0489999987185 1655.0
0.865000009537 -0.386999994516 0.0489999987185 1681.0
0.860000014305 -0.391000002623 0.0489999987185 1681.0
0.85799998045 -0.395999997854 0.0489999987185 1698.0
0.856999993324 -0.402000010014 0.0489999987185 1696.0
0.85900002718 -0.409000009298 0.0489999987185 1707.0
0.861000001431 -0.416999995708 0.0500000007451 1679.0
0.85799998045 -0.42199999094 0.0500000007451 1688.0
0.856999993324 -0.428000003099 0.0500000007451 1688.0
0.861000001431 -0.437000006437 0.0500000007451 1654.0
0.855000019073 -0.439999997616 0.0500000007451 1632.0
0.853999972343 -0.446000009775 0.0500000007451 1655.0
0.855000019073 -0.45300000906 0.0500000007451 1671.0
0.852999985218 -0.458999991417 0.0500000007451 1668.0
0.851000010967 -0.465000003576 0.0509999990463 1667.0
0.842999994755 -0.467999994755 0.0500000007451 1660.0
0.911000013351 0.522000014782 0.0439999997616 694.0
0.911000013351 0.514999985695 0.0439999997616 695.0
0.912000000477 0.508000016212 0.0439999997616 695.0
0.916999995708 0.503000020981 0.0439999997616 680.0
0.913999974728 0.493999987841 0.0439999997616 669.0
0.908999979496 0.483999997377 0.0430000014603 683.0
0.912000000477 0.479000002146 0.0430000014603 683.0
0.898000001907 0.465000003576 0.0419999994338 685.0
0.916000008583 0.467000007629 0.0430000014603 685.0
0.917999982834 0.46099999547 0.0430000014603 663.0
0.917999982834 0.45300000906 0.0430000014603 657.0
0.912000000477 0.444000005722 0.0430000014603 653.0
0.912999987602 0.437000006437 0.0430000014603 661.0
0.90499997139 0.426999986172 0.0419999994338 647.0
0.915000021458 0.425000011921 0.0430000014603 650.0
0.916000008583 0.418999999762 0.0430000014603 641.0
0.910000026226 0.409000009298 0.0419999994338 635.0
0.901000022888 0.398999989033 0.0419999994338 631.0
0.898000001907 0.391000002623 0.0419999994338 630.0
0.90499997139 0.386999994516 0.0419999994338 615.0
0.907000005245 0.381999999285 0.0419999994338 612.0
0.911000013351 0.377000004053 0.0419999994338 615.0
0.912000000477 0.370999991894 0.0419999994338 604.0
0.902999997139 0.361000001431 0.0410000011325 607.0
0.90499997139 0.356000006199 0.0410000011325 601.0
0.902999997139 0.349000006914 0.0410000011325 585.0
0.898000001907 0.340999990702 0.0410000011325 592.0
0.896000027657 0.333999991417 0.0410000011325 600.0
0.901000022888 0.330000013113 0.0410000011325 588.0
0.898999989033 0.323000013828 0.0410000011325 601.0
0.894999980927 0.314999997616 0.0410000011325 618.0
0.898000001907 0.31099998951 0.0410000011325 615.0
0.899999976158 0.305000007153 0.0410000011325 616.0
0.888000011444 0.296000003815 0.0399999991059 620.0
0.893000006676 0.291000008583 0.0399999991059 613.0
0.898999989033 0.287000000477 0.0410000011325 601.0
0.89200001955 0.279000014067 0.0399999991059 607.0
0.898000001907 0.27500000596 0.0399999991059 612.0
0.888000011444 0.266999989748 0.0399999991059 628.0
0.878000020981 0.25799998641 0.0390000008047 632.0
0.887000024319 0.254999995232 0.0399999991059 627.0
0.889999985695 0.25 0.0399999991059 623.0
0.885999977589 0.244000002742 0.0399999991059 609.0
0.884000003338 0.238000005484 0.0399999991059 620.0
0.879000008106 0.231000006199 0.0390000008047 632.0
0.885999977589 0.226999998093 0.0399999991059 634.0
0.89099997282 0.223000004888 0.0399999991059 645.0
0.887000024319 0.216000005603 0.0399999991059 643.0
0.884999990463 0.209999993443 0.0399999991059 651.0
0.888999998569 0.206000000238 0.0399999991059 653.0
0.888000011444 0.20000000298 0.0399999991059 656.0
0.876999974251 0.193000003695 0.0390000008047 658.0
0.879999995232 0.187999993563 0.0390000008047 661.0
0.883000016212 0.182999998331 0.0390000008047 667.0
0.882000029087 0.178000003099 0.0390000008047 676.0
0.888999998569 0.173999994993 0.0399999991059 679.0
0.875999987125 0.165999993682 0.0390000008047 670.0
0.880999982357 0.162000000477 0.0390000008047 687.0
0.887000024319 0.158000007272 0.0390000008047 693.0
0.876999974251 0.150999993086 0.0390000008047 670.0
0.875 0.144999995828 0.0390000008047 673.0
0.884000003338 0.141000002623 0.0390000008047 685.0
0.878000020981 0.135000005364 0.0390000008047 699.0
0.880999982357 0.129999995232 0.0390000008047 709.0
0.879000008106 0.125 0.0390000008047 704.0
0.871999979019 0.119000002742 0.0390000008047 719.0
0.876999974251 0.11400000006 0.0390000008047 728.0
0.880999982357 0.109999999404 0.0390000008047 735.0
0.880999982357 0.104999996722 0.0390000008047 758.0
0.880999982357 0.0989999994636 0.0390000008047 785.0
0.882000029087 0.0939999967813 0.0390000008047 781.0
0.885999977589 0.0900000035763 0.0390000008047 787.0
0.888000011444 0.0850000008941 0.0399999991059 732.0
0.898000001907 -0.104000002146 0.0410000011325 1562.0
0.911000013351 -0.111000001431 0.0419999994338 1660.0
0.908999979496 -0.115999996662 0.0419999994338 1620.0
0.907999992371 -0.122000001371 0.0419999994338 1569.0
0.903999984264 -0.126000002027 0.0410000011325 1657.0
0.903999984264 -0.131999999285 0.0419999994338 1676.0
0.90600001812 -0.136999994516 0.0419999994338 1666.0
0.910000026226 -0.143000006676 0.0419999994338 1663.0
0.907999992371 -0.148000001907 0.0419999994338 1676.0
0.899999976158 -0.151999995112 0.0419999994338 1642.0
0.902999997139 -0.158000007272 0.0419999994338 1670.0
0.899999976158 -0.163000002503 0.0419999994338 1656.0
0.902000010014 -0.168999999762 0.0419999994338 1669.0
0.898999989033 -0.172999992967 0.0419999994338 1667.0
0.898999989033 -0.179000005126 0.0419999994338 1658.0
0.894999980927 -0.182999998331 0.0419999994338 1668.0
0.896000027657 -0.188999995589 0.0419999994338 1684.0
0.897000014782 -0.194999992847 0.0419999994338 1702.0
0.897000014782 -0.20000000298 0.0419999994338 1707.0
0.889999985695 -0.203999996185 0.0419999994338 1700.0
0.887000024319 -0.209000006318 0.0419999994338 1720.0
0.888999998569 -0.215000003576 0.0419999994338 1717.0
0.888000011444 -0.219999998808 0.0419999994338 1701.0
0.89099997282 -0.225999996066 0.0419999994338 1715.0
0.889999985695 -0.231000006199 0.0419999994338 1710.0
0.89200001955 -0.237000003457 0.0419999994338 1696.0
0.885999977589 -0.240999996662 0.0419999994338 1684.0
0.89099997282 -0.248999997973 0.0419999994338 1697.0
0.880999982357 -0.250999987125 0.0419999994338 1695.0
0.888000011444 -0.259000003338 0.0419999994338 1674.0
0.887000024319 -0.263999998569 0.0419999994338 1659.0
0.884000003338 -0.268999993801 0.0419999994338 1657.0
0.887000024319 -0.27500000596 0.0430000014603 1661.0
0.879000008106 -0.279000014067 0.0419999994338 1659.0
0.882000029087 -0.284999996424 0.0430000014603 1687.0
0.876999974251 -0.289999991655 0.0419999994338 1673.0
0.882000029087 -0.29699999094 0.0430000014603 1685.0
0.878000020981 -0.300999999046 0.0430000014603 1693.0
0.876999974251 -0.307000011206 0.0430000014603 1698.0
0.878000020981 -0.312999993563 0.0430000014603 1688.0
0.874000012875 -0.317999988794 0.0430000014603 1704.0
0.871999979019 -0.323000013828 0.0430000014603 1695.0
0.874000012875 -0.328999996185 0.0430000014603 1683.0
0.878000020981 -0.337000012398 0.0430000014603 1677.0
0.871999979019 -0.340999990702 0.0430000014603 1693.0
0.866999983788 -0.344999998808 0.0430000014603 1687.0
0.865999996662 -0.34999999404 0.0430000014603 1704.0
0.867999970913 -0.356999993324 0.0430000014603 1679.0
0.862999975681 -0.361000001431 0.0430000014603 1699.0
0.869000017643 -0.370000004768 0.0439999997616 1678.0
0.865000009537 -0.374000012875 0.0439999997616 1655.0
0.85900002718 -0.377999991179 0.0430000014603 1661.0
0.856999993324 -0.38299998641 0.0430000014603 1676.0
0.862999975681 -0.391999989748 0.0439999997616 1682.0
0.85900002718 -0.397000014782 0.0439999997616 1696.0
0.856999993324 -0.402000010014 0.0439999997616 1715.0
0.853999972343 -0.407000005245 0.0439999997616 1708.0
0.861000001431 -0.416999995708 0.0439999997616 1698.0
0.853999972343 -0.419999986887 0.0439999997616 1706.0
0.848999977112 -0.423999994993 0.0439999997616 1686.0
0.855000019073 -0.432999998331 0.0439999997616 1696.0
0.852999985218 -0.43900001049 0.0450000017881 1659.0
0.851999998093 -0.444999992847 0.0450000017881 1664.0
0.851999998093 -0.451999992132 0.0450000017881 1692.0
0.855000019073 -0.460000008345 0.0450000017881 1694.0
0.850000023842 -0.463999986649 0.0450000017881 1694.0
0.847000002861 -0.469999998808 0.0450000017881 1662.0
1.10000002384 0.630999982357 0.0460000000894 258.0
1.07500004768 0.60799998045 0.0450000017881 244.0
1.12199997902 0.625 0.0469999983907 228.0
1.11699998379 0.612999975681 0.0469999983907 209.0
1.05799996853 0.573000013828 0.0439999997616 193.0
0.962000012398 0.513000011444 0.0399999991059 276.0
1.11399996281 0.584999978542 0.0460000000894 160.0
1.20599997044 0.624000012875 0.0500000007451 155.0
1.39800000191 0.712999999523 0.0579999983311 171.0
1.49399995804 0.75 0.0619999989867 169.0
1.52300000191 0.753000020981 0.0630000010133 167.0
1.4960000515 0.727999985218 0.0619999989867 154.0
1.36699998379 0.65499997139 0.0560000017285 134.0
1.30799996853 0.606999993324 0.0540000014007 126.0
1.64100003242 0.75 0.0680000036955 115.0
1.34700000286 0.606000006199 0.054999999702 95.0
1.0 0.421000003815 0.0399999991059 103.0
1.1289999485 0.467000007629 0.0450000017881 90.0
1.14300000668 0.449000000954 0.0460000000894 62.0
1.02199995518 0.395000010729 0.0410000011325 73.0
3.84800004959 1.15499997139 0.156000003219 62.0
0.442999988794 0.122000001371 0.01600000076 58.0
4.23000001907 1.13499999046 0.172000005841 61.0
4.28800010681 1.12399995327 0.173999994993 61.0
4.632999897 1.18499994278 0.187999993563 53.0
4.78599977493 1.19500005245 0.194000005722 50.0
4.85300016403 1.18200004101 0.196999996901 51.0
4.73999977112 1.125 0.192000001669 49.0
4.90700006485 1.13399994373 0.199000000954 53.0
4.95599985123 1.11500000954 0.201000005007 57.0
4.64499998093 1.01699995995 0.187999993563 50.0
0.0460000000894 0.00999999977648 0.0 49.0
0.405999988317 0.0850000008941 0.0149999996647 56.0
4.86299991608 0.976000010967 0.196999996901 44.0
0.0900000035763 0.0179999992251 0.00200000009499 50.0
4.91900014877 0.927999973297 0.199000000954 50.0
0.187000006437 0.035000000149 0.00600000005215 50.0
0.180999994278 0.0329999998212 0.00600000005215 58.0
4.99800014496 0.852999985218 0.202000007033 54.0
4.99399995804 0.823000013828 0.202000007033 49.0
4.9359998703 0.783999979496 0.199000000954 48.0
4.95900011063 0.758000016212 0.20000000298 53.0
0.0399999991059 0.00700000021607 0.0 54.0
4.9279999733 0.694999992847 0.199000000954 47.0
5.02400016785 0.679000020027 0.202999994159 55.0
4.93800020218 0.638999998569 0.199000000954 55.0
0.0649999976158 0.00899999961257 0.0010000000475 53.0
0.797999978065 0.0949999988079 0.0309999994934 93.0
1.00300002098 0.0960000008345 0.0390000008047 136.0
0.898999989033 -0.104999996722 0.0359999984503 1591.0
0.907000005245 -0.111000001431 0.0359999984503 1688.0
0.912000000477 -0.116999998689 0.0359999984503 1648.0
0.911000013351 -0.122000001371 0.0359999984503 1598.0
0.907000005245 -0.127000004053 0.0359999984503 1671.0
0.908999979496 -0.131999999285 0.0359999984503 1669.0
0.903999984264 -0.136999994516 0.0359999984503 1660.0
0.907999992371 -0.143000006676 0.0370000004768 1672.0
0.90600001812 -0.148000001907 0.0359999984503 1700.0
0.90600001812 -0.152999997139 0.0370000004768 1668.0
0.903999984264 -0.158000007272 0.0370000004768 1670.0
0.902999997139 -0.163000002503 0.0370000004768 1682.0
0.898999989033 -0.167999997735 0.0359999984503 1685.0
0.898000001907 -0.172999992967 0.0359999984503 1681.0
0.897000014782 -0.179000005126 0.0359999984503 1680.0
0.898000001907 -0.184000000358 0.0370000004768 1674.0
0.897000014782 -0.188999995589 0.0370000004768 1693.0
0.893999993801 -0.194000005722 0.0370000004768 1709.0
0.896000027657 -0.20000000298 0.0370000004768 1723.0
0.897000014782 -0.206000000238 0.0370000004768 1738.0
0.89099997282 -0.209999993443 0.0370000004768 1763.0
0.889999985695 -0.215000003576 0.0370000004768 1744.0
0.893999993801 -0.221000000834 0.0370000004768 1736.0
0.89200001955 -0.225999996066 0.0370000004768 1749.0
0.888000011444 -0.231000006199 0.0370000004768 1731.0
0.885999977589 -0.236000001431 0.0370000004768 1730.0
0.884999990463 -0.240999996662 0.0370000004768 1724.0
0.882000029087 -0.246000006795 0.0370000004768 1706.0
0.880999982357 -0.250999987125 0.0370000004768 1713.0
0.889999985695 -0.259000003338 0.0370000004768 1715.0
0.882000029087 -0.263000011444 0.0370000004768 1685.0
0.887000024319 -0.270000010729 0.0370000004768 1689.0
0.880999982357 -0.273999989033 0.0370000004768 1682.0
0.885999977589 -0.280999988317 0.0370000004768 1675.0
0.879999995232 -0.284999996424 0.0370000004768 1670.0
0.875999987125 -0.28900000453 0.0370000004768 1670.0
0.875999987125 -0.294999986887 0.0370000004768 1693.0
0.879000008106 -0.301999986172 0.0370000004768 1714.0
0.874000012875 -0.305999994278 0.0370000004768 1718.0
0.871999979019 -0.31099998951 0.0370000004768 1705.0
0.874000012875 -0.317000001669 0.0379999987781 1721.0
0.874000012875 -0.323000013828 0.0379999987781 1705.0
0.869000017643 -0.32800000906 0.0379999987781 1699.0
0.870999991894 -0.333999991417 0.0379999987781 1690.0
0.875 -0.342000007629 0.0379999987781 1698.0
0.869000017643 -0.344999998808 0.0379999987781 1703.0
0.870999991894 -0.351999998093 0.0379999987781 1723.0
0.862999975681 -0.354999989271 0.0379999987781 1709.0
0.861000001431 -0.360000014305 0.0379999987781 1714.0
0.865000009537 -0.368000000715 0.0379999987781 1699.0
0.861999988556 -0.372999995947 0.0379999987781 1674.0
0.865000009537 -0.379999995232 0.0379999987781 1674.0
0.864000022411 -0.386000007391 0.0379999987781 1664.0
0.861999988556 -0.391000002623 0.0379999987781 1677.0
0.866999983788 -0.40000000596 0.0390000008047 1736.0
0.85799998045 -0.402000010014 0.0390000008047 1729.0
0.85799998045 -0.409000009298 0.0390000008047 1736.0
0.856000006199 -0.41400000453 0.0390000008047 1729.0
0.852999985218 -0.418999999762 0.0390000008047 1737.0
0.852999985218 -0.425999999046 0.0390000008047 1727.0
0.85799998045 -0.435000002384 0.0390000008047 1710.0
0.851000010967 -0.437999993563 0.0390000008047 1666.0
0.846000015736 -0.442000001669 0.0390000008047 1684.0
0.851000010967 -0.451000005007 0.0390000008047 1713.0
0.847999989986 -0.456000000238 0.0390000008047 1739.0
0.848999977112 -0.463999986649 0.0390000008047 1697.0
0.847000002861 -0.469999998808 0.0399999991059 1680.0
1.66900002956 0.958000004292 0.0599999986589 138.0
1.63600003719 0.925000011921 0.0590000003576 127.0
1.67499995232 0.933000028133 0.0599999986589 120.0
1.75899994373 0.966000020504 0.0630000010133 116.0
1.72699999809 0.935000002384 0.0619999989867 74.0
1.94900000095 1.03900003433 0.070000000298 84.0
1.98800003529 1.04400002956 0.0710000023246 106.0
2.00099992752 1.03499996662 0.0710000023246 141.0
2.04299998283 1.04100000858 0.0729999989271 171.0
2.02800011635 1.01800000668 0.0719999969006 174.0
2.0490000248 1.01300001144 0.0729999989271 181.0
2.02800011635 0.986999988556 0.0719999969006 164.0
2.01600003242 0.966000020504 0.0710000023246 119.0
2.09200000763 0.971000015736 0.0740000009537 75.0
2.14199995995 0.978999972343 0.0750000029802 97.0
2.18799996376 0.98400002718 0.0769999995828 80.0
4.15399980545 1.11500000954 0.143999993801 69.0
4.18200016022 1.09599995613 0.144999995828 68.0
4.21700000763 1.07899999619 0.145999997854 67.0
4.2389998436 1.05799996853 0.146999999881 57.0
4.28200006485 1.04200005531 0.148000001907 57.0
4.22100019455 1.00100004673 0.145999997854 57.0
4.14099979401 0.957000017166 0.143000006676 67.0
4.17999982834 0.939999997616 0.143999993801 61.0
4.20900011063 0.921000003815 0.144999995828 58.0
4.31500005722 0.917999982834 0.149000003934 56.0
4.21600008011 0.870999991894 0.144999995828 59.0
4.32499980927 0.867999970913 0.149000003934 59.0
4.3140001297 0.839999973774 0.149000003934 54.0
4.28399991989 0.808000028133 0.148000001907 57.0
4.27600002289 0.78100001812 0.146999999881 60.0
4.22499990463 0.745999991894 0.145999997854 60.0
4.26399993896 0.727999985218 0.146999999881 52.0
4.28100013733 0.704999983311 0.148000001907 56.0
4.27600002289 0.679000020027 0.146999999881 59.0
4.23099994659 0.647000014782 0.145999997854 55.0
4.29500007629 0.630999982357 0.148000001907 53.0
4.13000011444 0.558000028133 0.142000004649 60.0
4.1890001297 0.541999995708 0.143999993801 60.0
4.18200016022 0.51599997282 0.143999993801 63.0
0.902999997139 -0.104999996722 0.0309999994934 1601.0
0.911000013351 -0.111000001431 0.0309999994934 1687.0
0.907000005245 -0.115999996662 0.0309999994934 1688.0
0.908999979496 -0.122000001371 0.0309999994934 1680.0
0.908999979496 -0.127000004053 0.0309999994934 1722.0
0.910000026226 -0.131999999285 0.0309999994934 1699.0
0.902999997139 -0.136999994516 0.0309999994934 1691.0
0.907000005245 -0.143000006676 0.0309999994934 1674.0
0.902000010014 -0.146999999881 0.0309999994934 1708.0
0.902999997139 -0.152999997139 0.0309999994934 1689.0
0.899999976158 -0.158000007272 0.0309999994934 1686.0
0.897000014782 -0.162000000477 0.0309999994934 1692.0
0.898000001907 -0.167999997735 0.0309999994934 1695.0
0.894999980927 -0.172999992967 0.0309999994934 1659.0
0.897000014782 -0.178000003099 0.0309999994934 1686.0
0.898000001907 -0.184000000358 0.0309999994934 1696.0
0.893999993801 -0.188999995589 0.0309999994934 1704.0
0.899999976158 -0.194999992847 0.0320000015199 1723.0
0.89099997282 -0.199000000954 0.0309999994934 1731.0
0.897000014782 -0.206000000238 0.0320000015199 1746.0
0.89200001955 -0.209999993443 0.0309999994934 1767.0
0.888000011444 -0.215000003576 0.0309999994934 1793.0
0.89099997282 -0.221000000834 0.0320000015199 1790.0
0.89200001955 -0.225999996066 0.0320000015199 1769.0
0.884999990463 -0.230000004172 0.0309999994934 1767.0
0.89099997282 -0.237000003457 0.0320000015199 1758.0
0.896000027657 -0.244000002742 0.0320000015199 1755.0
0.89200001955 -0.248999997973 0.0320000015199 1757.0
0.885999977589 -0.252999991179 0.0320000015199 1755.0
0.879999995232 -0.256999999285 0.0320000015199 1748.0
0.884000003338 -0.263000011444 0.0320000015199 1719.0
0.882000029087 -0.268000006676 0.0320000015199 1702.0
0.879000008106 -0.273000001907 0.0320000015199 1705.0
0.884000003338 -0.280000001192 0.0320000015199 1677.0
0.878000020981 -0.284000009298 0.0320000015199 1699.0
0.878000020981 -0.289999991655 0.0320000015199 1687.0
0.875999987125 -0.294999986887 0.0320000015199 1704.0
0.879000008106 -0.301999986172 0.0320000015199 1720.0
0.873000025749 -0.305999994278 0.0320000015199 1716.0
0.870999991894 -0.310000002384 0.0320000015199 1745.0
0.875999987125 -0.317999988794 0.0320000015199 1731.0
0.869000017643 -0.321999996901 0.0320000015199 1723.0
0.873000025749 -0.328999996185 0.0320000015199 1702.0
0.870000004768 -0.333999991417 0.0320000015199 1701.0
0.869000017643 -0.338999986649 0.0320000015199 1732.0
0.870000004768 -0.345999985933 0.0329999998212 1731.0
0.864000022411 -0.349000006914 0.0320000015199 1714.0
0.865999996662 -0.356000006199 0.0329999998212 1724.0
0.862999975681 -0.361000001431 0.0329999998212 1739.0
0.861999988556 -0.36700001359 0.0329999998212 1715.0
0.861999988556 -0.372999995947 0.0329999998212 1685.0
0.862999975681 -0.379999995232 0.0329999998212 1672.0
0.85799998045 -0.384000003338 0.0329999998212 1687.0
0.861999988556 -0.391999989748 0.0329999998212 1690.0
0.860000014305 -0.397000014782 0.0329999998212 1705.0
0.860000014305 -0.402999997139 0.0329999998212 1735.0
0.85900002718 -0.409000009298 0.0329999998212 1751.0
0.85900002718 -0.416000008583 0.0329999998212 1729.0
0.856999993324 -0.421000003815 0.0329999998212 1748.0
0.851000010967 -0.425000011921 0.0329999998212 1734.0
0.851000010967 -0.430999994278 0.0329999998212 1730.0
0.848999977112 -0.437000006437 0.0329999998212 1673.0
0.851000010967 -0.444999992847 0.0340000018477 1700.0
0.853999972343 -0.45300000906 0.0340000018477 1734.0
0.856000006199 -0.46099999547 0.0340000018477 1739.0
0.848999977112 -0.463999986649 0.0340000018477 1701.0
0.850000023842 -0.470999985933 0.0340000018477 1691.0
1.67299997807 0.958999991417 0.0489999987185 163.0
1.72899997234 0.977999985218 0.0509999990463 163.0
1.74199998379 0.971000015736 0.0509999990463 156.0
1.82899999619 1.0039999485 0.0540000014007 150.0
2.00900006294 1.0870000124 0.0590000003576 141.0
2.05200004578 1.09399998188 0.0599999986589 167.0
2.06100010872 1.08200001717 0.0610000006855 199.0
2.06500005722 1.06799995899 0.0610000006855 247.0
2.06599998474 1.0529999733 0.0599999986589 233.0
2.0569999218 1.03199994564 0.0599999986589 240.0
2.05800008774 1.01699995995 0.0599999986589 242.0
2.07699990273 1.01100003719 0.0610000006855 239.0
2.01799988747 0.967000007629 0.0590000003576 156.0
2.14299988747 1.01100003719 0.0619999989867 77.0
2.19199991226 1.01800000668 0.0640000030398 114.0
2.19600009918 1.00300002098 0.0640000030398 169.0
2.14299988747 0.962999999523 0.0619999989867 93.0
2.69499993324 1.05900001526 0.0780000016093 66.0
3.78299999237 1.11000001431 0.108000002801 66.0
4.15899991989 1.11600005627 0.119000002742 68.0
4.14599990845 1.08599996567 0.119000002742 85.0
4.17500019073 1.06799995899 0.119999997318 68.0
4.17999982834 1.04299998283 0.119999997318 64.0
4.08099985123 0.992999970913 0.116999998689 63.0
4.20399999619 0.996999979019 0.119999997318 64.0
4.26300001144 0.985000014305 0.122000001371 63.0
4.28200006485 0.962999999523 0.123000003397 63.0
4.21299982071 0.92199999094 0.120999999344 64.0
4.25 0.903999984264 0.122000001371 68.0
4.19999980927 0.867999970913 0.119999997318 56.0
4.16300010681 0.834999978542 0.119000002742 62.0
4.18300008774 0.81400001049 0.119999997318 63.0
4.19500017166 0.791000008583 0.119999997318 61.0
4.28999996185 0.782999992371 0.123000003397 64.0
4.25 0.75 0.122000001371 57.0
4.19600009918 0.716000020504 0.119999997318 62.0
4.17299985886 0.686999976635 0.119000002742 58.0
4.15999984741 0.660000026226 0.119000002742 60.0
4.21799993515 0.644999980927 0.120999999344 60.0
4.15399980545 0.610000014305 0.119000002742 62.0
4.10599994659 0.578999996185 0.118000000715 61.0
4.23099994659 0.572000026703 0.120999999344 70.0
4.12900018692 0.533999979496 0.118000000715 65.0
4.19299983978 0.51700001955 0.119999997318 63.0
0.901000022888 -0.104999996722 0.0250000003725 1588.0
0.907000005245 -0.111000001431 0.0260000005364 1684.0
0.907999992371 -0.115999996662 0.0260000005364 1697.0
0.907000005245 -0.120999999344 0.0260000005364 1668.0
0.908999979496 -0.127000004053 0.0260000005364 1719.0
0.902999997139 -0.130999997258 0.0260000005364 1704.0
0.90499997139 -0.136999994516 0.0260000005364 1663.0
0.899999976158 -0.142000004649 0.0260000005364 1663.0
0.902000010014 -0.146999999881 0.0260000005364 1697.0
0.903999984264 -0.152999997139 0.0260000005364 1668.0
0.894999980927 -0.157000005245 0.0260000005364 1644.0
0.898999989033 -0.163000002503 0.0260000005364 1676.0
0.899999976158 -0.167999997735 0.0260000005364 1661.0
0.897000014782 -0.172999992967 0.0260000005364 1635.0
0.893999993801 -0.178000003099 0.0260000005364 1655.0
0.899999976158 -0.185000002384 0.0260000005364 1668.0
0.894999980927 -0.188999995589 0.0260000005364 1692.0
0.893999993801 -0.194000005722 0.0260000005364 1681.0
0.893000006676 -0.199000000954 0.0260000005364 1700.0
0.89200001955 -0.204999998212 0.0260000005364 1717.0
0.893000006676 -0.209999993443 0.0260000005364 1742.0
0.893000006676 -0.216000005603 0.0260000005364 1784.0
0.889999985695 -0.219999998808 0.0260000005364 1784.0
0.884999990463 -0.22499999404 0.0260000005364 1788.0
0.888000011444 -0.231000006199 0.0260000005364 1773.0
0.885999977589 -0.236000001431 0.0260000005364 1760.0
0.885999977589 -0.240999996662 0.0260000005364 1785.0
0.887000024319 -0.24699999392 0.0260000005364 1764.0
0.883000016212 -0.252000004053 0.0260000005364 1772.0
0.885999977589 -0.25799998641 0.0270000007004 1774.0
0.882000029087 -0.263000011444 0.0260000005364 1736.0
0.879000008106 -0.266999989748 0.0260000005364 1731.0
0.878000020981 -0.273000001907 0.0260000005364 1728.0
0.879999995232 -0.279000014067 0.0270000007004 1697.0
0.875999987125 -0.284000009298 0.0270000007004 1703.0
0.878000020981 -0.289999991655 0.0270000007004 1700.0
0.878000020981 -0.296000003815 0.0270000007004 1712.0
0.875999987125 -0.300999999046 0.0270000007004 1736.0
0.876999974251 -0.307000011206 0.0270000007004 1743.0
0.873000025749 -0.31099998951 0.0270000007004 1783.0
0.871999979019 -0.317000001669 0.0270000007004 1791.0
0.876999974251 -0.324000000954 0.0270000007004 1771.0
0.870000004768 -0.32800000906 0.0270000007004 1748.0
0.871999979019 -0.333999991417 0.0270000007004 1736.0
0.865999996662 -0.337999999523 0.0270000007004 1726.0
0.866999983788 -0.344000011683 0.0270000007004 1725.0
0.861999988556 -0.347999989986 0.0270000007004 1740.0
0.871999979019 -0.358000010252 0.0270000007004 1755.0
0.865000009537 -0.361999988556 0.0270000007004 1748.0
0.861999988556 -0.36700001359 0.0270000007004 1731.0
0.867999970913 -0.375 0.0280000008643 1725.0
0.862999975681 -0.379999995232 0.0280000008643 1714.0
0.861999988556 -0.384999990463 0.0280000008643 1731.0
0.861000001431 -0.391000002623 0.0280000008643 1719.0
0.862999975681 -0.398000001907 0.0280000008643 1697.0
0.860000014305 -0.402999997139 0.0280000008643 1731.0
0.856000006199 -0.407999992371 0.0280000008643 1749.0
0.850000023842 -0.411000013351 0.0280000008643 1758.0
0.856000006199 -0.421000003815 0.0280000008643 1762.0
0.855000019073 -0.426999986172 0.0280000008643 1751.0
0.852999985218 -0.432000011206 0.0280000008643 1758.0
0.851000010967 -0.437000006437 0.0280000008643 1703.0
0.851999998093 -0.444999992847 0.0280000008643 1724.0
0.860000014305 -0.456000000238 0.0289999991655 1735.0
0.84500002861 -0.455000013113 0.0280000008643 1750.0
0.850000023842 -0.463999986649 0.0289999991655 1727.0
0.846000015736 -0.469000011683 0.0289999991655 1714.0
1.72200000286 0.987999975681 0.0399999991059 189.0
1.73399996758 0.980000019073 0.0399999991059 180.0
1.78100001812 0.991999983788 0.0410000011325 169.0
1.79999995232 0.987999975681 0.0410000011325 151.0
2.02099990845 1.09300005436 0.0469999983907 156.0
2.06399989128 1.10000002384 0.0480000004172 199.0
2.06200003624 1.08299994469 0.0469999983907 230.0
2.09699988365 1.08500003815 0.0480000004172 260.0
2.09800004959 1.06900000572 0.0480000004172 298.0
2.07800006866 1.04299998283 0.0480000004172 304.0
2.08699989319 1.03100001812 0.0480000004172 308.0
2.06900000572 1.00699996948 0.0469999983907 291.0
2.06399989128 0.989000022411 0.0469999983907 184.0
2.10899996758 0.994000017643 0.0480000004172 87.0
2.19400000572 1.01800000668 0.0500000007451 130.0
2.20199990273 1.00600004196 0.0500000007451 198.0
2.23200011253 1.00300002098 0.0509999990463 105.0
3.19899988174 1.06299996376 0.0729999989271 91.0
3.40599989891 1.0870000124 0.0769999995828 77.0
4.04699993134 1.26600003242 0.0920000001788 56.0
3.80399990082 1.16499996185 0.0860000029206 87.0
3.79399991035 1.13800001144 0.0860000029206 93.0
3.75300002098 1.10099995136 0.0850000008941 90.0
3.84400010109 1.10399997234 0.0869999974966 68.0
4.11299991608 1.1289999485 0.0930000022054 62.0
4.07700014114 1.09300005436 0.0930000022054 84.0
4.09899997711 1.07400000095 0.0930000022054 96.0
4.125 1.05499994755 0.0939999967813 99.0
4.15000009537 1.03499996662 0.0939999967813 96.0
4.09299993515 0.995999991894 0.0930000022054 88.0
4.13100004196 0.980000019073 0.0939999967813 91.0
4.09899997711 0.947000026703 0.0930000022054 83.0
4.10599994659 0.922999978065 0.0930000022054 84.0
