ply
format ascii 1.0
element vertex 925
property float x
property float y
property float z
property float intensity
end_header
4.81300020218 1.11399996281 -0.573000013828 125.0
4.81500005722 1.08500003815 -0.572000026703 121.0
4.84299993515 1.06200003624 -0.574999988079 118.0
4.84700012207 1.03299999237 -0.574999988079 115.0
4.85200023651 1.0039999485 -0.574999988079 117.0
4.87599992752 0.980000019073 -0.577000021935 113.0
4.86899995804 0.949000000954 -0.574999988079 113.0
4.91699981689 0.927999973297 -0.579999983311 114.0
4.89900016785 0.894999980927 -0.577000021935 113.0
4.89300012589 0.865000009537 -0.575999975204 106.0
4.92700004578 0.841000020504 -0.579999983311 109.0
4.91099977493 0.809000015259 -0.577000021935 104.0
4.92100000381 0.78100001812 -0.57800000906 109.0
4.95399999619 0.757000029087 -0.580999970436 105.0
4.93200016022 0.723999977112 -0.57800000906 109.0
4.96299982071 0.699999988079 -0.580999970436 108.0
4.97599983215 0.67199999094 -0.582000017166 111.0
4.96199989319 0.64099997282 -0.579999983311 107.0
4.96999979019 0.611999988556 -0.579999983311 104.0
4.96500015259 0.583000004292 -0.578999996185 104.0
0.0120000001043 0.00200000009499 -0.0010000000475 104.0
4.98400020599 0.526000022888 -0.579999983311 112.0
0.0120000001043 0.00200000009499 -0.0010000000475 107.0
0.0289999991655 0.00400000018999 -0.00300000002608 105.0
0.0340000018477 0.00400000018999 -0.00400000018999 103.0
0.122000001371 0.0109999999404 -0.0140000004321 82.0
0.209000006318 0.0170000009239 -0.0240000002086 71.0
0.312999993563 0.0230000000447 -0.0359999984503 74.0
0.216999992728 0.0149999996647 -0.0250000003725 72.0
0.239999994636 0.0149999996647 -0.0280000008643 75.0
0.324000000954 0.0189999993891 -0.0379999987781 73.0
0.144999995828 0.00800000037998 -0.0170000009239 67.0
0.141000002623 0.00700000021607 -0.01600000076 65.0
0.138999998569 0.00600000005215 -0.01600000076 65.0
0.294999986887 0.00999999977648 -0.0340000018477 53.0
0.239999994636 0.00700000021607 -0.0280000008643 61.0
0.259000003338 0.00600000005215 -0.0299999993294 64.0
0.314999997616 0.00600000005215 -0.0359999984503 62.0
0.185000002384 0.00300000002608 -0.0209999997169 59.0
0.268000006676 0.00200000009499 -0.0309999994934 62.0
0.201000005007 0.0010000000475 -0.0230000000447 59.0
0.116999998689 0.0010000000475 -0.0140000004321 57.0
0.196999996901 0.0 -0.0230000000447 57.0
0.898000001907 -0.0170000009239 -0.104000002146 265.0
0.991999983788 -0.0250000003725 -0.11400000006 1094.0
0.995999991894 -0.0309999994934 -0.115000002086 1186.0
0.994000017643 -0.0370000004768 -0.115000002086 1182.0
0.990999996662 -0.0419999994338 -0.11400000006 1211.0
0.990999996662 -0.0480000004172 -0.11400000006 1217.0
0.989000022411 -0.0529999993742 -0.11400000006 1215.0
0.990000009537 -0.0590000003576 -0.11400000006 1225.0
0.986999988556 -0.0649999976158 -0.11400000006 1231.0
0.986999988556 -0.070000000298 -0.11400000006 1240.0
0.986000001431 -0.0759999975562 -0.11400000006 1244.0
0.981999993324 -0.082000002265 -0.112999998033 1239.0
0.98299998045 -0.0869999974966 -0.112999998033 1233.0
0.981000006199 -0.0930000022054 -0.112999998033 1263.0
0.973999977112 -0.097999997437 -0.112000003457 1252.0
0.973999977112 -0.103000000119 -0.112000003457 1233.0
0.930999994278 -0.104000002146 -0.108000002801 530.0
0.787000000477 -0.0920000001788 -0.0909999981523 209.0
0.777000010014 -0.0949999988079 -0.0900000035763 207.0
0.744000017643 -0.0960000008345 -0.0860000029206 203.0
0.782000005245 -0.104999996722 -0.0900000035763 199.0
0.76599997282 -0.108000002801 -0.0890000015497 207.0
0.771000027657 -0.112999998033 -0.0890000015497 207.0
0.745999991894 -0.11400000006 -0.0860000029206 208.0
0.778999984264 -0.123000003397 -0.0900000035763 204.0
0.740000009537 -0.120999999344 -0.0860000029206 208.0
0.76599997282 -0.129999995232 -0.0890000015497 214.0
0.757000029087 -0.133000001311 -0.0879999995232 215.0
0.777000010014 -0.142000004649 -0.0900000035763 211.0
0.774999976158 -0.145999997854 -0.0900000035763 210.0
0.916999995708 -0.179000005126 -0.107000000775 599.0
0.95300000906 -0.192000001669 -0.111000001431 1336.0
0.954999983311 -0.197999998927 -0.111000001431 1384.0
0.953999996185 -0.202999994159 -0.111000001431 1404.0
0.957000017166 -0.209999993443 -0.112000003457 1404.0
0.949000000954 -0.21400000155 -0.111000001431 1406.0
0.950999975204 -0.219999998808 -0.111000001431 1415.0
0.95300000906 -0.226999998093 -0.111000001431 1432.0
0.945999979973 -0.231000006199 -0.111000001431 1424.0
0.945999979973 -0.236000001431 -0.111000001431 1420.0
0.944999992847 -0.241999998689 -0.111000001431 1425.0
0.939999997616 -0.24699999392 -0.109999999404 1446.0
0.93900001049 -0.252000004053 -0.109999999404 1443.0
0.941999971867 -0.259000003338 -0.111000001431 1440.0
0.933000028133 -0.263000011444 -0.109999999404 1346.0
0.851999998093 -0.245000004768 -0.10000000149 430.0
0.745999991894 -0.218999996781 -0.0879999995232 228.0
0.755999982357 -0.225999996066 -0.0890000015497 220.0
0.739000022411 -0.225999996066 -0.0879999995232 232.0
0.740000009537 -0.231000006199 -0.0879999995232 236.0
0.731999993324 -0.232999995351 -0.0869999974966 228.0
0.708999991417 -0.230000004172 -0.0839999988675 232.0
0.711000025272 -0.236000001431 -0.0850000008941 228.0
0.737999975681 -0.25 -0.0879999995232 232.0
0.731999993324 -0.252999991179 -0.0869999974966 237.0
0.728999972343 -0.256000012159 -0.0869999974966 231.0
0.731000006199 -0.261999994516 -0.0879999995232 239.0
0.722999989986 -0.263999998569 -0.0869999974966 228.0
0.754999995232 -0.280999988317 -0.0909999981523 265.0
0.907000005245 -0.344000011683 -0.108999997377 1134.0
0.916999995708 -0.354999989271 -0.111000001431 1490.0
0.910000026226 -0.358000010252 -0.109999999404 1512.0
0.90600001812 -0.363000005484 -0.109999999404 1499.0
0.910000026226 -0.370999991894 -0.109999999404 1513.0
0.903999984264 -0.375 -0.109999999404 1517.0
0.90600001812 -0.381999999285 -0.109999999404 1516.0
0.901000022888 -0.386000007391 -0.109999999404 1530.0
0.899999976158 -0.393000006676 -0.109999999404 1511.0
0.896000027657 -0.397000014782 -0.109999999404 1506.0
0.893000006676 -0.402000010014 -0.109999999404 1530.0
0.899999976158 -0.412000000477 -0.111000001431 1529.0
0.893000006676 -0.416000008583 -0.109999999404 1525.0
0.884000003338 -0.418000012636 -0.108999997377 1183.0
0.748000025749 -0.358999997377 -0.0930000022054 346.0
0.665000021458 -0.323000013828 -0.082999996841 248.0
0.652000010014 -0.321999996901 -0.0810000002384 239.0
0.662000000477 -0.331999987364 -0.082999996841 238.0
0.639999985695 -0.324999988079 -0.0799999982119 241.0
0.634000003338 -0.326999992132 -0.0799999982119 246.0
0.635999977589 -0.333999991417 -0.0799999982119 242.0
0.624000012875 -0.331999987364 -0.0790000036359 254.0
0.610000014305 -0.330000013113 -0.0769999995828 256.0
0.624000012875 -0.342000007629 -0.0790000036359 249.0
0.60799998045 -0.337999999523 -0.0769999995828 249.0
4.3109998703 2.48799991608 -0.603999972343 131.0
4.31300020218 2.45399999619 -0.601999998093 118.0
4.30800008774 2.41499996185 -0.598999977112 112.0
4.34899997711 2.40300011635 -0.602999985218 140.0
4.34499979019 2.36500000954 -0.600000023842 122.0
4.31500005722 2.31399989128 -0.59399998188 110.0
4.41800022125 2.33400011063 -0.606999993324 140.0
4.35799980164 2.26799988747 -0.597000002861 122.0
4.37400007248 2.242000103 -0.597000002861 122.0
4.45800018311 2.25 -0.606999993324 130.0
4.40500020981 2.18899989128 -0.597999989986 122.0
4.10900020599 2.01099991798 -0.555999994278 123.0
4.24300003052 2.04399991035 -0.572000026703 123.0
4.36299991608 2.06900000572 -0.587000012398 131.0
4.44299983978 2.07399988174 -0.596000015736 139.0
4.30999994278 1.98000001907 -0.577000021935 159.0
4.21199989319 1.90299999714 -0.561999976635 163.0
4.34299993515 1.93099999428 -0.57800000906 148.0
4.32700014114 1.89199995995 -0.574000000954 166.0
4.34100008011 1.86699998379 -0.574999988079 173.0
4.39400005341 1.85800004005 -0.579999983311 168.0
4.38899993896 1.82500004768 -0.57800000906 186.0
4.41499996185 1.80499994755 -0.579999983311 179.0
4.42000007629 1.77600002289 -0.579999983311 186.0
4.43800020218 1.75199997425 -0.580999970436 168.0
4.45399999619 1.72699999809 -0.580999970436 157.0
4.46400022507 1.70000004768 -0.582000017166 147.0
4.47300004959 1.67299997807 -0.580999970436 148.0
4.507999897 1.65499997139 -0.584999978542 153.0
4.49499988556 1.62000000477 -0.582000017166 147.0
4.46000003815 1.57700002193 -0.575999975204 159.0
4.46700000763 1.54999995232 -0.575999975204 161.0
4.46700000763 1.51999998093 -0.574999988079 162.0
4.46700000763 1.49000000954 -0.574000000954 169.0
4.46700000763 1.46099996567 -0.572000026703 165.0
4.50099992752 1.44200003147 -0.575999975204 158.0
4.54099988937 1.42599999905 -0.579999983311 150.0
4.51200008392 1.38699996471 -0.574999988079 162.0
4.51900005341 1.36000001431 -0.574999988079 161.0
4.48600006104 1.32099997997 -0.569999992847 158.0
4.507999897 1.2990000248 -0.572000026703 163.0
4.47499990463 1.26100003719 -0.565999984741 165.0
4.49900007248 1.23899996281 -0.568000018597 158.0
4.46299982071 1.2009999752 -0.563000023365 164.0
4.55399990082 1.1970000267 -0.574000000954 149.0
4.77899980545 1.22599995136 -0.601000010967 113.0
4.79300022125 1.19900000095 -0.601999998093 130.0
4.7610001564 1.16199994087 -0.597000002861 142.0
4.75299978256 1.12999999523 -0.59500002861 147.0
4.77199983597 1.10500001907 -0.597000002861 137.0
4.80000019073 1.08200001717 -0.598999977112 141.0
4.78200006485 1.0490000248 -0.596000015736 127.0
4.80999994278 1.02499997616 -0.598999977112 132.0
4.82899999619 1.0 -0.601000010967 131.0
4.83699989319 0.972000002861 -0.601000010967 127.0
4.80999994278 0.938000023365 -0.597000002861 127.0
4.85699987411 0.916999995708 -0.601999998093 122.0
4.88399982452 0.893000006676 -0.605000019073 117.0
4.87699985504 0.861999988556 -0.602999985218 117.0
4.90000009537 0.837000012398 -0.605000019073 123.0
4.90000009537 0.808000028133 -0.605000019073 118.0
4.9359998703 0.783999979496 -0.60900002718 115.0
4.90399980545 0.75 -0.603999972343 122.0
4.94999980927 0.726999998093 -0.60900002718 117.0
4.92700004578 0.694999992847 -0.606000006199 112.0
4.94799995422 0.667999982834 -0.60799998045 112.0
4.9470000267 0.638999998569 -0.606999993324 113.0
4.93300008774 0.60799998045 -0.605000019073 110.0
4.98600006104 0.584999978542 -0.611000001431 112.0
4.96400022507 0.554000020027 -0.60799998045 110.0
5.0 0.527999997139 -0.611999988556 109.0
5.00400018692 0.499000012875 -0.611999988556 115.0
5.00899982452 0.470999985933 -0.611999988556 108.0
5.02099990845 0.442000001669 -0.612999975681 108.0
0.168999999762 0.0149999996647 -0.0209999997169 75.0
0.166999995708 0.0140000004321 -0.019999999553 72.0
0.300999999046 0.0230000000447 -0.0370000004768 80.0
0.349000006914 0.0240000002086 -0.0430000014603 81.0
0.270999997854 0.0170000009239 -0.0329999998212 73.0
0.201000005007 0.0120000001043 -0.0240000002086 73.0
0.226999998093 0.0120000001043 -0.0280000008643 72.0
0.181999996305 0.00899999961257 -0.0219999998808 65.0
0.15000000596 0.00700000021607 -0.0179999992251 71.0
0.305999994278 0.0109999999404 -0.0370000004768 61.0
0.28900000453 0.00800000037998 -0.035000000149 63.0
0.245000004768 0.00600000005215 -0.0299999993294 59.0
0.323000013828 0.00600000005215 -0.0390000008047 64.0
0.108999997377 0.00200000009499 -0.0130000002682 66.0
0.248999997973 0.00200000009499 -0.0299999993294 62.0
0.321000009775 0.0 -0.0390000008047 67.0
0.136000007391 0.0 -0.01600000076 60.0
0.244000002742 -0.0010000000475 -0.0299999993294 67.0
0.903999984264 -0.0170000009239 -0.109999999404 281.0
0.990999996662 -0.0250000003725 -0.119999997318 1108.0
0.996999979019 -0.0309999994934 -0.120999999344 1176.0
0.995000004768 -0.0370000004768 -0.120999999344 1196.0
0.989000022411 -0.0419999994338 -0.119999997318 1201.0
0.990999996662 -0.0480000004172 -0.119999997318 1215.0
0.986000001431 -0.0529999993742 -0.119000002742 1226.0
0.987999975681 -0.0590000003576 -0.119999997318 1211.0
0.981999993324 -0.0649999976158 -0.119000002742 1217.0
0.980000019073 -0.070000000298 -0.119000002742 1240.0
0.981000006199 -0.0759999975562 -0.119000002742 1239.0
0.98299998045 -0.082000002265 -0.119000002742 1236.0
0.977999985218 -0.0869999974966 -0.119000002742 1243.0
0.977999985218 -0.0930000022054 -0.119000002742 1257.0
0.976000010967 -0.097999997437 -0.118000000715 1260.0
0.971000015736 -0.103000000119 -0.118000000715 1226.0
0.925000011921 -0.104000002146 -0.112000003457 488.0
0.759999990463 -0.0890000015497 -0.0920000001788 205.0
0.772000014782 -0.0949999988079 -0.0939999967813 209.0
0.739000022411 -0.0949999988079 -0.0900000035763 199.0
0.745000004768 -0.10000000149 -0.0909999981523 199.0
0.749000012875 -0.104999996722 -0.0909999981523 207.0
0.725000023842 -0.105999998748 -0.0879999995232 206.0
0.759999990463 -0.115999996662 -0.0920000001788 208.0
0.774999976158 -0.123000003397 -0.0939999967813 209.0
0.746999979019 -0.123000003397 -0.0909999981523 218.0
0.782000005245 -0.133000001311 -0.0949999988079 212.0
0.759000003338 -0.134000003338 -0.0930000022054 209.0
0.783999979496 -0.143000006676 -0.0960000008345 216.0
0.785000026226 -0.148000001907 -0.0960000008345 219.0
0.908999979496 -0.177000001073 -0.111000001431 626.0
0.953999996185 -0.192000001669 -0.116999998689 1326.0
0.954999983311 -0.197999998927 -0.116999998689 1390.0
0.950999975204 -0.202999994159 -0.115999996662 1402.0
0.953999996185 -0.209000006318 -0.116999998689 1400.0
0.945999979973 -0.212999999523 -0.115999996662 1405.0
0.950999975204 -0.219999998808 -0.116999998689 1408.0
0.948000013828 -0.225999996066 -0.116999998689 1412.0
0.944000005722 -0.230000004172 -0.115999996662 1423.0
0.948000013828 -0.237000003457 -0.116999998689 1425.0
0.944000005722 -0.241999998689 -0.115999996662 1432.0
0.944000005722 -0.247999995947 -0.115999996662 1438.0
0.941999971867 -0.252999991179 -0.115999996662 1443.0
0.940999984741 -0.259000003338 -0.115999996662 1443.0
0.935000002384 -0.263000011444 -0.115999996662 1322.0
0.856999993324 -0.246000006795 -0.105999998748 403.0
0.741999983788 -0.217999994755 -0.0920000001788 232.0
0.748000025749 -0.224000006914 -0.0930000022054 231.0
0.727999985218 -0.223000004888 -0.0909999981523 226.0
0.745000004768 -0.232999995351 -0.0930000022054 238.0
0.751999974251 -0.239999994636 -0.0939999967813 228.0
0.71899998188 -0.233999997377 -0.0900000035763 229.0
0.716000020504 -0.238000005484 -0.0900000035763 230.0
0.736999988556 -0.25 -0.0920000001788 233.0
0.736000001431 -0.254000008106 -0.0920000001788 234.0
0.754000008106 -0.264999985695 -0.0949999988079 231.0
0.717000007629 -0.256999999285 -0.0900000035763 230.0
0.714999973774 -0.261000007391 -0.0900000035763 236.0
0.753000020981 -0.280000001192 -0.0949999988079 279.0
0.907000005245 -0.344999998808 -0.115000002086 1190.0
0.908999979496 -0.351999998093 -0.115000002086 1494.0
0.912000000477 -0.358999997377 -0.115999996662 1500.0
0.910000026226 -0.365000009537 -0.115999996662 1518.0
0.907999992371 -0.370999991894 -0.115999996662 1503.0
0.907999992371 -0.377000004053 -0.115999996662 1520.0
0.898999989033 -0.379999995232 -0.115000002086 1518.0
0.901000022888 -0.386999994516 -0.115999996662 1519.0
0.902999997139 -0.393999993801 -0.115999996662 1519.0
0.901000022888 -0.40000000596 -0.115999996662 1504.0
0.901000022888 -0.405999988317 -0.115999996662 1524.0
0.896000027657 -0.411000013351 -0.115999996662 1531.0
0.888999998569 -0.41400000453 -0.115000002086 1518.0
0.879999995232 -0.416999995708 -0.11400000006 1149.0
0.758000016212 -0.363999992609 -0.0989999994636 334.0
0.644999980927 -0.312999993563 -0.0839999988675 247.0
0.666000008583 -0.328999996185 -0.0869999974966 240.0
0.662000000477 -0.331999987364 -0.0869999974966 243.0
0.649999976158 -0.331000000238 -0.0850000008941 239.0
0.635999977589 -0.328999996185 -0.0839999988675 238.0
0.60799998045 -0.319000005722 -0.0799999982119 245.0
0.612999975681 -0.326000005007 -0.0810000002384 237.0
0.620000004768 -0.335000008345 -0.082000002265 252.0
0.601999998093 -0.330000013113 -0.0799999982119 239.0
0.612999975681 -0.340999990702 -0.082000002265 245.0
4.30399990082 2.48699998856 -0.630999982357 131.0
4.26900005341 2.43099999428 -0.624000012875 119.0
4.27600002289 2.39899992943 -0.623000025749 107.0
4.37200021744 2.41700005531 -0.634999990463 130.0
4.33900022507 2.36400008202 -0.628000020981 124.0
4.30700016022 2.31200003624 -0.621999979019 120.0
4.41499996185 2.33400011063 -0.634999990463 128.0
4.34700012207 2.26399993896 -0.624000012875 124.0
4.37400007248 2.24399995804 -0.625999987125 124.0
4.47100019455 2.25900006294 -0.638000011444 134.0
4.41599988937 2.1970000267 -0.628000020981 117.0
4.11499977112 2.0150001049 -0.583000004292 114.0
4.20399999619 2.02699995041 -0.59399998188 128.0
4.37900018692 2.07800006866 -0.616999983788 124.0
4.38199996948 2.04699993134 -0.615999996662 139.0
4.28499984741 1.97000002861 -0.601000010967 153.0
4.26399993896 1.9279999733 -0.596000015736 171.0
4.34299993515 1.93200004101 -0.606000006199 154.0
4.35599994659 1.90600001812 -0.606000006199 165.0
4.35799980164 1.87600004673 -0.605000019073 175.0
4.40199995041 1.86300003529 -0.60900002718 165.0
4.40700006485 1.83399999142 -0.60900002718 185.0
4.41699981689 1.80599999428 -0.60799998045 172.0
4.44899988174 1.7879999876 -0.611000001431 171.0
4.47399997711 1.76699995995 -0.612999975681 170.0
4.48099994659 1.73899996281 -0.612999975681 148.0
4.49800014496 1.71399998665 -0.614000022411 144.0
4.45200014114 1.66600000858 -0.606000006199 159.0
4.48400020599 1.64800000191 -0.60900002718 154.0
4.4889998436 1.61899995804 -0.60900002718 157.0
4.53100013733 1.60300004482 -0.612999975681 141.0
4.52199983597 1.57000005245 -0.611000001431 148.0
4.5 1.53199994564 -0.606999993324 154.0
4.50699996948 1.50499999523 -0.606000006199 148.0
4.49599981308 1.47099995613 -0.603999972343 159.0
4.51999998093 1.44900000095 -0.606000006199 151.0
4.507999897 1.41600000858 -0.602999985218 152.0
4.5 1.38399994373 -0.601000010967 159.0
4.50500011444 1.35699999332 -0.601000010967 165.0
4.5110001564 1.32899999619 -0.600000023842 167.0
4.49399995804 1.29499995708 -0.597000002861 165.0
4.47100019455 1.25999999046 -0.592999994755 163.0
4.46999979019 1.23199999332 -0.592000007629 163.0
4.46600008011 1.20200002193 -0.589999973774 167.0
4.54500007629 1.19500005245 -0.600000023842 152.0
4.80200004578 1.23199999332 -0.633000016212 120.0
4.79600000381 1.2009999752 -0.630999982357 131.0
4.7610001564 1.16199994087 -0.625999987125 149.0
4.75099992752 1.12999999523 -0.623000025749 157.0
4.75600004196 1.10199999809 -0.623000025749 147.0
4.76300001144 1.07400000095 -0.623000025749 143.0
4.78700017929 1.04999995232 -0.625999987125 139.0
4.80800008774 1.02499997616 -0.628000020981 142.0
4.79300022125 0.992999970913 -0.625 141.0
4.83699989319 0.972999989986 -0.629999995232 140.0
4.83699989319 0.943000018597 -0.629000008106 141.0
4.86299991608 0.919000029564 -0.632000029087 134.0
4.84299993515 0.885999977589 -0.629000008106 131.0
4.875 0.861999988556 -0.632000029087 127.0
4.86899995804 0.832000017166 -0.630999982357 129.0
4.87699985504 0.804000020027 -0.630999982357 132.0
4.88000011444 0.774999976158 -0.630999982357 136.0
4.89300012589 0.748000025749 -0.632000029087 129.0
4.91900014877 0.722999989986 -0.634999990463 130.0
4.91099977493 0.693000018597 -0.633000016212 127.0
4.9359998703 0.666999995708 -0.635999977589 134.0
4.91800022125 0.634999990463 -0.633000016212 129.0
4.91800022125 0.606000006199 -0.632000029087 126.0
4.94299983978 0.579999983311 -0.634999990463 127.0
4.95800018311 0.552999973297 -0.635999977589 129.0
4.96999979019 0.524999976158 -0.637000024319 126.0
4.98000001907 0.497000008821 -0.638000011444 123.0
4.96600008011 0.467000007629 -0.635999977589 130.0
0.0170000009239 0.00300000002608 -0.00200000009499 116.0
0.0860000029206 0.00800000037998 -0.0109999999404 79.0
0.246000006795 0.019999999553 -0.0309999994934 71.0
0.428999990225 0.0320000015199 -0.054999999702 85.0
0.483000010252 0.0329999998212 -0.0619999989867 83.0
0.372999995947 0.0230000000447 -0.0480000004172 71.0
0.284000009298 0.01600000076 -0.0359999984503 76.0
0.204999998212 0.0109999999404 -0.0260000005364 73.0
0.123999997973 0.00700000021607 -0.01600000076 73.0
0.107000000775 0.00499999988824 -0.0140000004321 72.0
0.197999998927 0.00700000021607 -0.0250000003725 69.0
0.237000003457 0.00700000021607 -0.0299999993294 66.0
0.27500000596 0.00700000021607 -0.035000000149 59.0
0.21400000155 0.00400000018999 -0.0270000007004 68.0
0.21099999547 0.00300000002608 -0.0270000007004 64.0
0.307999998331 0.00200000009499 -0.0390000008047 61.0
0.326000005007 0.0 -0.0410000011325 60.0
0.296000003815 0.0 -0.0379999987781 66.0
0.284999996424 -0.00200000009499 -0.0359999984503 68.0
0.894999980927 -0.0170000009239 -0.11400000006 298.0
0.991999983788 -0.0250000003725 -0.126000002027 1118.0
0.989000022411 -0.0309999994934 -0.126000002027 1182.0
0.991999983788 -0.0370000004768 -0.126000002027 1189.0
0.98299998045 -0.0419999994338 -0.125 1193.0
0.987999975681 -0.0480000004172 -0.125 1200.0
0.990000009537 -0.0540000014007 -0.126000002027 1223.0
0.98400002718 -0.0590000003576 -0.125 1223.0
0.98400002718 -0.0649999976158 -0.125 1226.0
0.976999998093 -0.070000000298 -0.123999997973 1240.0
0.981999993324 -0.0759999975562 -0.125 1243.0
0.980000019073 -0.082000002265 -0.125 1243.0
0.981000006199 -0.0869999974966 -0.125 1255.0
0.977999985218 -0.0930000022054 -0.123999997973 1261.0
0.977999985218 -0.097999997437 -0.123999997973 1254.0
0.97000002861 -0.103000000119 -0.123000003397 1221.0
0.916000008583 -0.103000000119 -0.116999998689 472.0
0.773000001907 -0.0909999981523 -0.097999997437 204.0
0.772000014782 -0.0949999988079 -0.097999997437 205.0
0.760999977589 -0.097999997437 -0.097000002861 203.0
0.776000022888 -0.104999996722 -0.0989999994636 208.0
0.741999983788 -0.104000002146 -0.0949999988079 202.0
0.769999980927 -0.112999998033 -0.097999997437 210.0
0.762000024319 -0.115999996662 -0.097000002861 210.0
0.764999985695 -0.120999999344 -0.097999997437 209.0
0.762000024319 -0.125 -0.097000002861 220.0
0.757000029087 -0.128999993205 -0.097000002861 218.0
0.777000010014 -0.136999994516 -0.0989999994636 216.0
0.744000017643 -0.135000005364 -0.0949999988079 207.0
0.768000006676 -0.144999995828 -0.097999997437 225.0
0.916999995708 -0.179000005126 -0.118000000715 660.0
0.949000000954 -0.190999999642 -0.122000001371 1326.0
0.953999996185 -0.197999998927 -0.122000001371 1388.0
0.955999970436 -0.203999996185 -0.123000003397 1383.0
0.954999983311 -0.209999993443 -0.123000003397 1398.0
0.949000000954 -0.21400000155 -0.122000001371 1402.0
0.948000013828 -0.219999998808 -0.122000001371 1409.0
0.950999975204 -0.225999996066 -0.123000003397 1420.0
0.944000005722 -0.230000004172 -0.122000001371 1417.0
0.944000005722 -0.236000001431 -0.122000001371 1423.0
0.945999979973 -0.243000000715 -0.122000001371 1425.0
0.940999984741 -0.24699999392 -0.122000001371 1435.0
0.938000023365 -0.252999991179 -0.122000001371 1446.0
0.938000023365 -0.25799998641 -0.122000001371 1449.0
0.931999981403 -0.263000011444 -0.120999999344 1286.0
0.856999993324 -0.24699999392 -0.111000001431 380.0
0.759000003338 -0.223000004888 -0.0989999994636 224.0
0.728999972343 -0.218999996781 -0.0949999988079 229.0
0.73400002718 -0.22499999404 -0.0960000008345 231.0
0.725000023842 -0.226999998093 -0.0949999988079 230.0
0.73299998045 -0.233999997377 -0.0960000008345 228.0
0.741999983788 -0.241999998689 -0.097000002861 227.0
0.731999993324 -0.243000000715 -0.0960000008345 230.0
0.728999972343 -0.24699999392 -0.0960000008345 226.0
0.730000019073 -0.252000004053 -0.0960000008345 237.0
0.712999999523 -0.250999987125 -0.0939999967813 237.0
0.742999970913 -0.266999989748 -0.097999997437 228.0
0.749000012875 -0.273999989033 -0.0989999994636 239.0
0.777999997139 -0.289999991655 -0.103000000119 294.0
0.90600001812 -0.344999998808 -0.119999997318 1217.0
0.915000021458 -0.354000002146 -0.122000001371 1479.0
0.912999987602 -0.360000014305 -0.122000001371 1510.0
0.912999987602 -0.36700001359 -0.122000001371 1502.0
0.907999992371 -0.370999991894 -0.120999999344 1507.0
0.902999997139 -0.375 -0.120999999344 1524.0
0.898999989033 -0.379999995232 -0.120999999344 1529.0
0.898999989033 -0.386000007391 -0.120999999344 1526.0
0.902000010014 -0.393999993801 -0.122000001371 1518.0
0.894999980927 -0.397000014782 -0.120999999344 1507.0
0.894999980927 -0.404000014067 -0.120999999344 1521.0
0.893999993801 -0.409999996424 -0.120999999344 1519.0
0.89200001955 -0.416000008583 -0.120999999344 1519.0
0.875999987125 -0.414999991655 -0.119000002742 1078.0
0.737999975681 -0.354000002146 -0.101000003517 318.0
0.644999980927 -0.31400001049 -0.0879999995232 244.0
0.667999982834 -0.330000013113 -0.0920000001788 243.0
0.652000010014 -0.326999992132 -0.0900000035763 242.0
0.634000003338 -0.323000013828 -0.0879999995232 240.0
0.638000011444 -0.330000013113 -0.0879999995232 250.0
0.600000023842 -0.314999997616 -0.082999996841 235.0
0.638000011444 -0.340000003576 -0.0890000015497 245.0
0.606000006199 -0.32800000906 -0.0850000008941 248.0
0.610000014305 -0.335000008345 -0.0850000008941 246.0
0.614000022411 -0.342000007629 -0.0860000029206 246.0
4.32700014114 2.50200009346 -0.663999974728 130.0
4.29899978638 2.44899988174 -0.657000005245 122.0
4.28000020981 2.40300011635 -0.652000010014 108.0
4.35900020599 2.41199994087 -0.662000000477 134.0
4.35599994659 2.375 -0.658999979496 120.0
4.33199977875 2.32699990273 -0.653999984264 107.0
4.40700006485 2.33200001717 -0.662999987602 135.0
4.382999897 2.28399991989 -0.657000005245 121.0
4.38999986649 2.2539999485 -0.657000005245 127.0
4.46700000763 2.257999897 -0.666000008583 133.0
4.41599988937 2.19799995422 -0.657000005245 128.0
4.12300014496 2.01999998093 -0.611000001431 121.0
4.22200012207 2.03699994087 -0.624000012875 128.0
4.36999988556 2.07500004768 -0.643999993801 125.0
4.41900014877 2.06599998474 -0.649999976158 137.0
4.33500003815 1.99399995804 -0.635999977589 159.0
4.26800012589 1.93200004101 -0.624000012875 169.0
4.32899999619 1.92700004578 -0.630999982357 157.0
4.34100008011 1.90100002289 -0.630999982357 167.0
4.36000013351 1.87800002098 -0.633000016212 175.0
4.42399978638 1.87399995327 -0.639999985695 153.0
4.4279999733 1.84399998188 -0.638999998569 155.0
4.492000103 1.83899998665 -0.647000014782 151.0
4.51599979401 1.81700003147 -0.648999989033 140.0
4.52299976349 1.7879999876 -0.648999989033 136.0
4.5689997673 1.77400004864 -0.653999984264 134.0
4.60699987411 1.75699996948 -0.657999992371 123.0
4.59000015259 1.71899998188 -0.653999984264 130.0
4.57299995422 1.68099999428 -0.649999976158 137.0
4.53999996185 1.63800001144 -0.643999993801 127.0
4.58099985123 1.62199997902 -0.648000001907 127.0
4.60400009155 1.59899997711 -0.649999976158 115.0
4.61000013351 1.57099997997 -0.649999976158 116.0
4.62099981308 1.54400002956 -0.649999976158 117.0
4.57800006866 1.49899995327 -0.643000006676 110.0
4.59800004959 1.47500002384 -0.644999980927 124.0
4.57700014114 1.43900001049 -0.639999985695 126.0
4.53399991989 1.39600002766 -0.633000016212 137.0
4.5609998703 1.37399995327 -0.635999977589 140.0
4.5560002327 1.34300005436 -0.634000003338 149.0
4.4889998436 1.29499995708 -0.624000012875 161.0
4.48799991608 1.26600003242 -0.623000025749 162.0
4.51000022888 1.24300003052 -0.625 166.0
4.45900011063 1.2009999752 -0.616999983788 167.0
4.53299999237 1.19200003147 -0.625999987125 151.0
4.78999996185 1.23000001907 -0.660000026226 118.0
4.79600000381 1.2009999752 -0.660000026226 124.0
4.74499988556 1.1590000391 -0.652000010014 146.0
4.742000103 1.1289999485 -0.651000022888 154.0
4.74800014496 1.10099995136 -0.651000022888 155.0
4.80700016022 1.08500003815 -0.657999992371 151.0
4.77500009537 1.04799997807 -0.652999997139 136.0
4.76200008392 1.01600003242 -0.649999976158 141.0
4.82899999619 1.00100004673 -0.658999979496 140.0
4.79400014877 0.963999986649 -0.652999997139 141.0
4.8220000267 0.940999984741 -0.65600001812 139.0
4.82600021362 0.912000000477 -0.65600001812 141.0
4.87300014496 0.89200001955 -0.662000000477 138.0
4.84899997711 0.85799998045 -0.657000005245 133.0
4.85699987411 0.829999983311 -0.657999992371 131.0
4.88899993896 0.806999981403 -0.662000000477 134.0
4.90100002289 0.778999984264 -0.662999987602 138.0
4.86499977112 0.744000017643 -0.657000005245 134.0
4.92700004578 0.725000023842 -0.665000021458 135.0
4.88800001144 0.689999997616 -0.658999979496 134.0
4.9310002327 0.666999995708 -0.663999974728 128.0
4.95200014114 0.639999985695 -0.666000008583 131.0
4.94099998474 0.610000014305 -0.663999974728 136.0
4.93699979782 0.579999983311 -0.662999987602 136.0
4.92399978638 0.549000024796 -0.661000013351 136.0
4.98600006104 0.527000010014 -0.669000029564 135.0
4.992000103 0.497999995947 -0.669000029564 133.0
4.9279999733 0.462999999523 -0.660000026226 128.0
5.0110001564 0.442000001669 -0.671000003815 118.0
0.151999995112 0.0140000004321 -0.019999999553 80.0
0.211999997497 0.0170000009239 -0.0280000008643 73.0
0.425999999046 0.0309999994934 -0.0570000000298 80.0
0.432000011206 0.0289999991655 -0.0579999983311 82.0
0.305999994278 0.0189999993891 -0.0410000011325 82.0
0.163000002503 0.00999999977648 -0.0219999998808 75.0
0.16099999845 0.00899999961257 -0.0209999997169 70.0
0.217999994755 0.0109999999404 -0.0289999991655 72.0
0.0949999988079 0.00499999988824 -0.0130000002682 74.0
0.216000005603 0.00800000037998 -0.0289999991655 70.0
0.238999992609 0.00700000021607 -0.0320000015199 69.0
0.145999997854 0.00400000018999 -0.0189999993891 71.0
0.163000002503 0.00400000018999 -0.0219999998808 66.0
0.108999997377 0.00200000009499 -0.0140000004321 68.0
0.133000001311 0.00200000009499 -0.0179999992251 66.0
0.158999994397 0.0010000000475 -0.0209999997169 72.0
0.142000004649 0.0 -0.0189999993891 70.0
0.181999996305 0.0 -0.0240000002086 70.0
0.898000001907 -0.0170000009239 -0.119000002742 323.0
0.987999975681 -0.0250000003725 -0.130999997258 1105.0
0.986000001431 -0.0309999994934 -0.130999997258 1092.0
0.987999975681 -0.0359999984503 -0.130999997258 1112.0
0.98400002718 -0.0419999994338 -0.130999997258 1122.0
0.98400002718 -0.0480000004172 -0.130999997258 1165.0
0.986000001431 -0.0540000014007 -0.130999997258 1175.0
0.981000006199 -0.0590000003576 -0.129999995232 1177.0
0.980000019073 -0.0649999976158 -0.129999995232 1190.0
0.987999975681 -0.0710000023246 -0.130999997258 1212.0
0.98299998045 -0.0759999975562 -0.130999997258 1216.0
0.981999993324 -0.082000002265 -0.130999997258 1233.0
0.978999972343 -0.0869999974966 -0.129999995232 1244.0
0.973999977112 -0.0920000001788 -0.129999995232 1251.0
0.976000010967 -0.097999997437 -0.129999995232 1248.0
0.97000002861 -0.103000000119 -0.128999993205 1208.0
0.910000026226 -0.101999998093 -0.120999999344 455.0
0.764999985695 -0.0900000035763 -0.101999998093 208.0
0.785000026226 -0.097000002861 -0.104999996722 208.0
0.773000001907 -0.10000000149 -0.103000000119 207.0
0.76700001955 -0.103000000119 -0.101999998093 204.0
0.759999990463 -0.107000000775 -0.101000003517 213.0
0.759000003338 -0.111000001431 -0.101000003517 214.0
0.763999998569 -0.116999998689 -0.101999998093 213.0
0.750999987125 -0.119000002742 -0.10000000149 212.0
0.785000026226 -0.128999993205 -0.104999996722 215.0
0.782999992371 -0.134000003338 -0.104999996722 221.0
0.768999993801 -0.136000007391 -0.103000000119 218.0
0.76599997282 -0.140000000596 -0.103000000119 216.0
0.758000016212 -0.143000006676 -0.101999998093 223.0
0.925999999046 -0.180999994278 -0.123999997973 702.0
0.952000021935 -0.192000001669 -0.12800000608 1342.0
0.954999983311 -0.197999998927 -0.12800000608 1385.0
0.952000021935 -0.202999994159 -0.12800000608 1387.0
0.952000021935 -0.209000006318 -0.12800000608 1398.0
0.950999975204 -0.215000003576 -0.12800000608 1400.0
0.944999992847 -0.218999996781 -0.127000004053 1395.0
0.944000005722 -0.22499999404 -0.127000004053 1414.0
0.944000005722 -0.231000006199 -0.127000004053 1408.0
0.941999971867 -0.236000001431 -0.127000004053 1420.0
0.944000005722 -0.241999998689 -0.12800000608 1428.0
0.943000018597 -0.247999995947 -0.12800000608 1425.0
0.941999971867 -0.254000008106 -0.12800000608 1428.0
0.939999997616 -0.259000003338 -0.12800000608 1440.0
0.933000028133 -0.263000011444 -0.127000004053 1252.0
0.839999973774 -0.241999998689 -0.11400000006 363.0
0.722999989986 -0.211999997497 -0.0989999994636 233.0
0.746999979019 -0.224000006914 -0.101999998093 226.0
0.735000014305 -0.22499999404 -0.10000000149 230.0
0.726000010967 -0.226999998093 -0.0989999994636 227.0
0.742999970913 -0.237000003457 -0.101999998093 228.0
0.739000022411 -0.240999996662 -0.101000003517 237.0
0.760999977589 -0.252999991179 -0.104999996722 227.0
0.726000010967 -0.246000006795 -0.10000000149 232.0
0.740000009537 -0.256000012159 -0.101999998093 237.0
0.708999991417 -0.25 -0.097999997437 228.0
0.736000001431 -0.263999998569 -0.101999998093 234.0
0.695999979973 -0.254999995232 -0.0960000008345 235.0
0.786000013351 -0.293000012636 -0.108999997377 313.0
0.907000005245 -0.344999998808 -0.126000002027 1256.0
0.913999974728 -0.354000002146 -0.127000004053 1488.0
0.90499997139 -0.356999993324 -0.126000002027 1503.0
0.910000026226 -0.365000009537 -0.127000004053 1510.0
0.903999984264 -0.370000004768 -0.127000004053 1515.0
0.908999979496 -0.377999991179 -0.12800000608 1518.0
0.902000010014 -0.381000012159 -0.127000004053 1525.0
0.89200001955 -0.384000003338 -0.126000002027 1507.0
0.902000010014 -0.393999993801 -0.127000004053 1503.0
0.901000022888 -0.40000000596 -0.127000004053 1518.0
0.898000001907 -0.405000001192 -0.127000004053 1524.0
0.89200001955 -0.409000009298 -0.127000004053 1516.0
0.884999990463 -0.412999987602 -0.126000002027 1518.0
0.884000003338 -0.418999999762 -0.126000002027 1010.0
0.721000015736 -0.345999985933 -0.103000000119 312.0
0.651000022888 -0.317000001669 -0.0930000022054 247.0
0.615000009537 -0.303999990225 -0.0879999995232 245.0
0.634999990463 -0.319000005722 -0.0920000001788 244.0
0.635999977589 -0.324000000954 -0.0920000001788 246.0
0.630999982357 -0.326999992132 -0.0909999981523 244.0
0.628000020981 -0.330000013113 -0.0909999981523 245.0
0.626999974251 -0.335000008345 -0.0909999981523 244.0
0.616999983788 -0.333999991417 -0.0900000035763 238.0
0.597999989986 -0.32800000906 -0.0879999995232 243.0
0.614000022411 -0.342000007629 -0.0900000035763 251.0
4.3029999733 2.48900008202 -0.68900001049 137.0
4.30100011826 2.45300006866 -0.68599998951 122.0
4.30200004578 2.41799998283 -0.684000015259 117.0
4.38800001144 2.43000006676 -0.695999979973 128.0
4.34499979019 2.3710000515 -0.686999976635 128.0
4.29400014877 2.30800008774 -0.675999999046 116.0
4.42500019073 2.34299993515 -0.694999992847 143.0
4.3639998436 2.27600002289 -0.683000028133 123.0
4.40600013733 2.26300001144 -0.688000023365 125.0
4.46600008011 2.25900006294 -0.694999992847 133.0
4.45100021362 2.21700000763 -0.690999984741 125.0
4.13100004196 2.02600002289 -0.638999998569 114.0
4.25400018692 2.05399990082 -0.65600001812 131.0
4.36899995804 2.07699990273 -0.67199999094 126.0
4.40700006485 2.06100010872 -0.675999999046 148.0
4.32499980927 1.99100005627 -0.662000000477 154.0
4.29099988937 1.94299995899 -0.65499997139 168.0
4.28299999237 1.90799999237 -0.652000010014 159.0
4.35799980164 1.90999996662 -0.662000000477 171.0
4.35400009155 1.87699997425 -0.660000026226 180.0
4.40500020981 1.86699998379 -0.666000008583 146.0
4.52899980545 1.88699996471 -0.683000028133 139.0
4.51700019836 1.85000002384 -0.679000020027 127.0
4.55700016022 1.83399999142 -0.684000015259 123.0
4.59499979019 1.81700003147 -0.688000023365 123.0
4.58699989319 1.78199994564 -0.685000002384 125.0
4.59399986267 1.75300002098 -0.684000015259 125.0
4.61299991608 1.72800004482 -0.68599998951 127.0
4.59899997711 1.69200003147 -0.681999981403 128.0
4.63399982452 1.67299997807 -0.68599998951 120.0
4.60699987411 1.63199996948 -0.680999994278 117.0
4.625 1.60800004005 -0.681999981403 118.0
4.617000103 1.57400000095 -0.679000020027 119.0
4.64900016785 1.55400002003 -0.683000028133 124.0
4.66400003433 1.52799999714 -0.684000015259 111.0
4.5689997673 1.46700000763 -0.669000029564 110.0
4.67100000381 1.46899998188 -0.681999981403 119.0
4.67299985886 1.43900001049 -0.680999994278 115.0
4.66300010681 1.40600001812 -0.679000020027 123.0
4.69099998474 1.38399994373 -0.681999981403 117.0
4.55999994278 1.31599998474 -0.661000013351 139.0
4.48999977112 1.26699995995 -0.649999976158 155.0
4.52600002289 1.24899995327 -0.653999984264 163.0
4.48999977112 1.21000003815 -0.648000001907 161.0
4.57700014114 1.20500004292 -0.660000026226 146.0
4.78800010681 1.23000001907 -0.68900001049 119.0
4.8109998703 1.20599997044 -0.690999984741 125.0
4.73299980164 1.15699994564 -0.679000020027 146.0
4.72499990463 1.125 -0.676999986172 155.0
4.79400014877 1.11199998856 -0.68599998951 143.0
4.8060002327 1.08500003815 -0.686999976635 144.0
4.8060002327 1.05599999428 -0.68599998951 142.0
4.80800008774 1.02600002289 -0.685000002384 145.0
4.81199979782 0.998000025749 -0.685000002384 146.0
4.80399990082 0.967000007629 -0.683000028133 139.0
4.80100011826 0.936999976635 -0.681999981403 140.0
4.82000017166 0.912000000477 -0.684000015259 136.0
4.85200023651 0.888000011444 -0.688000023365 136.0
4.87300014496 0.862999975681 -0.689999997616 137.0
4.87400007248 0.833999991417 -0.68900001049 132.0
4.90199995041 0.809000015259 -0.693000018597 131.0
4.89499998093 0.778999984264 -0.690999984741 133.0
4.91499996185 0.751999974251 -0.693000018597 131.0
4.92399978638 0.725000023842 -0.694000005722 133.0
4.91400003433 0.694000005722 -0.691999971867 133.0
4.92700004578 0.666000008583 -0.693000018597 133.0
4.90199995041 0.634000003338 -0.68900001049 134.0
4.91099977493 0.606000006199 -0.689999997616 133.0
4.92999982834 0.578999996185 -0.691999971867 132.0
4.93400001526 0.550999999046 -0.691999971867 136.0
4.96199989319 0.524999976158 -0.694999992847 130.0
4.96400022507 0.495999991894 -0.694999992847 129.0
4.94899988174 0.465000003576 -0.691999971867 127.0
4.9889998436 0.439999997616 -0.698000013828 118.0
0.119000002742 0.0109999999404 -0.01600000076 84.0
0.252000004053 0.0209999997169 -0.035000000149 80.0
0.24699999392 0.0189999993891 -0.0340000018477 89.0
0.263000011444 0.0179999992251 -0.0370000004768 87.0
0.240999996662 0.01600000076 -0.0329999998212 81.0
0.193000003695 0.0120000001043 -0.0270000007004 75.0
0.0989999994636 0.00600000005215 -0.0140000004321 81.0
0.0799999982119 0.00499999988824 -0.0109999999404 77.0
0.125 0.00600000005215 -0.0170000009239 82.0
0.0879999995232 0.00400000018999 -0.0120000001043 75.0
0.185000002384 0.00600000005215 -0.0260000005364 71.0
0.238000005484 0.00600000005215 -0.0329999998212 76.0
0.134000003338 0.00300000002608 -0.0189999993891 72.0
0.0920000001788 0.00200000009499 -0.0130000002682 70.0
0.159999996424 0.00200000009499 -0.0219999998808 68.0
0.138999998569 0.0010000000475 -0.0189999993891 70.0
0.104000002146 0.0010000000475 -0.0140000004321 63.0
0.179000005126 0.0 -0.0250000003725 75.0
0.896000027657 -0.0170000009239 -0.123999997973 334.0
0.987999975681 -0.0250000003725 -0.136999994516 1023.0
0.933000028133 -0.0289999991655 -0.128999993205 434.0
0.907999992371 -0.0329999998212 -0.126000002027 337.0
0.894999980927 -0.0379999987781 -0.123999997973 373.0
0.912999987602 -0.0439999997616 -0.127000004053 402.0
0.929000020027 -0.0500000007451 -0.128999993205 445.0
0.934000015259 -0.0560000017285 -0.129999995232 477.0
0.934000015259 -0.0610000006855 -0.129999995232 521.0
0.93900001049 -0.0670000016689 -0.129999995232 565.0
0.944999992847 -0.0729999989271 -0.130999997258 607.0
0.940999984741 -0.0780000016093 -0.130999997258 641.0
0.945999979973 -0.0839999988675 -0.130999997258 678.0
0.955999970436 -0.0909999981523 -0.133000001311 724.0
0.950999975204 -0.0960000008345 -0.131999999285 756.0
0.947000026703 -0.101000003517 -0.131999999285 777.0
0.944000005722 -0.105999998748 -0.130999997258 638.0
0.934000015259 -0.109999999404 -0.129999995232 575.0
0.927999973297 -0.115000002086 -0.128999993205 538.0
0.916999995708 -0.119000002742 -0.12800000608 502.0
0.90499997139 -0.123000003397 -0.126000002027 472.0
0.902999997139 -0.12800000608 -0.126000002027 449.0
0.897000014782 -0.131999999285 -0.125 428.0
0.880999982357 -0.135000005364 -0.123000003397 407.0
0.882000029087 -0.140000000596 -0.123000003397 383.0
0.880999982357 -0.145999997854 -0.123000003397 377.0
0.875 -0.15000000596 -0.122000001371 363.0
0.856000006199 -0.151999995112 -0.119999997318 351.0
0.855000019073 -0.157000005245 -0.119999997318 331.0
0.862999975681 -0.163000002503 -0.120999999344 324.0
0.922999978065 -0.180999994278 -0.128999993205 750.0
0.944000005722 -0.189999997616 -0.131999999285 1260.0
0.949000000954 -0.196999996901 -0.133000001311 1289.0
0.950999975204 -0.202999994159 -0.133000001311 1314.0
0.945999979973 -0.208000004292 -0.133000001311 1316.0
0.944999992847 -0.21400000155 -0.133000001311 1340.0
0.944000005722 -0.218999996781 -0.133000001311 1341.0
0.945999979973 -0.225999996066 -0.133000001311 1354.0
0.947000026703 -0.231999993324 -0.134000003338 1365.0
0.941999971867 -0.236000001431 -0.133000001311 1382.0
0.936999976635 -0.240999996662 -0.131999999285 1386.0
0.936999976635 -0.24699999392 -0.133000001311 1394.0
0.936999976635 -0.252999991179 -0.133000001311 1399.0
0.93599998951 -0.25799998641 -0.133000001311 1403.0
0.924000024796 -0.261000007391 -0.130999997258 1189.0
0.830999970436 -0.238999992609 -0.118000000715 348.0
0.740999996662 -0.217999994755 -0.104999996722 252.0
0.757000029087 -0.226999998093 -0.108000002801 246.0
0.758000016212 -0.231999993324 -0.108000002801 246.0
0.745999991894 -0.233999997377 -0.107000000775 257.0
0.748000025749 -0.238999992609 -0.107000000775 247.0
0.750999987125 -0.245000004768 -0.108000002801 245.0
0.736000001431 -0.245000004768 -0.105999998748 244.0
0.73400002718 -0.248999997973 -0.104999996722 245.0
0.749000012875 -0.259000003338 -0.108000002801 240.0
0.722000002861 -0.254999995232 -0.104000002146 249.0
0.740000009537 -0.266000002623 -0.107000000775 251.0
0.742999970913 -0.272000014782 -0.107000000775 244.0
0.800999999046 -0.298999994993 -0.115999996662 360.0
0.902999997139 -0.344000011683 -0.130999997258 1275.0
0.912000000477 -0.354000002146 -0.133000001311 1466.0
0.913999974728 -0.361000001431 -0.133000001311 1489.0
0.907999992371 -0.365000009537 -0.133000001311 1492.0
0.907999992371 -0.370999991894 -0.133000001311 1480.0
0.902999997139 -0.375999987125 -0.131999999285 1488.0
0.901000022888 -0.381000012159 -0.131999999285 1495.0
0.898000001907 -0.386000007391 -0.131999999285 1482.0
0.894999980927 -0.391000002623 -0.131999999285 1486.0
0.894999980927 -0.398000001907 -0.131999999285 1499.0
0.893999993801 -0.404000014067 -0.131999999285 1499.0
0.889999985695 -0.409000009298 -0.131999999285 1492.0
0.89200001955 -0.416000008583 -0.133000001311 1491.0
0.870000004768 -0.412999987602 -0.129999995232 942.0
0.725000023842 -0.347999989986 -0.108000002801 314.0
0.686999976635 -0.335000008345 -0.103000000119 258.0
0.667999982834 -0.331000000238 -0.10000000149 264.0
0.648999989033 -0.326000005007 -0.097999997437 266.0
0.667999982834 -0.340999990702 -0.101000003517 263.0
0.676999986172 -0.351000010967 -0.101999998093 265.0
0.657999992371 -0.345999985933 -0.10000000149 271.0
0.663999974728 -0.354999989271 -0.101000003517 277.0
0.657999992371 -0.356999993324 -0.10000000149 280.0
0.672999978065 -0.370999991894 -0.103000000119 281.0
0.65499997139 -0.365999996662 -0.101000003517 284.0
4.32000017166 2.50200009346 -0.721000015736 144.0
4.34999990463 2.48200011253 -0.722999989986 134.0
4.31699991226 2.4279999733 -0.714999973774 125.0
4.38800001144 2.43099999428 -0.725000023842 133.0
4.38500022888 2.39400005341 -0.722000002861 136.0
4.35799980164 2.34400010109 -0.714999973774 121.0
4.43300008774 2.34899997711 -0.726000010967 137.0
4.39499998093 2.29399991035 -0.717000007629 132.0
4.40100002289 2.26200008392 -0.716000020504 124.0
4.46000003815 2.257999897 -0.722999989986 132.0
4.43499994278 2.21099996567 -0.717000007629 135.0
4.27099990845 2.09599995613 -0.68900001049 131.0
4.32700014114 2.09100008011 -0.695999979973 130.0
4.382999897 2.08400011063 -0.70300000906 126.0
4.49800014496 2.10500001907 -0.71899998188 140.0
4.46500015259 2.0569999218 -0.712000012398 145.0
4.37200021744 1.98099994659 -0.694999992847 163.0
4.37900018692 1.95299994946 -0.694999992847 156.0
4.40700006485 1.93299996853 -0.697000026703 162.0
4.38700008392 1.89199995995 -0.691999971867 169.0
4.507999897 1.91199994087 -0.709999978542 149.0
4.4889998436 1.87199997902 -0.704999983311 132.0
4.53700017929 1.86000001431 -0.711000025272 122.0
4.5110001564 1.81700003147 -0.704999983311 126.0
4.51499986649 1.78699994087 -0.703999996185 126.0
4.49599981308 1.74800002575 -0.699999988079 122.0
4.53299999237 1.73099994659 -0.703999996185 120.0
4.55200004578 1.70700001717 -0.704999983311 126.0
4.57299995422 1.68299996853 -0.707000017166 119.0
4.58699989319 1.65799999237 -0.708000004292 116.0
4.55100011826 1.61399996281 -0.700999975204 115.0
4.57600021362 1.59200000763 -0.70300000906 123.0
4.58099985123 1.56299996376 -0.70300000906 115.0
4.60099983215 1.53900003433 -0.703999996185 117.0
4.6139998436 1.51300001144 -0.704999983311 112.0
4.57600021362 1.47000002861 -0.698000013828 111.0
4.63999986649 1.46000003815 -0.705999970436 109.0
4.66800022125 1.43900001049 -0.708999991417 105.0
4.66699981689 1.40799999237 -0.708000004292 107.0
4.70900011063 1.38999998569 -0.712999999523 109.0
4.64699983597 1.34200000763 -0.70300000906 128.0
4.52500009537 1.27799999714 -0.683000028133 164.0
4.52099990845 1.24800002575 -0.680999994278 158.0
4.51000022888 1.2159999609 -0.679000020027 162.0
4.55900001526 1.2009999752 -0.685000002384 142.0
4.77299976349 1.22699999809 -0.716000020504 113.0
4.79400014877 1.20200002193 -0.717999994755 123.0
4.76800012589 1.16600000858 -0.712999999523 145.0
4.74800014496 1.13100004196 -0.708999991417 149.0
4.75899982452 1.10500001907 -0.709999978542 154.0
4.76000022888 1.07500004768 -0.708999991417 141.0
4.79199981689 1.0529999733 -0.712999999523 141.0
4.77699995041 1.01999998093 -0.709999978542 140.0
4.79799985886 0.995000004768 -0.712000012398 143.0
4.8189997673 0.971000015736 -0.713999986649 137.0
4.82399988174 0.941999971867 -0.713999986649 140.0
4.83799982071 0.915000021458 -0.714999973774 133.0
4.86000013351 0.889999985695 -0.717999994755 132.0
4.84999990463 0.85900002718 -0.716000020504 134.0
4.89200019836 0.837000012398 -0.721000015736 133.0
4.87599992752 0.805000007153 -0.717999994755 133.0
4.89200019836 0.777999997139 -0.72000002861 133.0
4.87400007248 0.746999979019 -0.716000020504 133.0
4.89900016785 0.721000015736 -0.71899998188 135.0
4.89400005341 0.690999984741 -0.717999994755 134.0
4.92999982834 0.666999995708 -0.722999989986 134.0
4.90500020981 0.634999990463 -0.717999994755 138.0
4.93800020218 0.610000014305 -0.722999989986 140.0
4.94000005722 0.580999970436 -0.722000002861 132.0
4.97300004959 0.555000007153 -0.726999998093 137.0
4.9390001297 0.523000001907 -0.721000015736 134.0
4.91300010681 0.490999996662 -0.717000007629 135.0
4.9470000267 0.465000003576 -0.721000015736 134.0
4.98400020599 0.439999997616 -0.726000010967 119.0
0.136000007391 0.0120000001043 -0.019999999553 88.0
0.0939999967813 0.00800000037998 -0.0140000004321 86.0
0.204999998212 0.01600000076 -0.0299999993294 79.0
0.177000001073 0.0130000002682 -0.0260000005364 82.0
0.134000003338 0.00899999961257 -0.0189999993891 81.0
0.151999995112 0.00899999961257 -0.0219999998808 78.0
0.105999998748 0.00600000005215 -0.0149999996647 82.0
0.131999999285 0.00700000021607 -0.0189999993891 89.0
0.140000000596 0.00600000005215 -0.019999999553 89.0
0.133000001311 0.00600000005215 -0.0189999993891 88.0
0.156000003219 0.00499999988824 -0.0219999998808 85.0
0.222000002861 0.00600000005215 -0.0320000015199 81.0
0.134000003338 0.00300000002608 -0.0189999993891 74.0
0.158999994397 0.00300000002608 -0.0230000000447 81.0
0.189999997616 0.00200000009499 -0.0270000007004 76.0
0.145999997854 0.0010000000475 -0.0209999997169 74.0
0.0839999988675 0.0010000000475 -0.0120000001043 70.0
0.135000005364 0.0 -0.0189999993891 70.0
0.899999976158 -0.0170000009239 -0.129999995232 359.0
0.986000001431 -0.0250000003725 -0.143000006676 1014.0
