ply
format ascii 1.0
element vertex 932
property float x
property float y
property float z
property float intensity
end_header
4.54899978638 1.68900001049 -1.41100001335 171.0
4.52899980545 1.64999997616 -1.40199995041 162.0
4.5720000267 1.63300001621 -1.41199994087 158.0
4.59100008011 1.60800004005 -1.41499996185 162.0
4.6139998436 1.58500003815 -1.41999995708 155.0
4.58400011063 1.54299998283 -1.40799999237 148.0
4.617000103 1.52300000191 -1.41499996185 146.0
4.62699985504 1.49399995804 -1.41600000858 142.0
4.61000013351 1.45799994469 -1.40799999237 147.0
4.62300014496 1.43099999428 -1.4090000391 143.0
4.65899991989 1.41100001335 -1.41799998283 140.0
4.65500020981 1.3789999485 -1.41400003433 140.0
4.63999986649 1.34399998188 -1.40699994564 147.0
4.63199996948 1.31099998951 -1.40299999714 145.0
4.67000007629 1.29100000858 -1.41199994087 141.0
4.65399980545 1.25600004196 -1.40499997139 148.0
4.67500019073 1.23199999332 -1.4090000391 153.0
4.68499994278 1.20399999619 -1.40999996662 146.0
4.68800020218 1.17499995232 -1.4090000391 136.0
4.69999980927 1.14699995518 -1.41100001335 127.0
4.73000001907 1.12399995327 -1.41799998283 135.0
4.75 1.09899997711 -1.42200005054 134.0
4.71899986267 1.06200003624 -1.41100001335 136.0
4.75500011444 1.03999996185 -1.41999995708 130.0
4.75899982452 1.01100003719 -1.41999995708 131.0
4.75 0.978999972343 -1.41499996185 129.0
4.73699998856 0.947000026703 -1.40999996662 127.0
4.76999998093 0.922999978065 -1.41799998283 123.0
4.78700017929 0.897000014782 -1.42100000381 123.0
4.79600000381 0.869000017643 -1.42299997807 119.0
4.76399993896 0.833999991417 -1.41199994087 118.0
4.79500007629 0.809000015259 -1.41900002956 116.0
4.8060002327 0.782000005245 -1.42100000381 119.0
4.79500007629 0.75 -1.41700005531 115.0
0.0299999993294 0.00499999988824 -0.00800000037998 119.0
4.82999992371 0.697000026703 -1.42499995232 121.0
4.80499982834 0.663999974728 -1.41600000858 116.0
4.82700014114 0.637000024319 -1.42100000381 117.0
4.82999992371 0.60900002718 -1.42100000381 116.0
4.84299993515 0.580999970436 -1.4240000248 114.0
4.82299995422 0.549000024796 -1.41700005531 114.0
4.83900022507 0.522000014782 -1.42100000381 114.0
4.82800006866 0.49200001359 -1.41700005531 118.0
4.85799980164 0.465000003576 -1.42499995232 107.0
4.84299993515 0.435000002384 -1.41900002956 113.0
0.00899999961257 0.00200000009499 -0.00200000009499 105.0
4.83099985123 0.375999987125 -1.41400003433 98.0
4.84200000763 0.347999989986 -1.41700005531 98.0
4.86899995804 0.319999992847 -1.4240000248 95.0
4.84399986267 0.289999991655 -1.41600000858 89.0
0.00999999977648 0.00200000009499 -0.00200000009499 95.0
0.0140000004321 0.00200000009499 -0.00300000002608 89.0
4.84800004959 0.202999994159 -1.41600000858 88.0
4.80900001526 0.172999992967 -1.40400004387 91.0
4.85099983215 0.145999997854 -1.41600000858 81.0
4.83699989319 0.115999996662 -1.41199994087 91.0
4.87699985504 0.0879999995232 -1.42299997807 89.0
4.85400009155 0.0590000003576 -1.41600000858 86.0
0.0109999999404 0.00200000009499 -0.00200000009499 86.0
4.85699987411 0.0010000000475 -1.41700005531 85.0
0.0340000018477 0.00200000009499 -0.00899999961257 87.0
0.0289999991655 0.0010000000475 -0.00800000037998 87.0
0.544000029564 -0.00700000021607 -0.158000007272 140.0
0.958999991417 -0.019999999553 -0.279000014067 969.0
0.973999977112 -0.0260000005364 -0.282999992371 1151.0
0.96899998188 -0.0320000015199 -0.282000005245 1171.0
0.96899998188 -0.0370000004768 -0.282000005245 1180.0
0.971000015736 -0.0430000014603 -0.282999992371 1173.0
0.966000020504 -0.0489999987185 -0.280999988317 1193.0
0.966000020504 -0.054999999702 -0.280999988317 1191.0
0.966000020504 -0.0599999986589 -0.280999988317 1194.0
0.962000012398 -0.0659999996424 -0.280000001192 1197.0
0.957000017166 -0.0710000023246 -0.279000014067 1224.0
0.961000025272 -0.0769999995828 -0.280000001192 1218.0
0.964999973774 -0.082999996841 -0.280999988317 1218.0
0.962999999523 -0.0890000015497 -0.280999988317 1219.0
0.955999970436 -0.0939999967813 -0.279000014067 1231.0
0.953999996185 -0.0989999994636 -0.277999997139 1179.0
0.871999979019 -0.0960000008345 -0.254999995232 425.0
0.680999994278 -0.0780000016093 -0.199000000954 207.0
0.676999986172 -0.082000002265 -0.196999996901 207.0
0.675000011921 -0.0860000029206 -0.196999996901 204.0
0.670000016689 -0.0890000015497 -0.195999994874 200.0
0.685000002384 -0.0949999988079 -0.20000000298 206.0
0.652000010014 -0.0939999967813 -0.190999999642 208.0
0.665000021458 -0.10000000149 -0.194999992847 209.0
0.649999976158 -0.101999998093 -0.189999997616 201.0
0.665000021458 -0.108000002801 -0.194999992847 210.0
0.644999980927 -0.108999997377 -0.188999995589 208.0
0.629000008106 -0.109999999404 -0.185000002384 214.0
0.657000005245 -0.119000002742 -0.193000003695 209.0
0.684000015259 -0.12800000608 -0.201000005007 230.0
0.916000008583 -0.179000005126 -0.270000010729 929.0
0.933000028133 -0.187999993563 -0.27500000596 1264.0
0.936999976635 -0.194999992847 -0.277000010014 1254.0
0.935000002384 -0.20000000298 -0.275999993086 1263.0
0.93599998951 -0.206000000238 -0.277000010014 1267.0
0.930000007153 -0.21099999547 -0.27500000596 1246.0
0.929000020027 -0.216999992728 -0.27500000596 1235.0
0.929000020027 -0.223000004888 -0.275999993086 1246.0
0.927999973297 -0.228000000119 -0.275999993086 1243.0
0.925999999046 -0.233999997377 -0.275999993086 1230.0
0.927999973297 -0.239999994636 -0.275999993086 1229.0
0.929000020027 -0.246000006795 -0.277000010014 1221.0
0.920000016689 -0.25 -0.27500000596 1229.0
0.920000016689 -0.256000012159 -0.27500000596 1200.0
0.861000001431 -0.245000004768 -0.25799998641 569.0
0.626999974251 -0.180999994278 -0.187999993563 217.0
0.620999991894 -0.184000000358 -0.186000004411 215.0
0.597000002861 -0.180000007153 -0.179000005126 217.0
0.597999989986 -0.185000002384 -0.180000007153 214.0
0.606999993324 -0.190999999642 -0.182999998331 214.0
0.59500002861 -0.190999999642 -0.179000005126 214.0
0.617999970913 -0.202999994159 -0.187000006437 208.0
0.583000004292 -0.194999992847 -0.175999999046 209.0
0.573000013828 -0.195999994874 -0.173999994993 213.0
0.579999983311 -0.202000007033 -0.175999999046 211.0
0.56400001049 -0.20000000298 -0.171000003815 217.0
0.551999986172 -0.20000000298 -0.167999997735 217.0
0.674000024796 -0.25 -0.206000000238 270.0
0.884999990463 -0.33599999547 -0.270999997854 921.0
0.902999997139 -0.349000006914 -0.277000010014 1167.0
0.893999993801 -0.351999998093 -0.27500000596 1167.0
0.896000027657 -0.358999997377 -0.275999993086 1155.0
0.888999998569 -0.363000005484 -0.27500000596 1161.0
0.89099997282 -0.370000004768 -0.275999993086 1157.0
0.888000011444 -0.375 -0.275999993086 1138.0
0.887000024319 -0.381000012159 -0.275999993086 1138.0
0.887000024319 -0.388000011444 -0.275999993086 1144.0
0.880999982357 -0.391999989748 -0.27500000596 1123.0
0.883000016212 -0.398999989033 -0.277000010014 1127.0
0.885999977589 -0.407000005245 -0.277999997139 1117.0
0.875999987125 -0.409000009298 -0.275999993086 1093.0
0.808000028133 -0.38299998641 -0.254999995232 577.0
0.537000000477 -0.256999999285 -0.168999999762 240.0
0.470999985933 -0.228000000119 -0.149000003934 209.0
0.451000005007 -0.222000002861 -0.143000006676 203.0
0.458999991417 -0.230000004172 -0.145999997854 212.0
0.423999994993 -0.215000003576 -0.135000005364 203.0
0.43599998951 -0.22499999404 -0.138999998569 197.0
0.458999991417 -0.240999996662 -0.146999999881 198.0
0.449000000954 -0.238999992609 -0.143999993801 200.0
0.384000003338 -0.207000002265 -0.123000003397 203.0
0.40000000596 -0.218999996781 -0.128999993205 197.0
0.402999997139 -0.224000006914 -0.129999995232 197.0
0.674000024796 -0.384999990463 -0.219999998808 327.0
0.828999996185 -0.481000006199 -0.270999997854 751.0
4.18300008774 2.5039999485 -1.43499994278 238.0
4.18800020218 2.47000002861 -1.43200004101 241.0
0.00499999988824 0.00200000009499 -0.0010000000475 243.0
0.00999999977648 0.00499999988824 -0.00200000009499 237.0
4.23699998856 2.3900001049 -1.43499994278 232.0
4.25099992752 2.36199998856 -1.43499994278 224.0
4.27400016785 2.33899998665 -1.43799996376 233.0
4.28800010681 2.31100010872 -1.43799996376 222.0
0.0270000007004 0.0130000002682 -0.00800000037998 221.0
4.30999994278 2.25300002098 -1.43700003624 224.0
4.32899999619 2.22799992561 -1.43900001049 221.0
4.34999990463 2.20300006866 -1.44200003147 219.0
4.33300018311 2.16000008583 -1.43200004101 213.0
4.35900020599 2.13899993896 -1.43700003624 215.0
4.36100006104 2.10599994659 -1.43299996853 207.0
4.37699985504 2.07899999619 -1.43499994278 201.0
4.39699983597 2.05500006676 -1.43799996376 211.0
4.39400005341 2.01999998093 -1.43299996853 207.0
4.42500019073 2.0 -1.43900001049 210.0
4.4439997673 1.97599995136 -1.44200003147 197.0
4.43699979782 1.93900001049 -1.43599998951 203.0
4.46799993515 1.91999995708 -1.44200003147 199.0
4.46999979019 1.88699996471 -1.44000005722 192.0
4.48400020599 1.86000001431 -1.44099998474 197.0
4.49499988556 1.83200001717 -1.44099998474 180.0
4.51300001144 1.80700004101 -1.44299995899 186.0
4.52899980545 1.77999997139 -1.44500005245 175.0
4.52099990845 1.74500000477 -1.43900001049 174.0
4.55399990082 1.72500002384 -1.4470000267 166.0
4.54799985886 1.69099998474 -1.44200003147 174.0
4.5720000267 1.66799998283 -1.44599997997 164.0
4.57399988174 1.63699996471 -1.44400000572 165.0
4.5609998703 1.60000002384 -1.43700003624 157.0
4.57899999619 1.57500004768 -1.44000005722 163.0
4.58500003815 1.54600000381 -1.43900001049 148.0
4.58900022507 1.51600003242 -1.43700003624 153.0
4.56500005722 1.47699999809 -1.42700004578 153.0
4.60900020599 1.46000003815 -1.43900001049 150.0
4.63199996948 1.43599998951 -1.44299995899 145.0
4.632999897 1.40499997139 -1.44099998474 150.0
4.61899995804 1.37000000477 -1.43400001526 137.0
4.64699983597 1.34800004959 -1.44099998474 147.0
4.63199996948 1.31299996376 -1.43400001526 144.0
4.65399980545 1.28900003433 -1.43799996376 144.0
4.65299987793 1.25800001621 -1.43599998951 147.0
4.66200017929 1.23000001907 -1.43599998951 153.0
4.69600009918 1.20799994469 -1.44500005245 149.0
4.70499992371 1.17999994755 -1.44500005245 143.0
4.68699979782 1.14600002766 -1.43799996376 144.0
4.71700000763 1.12300002575 -1.44500005245 137.0
4.70200014114 1.08899998665 -1.43900001049 134.0
4.73099994659 1.06599998474 -1.44599997997 137.0
4.73099994659 1.03600001335 -1.44400000572 127.0
4.74499988556 1.00899994373 -1.44599997997 127.0
4.75199985504 0.981000006199 -1.4470000267 130.0
4.74399995804 0.949000000954 -1.44299995899 125.0
4.71899986267 0.915000021458 -1.43400001526 116.0
4.73699998856 0.888999998569 -1.43700003624 119.0
4.77600002289 0.865999996662 -1.44799995422 116.0
4.742000103 0.830999970436 -1.43599998951 120.0
4.77899980545 0.808000028133 -1.44599997997 118.0
0.0209999997169 0.00400000018999 -0.00499999988824 116.0
4.79300022125 0.750999987125 -1.4470000267 113.0
4.78800010681 0.721000015736 -1.44500005245 119.0
4.79400014877 0.691999971867 -1.44500005245 115.0
4.82100009918 0.666999995708 -1.45200002193 119.0
4.79099988937 0.634000003338 -1.44200003147 111.0
0.0109999999404 0.00200000009499 -0.00200000009499 110.0
4.82499980927 0.578999996185 -1.45000004768 113.0
4.8189997673 0.549000024796 -1.4470000267 110.0
4.81799983978 0.519999980927 -1.44599997997 111.0
0.00999999977648 0.00200000009499 -0.00200000009499 112.0
4.84299993515 0.465000003576 -1.45200002193 111.0
0.00700000021607 0.00200000009499 -0.0010000000475 105.0
0.00999999977648 0.00200000009499 -0.00200000009499 103.0
4.82600021362 0.375999987125 -1.44400000572 102.0
0.00899999961257 0.00200000009499 -0.00200000009499 97.0
4.8189997673 0.317000001669 -1.44099998474 91.0
4.84000015259 0.289999991655 -1.44599997997 94.0
4.85300016403 0.261999994516 -1.44900000095 91.0
4.8220000267 0.231000006199 -1.44000005722 87.0
4.86600017548 0.203999996185 -1.45299994946 82.0
4.86299991608 0.17499999702 -1.4509999752 86.0
4.85900020599 0.145999997854 -1.45000004768 86.0
4.85699987411 0.116999998689 -1.44900000095 83.0
4.84399986267 0.0879999995232 -1.44400000572 80.0
4.85400009155 0.0590000003576 -1.4470000267 88.0
0.00600000005215 0.00200000009499 -0.0010000000475 87.0
4.85400009155 0.0010000000475 -1.4470000267 87.0
4.86299991608 -0.0270000007004 -1.44900000095 90.0
0.0670000016689 0.0010000000475 -0.0189999993891 80.0
0.583000004292 -0.00800000037998 -0.172999992967 149.0
0.967000007629 -0.019999999553 -0.287000000477 982.0
0.971000015736 -0.0260000005364 -0.28900000453 1167.0
0.962000012398 -0.0320000015199 -0.286000013351 1157.0
0.97000002861 -0.0379999987781 -0.287999987602 1165.0
0.966000020504 -0.0430000014603 -0.287000000477 1181.0
0.971000015736 -0.0489999987185 -0.28900000453 1186.0
0.963999986649 -0.054999999702 -0.287000000477 1193.0
0.963999986649 -0.0599999986589 -0.287000000477 1186.0
0.962000012398 -0.0659999996424 -0.286000013351 1192.0
0.962999999523 -0.0719999969006 -0.287000000477 1206.0
0.967000007629 -0.0780000016093 -0.287999987602 1200.0
0.958999991417 -0.082999996841 -0.286000013351 1211.0
0.958999991417 -0.0890000015497 -0.286000013351 1202.0
0.954999983311 -0.0939999967813 -0.284999996424 1212.0
0.952000021935 -0.0989999994636 -0.284000009298 1144.0
0.842000007629 -0.0930000022054 -0.250999987125 384.0
0.679000020027 -0.0780000016093 -0.202000007033 210.0
0.65499997139 -0.0790000036359 -0.194999992847 207.0
0.628000020981 -0.0799999982119 -0.187000006437 201.0
0.663999974728 -0.0879999995232 -0.197999998927 204.0
0.681999981403 -0.0949999988079 -0.203999996185 202.0
0.648999989033 -0.0939999967813 -0.194000005722 205.0
0.675000011921 -0.101999998093 -0.202000007033 205.0
0.644999980927 -0.101000003517 -0.193000003695 207.0
0.653999984264 -0.107000000775 -0.195999994874 209.0
0.626999974251 -0.105999998748 -0.187999993563 210.0
0.629000008106 -0.109999999404 -0.188999995589 210.0
0.658999979496 -0.119999997318 -0.197999998927 208.0
0.702000021935 -0.131999999285 -0.21099999547 237.0
0.915000021458 -0.179000005126 -0.275999993086 938.0
0.934000015259 -0.188999995589 -0.282000005245 1207.0
0.931999981403 -0.194000005722 -0.280999988317 1205.0
0.934000015259 -0.20000000298 -0.282000005245 1199.0
0.930000007153 -0.206000000238 -0.280999988317 1213.0
0.93599998951 -0.212999999523 -0.282999992371 1176.0
0.93599998951 -0.218999996781 -0.284000009298 1190.0
0.930999994278 -0.223000004888 -0.282000005245 1184.0
0.930999994278 -0.229000002146 -0.282999992371 1181.0
0.925000011921 -0.233999997377 -0.280999988317 1186.0
0.922999978065 -0.238999992609 -0.280999988317 1168.0
0.92199999094 -0.245000004768 -0.280999988317 1168.0
0.920000016689 -0.25 -0.280999988317 1168.0
0.920000016689 -0.256000012159 -0.280999988317 1142.0
0.846000015736 -0.240999996662 -0.259000003338 504.0
0.601999998093 -0.173999994993 -0.184000000358 212.0
0.577000021935 -0.171000003815 -0.177000001073 210.0
0.579999983311 -0.17499999702 -0.178000003099 217.0
0.617999970913 -0.190999999642 -0.189999997616 204.0
0.597000002861 -0.187999993563 -0.184000000358 212.0
0.56099998951 -0.180999994278 -0.172999992967 212.0
0.611000001431 -0.201000005007 -0.188999995589 206.0
0.563000023365 -0.188999995589 -0.173999994993 205.0
0.561999976635 -0.192000001669 -0.173999994993 203.0
0.532999992371 -0.186000004411 -0.165000006557 205.0
0.547999978065 -0.194999992847 -0.170000001788 210.0
0.537000000477 -0.194999992847 -0.166999995708 206.0
0.680999994278 -0.252999991179 -0.212999999523 297.0
0.883000016212 -0.335000008345 -0.275999993086 945.0
0.893999993801 -0.345999985933 -0.280000001192 1132.0
0.894999980927 -0.352999985218 -0.280999988317 1122.0
0.894999980927 -0.358999997377 -0.282000005245 1132.0
0.893000006676 -0.365000009537 -0.282000005245 1124.0
0.888000011444 -0.368999987841 -0.280999988317 1126.0
0.889999985695 -0.377000004053 -0.282000005245 1110.0
0.884000003338 -0.381000012159 -0.280999988317 1119.0
0.879000008106 -0.384999990463 -0.280000001192 1110.0
0.883000016212 -0.393999993801 -0.282000005245 1102.0
0.879000008106 -0.398000001907 -0.280999988317 1092.0
0.874000012875 -0.402999997139 -0.280000001192 1083.0
0.873000025749 -0.409000009298 -0.280999988317 1044.0
0.771000027657 -0.365999996662 -0.247999995947 489.0
0.5 -0.239999994636 -0.16099999845 221.0
0.467999994755 -0.226999998093 -0.150999993086 214.0
0.45300000906 -0.224000006914 -0.146999999881 202.0
0.446000009775 -0.223000004888 -0.144999995828 202.0
0.437000006437 -0.223000004888 -0.142000004649 199.0
0.414999991655 -0.21400000155 -0.135000005364 212.0
0.428000003099 -0.22499999404 -0.140000000596 192.0
0.442000001669 -0.236000001431 -0.144999995828 195.0
0.411000013351 -0.222000002861 -0.135000005364 200.0
0.388000011444 -0.212999999523 -0.12800000608 194.0
0.360000014305 -0.20000000298 -0.119000002742 200.0
0.699999988079 -0.40000000596 -0.232999995351 367.0
0.836000025272 -0.486000001431 -0.280000001192 749.0
4.15399980545 2.49099993706 -1.45700001717 248.0
4.19000005722 2.47600007057 -1.46399998665 250.0
4.19199991226 2.44099998474 -1.46000003815 242.0
4.22100019455 2.42100000381 -1.46500003338 245.0
4.23400020599 2.39299988747 -1.46500003338 241.0
4.24300003052 2.36199998856 -1.46300005913 243.0
0.0149999996647 0.00700000021607 -0.00400000018999 238.0
4.28200006485 2.31200003624 -1.46800005436 225.0
4.29400014877 2.28299999237 -1.46700000763 230.0
0.00899999961257 0.00400000018999 -0.00200000009499 221.0
4.31300020218 2.22300004959 -1.46500003338 222.0
4.33199977875 2.19799995422 -1.46700000763 215.0
4.33799982071 2.16700005531 -1.46500003338 224.0
4.35400009155 2.1400001049 -1.4659999609 217.0
4.35699987411 2.10700011253 -1.46300005913 213.0
4.367000103 2.07800006866 -1.46300005913 222.0
0.0149999996647 0.00600000005215 -0.00400000018999 216.0
4.40399980545 2.02800011635 -1.46700000763 209.0
4.42500019073 2.0039999485 -1.47000002861 209.0
4.40500020981 1.96099996567 -1.46000003815 207.0
4.42700004578 1.93799996376 -1.46399998665 203.0
4.44099998474 1.91100001335 -1.46500003338 199.0
4.45499992371 1.88399994373 -1.4659999609 195.0
4.46700000763 1.85599994659 -1.4659999609 190.0
4.46899986267 1.82500004768 -1.46300005913 191.0
4.47200012207 1.79299998283 -1.46099996567 187.0
4.50099992752 1.77300000191 -1.46700000763 185.0
4.51399993896 1.74500000477 -1.46800005436 177.0
4.53599977493 1.72099995613 -1.47200000286 182.0
4.53200006485 1.68799996376 -1.46800005436 171.0
4.56599998474 1.66799998283 -1.47599995136 170.0
4.55200004578 1.63199996948 -1.46800005436 174.0
4.54300022125 1.59700000286 -1.4620000124 169.0
4.55499982834 1.56900000572 -1.46300005913 162.0
4.54300022125 1.5340000391 -1.45700001717 163.0
4.59000015259 1.51900005341 -1.46899998188 154.0
4.59000015259 1.48699998856 -1.4659999609 155.0
4.60799980164 1.4620000124 -1.46899998188 148.0
4.63100004196 1.43799996376 -1.47399997711 150.0
4.617000103 1.40199995041 -1.46700000763 151.0
4.63100004196 1.37600004673 -1.46899998188 152.0
4.60799980164 1.33899998665 -1.45899999142 147.0
4.64099979401 1.31799995899 -1.46800005436 152.0
4.64900016785 1.28900003433 -1.46800005436 144.0
4.65799999237 1.26100003719 -1.46800005436 147.0
4.67500019073 1.23500001431 -1.47099995613 147.0
4.66499996185 1.20200002193 -1.4659999609 156.0
4.70100021362 1.18099999428 -1.47500002384 142.0
4.68800020218 1.14800000191 -1.46899998188 148.0
4.68800020218 1.11800003052 -1.46700000763 143.0
4.72800016403 1.09700000286 -1.47800004482 130.0
4.71199989319 1.06299996376 -1.47099995613 138.0
4.71199989319 1.03299999237 -1.46899998188 135.0
4.74399995804 1.00999999046 -1.47699999809 132.0
4.73600006104 0.978999972343 -1.47300004959 129.0
4.72499990463 0.947000026703 -1.46800005436 128.0
4.74900007248 0.92199999094 -1.47399997711 118.0
4.72900009155 0.888999998569 -1.4659999609 124.0
4.77199983597 0.866999983788 -1.47800004482 122.0
4.78499984741 0.839999973774 -1.48000001907 120.0
4.77500009537 0.808000028133 -1.47599995136 118.0
4.76900005341 0.777999997139 -1.47200000286 121.0
4.76700019836 0.748000025749 -1.47099995613 122.0
4.79099988937 0.722000002861 -1.47599995136 121.0
4.80100011826 0.694000005722 -1.47800004482 120.0
4.77600002289 0.662000000477 -1.46899998188 117.0
4.81699991226 0.638000011444 -1.48099994659 116.0
4.8029999733 0.606999993324 -1.47599995136 108.0
4.79199981689 0.575999975204 -1.47099995613 118.0
4.82600021362 0.550999999046 -1.48000001907 114.0
4.82700014114 0.522000014782 -1.48000001907 117.0
4.83400011063 0.493000000715 -1.48099994659 111.0
4.83400011063 0.463999986649 -1.48000001907 109.0
0.0109999999404 0.00200000009499 -0.00200000009499 111.0
0.019999999553 0.00300000002608 -0.00499999988824 103.0
4.82800006866 0.375999987125 -1.47599995136 105.0
0.0120000001043 0.00200000009499 -0.00300000002608 104.0
4.82399988174 0.317999988794 -1.47300004959 100.0
4.84299993515 0.289999991655 -1.47800004482 93.0
4.81799983978 0.259999990463 -1.47000002861 89.0
4.84299993515 0.231999993324 -1.47699999809 90.0
4.84000015259 0.202999994159 -1.47599995136 90.0
4.82899999619 0.173999994993 -1.47200000286 88.0
4.85900020599 0.145999997854 -1.48099994659 86.0
4.82299995422 0.115999996662 -1.47000002861 81.0
4.86100006104 0.0879999995232 -1.48099994659 89.0
4.75699996948 0.0579999983311 -1.44900000095 87.0
0.00899999961257 0.00200000009499 -0.00200000009499 85.0
4.83799982071 0.0010000000475 -1.47300004959 85.0
4.83799982071 -0.0270000007004 -1.47300004959 82.0
0.0790000036359 0.0010000000475 -0.0230000000447 86.0
0.649999976158 -0.00899999961257 -0.196999996901 164.0
0.964999973774 -0.019999999553 -0.293000012636 970.0
0.949999988079 -0.0260000005364 -0.287999987602 821.0
0.944999992847 -0.0309999994934 -0.287000000477 738.0
0.940999984741 -0.0359999984503 -0.286000013351 800.0
0.949000000954 -0.0419999994338 -0.287999987602 871.0
0.950999975204 -0.0480000004172 -0.28900000453 950.0
0.962999999523 -0.054999999702 -0.293000012636 1025.0
0.949000000954 -0.0590000003576 -0.287999987602 1051.0
0.961000025272 -0.0659999996424 -0.291999995708 1099.0
0.958999991417 -0.0719999969006 -0.291999995708 1140.0
0.958999991417 -0.0769999995828 -0.291999995708 1153.0
0.958999991417 -0.082999996841 -0.291999995708 1162.0
0.957000017166 -0.0890000015497 -0.291000008583 1169.0
0.955999970436 -0.0939999967813 -0.291000008583 1185.0
0.952000021935 -0.10000000149 -0.289999991655 1104.0
0.837000012398 -0.0920000001788 -0.254999995232 364.0
0.65499997139 -0.0750000029802 -0.199000000954 202.0
0.65600001812 -0.0790000036359 -0.20000000298 207.0
0.662000000477 -0.0839999988675 -0.202000007033 202.0
0.643999993801 -0.0860000029206 -0.195999994874 200.0
0.629000008106 -0.0869999974966 -0.192000001669 202.0
0.615000009537 -0.0890000015497 -0.187999993563 204.0
0.65600001812 -0.0989999994636 -0.201000005007 201.0
0.606000006199 -0.0949999988079 -0.185000002384 204.0
0.625 -0.101999998093 -0.190999999642 209.0
0.601999998093 -0.101999998093 -0.184000000358 197.0
0.625999987125 -0.109999999404 -0.192000001669 205.0
0.611000001431 -0.111000001431 -0.187000006437 211.0
0.708000004292 -0.134000003338 -0.216999992728 250.0
0.926999986172 -0.181999996305 -0.284999996424 945.0
0.935000002384 -0.188999995589 -0.287999987602 1167.0
0.934000015259 -0.194999992847 -0.287999987602 1172.0
0.936999976635 -0.201000005007 -0.28900000453 1152.0
0.936999976635 -0.207000002265 -0.28900000453 1148.0
0.93599998951 -0.212999999523 -0.28900000453 1134.0
0.930999994278 -0.217999994755 -0.287999987602 1135.0
0.934000015259 -0.224000006914 -0.28900000453 1119.0
0.930999994278 -0.230000004172 -0.28900000453 1130.0
0.931999981403 -0.236000001431 -0.289999991655 1128.0
0.926999986172 -0.240999996662 -0.287999987602 1119.0
0.925000011921 -0.246000006795 -0.287999987602 1125.0
0.92199999094 -0.250999987125 -0.287999987602 1135.0
0.908999979496 -0.254000008106 -0.284000009298 1079.0
0.820999979973 -0.233999997377 -0.256999999285 423.0
0.580999970436 -0.167999997735 -0.180999994278 209.0
0.601000010967 -0.178000003099 -0.187999993563 207.0
0.565999984741 -0.171000003815 -0.177000001073 200.0
0.560000002384 -0.172999992967 -0.175999999046 197.0
0.554000020027 -0.17499999702 -0.173999994993 203.0
0.537000000477 -0.172999992967 -0.168999999762 207.0
0.536000013351 -0.175999999046 -0.168999999762 204.0
0.53100001812 -0.178000003099 -0.167999997735 209.0
0.54699999094 -0.187000006437 -0.172999992967 206.0
0.545000016689 -0.190999999642 -0.172999992967 200.0
0.545000016689 -0.194000005722 -0.172999992967 207.0
0.569000005722 -0.207000002265 -0.180999994278 210.0
0.745000004768 -0.277999997139 -0.238000005484 331.0
0.888000011444 -0.337999999523 -0.284000009298 966.0
0.894999980927 -0.347000002861 -0.287000000477 1103.0
0.896000027657 -0.354000002146 -0.287999987602 1105.0
0.893000006676 -0.358999997377 -0.287000000477 1088.0
0.889999985695 -0.363999992609 -0.287000000477 1080.0
0.89200001955 -0.372000008821 -0.287999987602 1089.0
0.878000020981 -0.372000008821 -0.284999996424 1085.0
0.883000016212 -0.381000012159 -0.287000000477 1082.0
0.884999990463 -0.388000011444 -0.287999987602 1071.0
0.878000020981 -0.391999989748 -0.286000013351 1068.0
0.882000029087 -0.40000000596 -0.287999987602 1045.0
0.873000025749 -0.402999997139 -0.286000013351 1048.0
0.874000012875 -0.409999996424 -0.287000000477 960.0
0.751999974251 -0.358000010252 -0.247999995947 411.0
0.472000002861 -0.225999996066 -0.155000001192 209.0
0.45300000906 -0.221000000834 -0.15000000596 204.0
0.423999994993 -0.209000006318 -0.140000000596 207.0
0.439999997616 -0.221000000834 -0.145999997854 194.0
0.423000007868 -0.216000005603 -0.141000002623 194.0
0.388999998569 -0.201000005007 -0.129999995232 198.0
0.404000014067 -0.211999997497 -0.135000005364 194.0
0.379000008106 -0.202000007033 -0.127000004053 189.0
0.375999987125 -0.202999994159 -0.126000002027 193.0
0.379000008106 -0.208000004292 -0.12800000608 197.0
0.365999996662 -0.203999996185 -0.123999997973 195.0
0.751999974251 -0.430999994278 -0.256000012159 414.0
0.82800000906 -0.481999993324 -0.282999992371 735.0
0.00999999977648 0.00499999988824 -0.00200000009499 266.0
0.0109999999404 0.00499999988824 -0.00300000002608 251.0
0.00999999977648 0.00499999988824 -0.00200000009499 250.0
4.19799995422 2.41300010681 -1.48899996281 250.0
4.22399997711 2.39199995995 -1.49300003052 243.0
0.0179999992251 0.00899999961257 -0.00499999988824 246.0
0.00999999977648 0.00400000018999 -0.00200000009499 247.0
4.26200008392 2.30500006676 -1.49199998379 243.0
4.28499984741 2.28299999237 -1.4960000515 236.0
0.0140000004321 0.00700000021607 -0.00400000018999 228.0
4.29099988937 2.21600008011 -1.48899996281 234.0
4.3029999733 2.18700003624 -1.48899996281 228.0
4.32999992371 2.16700005531 -1.49399995804 225.0
4.35599994659 2.14499998093 -1.49800002575 224.0
4.34600019455 2.10599994659 -1.49100005627 220.0
4.36299991608 2.07999992371 -1.49300003052 215.0
4.40000009537 2.06299996376 -1.50100004673 219.0
4.38800001144 2.02399992943 -1.49300003052 213.0
4.39699983597 1.99500000477 -1.49199998379 217.0
4.40799999237 1.9659999609 -1.49199998379 207.0
4.42100000381 1.93900001049 -1.49300003052 207.0
4.44799995422 1.91700005531 -1.49800002575 207.0
4.46000003815 1.88999998569 -1.49899995327 197.0
4.48299980164 1.86600005627 -1.50300002098 199.0
4.47100019455 1.82799994946 -1.49500000477 190.0
4.48199987411 1.79999995232 -1.49500000477 190.0
4.51800012589 1.78199994564 -1.5039999485 190.0
4.50400018692 1.74399995804 -1.4960000515 181.0
4.51399993896 1.7159999609 -1.4960000515 182.0
4.50600004196 1.68099999428 -1.49000000954 182.0
4.52799987793 1.65699994564 -1.49500000477 175.0
4.53499984741 1.62800002098 -1.49399995804 170.0
4.54300022125 1.59899997711 -1.49300003052 164.0
4.5720000267 1.57799994946 -1.5 160.0
4.5560002327 1.54100000858 -1.49199998379 165.0
4.57499980927 1.51600003242 -1.49500000477 157.0
4.58400011063 1.48699998856 -1.49500000477 160.0
4.61000013351 1.46500003338 -1.50100004673 150.0
4.59600019455 1.42900002003 -1.49399995804 155.0
4.57100009918 1.39100003242 -1.48300004005 153.0
4.60799980164 1.3710000515 -1.49300003052 146.0
4.64400005341 1.35099995136 -1.50199997425 155.0
4.61800003052 1.31299996376 -1.49100005627 151.0
4.61800003052 1.28199994564 -1.48899996281 152.0
4.62599992752 1.2539999485 -1.48899996281 153.0
4.66300010681 1.23399996758 -1.49899995327 152.0
4.64599990845 1.19900000095 -1.49100005627 145.0
4.68499994278 1.17900002003 -1.50199997425 150.0
4.69099998474 1.14999997616 -1.50100004673 147.0
4.68300008774 1.11800003052 -1.49699997902 147.0
4.71299982071 1.09500002861 -1.5039999485 136.0
4.69999980927 1.06200003624 -1.49800002575 138.0
4.71199989319 1.03499996662 -1.5 135.0
4.71500015259 1.00600004196 -1.49899995327 133.0
4.73000001907 0.978999972343 -1.50199997425 130.0
0.0250000003725 0.00600000005215 -0.00700000021607 132.0
4.73699998856 0.921000003815 -1.50100004673 129.0
4.75299978256 0.893999993801 -1.50499999523 128.0
4.73500013351 0.861000001431 -1.49699997902 128.0
4.76499986649 0.837000012398 -1.50499999523 116.0
4.77400016785 0.809000015259 -1.50699996948 133.0
4.77600002289 0.77999997139 -1.50600004196 128.0
4.77199983597 0.75 -1.50300002098 119.0
4.76300001144 0.71899998188 -1.49899995327 116.0
4.78599977493 0.693000018597 -1.50499999523 120.0
0.0140000004321 0.00300000002608 -0.00300000002608 116.0
4.79199981689 0.634999990463 -1.5039999485 120.0
4.79300022125 0.606000006199 -1.5039999485 116.0
4.79099988937 0.577000021935 -1.50199997425 115.0
0.0140000004321 0.00300000002608 -0.00300000002608 120.0
0.0179999992251 0.00300000002608 -0.00499999988824 114.0
4.79400014877 0.490000009537 -1.5 115.0
4.80200004578 0.462000012398 -1.50199997425 112.0
4.83400011063 0.43599998951 -1.50999999046 111.0
4.80399990082 0.404000014067 -1.5 107.0
4.82299995422 0.375999987125 -1.50600004196 100.0
4.80100011826 0.345999985933 -1.49800002575 98.0
4.81500005722 0.317999988794 -1.50199997425 90.0
4.84299993515 0.291000008583 -1.50999999046 96.0
0.019999999553 0.00200000009499 -0.00499999988824 97.0
4.84999990463 0.232999995351 -1.51100003719 90.0
4.81699991226 0.202999994159 -1.5 92.0
4.81699991226 0.173999994993 -1.5 89.0
0.0170000009239 0.00200000009499 -0.00400000018999 86.0
4.81699991226 0.115999996662 -1.49899995327 91.0
4.85599994659 0.0879999995232 -1.50999999046 86.0
4.8220000267 0.0590000003576 -1.5 87.0
4.81799983978 0.0299999993294 -1.49800002575 91.0
0.0280000008643 0.00200000009499 -0.00800000037998 86.0
4.84899997711 -0.0270000007004 -1.50800001621 87.0
4.84100008011 -0.0560000017285 -1.50499999523 89.0
0.665000021458 -0.00899999961257 -0.206000000238 178.0
0.954999983311 -0.019999999553 -0.296000003815 963.0
0.888000011444 -0.0240000002086 -0.27500000596 450.0
0.665000021458 -0.0209999997169 -0.206000000238 197.0
0.665000021458 -0.0250000003725 -0.206000000238 205.0
0.711000025272 -0.0309999994934 -0.219999998808 210.0
0.717000007629 -0.0359999984503 -0.222000002861 228.0
0.73400002718 -0.0410000011325 -0.226999998093 253.0
0.76700001955 -0.0480000004172 -0.238000005484 265.0
0.792999982834 -0.0540000014007 -0.246000006795 298.0
0.81400001049 -0.0599999986589 -0.252999991179 325.0
0.84399998188 -0.0680000036955 -0.261999994516 371.0
0.867999970913 -0.0750000029802 -0.268999993801 426.0
0.879999995232 -0.0810000002384 -0.273000001907 480.0
0.903999984264 -0.0890000015497 -0.280999988317 537.0
0.902999997139 -0.0939999967813 -0.280999988317 600.0
0.913999974728 -0.101000003517 -0.284000009298 656.0
0.90600001812 -0.105999998748 -0.282000005245 630.0
0.89200001955 -0.108999997377 -0.277999997139 576.0
0.882000029087 -0.112999998033 -0.27500000596 522.0
0.874000012875 -0.118000000715 -0.273000001907 462.0
0.84500002861 -0.119000002742 -0.263999998569 421.0
0.825999975204 -0.120999999344 -0.25799998641 390.0
0.811999976635 -0.123999997973 -0.254000008106 354.0
0.796000003815 -0.126000002027 -0.248999997973 337.0
0.787000000477 -0.129999995232 -0.246000006795 307.0
0.744000017643 -0.127000004053 -0.232999995351 291.0
0.740999996662 -0.130999997258 -0.231999993324 271.0
0.702000021935 -0.12800000608 -0.219999998808 254.0
0.772000014782 -0.145999997854 -0.241999998689 291.0
0.922999978065 -0.180999994278 -0.289999991655 913.0
0.935000002384 -0.189999997616 -0.293999999762 1065.0
0.930999994278 -0.194999992847 -0.293000012636 1088.0
0.930000007153 -0.20000000298 -0.293000012636 1083.0
0.927999973297 -0.206000000238 -0.293000012636 1099.0
0.934000015259 -0.212999999523 -0.294999986887 1087.0
0.93599998951 -0.218999996781 -0.296000003815 1077.0
0.925999999046 -0.223000004888 -0.293000012636 1076.0
0.934000015259 -0.231000006199 -0.296000003815 1077.0
0.924000024796 -0.233999997377 -0.293000012636 1095.0
0.920000016689 -0.238999992609 -0.291999995708 1080.0
0.921000003815 -0.245000004768 -0.293000012636 1071.0
0.92199999094 -0.252000004053 -0.293999999762 1093.0
0.907000005245 -0.254000008106 -0.28900000453 1011.0
0.785000026226 -0.224000006914 -0.250999987125 368.0
0.577000021935 -0.166999995708 -0.184000000358 201.0
0.566999971867 -0.167999997735 -0.180999994278 204.0
0.597999989986 -0.180999994278 -0.190999999642 208.0
0.564999997616 -0.17499999702 -0.180999994278 209.0
0.552999973297 -0.17499999702 -0.178000003099 210.0
0.569000005722 -0.184000000358 -0.182999998331 213.0
0.57800000906 -0.190999999642 -0.186000004411 206.0
0.570999979973 -0.192000001669 -0.184000000358 201.0
0.561999976635 -0.193000003695 -0.181999996305 215.0
0.542999982834 -0.189999997616 -0.175999999046 206.0
0.550000011921 -0.195999994874 -0.178000003099 213.0
0.541999995708 -0.196999996901 -0.175999999046 208.0
0.759000003338 -0.282999992371 -0.24699999392 387.0
0.888999998569 -0.338999986649 -0.291000008583 978.0
0.89099997282 -0.345999985933 -0.291999995708 1069.0
0.893000006676 -0.352999985218 -0.293000012636 1065.0
0.879000008106 -0.354000002146 -0.28900000453 1051.0
0.883000016212 -0.361999988556 -0.291000008583 1062.0
0.882000029087 -0.368000000715 -0.291000008583 1059.0
0.884999990463 -0.375999987125 -0.293000012636 1043.0
0.879999995232 -0.379999995232 -0.291999995708 1033.0
0.885999977589 -0.388999998569 -0.294999986887 1027.0
0.888000011444 -0.397000014782 -0.296000003815 1019.0
0.878000020981 -0.398999989033 -0.293000012636 991.0
0.870999991894 -0.402999997139 -0.291999995708 963.0
0.85900002718 -0.404000014067 -0.287999987602 850.0
0.683000028133 -0.324999988079 -0.230000004172 342.0
0.524999976158 -0.252999991179 -0.177000001073 225.0
0.505999982357 -0.247999995947 -0.171000003815 232.0
0.488000005484 -0.243000000715 -0.165000006557 228.0
0.535000026226 -0.270000010729 -0.181999996305 225.0
0.476999998093 -0.244000002742 -0.162000000477 239.0
0.512000024319 -0.266999989748 -0.17499999702 226.0
0.509000003338 -0.270000010729 -0.173999994993 246.0
0.546000003815 -0.293999999762 -0.187999993563 244.0
0.563000023365 -0.307999998331 -0.194000005722 254.0
0.577000021935 -0.319999992847 -0.199000000954 264.0
0.632000029087 -0.356999993324 -0.218999996781 287.0
0.790000021458 -0.453999996185 -0.27500000596 499.0
0.802999973297 -0.469000011683 -0.280000001192 582.0
4.15000009537 2.49799990654 -1.51800000668 264.0
4.17299985886 2.47499990463 -1.52100002766 258.0
4.1890001297 2.44799995422 -1.52199995518 256.0
4.20100021362 2.41899991035 -1.52100002766 252.0
4.19999980927 2.38199996948 -1.51600003242 256.0
0.0120000001043 0.00499999988824 -0.00300000002608 242.0
4.242000103 2.33400011063 -1.52100002766 244.0
4.257999897 2.30800008774 -1.52199995518 243.0
0.00700000021607 0.00300000002608 -0.0010000000475 249.0
4.29500007629 2.25699996948 -1.52600002289 244.0
0.0240000002086 0.0109999999404 -0.00700000021607 247.0
4.30800008774 2.19400000572 -1.52199995518 231.0
4.3060002327 2.15799999237 -1.51699995995 239.0
4.33900022507 2.1400001049 -1.52400004864 221.0
4.34499979019 2.10899996758 -1.52199995518 226.0
4.34200000763 2.07399988174 -1.51699995995 218.0
4.375 2.05500006676 -1.52400004864 218.0
4.38700008392 2.02699995041 -1.52400004864 220.0
4.40000009537 1.99899995327 -1.52499997616 219.0
4.40000009537 1.9659999609 -1.52100002766 216.0
4.42700004578 1.94500005245 -1.52600002289 215.0
4.42500019073 1.91100001335 -1.52199995518 210.0
4.44099998474 1.88499999046 -1.52400004864 202.0
4.44999980927 1.85500001907 -1.52300000191 206.0
4.45200014114 1.82400000095 -1.51999998093 199.0
4.47399997711 1.79999995232 -1.52400004864 195.0
4.48099994659 1.77100002766 -1.52300000191 192.0
4.47800016403 1.73699998856 -1.51900005341 186.0
4.50099992752 1.71399998665 -1.52300000191 179.0
4.53800010681 1.69599997997 -1.53199994564 185.0
4.51599979401 1.65600001812 -1.52199995518 178.0
4.54600000381 1.63499999046 -1.52900004387 175.0
4.55000019073 1.60399997234 -1.52699995041 170.0
4.5640001297 1.57799994946 -1.52900004387 172.0
4.5689997673 1.54799997807 -1.52699995041 165.0
4.57299995422 1.51800000668 -1.52600002289 165.0
4.59299993515 1.49300003052 -1.52999997139 160.0
4.59899997711 1.46399998665 -1.52900004387 159.0
4.58599996567 1.42900002003 -1.52199995518 156.0
4.62200021744 1.4090000391 -1.53100001812 157.0
4.60400009155 1.37199997902 -1.52300000191 156.0
4.62799978256 1.34899997711 -1.52799999714 160.0
4.59800004959 1.30900001526 -1.51600003242 149.0
4.60799980164 1.28199994564 -1.51699995995 150.0
4.59200000763 1.24699997902 -1.50899994373 154.0
4.63800001144 1.22899997234 -1.52199995518 152.0
4.66800022125 1.20700001717 -1.52999997139 149.0
4.6890001297 1.18200004101 -1.5340000391 153.0
4.67500019073 1.14800000191 -1.52799999714 150.0
4.69600009918 1.12300002575 -1.53199994564 152.0
0.00600000005215 0.00200000009499 -0.0010000000475 145.0
0.0140000004321 0.00400000018999 -0.00300000002608 140.0
0.00600000005215 0.00200000009499 -0.0010000000475 132.0
4.6890001297 1.00199997425 -1.52199995518 128.0
4.6970000267 0.973999977112 -1.52300000191 134.0
4.72499990463 0.949999988079 -1.52999997139 131.0
4.71099996567 0.916999995708 -1.52400004864 126.0
4.74399995804 0.893999993801 -1.53299999237 133.0
4.742000103 0.864000022411 -1.53100001812 129.0
4.75099992752 0.836000025272 -1.53199994564 123.0
4.74700021744 0.805999994278 -1.52900004387 125.0
4.76000022888 0.777999997139 -1.53199994564 122.0
4.78000020981 0.751999974251 -1.53699994087 113.0
4.77299976349 0.722000002861 -1.53299999237 116.0
4.79600000381 0.695999979973 -1.53999996185 118.0
4.76399993896 0.662000000477 -1.52799999714 117.0
0.0280000008643 0.00499999988824 -0.00800000037998 111.0
4.78399991989 0.606000006199 -1.53199994564 113.0
4.80700016022 0.579999983311 -1.5379999876 114.0
4.79099988937 0.547999978065 -1.53199994564 120.0
4.79400014877 0.519999980927 -1.53199994564 116.0
4.76999998093 0.488000005484 -1.52300000191 110.0
4.80999994278 0.462999999523 -1.53499996662 115.0
4.82600021362 0.435000002384 -1.53900003433 101.0
4.80200004578 0.404000014067 -1.53100001812 108.0
4.78000020981 0.374000012875 -1.52300000191 98.0
4.78900003433 0.344999998808 -1.52499997616 103.0
4.83300018311 0.319000005722 -1.53900003433 99.0
4.82299995422 0.289999991655 -1.53499996662 94.0
4.82600021362 0.261000007391 -1.53499996662 95.0
4.8060002327 0.231000006199 -1.52799999714 94.0
0.00999999977648 0.00200000009499 -0.00200000009499 93.0
4.83799982071 0.17499999702 -1.53699994087 95.0
4.81599998474 0.144999995828 -1.52999997139 99.0
4.84499979019 0.116999998689 -1.53900003433 89.0
0.019999999553 0.00200000009499 -0.00499999988824 89.0
0.0340000018477 0.00200000009499 -0.00999999977648 95.0
0.0399999991059 0.00200000009499 -0.0120000001043 90.0
4.83699989319 0.0010000000475 -1.53499996662 96.0
0.00899999961257 0.00200000009499 -0.00200000009499 92.0
0.0189999993891 0.00200000009499 -0.00499999988824 98.0
0.657000005245 -0.00899999961257 -0.208000004292 198.0
0.957000017166 -0.019999999553 -0.303000003099 961.0
0.878000020981 -0.0240000002086 -0.277999997139 422.0
0.64099997282 -0.019999999553 -0.202999994159 193.0
0.643000006676 -0.0240000002086 -0.202999994159 194.0
0.638000011444 -0.0280000008643 -0.202000007033 200.0
0.644999980927 -0.0320000015199 -0.203999996185 193.0
0.638999998569 -0.035000000149 -0.202000007033 192.0
0.619000017643 -0.0379999987781 -0.195999994874 201.0
0.638000011444 -0.0430000014603 -0.202000007033 193.0
0.625999987125 -0.0460000000894 -0.197999998927 194.0
0.639999985695 -0.0509999990463 -0.202999994159 197.0
0.629999995232 -0.0540000014007 -0.199000000954 198.0
0.644999980927 -0.0590000003576 -0.203999996185 198.0
0.646000027657 -0.0630000010133 -0.204999998212 202.0
0.79699999094 -0.082999996841 -0.252999991179 306.0
0.941999971867 -0.104999996722 -0.298999994993 1007.0
0.947000026703 -0.111000001431 -0.300999999046 1112.0
0.949999988079 -0.116999998689 -0.301999986172 1106.0
0.952000021935 -0.123000003397 -0.303000003099 1086.0
0.944999992847 -0.12800000608 -0.300999999046 1093.0
0.940999984741 -0.133000001311 -0.300000011921 1077.0
0.93900001049 -0.138999998569 -0.298999994993 1064.0
0.945999979973 -0.144999995828 -0.301999986172 1038.0
0.936999976635 -0.15000000596 -0.298999994993 1021.0
0.936999976635 -0.155000001192 -0.298999994993 996.0
0.936999976635 -0.16099999845 -0.300000011921 978.0
0.925999999046 -0.165000006557 -0.296000003815 941.0
0.920000016689 -0.170000001788 -0.293999999762 912.0
0.916000008583 -0.17499999702 -0.293000012636 812.0
0.856000006199 -0.167999997735 -0.27500000596 432.0
0.82800000906 -0.167999997735 -0.266000002623 389.0
0.833000004292 -0.173999994993 -0.268000006676 401.0
0.833999991417 -0.180000007153 -0.268000006676 433.0
0.848999977112 -0.187999993563 -0.273000001907 455.0
0.848999977112 -0.194000005722 -0.273999989033 471.0
0.84500002861 -0.197999998927 -0.273000001907 489.0
0.850000023842 -0.204999998212 -0.27500000596 503.0
0.862999975681 -0.212999999523 -0.279000014067 533.0
0.861000001431 -0.218999996781 -0.279000014067 547.0
0.865000009537 -0.22499999404 -0.280999988317 563.0
0.873000025749 -0.232999995351 -0.284000009298 583.0
0.870000004768 -0.238000005484 -0.282999992371 599.0
0.862999975681 -0.240999996662 -0.280999988317 608.0
0.847000002861 -0.243000000715 -0.275999993086 553.0
0.860000014305 -0.252000004053 -0.280999988317 545.0
0.853999972343 -0.256000012159 -0.279000014067 545.0
0.847999989986 -0.259999990463 -0.277999997139 522.0
0.828999996185 -0.259000003338 -0.272000014782 519.0
0.841000020504 -0.268999993801 -0.275999993086 509.0
0.837000012398 -0.273000001907 -0.27500000596 507.0
0.825999975204 -0.27500000596 -0.272000014782 496.0
0.825999975204 -0.280999988317 -0.273000001907 498.0
0.819000005722 -0.284000009298 -0.270999997854 485.0
0.827000021935 -0.291999995708 -0.273999989033 490.0
0.810000002384 -0.291999995708 -0.268999993801 480.0
0.809000015259 -0.29699999094 -0.268999993801 491.0
0.833999991417 -0.312999993563 -0.277999997139 579.0
0.860000014305 -0.328999996185 -0.287000000477 721.0
0.855000019073 -0.333000004292 -0.286000013351 712.0
0.861000001431 -0.340999990702 -0.287999987602 692.0
0.852999985218 -0.344000011683 -0.286000013351 681.0
0.852999985218 -0.34999999404 -0.287000000477 683.0
0.838999986649 -0.351000010967 -0.282999992371 669.0
0.847999989986 -0.361000001431 -0.287000000477 657.0
0.82800000906 -0.358000010252 -0.280000001192 624.0
0.841000020504 -0.370000004768 -0.286000013351 623.0
0.824999988079 -0.368999987841 -0.280999988317 593.0
0.810000002384 -0.368999987841 -0.275999993086 573.0
0.800999999046 -0.370999991894 -0.273999989033 553.0
0.796000003815 -0.374000012875 -0.273000001907 497.0
0.795000016689 -0.379999995232 -0.273000001907 518.0
0.81099998951 -0.393999993801 -0.279000014067 541.0
0.799000024796 -0.395000010729 -0.275999993086 560.0
0.805999994278 -0.405000001192 -0.279000014067 548.0
0.805000007153 -0.409999996424 -0.279000014067 561.0
0.802999973297 -0.416000008583 -0.280000001192 574.0
0.819000005722 -0.430999994278 -0.286000013351 584.0
0.797999978065 -0.426999986172 -0.280000001192 590.0
0.804000020027 -0.43599998951 -0.282000005245 599.0
0.81400001049 -0.448000013828 -0.287000000477 605.0
0.81099998951 -0.453999996185 -0.287000000477 624.0
0.813000023365 -0.462000012398 -0.287999987602 642.0
0.71899998188 -0.41400000453 -0.256000012159 391.0
0.563000023365 -0.326999992132 -0.20000000298 265.0
4.14200019836 2.49900007248 -1.54700005054 265.0
4.15899991989 2.47199988365 -1.54700005054 260.0
0.0140000004321 0.00700000021607 -0.00400000018999 257.0
0.0299999993294 0.01600000076 -0.00999999977648 258.0
0.0219999998808 0.0109999999404 -0.00700000021607 266.0
4.21000003815 2.35700011253 -1.54600000381 252.0
0.01600000076 0.00800000037998 -0.00499999988824 254.0
4.21700000763 2.28999996185 -1.53900003433 249.0
4.27099990845 2.28399991989 -1.55400002003 251.0
0.00899999961257 0.00400000018999 -0.00200000009499 248.0
4.29899978638 2.22799992561 -1.55400002003 247.0
0.00499999988824 0.00200000009499 -0.0010000000475 235.0
4.31799983978 2.16799998283 -1.55200004578 234.0
4.32600021362 2.13800001144 -1.55099999905 233.0
4.33699989319 2.10899996758 -1.54999995232 235.0
4.367000103 2.08899998665 -1.55700004101 222.0
4.35699987411 2.05100011826 -1.5490000248 223.0
4.36299991608 2.01999998093 -1.54700005054 226.0
4.38899993896 1.99800002575 -1.55200004578 226.0
4.39499998093 1.96800005436 -1.55099999905 229.0
4.38500022888 1.92999994755 -1.54299998283 218.0
4.42999982834 1.91600000858 -1.55499994755 212.0
4.44099998474 1.88800001144 -1.55499994755 208.0
4.44099998474 1.85500001907 -1.55099999905 207.0
4.46700000763 1.83299994469 -1.55700004101 210.0
4.45200014114 1.79400002956 -1.54799997807 198.0
4.47800016403 1.77300000191 -1.55400002003 194.0
4.47700023651 1.74000000954 -1.54999995232 200.0
4.48500013351 1.71099996567 -1.5490000248 195.0
4.52799987793 1.69500005245 -1.56099998951 190.0
4.48999977112 1.64900004864 -1.54400002956 186.0
4.52400016785 1.62999999523 -1.5529999733 186.0
4.52099990845 1.59700000286 -1.5490000248 176.0
4.51800012589 1.56400001049 -1.54499995708 165.0
4.5689997673 1.54999995232 -1.55900001526 171.0
4.58099985123 1.52300000191 -1.55999994278 163.0
4.54899978638 1.48099994659 -1.54600000381 161.0
4.5720000267 1.45799994469 -1.55200004578 165.0
4.57999992371 1.42900002003 -1.55099999905 162.0
4.59000015259 1.40100002289 -1.55200004578 161.0
4.60799980164 1.37600004673 -1.55599999428 157.0
4.59600019455 1.3409999609 -1.5490000248 160.0
4.60099983215 1.31200003624 -1.54799997807 161.0
4.617000103 1.28600001335 -1.55099999905 155.0
4.58500003815 1.24699997902 -1.5379999876 147.0
4.62599992752 1.22800004482 -1.5490000248 150.0
4.67500019073 1.21099996567 -1.56400001049 143.0
4.66900014877 1.17900002003 -1.55900001526 148.0
4.69199991226 1.15400004387 -1.56500005722 149.0
4.66699981689 1.11800003052 -1.55400002003 146.0
4.67399978638 1.08899998665 -1.55400002003 146.0
4.6939997673 1.06400001049 -1.55900001526 146.0
4.71099996567 1.0379999876 -1.56299996376 137.0
4.72300004959 1.00999999046 -1.56500005722 136.0
4.69799995422 0.975000023842 -1.55499994755 131.0
0.0109999999404 0.00300000002608 -0.00300000002608 131.0
4.73699998856 0.924000024796 -1.56400001049 129.0
4.73000001907 0.893000006676 -1.55999994278 128.0
4.72599983215 0.861999988556 -1.55700004101 126.0
4.71700000763 0.830999970436 -1.55200004578 123.0
4.74300003052 0.805999994278 -1.55900001526 119.0
4.74399995804 0.777000010014 -1.55799996853 119.0
4.75500011444 0.749000012875 -1.56099998951 122.0
4.77500009537 0.722999989986 -1.56599998474 119.0
4.77400016785 0.693000018597 -1.56400001049 121.0
0.00600000005215 0.00200000009499 -0.0010000000475 123.0
4.77299976349 0.634999990463 -1.56099998951 119.0
4.79899978638 0.60900002718 -1.56799995899 115.0
4.79600000381 0.578999996185 -1.56599998474 119.0
4.80000019073 0.550000011921 -1.56700003147 119.0
4.79699993134 0.521000027657 -1.56400001049 116.0
0.0189999993891 0.00300000002608 -0.00499999988824 121.0
0.0120000001043 0.00200000009499 -0.00300000002608 108.0
4.79300022125 0.432999998331 -1.55999994278 118.0
4.80999994278 0.405000001192 -1.56500005722 107.0
0.0179999992251 0.00300000002608 -0.00499999988824 101.0
0.00600000005215 0.00200000009499 -0.0010000000475 103.0
4.8029999733 0.317999988794 -1.56099998951 99.0
0.0270000007004 0.00300000002608 -0.00800000037998 100.0
4.82399988174 0.261000007391 -1.56599998474 101.0
4.82700014114 0.231999993324 -1.56599998474 100.0
