ply
format ascii 1.0
element vertex 918
property float x
property float y
property float z
property float intensity
end_header
4.05999994278 0.5 -0.142000004649 133.0
4.12200021744 0.483000010252 -0.143999993801 112.0
4.41400003433 0.49200001359 -0.153999999166 75.0
4.61600017548 0.486999988556 -0.159999996424 70.0
4.55200004578 0.453999996185 -0.158000007272 77.0
4.61600017548 0.432999998331 -0.159999996424 72.0
4.632999897 0.407999992371 -0.159999996424 67.0
4.61800003052 0.379999995232 -0.159999996424 68.0
4.64799976349 0.354999989271 -0.16099999845 65.0
4.66499996185 0.330000013113 -0.16099999845 61.0
4.617000103 0.300000011921 -0.158999994397 72.0
4.61899995804 0.273000001907 -0.158999994397 68.0
4.65100002289 0.247999995947 -0.159999996424 70.0
4.69000005722 0.223000004888 -0.16099999845 69.0
4.67899990082 0.195999994874 -0.16099999845 68.0
4.69600009918 0.168999999762 -0.16099999845 67.0
4.68800020218 0.142000004649 -0.16099999845 62.0
4.70699977875 0.115999996662 -0.16099999845 60.0
4.71999979019 0.0890000015497 -0.16099999845 63.0
4.76800012589 0.0619999989867 -0.163000002503 60.0
4.69899988174 0.0340000018477 -0.159999996424 67.0
4.81799983978 0.00700000021607 -0.16400000453 58.0
4.74700021744 -0.0189999993891 -0.162000000477 59.0
4.73099994659 -0.0460000000894 -0.16099999845 59.0
4.79300022125 -0.0740000009537 -0.163000002503 59.0
4.83400011063 -0.103000000119 -0.16400000453 55.0
4.82299995422 -0.129999995232 -0.16400000453 60.0
4.85099983215 -0.158999994397 -0.165000006557 59.0
4.83799982071 -0.186000004411 -0.16400000453 51.0
4.94899988174 -0.218999996781 -0.167999997735 56.0
4.89200019836 -0.245000004768 -0.165999993682 54.0
2.36299991608 -0.158000007272 -0.0799999982119 53.0
0.907000005245 -0.105999998748 -0.0309999994934 774.0
0.903999984264 -0.111000001431 -0.0309999994934 1774.0
0.90600001812 -0.115999996662 -0.0309999994934 1847.0
0.90499997139 -0.120999999344 -0.0309999994934 1837.0
0.901000022888 -0.126000002027 -0.0309999994934 1838.0
0.898000001907 -0.130999997258 -0.0309999994934 1837.0
0.898999989033 -0.136000007391 -0.0309999994934 1788.0
0.901000022888 -0.142000004649 -0.0309999994934 1853.0
0.896000027657 -0.146999999881 -0.0309999994934 1850.0
0.901000022888 -0.152999997139 -0.0309999994934 1846.0
0.898000001907 -0.158000007272 -0.0309999994934 1848.0
0.897000014782 -0.163000002503 -0.0309999994934 1850.0
0.894999980927 -0.167999997735 -0.0299999993294 1829.0
0.894999980927 -0.172999992967 -0.0309999994934 1767.0
0.893000006676 -0.178000003099 -0.0299999993294 1794.0
0.893000006676 -0.182999998331 -0.0299999993294 1801.0
0.889999985695 -0.187999993563 -0.0299999993294 1783.0
0.888999998569 -0.193000003695 -0.0299999993294 1800.0
0.888000011444 -0.199000000954 -0.0299999993294 1796.0
0.889999985695 -0.203999996185 -0.0299999993294 1862.0
0.888000011444 -0.209000006318 -0.0299999993294 1820.0
0.887000024319 -0.215000003576 -0.0299999993294 1778.0
0.885999977589 -0.219999998808 -0.0299999993294 1798.0
0.885999977589 -0.22499999404 -0.0299999993294 1931.0
0.882000029087 -0.230000004172 -0.0299999993294 1996.0
0.885999977589 -0.236000001431 -0.0299999993294 1946.0
0.879000008106 -0.239999994636 -0.0299999993294 1937.0
0.883000016212 -0.246000006795 -0.0299999993294 1948.0
0.879999995232 -0.250999987125 -0.0299999993294 1943.0
0.870999991894 -0.254000008106 -0.0299999993294 1956.0
0.879000008106 -0.261999994516 -0.0299999993294 1945.0
0.878000020981 -0.266999989748 -0.0299999993294 1961.0
0.870000004768 -0.270000010729 -0.0299999993294 1945.0
0.874000012875 -0.277000010014 -0.0299999993294 1988.0
0.874000012875 -0.282999992371 -0.0299999993294 1937.0
0.873000025749 -0.287999987602 -0.0299999993294 1915.0
0.870999991894 -0.293999999762 -0.0299999993294 1897.0
0.869000017643 -0.298999994993 -0.0299999993294 1863.0
0.867999970913 -0.303999990225 -0.0299999993294 1878.0
0.871999979019 -0.31099998951 -0.0299999993294 1859.0
0.864000022411 -0.31400001049 -0.0299999993294 1923.0
0.865000009537 -0.319999992847 -0.0299999993294 1856.0
0.869000017643 -0.32800000906 -0.0299999993294 1850.0
0.864000022411 -0.331999987364 -0.0299999993294 1826.0
0.860000014305 -0.33599999547 -0.0299999993294 1847.0
0.865000009537 -0.344000011683 -0.0299999993294 1827.0
0.861999988556 -0.349000006914 -0.0299999993294 1800.0
0.864000022411 -0.354999989271 -0.0299999993294 1797.0
0.856999993324 -0.358999997377 -0.0299999993294 1847.0
0.860000014305 -0.365999996662 -0.0299999993294 1901.0
0.851999998093 -0.368999987841 -0.0299999993294 1931.0
0.853999972343 -0.375999987125 -0.0299999993294 1935.0
0.855000019073 -0.381999999285 -0.0299999993294 1973.0
0.851000010967 -0.386999994516 -0.0299999993294 1988.0
0.853999972343 -0.393999993801 -0.0299999993294 2005.0
0.851999998093 -0.40000000596 -0.0299999993294 1994.0
0.848999977112 -0.405000001192 -0.0299999993294 2008.0
0.853999972343 -0.412999987602 -0.0299999993294 1992.0
0.846000015736 -0.416000008583 -0.0299999993294 1942.0
0.847000002861 -0.423000007868 -0.0299999993294 1921.0
0.846000015736 -0.428999990225 -0.0299999993294 1948.0
0.847999989986 -0.437000006437 -0.0299999993294 1970.0
0.84399998188 -0.441000014544 -0.0299999993294 1890.0
0.839999973774 -0.446000009775 -0.0299999993294 1898.0
0.847000002861 -0.456000000238 -0.0299999993294 1920.0
0.842999994755 -0.46099999547 -0.0299999993294 1871.0
0.841000020504 -0.465999990702 -0.0299999993294 1901.0
1.71399998665 0.98299998045 -0.082000002265 205.0
1.7460000515 0.986999988556 -0.082999996841 212.0
1.79299998283 0.998000025749 -0.0850000008941 209.0
1.81700003147 0.996999979019 -0.0860000029206 194.0
1.97500002384 1.06799995899 -0.0930000022054 119.0
2.06100010872 1.09800004959 -0.097000002861 122.0
2.02800011635 1.06400001049 -0.0949999988079 101.0
2.05399990082 1.06200003624 -0.0960000008345 133.0
2.05900001526 1.0490000248 -0.0960000008345 206.0
2.1210000515 1.06400001049 -0.097999997437 293.0
2.08699989319 1.03100001812 -0.0960000008345 296.0
2.11100006104 1.02699995041 -0.097000002861 286.0
2.09800004959 1.00499999523 -0.0960000008345 180.0
2.12400007248 1.00100004673 -0.097000002861 116.0
2.18799996376 1.01499998569 -0.10000000149 196.0
2.20499992371 1.00699996948 -0.10000000149 372.0
2.23399996758 1.0039999485 -0.101000003517 203.0
2.23699998856 0.989000022411 -0.101000003517 96.0
3.09100008011 1.06700003147 -0.134000003338 69.0
3.27399992943 1.06599998474 -0.141000002623 95.0
3.31299996376 1.05700004101 -0.143000006676 82.0
3.45199990273 1.07899999619 -0.148000001907 74.0
3.78699994087 1.1590000391 -0.162000000477 69.0
3.757999897 1.12600004673 -0.16099999845 112.0
3.757999897 1.10199999809 -0.159999996424 112.0
3.8259999752 1.09800004959 -0.163000002503 94.0
3.867000103 1.08500003815 -0.16400000453 111.0
3.91499996185 1.07400000095 -0.165999993682 118.0
4.07100009918 1.0909999609 -0.172000005841 114.0
4.09000015259 1.07000005245 -0.172999992967 135.0
4.05800008774 1.03699994087 -0.171000003815 129.0
4.12599992752 1.02799999714 -0.173999994993 124.0
4.14499998093 1.00699996948 -0.173999994993 131.0
4.10699987411 0.972999989986 -0.172000005841 104.0
4.117000103 0.949999988079 -0.172000005841 122.0
4.14900016785 0.931999981403 -0.172999992967 125.0
4.12799978256 0.902000010014 -0.172000005841 130.0
4.11600017548 0.874000012875 -0.171000003815 126.0
4.09000015259 0.84399998188 -0.170000001788 129.0
4.09200000763 0.819999992847 -0.170000001788 133.0
4.10200023651 0.79699999094 -0.170000001788 128.0
4.12400007248 0.776000022888 -0.171000003815 133.0
4.14400005341 0.754999995232 -0.171000003815 131.0
4.13500022888 0.728999972343 -0.170000001788 138.0
4.08300018311 0.695999979973 -0.167999997735 127.0
4.12099981308 0.676999986172 -0.168999999762 120.0
4.09299993515 0.648000001907 -0.167999997735 136.0
4.09100008011 0.624000012875 -0.167999997735 137.0
4.10200023651 0.601000010967 -0.167999997735 134.0
4.10400009155 0.577000021935 -0.167999997735 138.0
4.12099981308 0.555999994278 -0.167999997735 126.0
4.08099985123 0.526000022888 -0.165999993682 120.0
4.11299991608 0.505999982357 -0.166999995708 134.0
4.132999897 0.485000014305 -0.167999997735 113.0
4.48600006104 0.5 -0.181999996305 76.0
4.59399986267 0.485000014305 -0.186000004411 64.0
4.60599994659 0.458999991417 -0.187000006437 79.0
4.60300016403 0.432000011206 -0.186000004411 76.0
4.56799983978 0.402000010014 -0.185000002384 70.0
4.63999986649 0.381999999285 -0.187000006437 64.0
4.63800001144 0.354999989271 -0.187000006437 68.0
4.63899993896 0.32800000906 -0.187000006437 62.0
4.67100000381 0.303000003099 -0.187999993563 68.0
4.63999986649 0.273999989033 -0.187000006437 68.0
4.58500003815 0.245000004768 -0.184000000358 66.0
4.66400003433 0.222000002861 -0.187000006437 68.0
4.67600011826 0.194999992847 -0.187999993563 62.0
4.70399999619 0.170000001788 -0.187999993563 63.0
4.69899988174 0.142000004649 -0.187999993563 67.0
4.73799991608 0.115999996662 -0.189999997616 61.0
4.73199987411 0.0890000015497 -0.188999995589 64.0
4.71899986267 0.0610000006855 -0.187999993563 59.0
4.79699993134 0.035000000149 -0.190999999642 62.0
4.71299982071 0.00700000021607 -0.187999993563 57.0
4.78399991989 -0.0189999993891 -0.190999999642 61.0
4.79500007629 -0.0469999983907 -0.190999999642 58.0
4.79699993134 -0.0750000029802 -0.190999999642 60.0
4.85099983215 -0.103000000119 -0.193000003695 58.0
4.87099981308 -0.131999999285 -0.194000005722 60.0
4.84299993515 -0.158999994397 -0.192000001669 59.0
4.8140001297 -0.186000004411 -0.190999999642 55.0
4.82800006866 -0.21400000155 -0.192000001669 56.0
4.90500020981 -0.246000006795 -0.194999992847 52.0
0.90600001812 -0.105999998748 -0.0359999984503 803.0
0.90499997139 -0.111000001431 -0.0359999984503 1792.0
0.903999984264 -0.115999996662 -0.0359999984503 1861.0
0.899999976158 -0.120999999344 -0.0359999984503 1942.0
0.899999976158 -0.126000002027 -0.0359999984503 1849.0
0.899999976158 -0.130999997258 -0.0359999984503 1842.0
0.899999976158 -0.136999994516 -0.0359999984503 1746.0
0.901000022888 -0.142000004649 -0.0359999984503 1847.0
0.896000027657 -0.146999999881 -0.0359999984503 1877.0
0.894999980927 -0.151999995112 -0.0359999984503 1836.0
0.898000001907 -0.158000007272 -0.0359999984503 1869.0
0.898999989033 -0.163000002503 -0.0359999984503 1869.0
0.89200001955 -0.166999995708 -0.0359999984503 1864.0
0.894999980927 -0.172999992967 -0.0359999984503 1854.0
0.89099997282 -0.178000003099 -0.0359999984503 1802.0
0.89099997282 -0.182999998331 -0.0359999984503 1845.0
0.887000024319 -0.187999993563 -0.035000000149 1898.0
0.889999985695 -0.194000005722 -0.0359999984503 1860.0
0.888999998569 -0.199000000954 -0.0359999984503 1801.0
0.89200001955 -0.204999998212 -0.0359999984503 1888.0
0.887000024319 -0.209000006318 -0.035000000149 1855.0
0.883000016212 -0.21400000155 -0.035000000149 1801.0
0.884000003338 -0.218999996781 -0.035000000149 1787.0
0.876999974251 -0.223000004888 -0.035000000149 1901.0
0.876999974251 -0.229000002146 -0.035000000149 2009.0
0.878000020981 -0.233999997377 -0.035000000149 1987.0
0.879999995232 -0.239999994636 -0.035000000149 1927.0
0.884000003338 -0.24699999392 -0.0359999984503 1972.0
0.879999995232 -0.250999987125 -0.035000000149 1938.0
0.875999987125 -0.256000012159 -0.035000000149 1905.0
0.875 -0.261000007391 -0.035000000149 1960.0
0.873000025749 -0.266000002623 -0.035000000149 1980.0
0.873000025749 -0.270999997854 -0.035000000149 1896.0
0.875 -0.277999997139 -0.035000000149 1964.0
0.871999979019 -0.282000005245 -0.035000000149 1881.0
0.873000025749 -0.287999987602 -0.035000000149 1887.0
0.874000012875 -0.294999986887 -0.035000000149 1908.0
0.869000017643 -0.298999994993 -0.035000000149 1899.0
0.873000025749 -0.305999994278 -0.035000000149 1917.0
0.866999983788 -0.310000002384 -0.035000000149 1930.0
0.867999970913 -0.314999997616 -0.035000000149 1942.0
0.869000017643 -0.321999996901 -0.035000000149 1887.0
0.864000022411 -0.326000005007 -0.035000000149 1837.0
0.864000022411 -0.331999987364 -0.035000000149 1827.0
0.860000014305 -0.33599999547 -0.035000000149 1863.0
0.864000022411 -0.344000011683 -0.035000000149 1847.0
0.865999996662 -0.34999999404 -0.035000000149 1811.0
0.862999975681 -0.354999989271 -0.035000000149 1800.0
0.856000006199 -0.358000010252 -0.035000000149 1860.0
0.856000006199 -0.363999992609 -0.035000000149 1927.0
0.852999985218 -0.368999987841 -0.035000000149 1948.0
0.853999972343 -0.375999987125 -0.035000000149 1948.0
0.848999977112 -0.379999995232 -0.035000000149 1999.0
0.851000010967 -0.386999994516 -0.035000000149 2005.0
0.851999998093 -0.393999993801 -0.035000000149 2027.0
0.851999998093 -0.40000000596 -0.035000000149 2033.0
0.851000010967 -0.405999988317 -0.035000000149 2000.0
0.847000002861 -0.409999996424 -0.035000000149 2022.0
0.84500002861 -0.416000008583 -0.035000000149 1979.0
0.851999998093 -0.425999999046 -0.0359999984503 1936.0
0.842999994755 -0.428000003099 -0.035000000149 1960.0
0.84399998188 -0.433999985456 -0.035000000149 1964.0
0.847000002861 -0.442999988794 -0.0359999984503 1916.0
0.842000007629 -0.446999996901 -0.035000000149 1932.0
0.842999994755 -0.453999996185 -0.0359999984503 1933.0
0.841000020504 -0.460000008345 -0.0359999984503 1905.0
0.842000007629 -0.467000007629 -0.0359999984503 1937.0
1.73599994183 0.995999991894 -0.0949999988079 224.0
1.77199995518 1.00199997425 -0.0960000008345 143.0
1.80599999428 1.00600004196 -0.097999997437 134.0
1.81799995899 0.998000025749 -0.097999997437 122.0
1.99300003052 1.06200003624 -0.107000000775 75.0
1.97099995613 1.03499996662 -0.104999996722 98.0
2.08599996567 1.07899999619 -0.111000001431 149.0
2.09299993515 1.06599998474 -0.111000001431 220.0
2.11100006104 1.05900001526 -0.111000001431 220.0
2.10400009155 1.03999996185 -0.111000001431 220.0
2.10299992561 1.02300000191 -0.109999999404 218.0
2.12400007248 1.01800000668 -0.111000001431 134.0
2.09599995613 0.987999975681 -0.108999997377 95.0
2.18099999428 1.01199996471 -0.112999998033 159.0
2.21099996567 1.00999999046 -0.11400000006 297.0
2.25300002098 1.01300001144 -0.115999996662 163.0
2.31200003624 1.02199995518 -0.119000002742 86.0
3.0759999752 1.06200003624 -0.151999995112 66.0
3.31100010872 1.07799994946 -0.163000002503 93.0
3.38800001144 1.08099997044 -0.165999993682 84.0
3.42899990082 1.0720000267 -0.167999997735 76.0
3.77500009537 1.15499997139 -0.184000000358 57.0
3.72799992561 1.11699998379 -0.181999996305 96.0
3.77099990845 1.10599994659 -0.184000000358 114.0
3.83100008965 1.09899997711 -0.186000004411 96.0
3.90199995041 1.09500002861 -0.188999995589 105.0
3.98099994659 1.09200000763 -0.193000003695 121.0
4.10200023651 1.09899997711 -0.197999998927 106.0
4.13800001144 1.08299994469 -0.199000000954 133.0
4.12599992752 1.05400002003 -0.197999998927 126.0
4.10900020599 1.02400004864 -0.196999996901 133.0
4.12799978256 1.00300002098 -0.197999998927 131.0
4.08799982071 0.96899998188 -0.195999994874 109.0
4.07499980927 0.939999997616 -0.194999992847 127.0
4.14300012589 0.930999994278 -0.197999998927 130.0
4.12900018692 0.902000010014 -0.196999996901 125.0
4.15199995041 0.882000029087 -0.196999996901 124.0
4.12400007248 0.851000010967 -0.195999994874 127.0
4.07100009918 0.815999984741 -0.193000003695 134.0
4.14599990845 0.805999994278 -0.195999994874 130.0
4.11600017548 0.774999976158 -0.194000005722 124.0
4.08500003815 0.745000004768 -0.193000003695 126.0
4.11999988556 0.726000010967 -0.194000005722 129.0
4.14499998093 0.705999970436 -0.194999992847 122.0
4.09899997711 0.674000024796 -0.192000001669 120.0
4.14200019836 0.65600001812 -0.194000005722 134.0
4.12599992752 0.629000008106 -0.193000003695 138.0
4.10500001907 0.601999998093 -0.192000001669 128.0
4.11499977112 0.578999996185 -0.192000001669 136.0
4.10799980164 0.554000020027 -0.192000001669 121.0
4.15500020981 0.536000013351 -0.194000005722 115.0
4.117000103 0.507000029087 -0.192000001669 124.0
4.1360001564 0.485000014305 -0.192000001669 102.0
4.40899991989 0.490999996662 -0.204999998212 78.0
4.58699989319 0.483999997377 -0.212999999523 72.0
4.61299991608 0.460000008345 -0.21400000155 77.0
4.64099979401 0.43599998951 -0.215000003576 72.0
4.57700014114 0.402999997139 -0.211999997497 70.0
4.65500020981 0.356000006199 -0.215000003576 69.0
4.66900014877 0.330000013113 -0.215000003576 66.0
4.64300012589 0.300999999046 -0.21400000155 69.0
4.65500020981 0.27500000596 -0.21400000155 68.0
4.61600017548 0.246000006795 -0.211999997497 66.0
4.67899990082 0.222000002861 -0.215000003576 66.0
4.68800020218 0.195999994874 -0.215000003576 66.0
4.65299987793 0.167999997735 -0.212999999523 67.0
4.71500015259 0.143000006676 -0.216000005603 62.0
4.75199985504 0.115999996662 -0.217999994755 64.0
4.75 0.0890000015497 -0.216999992728 67.0
4.69099998474 0.0610000006855 -0.21400000155 59.0
4.74100017548 0.0340000018477 -0.216999992728 64.0
4.79500007629 0.00700000021607 -0.218999996781 56.0
4.83099985123 -0.019999999553 -0.219999998808 59.0
4.75899982452 -0.0469999983907 -0.216999992728 62.0
4.85900020599 -0.0759999975562 -0.221000000834 58.0
4.83199977875 -0.103000000119 -0.219999998808 60.0
4.78399991989 -0.129999995232 -0.217999994755 62.0
4.84100008011 -0.158999994397 -0.219999998808 60.0
4.84399986267 -0.187000006437 -0.219999998808 58.0
4.92199993134 -0.217999994755 -0.224000006914 51.0
4.87400007248 -0.244000002742 -0.222000002861 53.0
0.912000000477 -0.107000000775 -0.0419999994338 857.0
0.90499997139 -0.111000001431 -0.0410000011325 1809.0
0.90600001812 -0.115999996662 -0.0410000011325 1844.0
0.898000001907 -0.120999999344 -0.0410000011325 1971.0
0.899999976158 -0.126000002027 -0.0410000011325 1932.0
0.899999976158 -0.130999997258 -0.0410000011325 1901.0
0.898999989033 -0.136999994516 -0.0410000011325 1769.0
0.897000014782 -0.142000004649 -0.0410000011325 1832.0
0.898000001907 -0.146999999881 -0.0410000011325 1875.0
0.896000027657 -0.151999995112 -0.0410000011325 1844.0
0.898000001907 -0.158000007272 -0.0410000011325 1911.0
0.896000027657 -0.163000002503 -0.0410000011325 1916.0
0.897000014782 -0.167999997735 -0.0410000011325 1879.0
0.893999993801 -0.172999992967 -0.0410000011325 1844.0
0.893000006676 -0.178000003099 -0.0410000011325 1844.0
0.89200001955 -0.182999998331 -0.0410000011325 1847.0
0.889999985695 -0.187999993563 -0.0410000011325 1963.0
0.888000011444 -0.193000003695 -0.0410000011325 1863.0
0.889999985695 -0.199000000954 -0.0410000011325 1809.0
0.89099997282 -0.204999998212 -0.0410000011325 1897.0
0.884000003338 -0.208000004292 -0.0410000011325 1902.0
0.884000003338 -0.21400000155 -0.0410000011325 1899.0
0.884999990463 -0.219999998808 -0.0410000011325 1839.0
0.884000003338 -0.22499999404 -0.0410000011325 1871.0
0.879999995232 -0.229000002146 -0.0399999991059 2034.0
0.880999982357 -0.234999999404 -0.0410000011325 2008.0
0.879000008106 -0.239999994636 -0.0410000011325 1919.0
0.880999982357 -0.246000006795 -0.0410000011325 1915.0
0.875999987125 -0.25 -0.0399999991059 1944.0
0.875999987125 -0.256000012159 -0.0399999991059 1889.0
0.878000020981 -0.261999994516 -0.0410000011325 1901.0
0.875999987125 -0.266999989748 -0.0410000011325 1868.0
0.873000025749 -0.272000014782 -0.0399999991059 1835.0
0.873000025749 -0.277000010014 -0.0399999991059 1884.0
0.874000012875 -0.282999992371 -0.0410000011325 1862.0
0.866999983788 -0.287000000477 -0.0399999991059 1899.0
0.870000004768 -0.293999999762 -0.0399999991059 1958.0
0.867999970913 -0.298000007868 -0.0399999991059 1920.0
0.867999970913 -0.303999990225 -0.0399999991059 1939.0
0.867999970913 -0.310000002384 -0.0399999991059 1913.0
0.862999975681 -0.31400001049 -0.0399999991059 1917.0
0.869000017643 -0.321999996901 -0.0410000011325 1955.0
0.865000009537 -0.326000005007 -0.0410000011325 1894.0
0.865999996662 -0.333000004292 -0.0410000011325 1872.0
0.861000001431 -0.337000012398 -0.0399999991059 1851.0
0.861000001431 -0.342999994755 -0.0410000011325 1841.0
0.861999988556 -0.349000006914 -0.0410000011325 1829.0
0.861000001431 -0.354999989271 -0.0410000011325 1832.0
0.856000006199 -0.358000010252 -0.0399999991059 1917.0
0.855000019073 -0.363999992609 -0.0399999991059 1930.0
0.852999985218 -0.368999987841 -0.0399999991059 1974.0
0.853999972343 -0.375999987125 -0.0410000011325 1962.0
0.851999998093 -0.381000012159 -0.0410000011325 2007.0
0.853999972343 -0.388999998569 -0.0410000011325 2010.0
0.848999977112 -0.391999989748 -0.0399999991059 2025.0
0.852999985218 -0.400999993086 -0.0410000011325 2046.0
0.851000010967 -0.405999988317 -0.0410000011325 2017.0
0.848999977112 -0.411000013351 -0.0410000011325 2078.0
0.846000015736 -0.416000008583 -0.0410000011325 2019.0
0.850000023842 -0.425000011921 -0.0410000011325 1943.0
0.846000015736 -0.428999990225 -0.0410000011325 1960.0
0.84399998188 -0.435000002384 -0.0410000011325 1987.0
0.839999973774 -0.43900001049 -0.0410000011325 1874.0
0.842000007629 -0.446999996901 -0.0410000011325 1896.0
0.838999986649 -0.451999992132 -0.0410000011325 1920.0
0.837000012398 -0.456999987364 -0.0410000011325 1914.0
0.837000012398 -0.463999986649 -0.0410000011325 1934.0
1.44799995422 0.829999983311 -0.0879999995232 262.0
1.29200005531 0.730000019073 -0.0790000036359 159.0
1.40100002289 0.78100001812 -0.0850000008941 137.0
1.52100002766 0.834999978542 -0.0920000001788 125.0
1.74199998379 0.941999971867 -0.104999996722 103.0
1.93700003624 1.03299999237 -0.115999996662 124.0
2.02500009537 1.06299996376 -0.120999999344 143.0
2.00500011444 1.03699994087 -0.119000002742 159.0
2.07399988174 1.05700004101 -0.123000003397 155.0
2.09299993515 1.04999995232 -0.123999997973 156.0
2.10299992561 1.03999996185 -0.123999997973 160.0
2.09400010109 1.01900005341 -0.123000003397 156.0
2.11199998856 1.01199996471 -0.123999997973 118.0
2.21900010109 1.02999997139 -0.128999993205 109.0
2.22499990463 1.01699995995 -0.128999993205 195.0
2.30599999428 1.03699994087 -0.133000001311 106.0
3.32699990273 1.08399999142 -0.184000000358 80.0
3.47199988365 1.10800004005 -0.190999999642 67.0
3.76699995995 1.1289999485 -0.206000000238 84.0
3.76799988747 1.10500001907 -0.206000000238 79.0
3.83200001717 1.10000002384 -0.209000006318 81.0
3.92000007629 1.10000002384 -0.212999999523 91.0
3.9849998951 1.09300005436 -0.216999992728 90.0
4.06300020218 1.08899998665 -0.219999998808 85.0
4.15000009537 1.08599996567 -0.22499999404 112.0
4.16099977493 1.06299996376 -0.22499999404 104.0
4.16900014877 1.03900003433 -0.22499999404 106.0
4.13199996948 1.0039999485 -0.222000002861 112.0
4.11800003052 0.976000010967 -0.221000000834 100.0
4.09999990463 0.945999979973 -0.219999998808 109.0
4.15700006485 0.934000015259 -0.223000004888 110.0
4.15500020981 0.907999992371 -0.222000002861 116.0
4.13700008392 0.879000008106 -0.221000000834 116.0
4.13399982452 0.852999985218 -0.219999998808 116.0
4.11100006104 0.824000000954 -0.218999996781 115.0
4.09100008011 0.795000016689 -0.216999992728 119.0
4.12799978256 0.777000010014 -0.218999996781 120.0
4.08400011063 0.745000004768 -0.216999992728 119.0
4.12599992752 0.726999998093 -0.217999994755 124.0
4.125 0.70300000906 -0.217999994755 112.0
4.11299991608 0.675999999046 -0.216999992728 111.0
4.1360001564 0.65499997139 -0.217999994755 129.0
4.09800004959 0.625 -0.216000005603 128.0
4.10699987411 0.601999998093 -0.216000005603 127.0
4.12400007248 0.579999983311 -0.216999992728 131.0
4.11100006104 0.554000020027 -0.216000005603 128.0
4.14499998093 0.533999979496 -0.216999992728 111.0
4.11299991608 0.505999982357 -0.215000003576 126.0
4.10200023651 0.481000006199 -0.215000003576 107.0
4.42899990082 0.493000000715 -0.231000006199 63.0
4.59299993515 0.485000014305 -0.239999994636 64.0
4.59800004959 0.458000004292 -0.239999994636 76.0
4.59000015259 0.430999994278 -0.238999992609 76.0
4.60799980164 0.405999988317 -0.239999994636 69.0
4.67999982834 0.384999990463 -0.243000000715 65.0
4.65999984741 0.356000006199 -0.241999998689 70.0
4.61899995804 0.326000005007 -0.239999994636 70.0
4.66900014877 0.303000003099 -0.241999998689 71.0
4.63800001144 0.273999989033 -0.239999994636 65.0
4.67500019073 0.248999997973 -0.241999998689 65.0
4.6810002327 0.222000002861 -0.241999998689 60.0
4.69199991226 0.195999994874 -0.241999998689 68.0
4.69299983978 0.168999999762 -0.241999998689 63.0
4.70200014114 0.142000004649 -0.243000000715 64.0
4.7610001564 0.116999998689 -0.246000006795 65.0
4.70300006866 0.0879999995232 -0.241999998689 65.0
4.76800012589 0.0619999989867 -0.246000006795 65.0
4.79899978638 0.035000000149 -0.24699999392 64.0
4.78200006485 0.00700000021607 -0.246000006795 61.0
4.79600000381 -0.019999999553 -0.24699999392 62.0
4.76800012589 -0.0469999983907 -0.245000004768 64.0
4.82800006866 -0.0750000029802 -0.247999995947 55.0
4.77299976349 -0.101999998093 -0.245000004768 58.0
4.85799980164 -0.131999999285 -0.248999997973 58.0
4.89099979401 -0.16099999845 -0.250999987125 61.0
4.89200019836 -0.188999995589 -0.250999987125 50.0
4.85799980164 -0.216000005603 -0.248999997973 52.0
4.92299985886 -0.24699999392 -0.252000004053 52.0
0.908999979496 -0.105999998748 -0.0469999983907 864.0
0.899999976158 -0.109999999404 -0.0460000000894 1787.0
0.902999997139 -0.115999996662 -0.0460000000894 1860.0
0.903999984264 -0.120999999344 -0.0469999983907 1974.0
0.901000022888 -0.126000002027 -0.0460000000894 1962.0
0.899999976158 -0.130999997258 -0.0460000000894 1925.0
0.898999989033 -0.136999994516 -0.0460000000894 1821.0
0.898000001907 -0.142000004649 -0.0460000000894 1810.0
0.898999989033 -0.146999999881 -0.0460000000894 1881.0
0.893000006676 -0.150999993086 -0.0460000000894 1878.0
0.893999993801 -0.157000005245 -0.0460000000894 1956.0
0.894999980927 -0.163000002503 -0.0460000000894 1914.0
0.893999993801 -0.167999997735 -0.0460000000894 1879.0
0.89200001955 -0.172999992967 -0.0460000000894 1837.0
0.888999998569 -0.177000001073 -0.0460000000894 1891.0
0.887000024319 -0.181999996305 -0.0460000000894 1912.0
0.89200001955 -0.188999995589 -0.0460000000894 1930.0
0.884000003338 -0.192000001669 -0.0460000000894 1877.0
0.885999977589 -0.197999998927 -0.0460000000894 1863.0
0.888000011444 -0.203999996185 -0.0460000000894 1907.0
0.884000003338 -0.209000006318 -0.0460000000894 1938.0
0.884000003338 -0.21400000155 -0.0460000000894 1938.0
0.884999990463 -0.219999998808 -0.0460000000894 1873.0
0.883000016212 -0.22499999404 -0.0460000000894 1854.0
0.879000008106 -0.229000002146 -0.0460000000894 1968.0
0.880999982357 -0.234999999404 -0.0460000000894 2006.0
0.874000012875 -0.238999992609 -0.0450000017881 1996.0
0.878000020981 -0.245000004768 -0.0460000000894 1920.0
0.879999995232 -0.252000004053 -0.0460000000894 1953.0
0.880999982357 -0.256999999285 -0.0460000000894 1936.0
0.875 -0.261000007391 -0.0460000000894 1880.0
0.873000025749 -0.266000002623 -0.0460000000894 1842.0
0.870999991894 -0.270999997854 -0.0460000000894 1828.0
0.871999979019 -0.277000010014 -0.0460000000894 1875.0
0.876999974251 -0.284000009298 -0.0460000000894 1926.0
0.873000025749 -0.28900000453 -0.0460000000894 1915.0
0.870999991894 -0.293999999762 -0.0460000000894 1966.0
0.869000017643 -0.298999994993 -0.0460000000894 1984.0
0.871999979019 -0.305999994278 -0.0460000000894 1915.0
0.866999983788 -0.310000002384 -0.0460000000894 1891.0
0.865000009537 -0.314999997616 -0.0460000000894 1926.0
0.864000022411 -0.319999992847 -0.0460000000894 1957.0
0.866999983788 -0.326999992132 -0.0460000000894 1942.0
0.861000001431 -0.331000000238 -0.0460000000894 1886.0
0.865000009537 -0.337999999523 -0.0460000000894 1855.0
0.865000009537 -0.344000011683 -0.0460000000894 1898.0
0.856999993324 -0.347000002861 -0.0460000000894 1950.0
0.85799998045 -0.354000002146 -0.0460000000894 1854.0
0.861000001431 -0.361000001431 -0.0460000000894 1953.0
0.856000006199 -0.365000009537 -0.0460000000894 1917.0
0.856999993324 -0.370999991894 -0.0460000000894 2018.0
0.852999985218 -0.375999987125 -0.0460000000894 1979.0
0.851000010967 -0.381000012159 -0.0460000000894 2034.0
0.850000023842 -0.386999994516 -0.0460000000894 1999.0
0.851999998093 -0.393999993801 -0.0460000000894 2055.0
0.852999985218 -0.40000000596 -0.0460000000894 2046.0
0.848999977112 -0.405000001192 -0.0460000000894 2043.0
0.847999989986 -0.411000013351 -0.0460000000894 2066.0
0.846000015736 -0.416000008583 -0.0460000000894 2020.0
0.84399998188 -0.42199999094 -0.0460000000894 1981.0
0.84399998188 -0.428000003099 -0.0460000000894 1952.0
0.842999994755 -0.435000002384 -0.0460000000894 1943.0
0.847999989986 -0.442999988794 -0.0469999983907 1845.0
0.841000020504 -0.446000009775 -0.0460000000894 1879.0
0.836000025272 -0.449999988079 -0.0460000000894 1916.0
0.838999986649 -0.458999991417 -0.0460000000894 1932.0
0.836000025272 -0.463999986649 -0.0460000000894 1909.0
0.922999978065 0.528999984264 -0.0619999989867 674.0
0.917999982834 0.518999993801 -0.0619999989867 631.0
0.930999994278 0.518000006676 -0.0630000010133 573.0
0.929000020027 0.509999990463 -0.0619999989867 550.0
0.954999983311 0.51599997282 -0.0640000030398 494.0
0.975000023842 0.518999993801 -0.0649999976158 416.0
1.02600002289 0.537999987602 -0.0680000036955 359.0
1.04200005531 0.538999974728 -0.0689999982715 316.0
1.04600000381 0.532999992371 -0.0689999982715 281.0
1.12399995327 0.56400001049 -0.0740000009537 244.0
1.19900000095 0.592000007629 -0.0780000016093 217.0
1.25999999046 0.612999975681 -0.082000002265 186.0
1.24500000477 0.597000002861 -0.0810000002384 130.0
1.69599997997 0.787000000477 -0.108999997377 103.0
2.01900005341 0.922999978065 -0.129999995232 163.0
2.04200005531 0.917999982834 -0.130999997258 93.0
1.22399997711 0.541000008583 -0.0780000016093 66.0
3.45499992371 1.125 -0.211999997497 62.0
3.83100008965 1.12399995327 -0.231999993324 65.0
4.09600019455 1.14999997616 -0.24699999392 63.0
4.01300001144 1.10099995136 -0.241999998689 65.0
4.28499984741 1.14900004864 -0.25799998641 68.0
4.16900014877 1.09200000763 -0.25 73.0
4.1779999733 1.06799995899 -0.250999987125 82.0
4.25299978256 1.05999994278 -0.254999995232 81.0
4.32299995422 1.05099999905 -0.25799998641 80.0
4.24499988556 1.00600004196 -0.252999991179 69.0
4.2610001564 0.98400002718 -0.254000008106 75.0
4.24800014496 0.953999996185 -0.252999991179 79.0
4.28299999237 0.93599998951 -0.254000008106 81.0
4.257999897 0.90499997139 -0.252000004053 83.0
4.19999980927 0.866999983788 -0.248999997973 87.0
4.21000003815 0.84399998188 -0.248999997973 86.0
4.21899986267 0.819999992847 -0.248999997973 79.0
4.17399978638 0.786000013351 -0.246000006795 88.0
4.11999988556 0.750999987125 -0.243000000715 85.0
4.1810002327 0.736999988556 -0.246000006795 93.0
4.23000001907 0.721000015736 -0.247999995947 88.0
4.15500020981 0.683000028133 -0.244000002742 85.0
4.24599981308 0.672999978065 -0.248999997973 99.0
4.12900018692 0.629999995232 -0.241999998689 99.0
4.14300012589 0.606999993324 -0.241999998689 110.0
4.14300012589 0.583000004292 -0.241999998689 109.0
4.14200019836 0.558000028133 -0.240999996662 97.0
4.15000009537 0.535000026226 -0.241999998689 92.0
4.15899991989 0.512000024319 -0.241999998689 107.0
4.15999984741 0.488000005484 -0.241999998689 90.0
4.41699981689 0.49200001359 -0.256000012159 55.0
4.61999988556 0.486999988556 -0.268000006676 64.0
4.63000011444 0.46099999547 -0.268000006676 74.0
4.59899997711 0.432000011206 -0.266000002623 71.0
4.60099983215 0.405000001192 -0.266000002623 65.0
4.62099981308 0.379999995232 -0.266999989748 62.0
4.60900020599 0.351999998093 -0.266000002623 63.0
4.70599985123 0.331999987364 -0.270999997854 62.0
4.66900014877 0.303000003099 -0.268999993801 65.0
4.68499994278 0.277000010014 -0.270000010729 67.0
4.6890001297 0.25 -0.270000010729 65.0
4.68200016022 0.222000002861 -0.268999993801 65.0
4.72599983215 0.196999996901 -0.272000014782 65.0
4.66800022125 0.167999997735 -0.268000006676 65.0
4.70100021362 0.142000004649 -0.270000010729 62.0
4.71600008011 0.115000002086 -0.270000010729 60.0
4.76800012589 0.0890000015497 -0.273000001907 59.0
4.73600006104 0.0610000006855 -0.270999997854 62.0
4.75500011444 0.0340000018477 -0.272000014782 61.0
4.8029999733 0.00700000021607 -0.27500000596 63.0
4.76999998093 -0.019999999553 -0.273000001907 58.0
4.83300018311 -0.0480000004172 -0.275999993086 61.0
4.82600021362 -0.0750000029802 -0.275999993086 58.0
4.78999996185 -0.101999998093 -0.273999989033 56.0
4.867000103 -0.131999999285 -0.277999997139 57.0
4.80900001526 -0.158000007272 -0.273999989033 59.0
4.84399986267 -0.187000006437 -0.275999993086 56.0
4.96099996567 -0.221000000834 -0.282999992371 54.0
4.90999984741 -0.24699999392 -0.280000001192 52.0
0.90600001812 -0.105999998748 -0.0520000010729 881.0
0.899999976158 -0.109999999404 -0.0520000010729 1757.0
0.899999976158 -0.115999996662 -0.0520000010729 1843.0
0.898999989033 -0.120999999344 -0.0509999990463 1985.0
0.901000022888 -0.126000002027 -0.0520000010729 1942.0
0.901000022888 -0.131999999285 -0.0520000010729 1916.0
0.901000022888 -0.136999994516 -0.0520000010729 1842.0
0.896000027657 -0.141000002623 -0.0509999990463 1816.0
0.898000001907 -0.146999999881 -0.0509999990463 1935.0
0.898999989033 -0.152999997139 -0.0520000010729 1909.0
0.894999980927 -0.157000005245 -0.0509999990463 1946.0
0.893999993801 -0.162000000477 -0.0509999990463 1907.0
0.893000006676 -0.167999997735 -0.0509999990463 1901.0
0.89099997282 -0.172999992967 -0.0509999990463 1835.0
0.884999990463 -0.177000001073 -0.0509999990463 1901.0
0.889999985695 -0.182999998331 -0.0509999990463 1924.0
0.889999985695 -0.187999993563 -0.0509999990463 1909.0
0.889999985695 -0.194000005722 -0.0509999990463 1914.0
0.883000016212 -0.197999998927 -0.0509999990463 1899.0
0.884000003338 -0.202999994159 -0.0509999990463 1907.0
0.880999982357 -0.208000004292 -0.0509999990463 1917.0
0.876999974251 -0.211999997497 -0.0509999990463 1941.0
0.879999995232 -0.218999996781 -0.0509999990463 1880.0
0.879000008106 -0.224000006914 -0.0509999990463 1844.0
0.884000003338 -0.230000004172 -0.0509999990463 1890.0
0.878000020981 -0.233999997377 -0.0509999990463 1972.0
0.880999982357 -0.240999996662 -0.0509999990463 2016.0
0.878000020981 -0.245000004768 -0.0509999990463 1945.0
0.875 -0.25 -0.0509999990463 1994.0
0.875999987125 -0.256000012159 -0.0509999990463 2011.0
0.874000012875 -0.261000007391 -0.0509999990463 1916.0
0.875 -0.266999989748 -0.0509999990463 1904.0
0.869000017643 -0.270999997854 -0.0509999990463 1924.0
0.875 -0.277999997139 -0.0509999990463 1906.0
0.874000012875 -0.284000009298 -0.0509999990463 1964.0
0.870000004768 -0.287999987602 -0.0509999990463 1950.0
0.866999983788 -0.291999995708 -0.0509999990463 1953.0
0.866999983788 -0.298000007868 -0.0509999990463 1991.0
0.869000017643 -0.305000007153 -0.0509999990463 1967.0
0.869000017643 -0.310000002384 -0.0509999990463 1952.0
0.867999970913 -0.316000014544 -0.0509999990463 1998.0
0.866999983788 -0.321000009775 -0.0509999990463 1970.0
0.865000009537 -0.326000005007 -0.0509999990463 1987.0
0.862999975681 -0.331999987364 -0.0509999990463 1907.0
0.860000014305 -0.337000012398 -0.0509999990463 1903.0
0.860000014305 -0.342000007629 -0.0509999990463 1932.0
0.85900002718 -0.347999989986 -0.0509999990463 1983.0
0.85900002718 -0.354000002146 -0.0509999990463 1930.0
0.855000019073 -0.358000010252 -0.0509999990463 1919.0
0.860000014305 -0.365999996662 -0.0509999990463 1895.0
0.85900002718 -0.372000008821 -0.0509999990463 1967.0
0.85799998045 -0.377999991179 -0.0509999990463 1996.0
0.847000002861 -0.379000008106 -0.0509999990463 2015.0
0.853999972343 -0.388999998569 -0.0509999990463 2010.0
0.852999985218 -0.393999993801 -0.0509999990463 2023.0
0.847000002861 -0.398000001907 -0.0509999990463 2054.0
0.851000010967 -0.405999988317 -0.0509999990463 2064.0
0.848999977112 -0.412000000477 -0.0509999990463 2060.0
0.850000023842 -0.418000012636 -0.0520000010729 1960.0
0.84500002861 -0.423000007868 -0.0509999990463 1992.0
0.851999998093 -0.432999998331 -0.0520000010729 1973.0
0.841000020504 -0.433999985456 -0.0509999990463 1930.0
0.842999994755 -0.441000014544 -0.0520000010729 1853.0
0.84500002861 -0.449000000954 -0.0520000010729 1887.0
0.836000025272 -0.451000005007 -0.0509999990463 1936.0
0.833999991417 -0.456999987364 -0.0509999990463 1920.0
0.833999991417 -0.462999999523 -0.0520000010729 1872.0
0.876999974251 0.503000020981 -0.0649999976158 958.0
0.89099997282 0.503000020981 -0.0659999996424 940.0
0.889999985695 0.495999991894 -0.0659999996424 931.0
0.887000024319 0.486000001431 -0.0649999976158 950.0
0.884999990463 0.477999985218 -0.0649999976158 947.0
0.89099997282 0.47499999404 -0.0649999976158 914.0
0.89099997282 0.467999994755 -0.0649999976158 893.0
0.887000024319 0.458999991417 -0.0640000030398 875.0
0.889999985695 0.45300000906 -0.0640000030398 877.0
0.888000011444 0.444999992847 -0.0640000030398 860.0
0.896000027657 0.442999988794 -0.0640000030398 837.0
0.898999989033 0.437000006437 -0.0640000030398 790.0
0.898999989033 0.430000007153 -0.0640000030398 743.0
0.90499997139 0.425999999046 -0.0640000030398 712.0
0.899999976158 0.416999995708 -0.0640000030398 665.0
0.920000016689 0.419999986887 -0.0649999976158 617.0
0.911000013351 0.409999996424 -0.0640000030398 552.0
0.912999987602 0.404000014067 -0.0640000030398 522.0
0.916999995708 0.398999989033 -0.0640000030398 471.0
0.913999974728 0.391000002623 -0.0640000030398 400.0
0.920000016689 0.386999994516 -0.0640000030398 360.0
0.919000029564 0.379999995232 -0.0640000030398 339.0
0.922999978065 0.375 -0.0640000030398 325.0
0.925000011921 0.370000004768 -0.0640000030398 268.0
0.925000011921 0.363000005484 -0.0640000030398 293.0
0.920000016689 0.349000006914 -0.0630000010133 280.0
0.907999992371 0.337999999523 -0.0619999989867 220.0
3.34800004959 1.0909999609 -0.22499999404 57.0
3.84599995613 1.15299999714 -0.256999999285 69.0
4.02699995041 1.12999999523 -0.266999989748 66.0
4.11800003052 1.12999999523 -0.273000001907 63.0
4.21099996567 1.1289999485 -0.279000014067 61.0
4.29799985886 1.12600004673 -0.284000009298 75.0
4.25699996948 1.08800005913 -0.280999988317 78.0
4.19199991226 1.04499995708 -0.275999993086 74.0
4.28700017929 1.04299998283 -0.282000005245 74.0
4.26300001144 1.00999999046 -0.280000001192 62.0
4.25299978256 0.981999993324 -0.279000014067 71.0
4.29199981689 0.963999986649 -0.280999988317 68.0
4.25199985504 0.930000007153 -0.277999997139 69.0
4.26700019836 0.907000005245 -0.277999997139 72.0
4.27799987793 0.883000016212 -0.277999997139 68.0
4.23600006104 0.848999977112 -0.27500000596 72.0
4.34299993515 0.84399998188 -0.282000005245 71.0
4.30000019073 0.810000002384 -0.279000014067 71.0
4.23999977112 0.773000001907 -0.27500000596 71.0
4.24100017548 0.748000025749 -0.273999989033 69.0
4.27400016785 0.727999985218 -0.275999993086 70.0
4.29799985886 0.707000017166 -0.277000010014 69.0
4.22900009155 0.670000016689 -0.272000014782 81.0
4.21299982071 0.643000006676 -0.270999997854 75.0
4.31599998474 0.633000016212 -0.277000010014 74.0
4.24100017548 0.597000002861 -0.272000014782 77.0
4.25099992752 0.573000013828 -0.273000001907 65.0
4.23400020599 0.546000003815 -0.270999997854 64.0
4.22399997711 0.519999980927 -0.270000010729 72.0
4.30800008774 0.504999995232 -0.27500000596 63.0
4.742000103 0.5 -0.303000003099 49.0
4.72399997711 0.470999985933 -0.300999999046 52.0
4.72599983215 0.416000008583 -0.300999999046 55.0
4.64400005341 0.381999999285 -0.294999986887 50.0
4.60599994659 0.351999998093 -0.293000012636 54.0
4.67199993134 0.330000013113 -0.29699999094 56.0
4.70599985123 0.305000007153 -0.298999994993 53.0
4.67899990082 0.275999993086 -0.29699999094 56.0
4.69000005722 0.25 -0.29699999094 68.0
4.61600017548 0.218999996781 -0.291999995708 68.0
4.73099994659 0.196999996901 -0.298999994993 64.0
4.76399993896 0.171000003815 -0.300999999046 59.0
4.72599983215 0.143000006676 -0.298999994993 62.0
4.68200016022 0.11400000006 -0.296000003815 59.0
4.78700017929 0.0890000015497 -0.301999986172 62.0
4.73600006104 0.0610000006855 -0.298999994993 62.0
4.73600006104 0.0340000018477 -0.298999994993 66.0
4.8140001297 0.00700000021607 -0.303000003099 67.0
4.80700016022 -0.019999999553 -0.303000003099 64.0
4.78000020981 -0.0469999983907 -0.300999999046 61.0
4.78000020981 -0.0750000029802 -0.300999999046 58.0
4.84999990463 -0.104000002146 -0.305000007153 58.0
4.76000022888 -0.128999993205 -0.298999994993 56.0
4.89499998093 -0.16099999845 -0.307999998331 55.0
4.88500022888 -0.188999995589 -0.307000011206 54.0
4.87699985504 -0.216999992728 -0.305999994278 57.0
4.94000005722 -0.247999995947 -0.310000002384 56.0
0.902999997139 -0.105999998748 -0.0570000000298 916.0
0.898000001907 -0.109999999404 -0.0570000000298 1771.0
0.897000014782 -0.115000002086 -0.0570000000298 1854.0
0.898000001907 -0.120999999344 -0.0570000000298 1966.0
0.902999997139 -0.127000004053 -0.0570000000298 1951.0
0.901000022888 -0.131999999285 -0.0570000000298 1920.0
0.896000027657 -0.136000007391 -0.0570000000298 1814.0
0.897000014782 -0.142000004649 -0.0570000000298 1808.0
0.897000014782 -0.146999999881 -0.0570000000298 1954.0
0.89099997282 -0.150999993086 -0.0560000017285 1913.0
0.89200001955 -0.157000005245 -0.0560000017285 1941.0
0.893999993801 -0.163000002503 -0.0570000000298 1946.0
0.888999998569 -0.166999995708 -0.0560000017285 1916.0
0.889999985695 -0.172000005841 -0.0560000017285 1867.0
0.889999985695 -0.178000003099 -0.0560000017285 1921.0
0.888999998569 -0.182999998331 -0.0560000017285 1950.0
0.888999998569 -0.187999993563 -0.0560000017285 1932.0
0.888000011444 -0.193000003695 -0.0560000017285 1943.0
0.884999990463 -0.197999998927 -0.0560000017285 1896.0
0.888999998569 -0.203999996185 -0.0560000017285 1902.0
0.884000003338 -0.209000006318 -0.0560000017285 1890.0
0.888000011444 -0.215000003576 -0.0560000017285 1896.0
0.880999982357 -0.218999996781 -0.0560000017285 1907.0
0.879000008106 -0.224000006914 -0.0560000017285 1872.0
0.879999995232 -0.229000002146 -0.0560000017285 1882.0
0.875 -0.233999997377 -0.0560000017285 1955.0
0.876999974251 -0.239999994636 -0.0560000017285 2057.0
0.880999982357 -0.246000006795 -0.0560000017285 1985.0
0.879000008106 -0.250999987125 -0.0560000017285 2025.0
0.876999974251 -0.256000012159 -0.0560000017285 2035.0
0.871999979019 -0.261000007391 -0.0560000017285 1999.0
0.874000012875 -0.266000002623 -0.0560000017285 2037.0
0.870000004768 -0.270999997854 -0.0560000017285 1961.0
0.870999991894 -0.277000010014 -0.0560000017285 1934.0
0.869000017643 -0.282000005245 -0.0560000017285 2039.0
0.866999983788 -0.287000000477 -0.0560000017285 2001.0
0.867999970913 -0.293000012636 -0.0560000017285 1964.0
0.869000017643 -0.298999994993 -0.0560000017285 2007.0
0.870000004768 -0.305000007153 -0.0560000017285 1953.0
0.869000017643 -0.31099998951 -0.0560000017285 1949.0
0.865000009537 -0.314999997616 -0.0560000017285 2002.0
0.866999983788 -0.321999996901 -0.0560000017285 1974.0
0.861000001431 -0.324999988079 -0.0560000017285 2010.0
0.861000001431 -0.331000000238 -0.0560000017285 1977.0
0.861999988556 -0.337000012398 -0.0560000017285 1992.0
0.860000014305 -0.342999994755 -0.0560000017285 1970.0
0.860000014305 -0.349000006914 -0.0560000017285 1972.0
0.861000001431 -0.354999989271 -0.0570000000298 1947.0
0.856999993324 -0.358999997377 -0.0560000017285 1913.0
0.85900002718 -0.365999996662 -0.0570000000298 1898.0
0.85799998045 -0.372000008821 -0.0570000000298 1979.0
0.851000010967 -0.375 -0.0560000017285 2053.0
0.853999972343 -0.38299998641 -0.0570000000298 2046.0
0.851999998093 -0.388000011444 -0.0570000000298 2002.0
0.850000023842 -0.393000006676 -0.0570000000298 2000.0
0.847999989986 -0.398999989033 -0.0570000000298 2032.0
0.847000002861 -0.405000001192 -0.0570000000298 2046.0
0.848999977112 -0.412000000477 -0.0570000000298 1994.0
0.847999989986 -0.418000012636 -0.0570000000298 1927.0
0.84500002861 -0.42199999094 -0.0570000000298 1975.0
0.841000020504 -0.426999986172 -0.0570000000298 1992.0
0.841000020504 -0.433999985456 -0.0570000000298 1946.0
0.838999986649 -0.43900001049 -0.0570000000298 1875.0
0.837999999523 -0.446000009775 -0.0570000000298 1948.0
0.841000020504 -0.453999996185 -0.0570000000298 2006.0
0.832000017166 -0.455000013113 -0.0570000000298 1899.0
0.839999973774 -0.467000007629 -0.0570000000298 1889.0
0.888000011444 0.509000003338 -0.0719999969006 975.0
0.884000003338 0.5 -0.0710000023246 1008.0
0.884999990463 0.493000000715 -0.0710000023246 1019.0
0.883000016212 0.485000014305 -0.0710000023246 1029.0
0.880999982357 0.476999998093 -0.070000000298 1042.0
0.882000029087 0.469999998808 -0.070000000298 1034.0
0.884999990463 0.463999986649 -0.070000000298 1025.0
0.882000029087 0.456000000238 -0.070000000298 1049.0
0.884000003338 0.451000005007 -0.070000000298 1062.0
0.879999995232 0.442000001669 -0.0689999982715 1075.0
0.879000008106 0.433999985456 -0.0689999982715 1069.0
0.888000011444 0.432000011206 -0.0689999982715 1075.0
0.879000008106 0.421000003815 -0.0680000036955 1062.0
0.871999979019 0.411000013351 -0.0680000036955 1071.0
0.882000029087 0.409999996424 -0.0680000036955 1083.0
0.878000020981 0.400999993086 -0.0680000036955 1089.0
0.875 0.393000006676 -0.0670000016689 1049.0
0.888000011444 0.393000006676 -0.0680000036955 1061.0
0.880999982357 0.38299998641 -0.0670000016689 1020.0
0.882000029087 0.377000004053 -0.0670000016689 1005.0
0.884000003338 0.372000008821 -0.0670000016689 994.0
0.882000029087 0.365000009537 -0.0670000016689 993.0
0.880999982357 0.358999997377 -0.0670000016689 957.0
0.884000003338 0.352999985218 -0.0670000016689 922.0
0.885999977589 0.347999989986 -0.0670000016689 905.0
0.884000003338 0.340999990702 -0.0659999996424 915.0
0.885999977589 0.33599999547 -0.0659999996424 881.0
0.878000020981 0.326999992132 -0.0659999996424 815.0
0.885999977589 0.324000000954 -0.0659999996424 786.0
0.894999980927 0.321000009775 -0.0670000016689 751.0
0.887000024319 0.312999993563 -0.0659999996424 733.0
0.879999995232 0.303999990225 -0.0649999976158 674.0
0.898999989033 0.305000007153 -0.0659999996424 608.0
0.883000016212 0.293999999762 -0.0649999976158 552.0
0.884000003338 0.287999987602 -0.0649999976158 501.0
0.901000022888 0.287999987602 -0.0659999996424 464.0
0.883000016212 0.275999993086 -0.0649999976158 402.0
0.883000016212 0.270999997854 -0.0649999976158 358.0
0.867999970913 0.261000007391 -0.0630000010133 314.0
0.883000016212 0.259000003338 -0.0640000030398 469.0
0.89200001955 0.256000012159 -0.0649999976158 417.0
0.876999974251 0.246000006795 -0.0640000030398 328.0
0.861999988556 0.237000003457 -0.0619999989867 267.0
0.788999974728 0.211999997497 -0.0570000000298 207.0
0.324999988079 0.0850000008941 -0.0240000002086 86.0
0.189999997616 0.0489999987185 -0.0140000004321 79.0
0.104999996722 0.0270000007004 -0.00800000037998 68.0
4.80900001526 1.16999995708 -0.344000011683 66.0
4.81599998474 1.14199995995 -0.344000011683 47.0
4.52899980545 1.04600000381 -0.323000013828 60.0
4.48199987411 1.00699996948 -0.319999992847 62.0
4.37699985504 0.957000017166 -0.312000006437 62.0
4.30399990082 0.915000021458 -0.305999994278 63.0
4.375 0.902999997139 -0.31099998951 64.0
4.38999986649 0.879999995232 -0.31099998951 68.0
4.32100009918 0.839999973774 -0.305999994278 68.0
4.3639998436 0.822000026703 -0.308999985456 63.0
4.30800008774 0.786000013351 -0.303999990225 64.0
4.30399990082 0.759000003338 -0.303999990225 71.0
4.3639998436 0.744000017643 -0.307000011206 63.0
4.1970000267 0.689999997616 -0.294999986887 61.0
4.24700021744 0.672999978065 -0.298000007868 67.0
4.27199983597 0.652000010014 -0.300000011921 72.0
4.26599979401 0.625999987125 -0.298999994993 67.0
4.26200008392 0.600000023842 -0.298999994993 69.0
4.35500001907 0.587000012398 -0.305000007153 69.0
4.27799987793 0.551999986172 -0.298999994993 60.0
4.22100019455 0.519999980927 -0.294999986887 65.0
4.36199998856 0.510999977589 -0.303999990225 57.0
4.73199987411 0.472000002861 -0.328999996185 50.0
4.73799991608 0.444999992847 -0.328999996185 48.0
4.76000022888 0.418999999762 -0.331000000238 47.0
4.73299980164 0.307000011206 -0.32800000906 53.0
4.68699979782 0.277000010014 -0.324000000954 50.0
4.66099977493 0.247999995947 -0.321999996901 60.0
4.75600004196 0.225999996066 -0.328999996185 63.0
4.73500013351 0.196999996901 -0.326999992132 65.0
4.73500013351 0.170000001788 -0.326999992132 66.0
4.73400020599 0.143000006676 -0.326999992132 60.0
4.66400003433 0.11400000006 -0.321999996901 64.0
4.75199985504 0.0890000015497 -0.326999992132 61.0
4.7389998436 0.0610000006855 -0.326000005007 62.0
