ply
format ascii 1.0
element vertex 914
property float x
property float y
property float z
property float intensity
end_header
5.01300001144 0.412000000477 -0.143999993801 98.0
5.06300020218 0.386999994516 -0.145999997854 58.0
0.697000026703 -0.0120000001043 -0.019999999553 105.0
0.989000022411 -0.0240000002086 -0.0280000008643 881.0
0.975000023842 -0.0299999993294 -0.0280000008643 641.0
0.808000028133 -0.0289999991655 -0.0230000000447 185.0
0.813000023365 -0.0340000018477 -0.0230000000447 180.0
0.796000003815 -0.0370000004768 -0.0230000000447 176.0
0.792999982834 -0.0419999994338 -0.0230000000447 181.0
0.788999974728 -0.0460000000894 -0.0230000000447 182.0
0.801999986172 -0.0509999990463 -0.0230000000447 181.0
0.813000023365 -0.0570000000298 -0.0230000000447 182.0
0.777000010014 -0.0590000003576 -0.0219999998808 186.0
0.800999999046 -0.0649999976158 -0.0230000000447 188.0
0.787999987602 -0.0689999982715 -0.0219999998808 189.0
0.78100001812 -0.0729999989271 -0.0219999998808 190.0
0.783999979496 -0.0769999995828 -0.0219999998808 194.0
0.818000018597 -0.0860000029206 -0.0230000000447 196.0
0.944999992847 -0.104999996722 -0.0270000007004 565.0
0.975000023842 -0.11400000006 -0.0280000008643 1244.0
0.978999972343 -0.119999997318 -0.0280000008643 1278.0
0.975000023842 -0.125 -0.0280000008643 1292.0
0.978999972343 -0.131999999285 -0.0280000008643 1297.0
0.97000002861 -0.136000007391 -0.0270000007004 1322.0
0.973999977112 -0.142000004649 -0.0280000008643 1317.0
0.967000007629 -0.146999999881 -0.0270000007004 1322.0
0.963999986649 -0.151999995112 -0.0270000007004 1337.0
0.97000002861 -0.158999994397 -0.0270000007004 1349.0
0.963999986649 -0.16400000453 -0.0270000007004 1363.0
0.962999999523 -0.168999999762 -0.0270000007004 1361.0
0.966000020504 -0.175999999046 -0.0270000007004 1358.0
0.966000020504 -0.180999994278 -0.0270000007004 1382.0
0.957000017166 -0.185000002384 -0.0270000007004 1281.0
0.898000001907 -0.179000005126 -0.0250000003725 412.0
0.794000029564 -0.163000002503 -0.0219999998808 216.0
0.791000008583 -0.166999995708 -0.0219999998808 219.0
0.758000016212 -0.16400000453 -0.0209999997169 215.0
0.757000029087 -0.167999997735 -0.0209999997169 217.0
0.754999995232 -0.172999992967 -0.0209999997169 219.0
0.790000021458 -0.186000004411 -0.0219999998808 218.0
0.776000022888 -0.187000006437 -0.0219999998808 227.0
0.783999979496 -0.194000005722 -0.0219999998808 219.0
0.764999985695 -0.194000005722 -0.0219999998808 227.0
0.787999987602 -0.204999998212 -0.0219999998808 228.0
0.748000025749 -0.199000000954 -0.0209999997169 227.0
0.77999997139 -0.211999997497 -0.0219999998808 228.0
0.769999980927 -0.21400000155 -0.0219999998808 237.0
0.917999982834 -0.261999994516 -0.0260000005364 804.0
0.940999984741 -0.27500000596 -0.0270000007004 1425.0
0.939999997616 -0.280000001192 -0.0270000007004 1470.0
0.933000028133 -0.284000009298 -0.0260000005364 1473.0
0.93599998951 -0.291000008583 -0.0270000007004 1488.0
0.930999994278 -0.296000003815 -0.0260000005364 1486.0
0.929000020027 -0.300999999046 -0.0260000005364 1482.0
0.935000002384 -0.308999985456 -0.0270000007004 1490.0
0.930999994278 -0.31400001049 -0.0260000005364 1500.0
0.925999999046 -0.317999988794 -0.0260000005364 1498.0
0.925000011921 -0.324000000954 -0.0260000005364 1493.0
0.921000003815 -0.328999996185 -0.0260000005364 1509.0
0.920000016689 -0.335000008345 -0.0260000005364 1502.0
0.919000029564 -0.340000003576 -0.0260000005364 1515.0
0.915000021458 -0.344999998808 -0.0260000005364 1063.0
0.804000020027 -0.307999998331 -0.0230000000447 303.0
0.745999991894 -0.291000008583 -0.0209999997169 235.0
0.73400002718 -0.291000008583 -0.0209999997169 236.0
0.712999999523 -0.287999987602 -0.0209999997169 229.0
0.689999997616 -0.282999992371 -0.019999999553 243.0
0.694999992847 -0.289999991655 -0.019999999553 231.0
0.708999991417 -0.300999999046 -0.019999999553 229.0
0.697000026703 -0.300999999046 -0.019999999553 243.0
0.702000021935 -0.307999998331 -0.019999999553 234.0
0.698000013828 -0.31099998951 -0.019999999553 236.0
0.680000007153 -0.307999998331 -0.019999999553 248.0
0.674000024796 -0.310000002384 -0.019999999553 244.0
0.712000012398 -0.333000004292 -0.0209999997169 259.0
0.875999987125 -0.418000012636 -0.0250000003725 1068.0
0.89200001955 -0.432000011206 -0.0260000005364 1493.0
0.888999998569 -0.437000006437 -0.0260000005364 1559.0
0.888000011444 -0.444000005722 -0.0260000005364 1542.0
0.888000011444 -0.449999988079 -0.0260000005364 1556.0
0.879000008106 -0.45300000906 -0.0260000005364 1553.0
0.883000016212 -0.46099999547 -0.0260000005364 1539.0
0.887000024319 -0.469999998808 -0.0260000005364 1548.0
0.876999974251 -0.472000002861 -0.0260000005364 1557.0
0.873000025749 -0.476999998093 -0.0260000005364 1561.0
0.874000012875 -0.485000014305 -0.0260000005364 1556.0
4.35799980164 2.5 -0.180000007153 127.0
4.34100008011 2.45399999619 -0.178000003099 122.0
4.38100004196 2.44099998474 -0.179000005126 125.0
4.37799978256 2.40400004387 -0.179000005126 129.0
4.37400007248 2.367000103 -0.178000003099 119.0
4.38199996948 2.33599996567 -0.177000001073 121.0
4.41800022125 2.31999993324 -0.178000003099 128.0
4.4390001297 2.29699993134 -0.178000003099 122.0
4.40700006485 2.24499988556 -0.177000001073 129.0
4.37200021744 2.19400000572 -0.17499999702 116.0
4.31300020218 2.13100004196 -0.172000005841 112.0
3.88499999046 1.88999998569 -0.153999999166 117.0
4.08699989319 1.95799994469 -0.162000000477 112.0
4.3060002327 2.03099989891 -0.170000001788 126.0
4.29600000381 1.99399995804 -0.168999999762 145.0
4.11499977112 1.8789999485 -0.16099999845 183.0
4.17899990082 1.87800002098 -0.163000002503 167.0
4.29799985886 1.90100002289 -0.166999995708 153.0
4.29099988937 1.86600005627 -0.165999993682 164.0
4.38199996948 1.87399995327 -0.168999999762 162.0
4.33599996567 1.82400000095 -0.166999995708 191.0
4.32399988174 1.7879999876 -0.165999993682 210.0
4.31500005722 1.7539999485 -0.165000006557 208.0
4.35400009155 1.74000000954 -0.165999993682 202.0
4.38500022888 1.72200000286 -0.166999995708 184.0
4.38700008392 1.69200003147 -0.166999995708 177.0
4.38100004196 1.65999996662 -0.165999993682 175.0
4.38899993896 1.63300001621 -0.165999993682 179.0
4.39400005341 1.60500001907 -0.165999993682 179.0
4.4390001297 1.59200000763 -0.166999995708 174.0
4.39900016785 1.54799997807 -0.165000006557 174.0
4.41900014877 1.52600002289 -0.165000006557 173.0
4.4439997673 1.50499999523 -0.165999993682 171.0
4.4310002327 1.47099995613 -0.165000006557 172.0
4.41599988937 1.43700003624 -0.16400000453 172.0
4.42999982834 1.4129999876 -0.16400000453 170.0
4.39400005341 1.37300002575 -0.162000000477 176.0
4.41599988937 1.35199999809 -0.163000002503 183.0
4.42199993134 1.32500004768 -0.163000002503 179.0
4.43699979782 1.30099999905 -0.163000002503 184.0
4.41699981689 1.26699995995 -0.162000000477 185.0
4.39300012589 1.23199999332 -0.159999996424 177.0
4.44600009918 1.21899998188 -0.162000000477 172.0
4.42399978638 1.18499994278 -0.16099999845 186.0
4.53100013733 1.18599998951 -0.16400000453 159.0
4.72700023651 1.20700001717 -0.171000003815 127.0
4.72599983215 1.1779999733 -0.171000003815 139.0
4.72499990463 1.14800000191 -0.170000001788 144.0
4.757999897 1.12699997425 -0.171000003815 140.0
4.77699995041 1.10199999809 -0.172000005841 138.0
4.76599979401 1.07000005245 -0.171000003815 131.0
4.78599977493 1.04600000381 -0.171000003815 131.0
4.79899978638 1.01900005341 -0.171000003815 130.0
4.8220000267 0.995000004768 -0.172000005841 134.0
4.79799985886 0.961000025272 -0.171000003815 132.0
4.83099985123 0.938000023365 -0.172000005841 130.0
4.85099983215 0.912999987602 -0.172000005841 130.0
4.83500003815 0.880999982357 -0.171000003815 134.0
4.83300018311 0.851999998093 -0.171000003815 128.0
4.87599992752 0.829999983311 -0.172000005841 124.0
4.89799976349 0.805000007153 -0.172999992967 133.0
4.87400007248 0.772000014782 -0.172000005841 121.0
4.87799978256 0.744000017643 -0.171000003815 123.0
4.92199993134 0.721000015736 -0.172999992967 118.0
4.91400003433 0.690999984741 -0.172000005841 119.0
4.91499996185 0.662000000477 -0.172000005841 117.0
4.88899993896 0.629999995232 -0.171000003815 117.0
4.95100021362 0.60900002718 -0.172999992967 121.0
4.95100021362 0.579999983311 -0.172999992967 116.0
4.96099996567 0.551999986172 -0.172999992967 119.0
4.92600011826 0.519999980927 -0.171000003815 115.0
4.97599983215 0.495999991894 -0.172999992967 117.0
4.98299980164 0.467999994755 -0.172999992967 113.0
4.98299980164 0.43900001049 -0.172999992967 111.0
4.98500013351 0.409999996424 -0.172000005841 98.0
4.98299980164 0.381000012159 -0.172000005841 57.0
0.652999997139 -0.0109999999404 -0.0230000000447 93.0
0.991999983788 -0.0250000003725 -0.0340000018477 896.0
0.962999999523 -0.0289999991655 -0.0329999998212 622.0
0.819000005722 -0.0289999991655 -0.0280000008643 187.0
0.806999981403 -0.0329999998212 -0.0280000008643 185.0
0.81099998951 -0.0379999987781 -0.0280000008643 179.0
0.783999979496 -0.0410000011325 -0.0270000007004 188.0
0.81400001049 -0.0480000004172 -0.0280000008643 185.0
0.757000029087 -0.0480000004172 -0.0260000005364 184.0
0.785000026226 -0.054999999702 -0.0270000007004 188.0
0.77999997139 -0.0590000003576 -0.0270000007004 188.0
0.786000013351 -0.0640000030398 -0.0270000007004 185.0
0.833999991417 -0.0729999989271 -0.0289999991655 189.0
0.791999995708 -0.0740000009537 -0.0270000007004 190.0
0.801999986172 -0.0790000036359 -0.0270000007004 195.0
0.787999987602 -0.082000002265 -0.0270000007004 200.0
0.939999997616 -0.104000002146 -0.0320000015199 584.0
0.973999977112 -0.11400000006 -0.0329999998212 1250.0
0.973999977112 -0.119999997318 -0.0329999998212 1286.0
0.977999985218 -0.126000002027 -0.0329999998212 1291.0
0.971000015736 -0.130999997258 -0.0329999998212 1292.0
0.975000023842 -0.136999994516 -0.0329999998212 1320.0
0.971000015736 -0.142000004649 -0.0329999998212 1330.0
0.96899998188 -0.146999999881 -0.0329999998212 1327.0
0.964999973774 -0.151999995112 -0.0329999998212 1329.0
0.967000007629 -0.158000007272 -0.0329999998212 1347.0
0.966000020504 -0.16400000453 -0.0329999998212 1355.0
0.963999986649 -0.168999999762 -0.0329999998212 1358.0
0.964999973774 -0.17499999702 -0.0329999998212 1364.0
0.96899998188 -0.181999996305 -0.0329999998212 1357.0
0.955999970436 -0.185000002384 -0.0329999998212 1274.0
0.893999993801 -0.178000003099 -0.0299999993294 403.0
0.787000000477 -0.16099999845 -0.0270000007004 219.0
0.763999998569 -0.16099999845 -0.0260000005364 217.0
0.773999989033 -0.167999997735 -0.0260000005364 214.0
0.777000010014 -0.172999992967 -0.0270000007004 216.0
0.782000005245 -0.179000005126 -0.0270000007004 218.0
0.754999995232 -0.177000001073 -0.0260000005364 218.0
0.790000021458 -0.190999999642 -0.0270000007004 224.0
0.762000024319 -0.187999993563 -0.0260000005364 223.0
0.800000011921 -0.202999994159 -0.0270000007004 222.0
0.769999980927 -0.20000000298 -0.0260000005364 225.0
0.773999989033 -0.206000000238 -0.0270000007004 230.0
0.772000014782 -0.209999993443 -0.0260000005364 226.0
0.777999997139 -0.216999992728 -0.0270000007004 232.0
0.916999995708 -0.261999994516 -0.0309999994934 824.0
0.944000005722 -0.275999993086 -0.0320000015199 1431.0
0.93900001049 -0.280000001192 -0.0320000015199 1459.0
0.931999981403 -0.284000009298 -0.0320000015199 1483.0
0.934000015259 -0.291000008583 -0.0320000015199 1483.0
0.935000002384 -0.29699999094 -0.0320000015199 1493.0
0.935000002384 -0.303000003099 -0.0320000015199 1486.0
0.929000020027 -0.307000011206 -0.0320000015199 1491.0
0.930000007153 -0.31400001049 -0.0320000015199 1505.0
0.924000024796 -0.317999988794 -0.0320000015199 1507.0
0.926999986172 -0.324999988079 -0.0320000015199 1502.0
0.922999978065 -0.328999996185 -0.0320000015199 1508.0
0.921000003815 -0.335000008345 -0.0320000015199 1514.0
0.915000021458 -0.338999986649 -0.0320000015199 1514.0
0.90600001812 -0.342000007629 -0.0309999994934 1053.0
0.805000007153 -0.308999985456 -0.0280000008643 298.0
0.749000012875 -0.291999995708 -0.0260000005364 237.0
0.717999994755 -0.284999996424 -0.0250000003725 239.0
0.717000007629 -0.28900000453 -0.0250000003725 233.0
0.71899998188 -0.294999986887 -0.0250000003725 235.0
0.681999981403 -0.284000009298 -0.0240000002086 233.0
0.708000004292 -0.300000011921 -0.0250000003725 243.0
0.717999994755 -0.310000002384 -0.0250000003725 235.0
0.686999976635 -0.300999999046 -0.0240000002086 235.0
0.703999996185 -0.31400001049 -0.0250000003725 237.0
0.694000005722 -0.31400001049 -0.0240000002086 248.0
0.676999986172 -0.31099998951 -0.0240000002086 245.0
0.693000018597 -0.324000000954 -0.0250000003725 251.0
0.873000025749 -0.416000008583 -0.0309999994934 1100.0
0.888999998569 -0.430999994278 -0.0309999994934 1528.0
0.888999998569 -0.437000006437 -0.0309999994934 1563.0
0.89099997282 -0.444999992847 -0.0320000015199 1544.0
0.887000024319 -0.449999988079 -0.0320000015199 1546.0
0.887000024319 -0.456999987364 -0.0320000015199 1555.0
0.879000008106 -0.460000008345 -0.0309999994934 1539.0
0.882000029087 -0.467999994755 -0.0320000015199 1542.0
0.879000008106 -0.472999989986 -0.0309999994934 1574.0
0.878000020981 -0.479999989271 -0.0320000015199 1543.0
0.878000020981 -0.486999988556 -0.0320000015199 1538.0
4.37099981308 2.507999897 -0.209000006318 135.0
4.35500001907 2.46300005913 -0.207000002265 126.0
4.35799980164 2.42899990082 -0.207000002265 127.0
4.34499979019 2.38599991798 -0.204999998212 131.0
4.37300014496 2.36599993706 -0.206000000238 130.0
4.35400009155 2.3220000267 -0.203999996185 133.0
4.40500020981 2.31399989128 -0.206000000238 128.0
4.39400005341 2.27399992943 -0.204999998212 128.0
4.42000007629 2.25200009346 -0.204999998212 124.0
4.39699983597 2.20700001717 -0.203999996185 125.0
4.29400014877 2.12199997902 -0.197999998927 111.0
3.98900008202 1.94099998474 -0.182999998331 121.0
4.07399988174 1.95200002193 -0.187000006437 118.0
4.33300018311 2.04399991035 -0.197999998927 123.0
4.32499980927 2.00699996948 -0.196999996901 132.0
4.21500015259 1.92599999905 -0.190999999642 175.0
4.1859998703 1.88199996948 -0.188999995589 176.0
4.32899999619 1.91499996185 -0.194999992847 159.0
4.22100019455 1.83599996567 -0.189999997616 178.0
4.30700016022 1.84300005436 -0.193000003695 183.0
4.34100008011 1.8259999752 -0.194000005722 176.0
4.34899997711 1.7990000248 -0.194000005722 203.0
4.34000015259 1.76499998569 -0.193000003695 198.0
4.33799982071 1.73399996758 -0.192000001669 203.0
4.36299991608 1.71300005913 -0.193000003695 183.0
4.38100004196 1.69000005722 -0.193000003695 178.0
4.39400005341 1.66499996185 -0.193000003695 180.0
4.42199993134 1.64600002766 -0.194000005722 186.0
4.41200017929 1.61199998856 -0.193000003695 183.0
4.39200019836 1.57500004768 -0.192000001669 176.0
4.40100002289 1.5490000248 -0.192000001669 178.0
4.41400003433 1.52400004864 -0.192000001669 182.0
4.40600013733 1.49199998379 -0.190999999642 179.0
4.41400003433 1.4659999609 -0.190999999642 182.0
4.41599988937 1.43799996376 -0.190999999642 172.0
4.43200016022 1.41400003433 -0.190999999642 171.0
4.40600013733 1.37699997425 -0.188999995589 177.0
4.40500020981 1.34800004959 -0.188999995589 182.0
4.41900014877 1.32400000095 -0.188999995589 186.0
4.40999984741 1.29299998283 -0.187999993563 187.0
4.38800001144 1.25899994373 -0.187000006437 187.0
4.41300010681 1.23800003529 -0.187999993563 177.0
4.4439997673 1.21899998188 -0.187999993563 174.0
4.41499996185 1.18299996853 -0.187000006437 175.0
4.52799987793 1.18499994278 -0.190999999642 157.0
4.73799991608 1.21000003815 -0.20000000298 129.0
4.72800016403 1.1779999733 -0.199000000954 140.0
4.73299980164 1.14999997616 -0.199000000954 144.0
4.75400018692 1.12600004673 -0.199000000954 141.0
4.75600004196 1.09700000286 -0.199000000954 135.0
4.77899980545 1.07299995422 -0.20000000298 134.0
4.80700016022 1.04999995232 -0.20000000298 131.0
4.80200004578 1.01999998093 -0.20000000298 132.0
4.79799985886 0.990000009537 -0.199000000954 134.0
4.83599996567 0.96899998188 -0.201000005007 138.0
4.84299993515 0.940999984741 -0.201000005007 137.0
4.83599996567 0.910000026226 -0.20000000298 130.0
4.83300018311 0.880999982357 -0.20000000298 132.0
4.85200023651 0.855000019073 -0.20000000298 126.0
4.867000103 0.828999996185 -0.20000000298 125.0
4.87400007248 0.800999999046 -0.20000000298 128.0
4.88700008392 0.773999989033 -0.201000005007 123.0
4.88500022888 0.745000004768 -0.20000000298 123.0
4.875 0.713999986649 -0.199000000954 119.0
4.91599988937 0.690999984741 -0.201000005007 119.0
4.93499994278 0.665000021458 -0.201000005007 116.0
4.92999982834 0.635999977589 -0.201000005007 119.0
4.9279999733 0.606000006199 -0.201000005007 115.0
4.9359998703 0.57800000906 -0.201000005007 117.0
4.97599983215 0.554000020027 -0.202000007033 118.0
4.9470000267 0.522000014782 -0.201000005007 121.0
4.96600008011 0.495000004768 -0.201000005007 111.0
4.99399995804 0.469000011683 -0.202000007033 109.0
4.96400022507 0.437000006437 -0.201000005007 113.0
4.98000001907 0.409999996424 -0.201000005007 94.0
0.740999996662 -0.0130000002682 -0.0299999993294 111.0
0.986999988556 -0.0240000002086 -0.0399999991059 917.0
0.972999989986 -0.0299999993294 -0.0390000008047 611.0
0.814999997616 -0.0289999991655 -0.0329999998212 193.0
0.797999978065 -0.0329999998212 -0.0320000015199 180.0
0.81099998951 -0.0379999987781 -0.0329999998212 185.0
0.787999987602 -0.0419999994338 -0.0320000015199 182.0
0.783999979496 -0.0460000000894 -0.0309999994934 183.0
0.786000013351 -0.0500000007451 -0.0320000015199 188.0
0.800000011921 -0.0560000017285 -0.0320000015199 185.0
0.776000022888 -0.0590000003576 -0.0309999994934 186.0
0.791999995708 -0.0649999976158 -0.0320000015199 183.0
0.806999981403 -0.070000000298 -0.0320000015199 191.0
0.790000021458 -0.0729999989271 -0.0320000015199 194.0
0.777999997139 -0.0769999995828 -0.0309999994934 194.0
0.788999974728 -0.082999996841 -0.0320000015199 204.0
0.949999988079 -0.105999998748 -0.0379999987781 608.0
0.976999998093 -0.11400000006 -0.0390000008047 1240.0
0.976000010967 -0.119999997318 -0.0390000008047 1284.0
0.977999985218 -0.126000002027 -0.0390000008047 1289.0
0.967999994755 -0.129999995232 -0.0390000008047 1302.0
0.972999989986 -0.136999994516 -0.0390000008047 1320.0
0.975000023842 -0.143000006676 -0.0390000008047 1330.0
0.97000002861 -0.148000001907 -0.0390000008047 1318.0
0.972000002861 -0.153999999166 -0.0390000008047 1333.0
0.971000015736 -0.158999994397 -0.0390000008047 1347.0
0.967000007629 -0.16400000453 -0.0390000008047 1353.0
0.966000020504 -0.170000001788 -0.0390000008047 1363.0
0.963999986649 -0.17499999702 -0.0379999987781 1379.0
0.962999999523 -0.180999994278 -0.0379999987781 1369.0
0.962000012398 -0.186000004411 -0.0379999987781 1261.0
0.883000016212 -0.175999999046 -0.035000000149 384.0
0.785000026226 -0.16099999845 -0.0309999994934 219.0
0.787000000477 -0.165999993682 -0.0309999994934 221.0
0.776000022888 -0.167999997735 -0.0309999994934 221.0
0.764999985695 -0.171000003815 -0.0309999994934 219.0
0.777000010014 -0.178000003099 -0.0309999994934 221.0
0.754000008106 -0.177000001073 -0.0299999993294 221.0
0.796000003815 -0.192000001669 -0.0320000015199 222.0
0.768000006676 -0.189999997616 -0.0309999994934 225.0
0.76599997282 -0.194000005722 -0.0309999994934 223.0
0.753000020981 -0.194999992847 -0.0299999993294 226.0
0.760999977589 -0.202000007033 -0.0309999994934 228.0
0.774999976158 -0.21099999547 -0.0309999994934 230.0
0.785000026226 -0.218999996781 -0.0320000015199 225.0
0.921000003815 -0.263000011444 -0.0370000004768 851.0
0.93900001049 -0.273999989033 -0.0379999987781 1427.0
0.934000015259 -0.279000014067 -0.0379999987781 1456.0
0.935000002384 -0.284999996424 -0.0379999987781 1484.0
0.930999994278 -0.289999991655 -0.0370000004768 1481.0
0.936999976635 -0.298000007868 -0.0379999987781 1487.0
0.931999981403 -0.301999986172 -0.0379999987781 1485.0
0.926999986172 -0.307000011206 -0.0370000004768 1491.0
0.934000015259 -0.314999997616 -0.0379999987781 1501.0
0.926999986172 -0.319000005722 -0.0379999987781 1504.0
0.921000003815 -0.323000013828 -0.0370000004768 1498.0
0.930000007153 -0.331999987364 -0.0379999987781 1505.0
0.922999978065 -0.33599999547 -0.0370000004768 1513.0
0.919000029564 -0.340999990702 -0.0370000004768 1522.0
0.899999976158 -0.338999986649 -0.0370000004768 1019.0
0.790000021458 -0.303000003099 -0.0320000015199 293.0
0.71899998188 -0.280000001192 -0.0289999991655 231.0
0.740999996662 -0.293999999762 -0.0299999993294 234.0
0.708000004292 -0.284999996424 -0.0289999991655 237.0
0.705999970436 -0.289999991655 -0.0289999991655 244.0
0.714999973774 -0.298999994993 -0.0289999991655 238.0
0.700999975204 -0.298000007868 -0.0289999991655 233.0
0.680999994278 -0.293999999762 -0.0280000008643 238.0
0.725000023842 -0.317999988794 -0.0299999993294 231.0
0.711000025272 -0.317000001669 -0.0289999991655 237.0
0.699999988079 -0.317999988794 -0.0289999991655 244.0
0.683000028133 -0.314999997616 -0.0280000008643 244.0
0.703999996185 -0.330000013113 -0.0289999991655 260.0
0.878000020981 -0.418999999762 -0.0370000004768 1115.0
0.885999977589 -0.428999990225 -0.0370000004768 1525.0
0.89200001955 -0.43900001049 -0.0370000004768 1538.0
0.887000024319 -0.442999988794 -0.0370000004768 1534.0
0.887000024319 -0.449999988079 -0.0370000004768 1553.0
0.884000003338 -0.455000013113 -0.0370000004768 1547.0
0.882000029087 -0.46099999547 -0.0370000004768 1557.0
0.879000008106 -0.467000007629 -0.0370000004768 1553.0
0.874000012875 -0.470999985933 -0.0370000004768 1551.0
0.875 -0.479000002146 -0.0370000004768 1566.0
0.874000012875 -0.485000014305 -0.0370000004768 1545.0
4.34200000763 2.492000103 -0.236000001431 127.0
4.36499977112 2.46900010109 -0.236000001431 132.0
4.367000103 2.43400001526 -0.236000001431 121.0
4.38399982452 2.40799999237 -0.236000001431 124.0
4.36999988556 2.36500000954 -0.233999997377 131.0
4.41400003433 2.35400009155 -0.236000001431 129.0
4.40199995041 2.31200003624 -0.233999997377 122.0
4.42600011826 2.28999996185 -0.234999999404 131.0
4.39699983597 2.24099993706 -0.231999993324 126.0
4.42299985886 2.22000002861 -0.232999995351 121.0
4.29799985886 2.125 -0.225999996066 114.0
4.00500011444 1.94900000095 -0.209999993443 112.0
4.05399990082 1.94200003147 -0.21099999547 115.0
4.33300018311 2.04399991035 -0.22499999404 133.0
4.26599979401 1.98000001907 -0.221000000834 137.0
4.15799999237 1.89999997616 -0.215000003576 170.0
4.18400001526 1.88100004196 -0.216000005603 162.0
4.30700016022 1.90499997139 -0.221000000834 154.0
4.24499988556 1.84700000286 -0.216999992728 181.0
4.28700017929 1.83399999142 -0.218999996781 179.0
4.33599996567 1.82500004768 -0.221000000834 192.0
4.34399986267 1.79700005054 -0.221000000834 209.0
4.35599994659 1.77199995518 -0.221000000834 198.0
4.34800004959 1.73800003529 -0.219999998808 197.0
4.35699987411 1.71099996567 -0.218999996781 185.0
4.38000011444 1.69000005722 -0.219999998808 180.0
4.37400007248 1.65799999237 -0.218999996781 193.0
4.39200019836 1.63499999046 -0.219999998808 187.0
4.39599990845 1.60599994659 -0.218999996781 192.0
4.38999986649 1.57500004768 -0.217999994755 191.0
4.39300012589 1.54600000381 -0.217999994755 184.0
4.39300012589 1.51699995995 -0.217999994755 184.0
4.41200017929 1.49500000477 -0.217999994755 181.0
4.41699981689 1.46700000763 -0.217999994755 183.0
4.42199993134 1.44000005722 -0.216999992728 184.0
4.45100021362 1.41999995708 -0.217999994755 181.0
4.40999984741 1.3789999485 -0.216000005603 176.0
4.39300012589 1.34500002861 -0.215000003576 185.0
4.41400003433 1.32299995422 -0.215000003576 185.0
4.44199991226 1.3029999733 -0.216000005603 188.0
4.40600013733 1.26400005817 -0.21400000155 186.0
4.41499996185 1.23899996281 -0.21400000155 173.0
4.45900011063 1.22300004959 -0.216000005603 170.0
4.46700000763 1.1970000267 -0.216000005603 169.0
4.52099990845 1.18299996853 -0.217999994755 154.0
4.72800016403 1.20799994469 -0.226999998093 123.0
4.7610001564 1.18700003624 -0.229000002146 139.0
4.757999897 1.15699994564 -0.228000000119 139.0
4.73400020599 1.12199997902 -0.225999996066 146.0
4.78800010681 1.10500001907 -0.229000002146 134.0
4.80399990082 1.07899999619 -0.229000002146 132.0
4.76700019836 1.04200005531 -0.226999998093 135.0
4.78900003433 1.01699995995 -0.226999998093 130.0
4.80499982834 0.991999983788 -0.228000000119 137.0
4.81300020218 0.963999986649 -0.228000000119 130.0
4.84100008011 0.940999984741 -0.229000002146 132.0
4.83400011063 0.910000026226 -0.228000000119 132.0
4.84399986267 0.883000016212 -0.228000000119 135.0
4.86100006104 0.856999993324 -0.229000002146 128.0
4.86999988556 0.828999996185 -0.229000002146 127.0
4.88100004196 0.801999986172 -0.229000002146 121.0
4.90000009537 0.776000022888 -0.230000004172 124.0
4.91099977493 0.749000012875 -0.230000004172 124.0
4.93200016022 0.722999989986 -0.231000006199 119.0
4.92600011826 0.693000018597 -0.230000004172 121.0
4.92199993134 0.662999987602 -0.230000004172 124.0
4.93200016022 0.635999977589 -0.230000004172 122.0
4.95800018311 0.610000014305 -0.231000006199 118.0
4.94999980927 0.579999983311 -0.230000004172 121.0
4.94099998474 0.550000011921 -0.229000002146 121.0
4.95499992371 0.523000001907 -0.230000004172 117.0
4.94000005722 0.49200001359 -0.229000002146 116.0
4.99100017548 0.467999994755 -0.231000006199 111.0
4.96400022507 0.437000006437 -0.229000002146 112.0
4.98299980164 0.409999996424 -0.230000004172 93.0
4.95499992371 0.379000008106 -0.229000002146 48.0
0.709999978542 -0.0130000002682 -0.0329999998212 107.0
0.991999983788 -0.0250000003725 -0.0450000017881 937.0
0.96899998188 -0.0299999993294 -0.0439999997616 596.0
0.815999984741 -0.0289999991655 -0.0370000004768 188.0
0.824000000954 -0.0340000018477 -0.0379999987781 186.0
0.805999994278 -0.0379999987781 -0.0370000004768 184.0
0.78100001812 -0.0410000011325 -0.0359999984503 188.0
0.787999987602 -0.0460000000894 -0.0359999984503 188.0
0.808000028133 -0.0520000010729 -0.0370000004768 191.0
0.808000028133 -0.0570000000298 -0.0370000004768 185.0
0.782000005245 -0.0590000003576 -0.0359999984503 188.0
0.790000021458 -0.0640000030398 -0.0359999984503 189.0
0.805000007153 -0.070000000298 -0.0370000004768 194.0
0.805999994278 -0.0750000029802 -0.0370000004768 191.0
0.77999997139 -0.0769999995828 -0.0359999984503 198.0
0.788999974728 -0.082999996841 -0.0359999984503 202.0
0.95300000906 -0.105999998748 -0.0439999997616 626.0
0.973999977112 -0.11400000006 -0.0439999997616 1257.0
0.973999977112 -0.119999997318 -0.0439999997616 1286.0
0.976999998093 -0.126000002027 -0.0450000017881 1281.0
0.976000010967 -0.130999997258 -0.0450000017881 1297.0
0.972000002861 -0.136000007391 -0.0439999997616 1311.0
0.972999989986 -0.142000004649 -0.0439999997616 1319.0
0.967000007629 -0.146999999881 -0.0439999997616 1315.0
0.97000002861 -0.152999997139 -0.0439999997616 1333.0
0.962999999523 -0.158000007272 -0.0439999997616 1346.0
0.967999994755 -0.165000006557 -0.0439999997616 1356.0
0.964999973774 -0.170000001788 -0.0439999997616 1357.0
0.963999986649 -0.17499999702 -0.0439999997616 1362.0
0.967000007629 -0.181999996305 -0.0439999997616 1372.0
0.954999983311 -0.185000002384 -0.0439999997616 1243.0
0.884000003338 -0.175999999046 -0.0399999991059 375.0
0.77999997139 -0.159999996424 -0.0359999984503 220.0
0.778999984264 -0.16400000453 -0.0359999984503 226.0
0.772000014782 -0.166999995708 -0.035000000149 218.0
0.754999995232 -0.167999997735 -0.035000000149 219.0
0.758000016212 -0.173999994993 -0.035000000149 216.0
0.754999995232 -0.177000001073 -0.035000000149 229.0
0.783999979496 -0.188999995589 -0.0359999984503 223.0
0.778999984264 -0.193000003695 -0.0359999984503 227.0
0.797999978065 -0.202000007033 -0.0370000004768 227.0
0.760999977589 -0.197999998927 -0.035000000149 229.0
0.763000011444 -0.202999994159 -0.035000000149 226.0
0.764999985695 -0.208000004292 -0.035000000149 232.0
0.772000014782 -0.215000003576 -0.0359999984503 233.0
0.92199999094 -0.263999998569 -0.0430000014603 872.0
0.935000002384 -0.273000001907 -0.0430000014603 1425.0
0.93599998951 -0.280000001192 -0.0430000014603 1452.0
0.940999984741 -0.287000000477 -0.0439999997616 1470.0
0.93599998951 -0.291999995708 -0.0430000014603 1483.0
0.934000015259 -0.29699999094 -0.0430000014603 1484.0
0.927999973297 -0.300999999046 -0.0430000014603 1489.0
0.925000011921 -0.305999994278 -0.0430000014603 1490.0
0.926999986172 -0.312999993563 -0.0430000014603 1494.0
0.930999994278 -0.319999992847 -0.0430000014603 1506.0
0.925999999046 -0.324999988079 -0.0430000014603 1496.0
0.926999986172 -0.331000000238 -0.0430000014603 1504.0
0.921000003815 -0.335000008345 -0.0430000014603 1513.0
0.926999986172 -0.344000011683 -0.0430000014603 1511.0
0.901000022888 -0.340000003576 -0.0419999994338 1008.0
0.78100001812 -0.300000011921 -0.0370000004768 292.0
0.735000014305 -0.286000013351 -0.035000000149 239.0
0.73299998045 -0.291000008583 -0.035000000149 241.0
0.736999988556 -0.298000007868 -0.035000000149 245.0
0.707000017166 -0.289999991655 -0.0329999998212 234.0
0.721000015736 -0.300999999046 -0.0340000018477 241.0
0.717999994755 -0.305000007153 -0.0340000018477 246.0
0.669000029564 -0.287999987602 -0.0320000015199 238.0
0.698000013828 -0.305999994278 -0.0329999998212 246.0
0.686999976635 -0.305999994278 -0.0329999998212 233.0
0.702000021935 -0.317999988794 -0.0329999998212 246.0
0.680000007153 -0.312999993563 -0.0329999998212 240.0
0.723999977112 -0.338999986649 -0.035000000149 258.0
0.884000003338 -0.42199999094 -0.0419999994338 1146.0
0.888999998569 -0.430999994278 -0.0430000014603 1515.0
0.89099997282 -0.43900001049 -0.0430000014603 1544.0
0.887000024319 -0.442999988794 -0.0430000014603 1542.0
0.888999998569 -0.451000005007 -0.0430000014603 1551.0
0.884999990463 -0.456000000238 -0.0430000014603 1558.0
0.879000008106 -0.460000008345 -0.0430000014603 1554.0
0.882000029087 -0.467999994755 -0.0430000014603 1554.0
0.876999974251 -0.472999989986 -0.0430000014603 1561.0
0.875999987125 -0.479000002146 -0.0430000014603 1541.0
0.876999974251 -0.486999988556 -0.0430000014603 1539.0
4.36199998856 2.5039999485 -0.264999985695 129.0
4.34399986267 2.45799994469 -0.263000011444 128.0
4.37300014496 2.43799996376 -0.263999998569 120.0
4.39200019836 2.41300010681 -0.263999998569 126.0
4.39900016785 2.38199996948 -0.263999998569 115.0
4.45100021362 2.37400007248 -0.266000002623 130.0
4.4390001297 2.33200001717 -0.264999985695 116.0
4.43699979782 2.29600000381 -0.263999998569 109.0
4.41099977493 2.24900007248 -0.261000007391 106.0
4.43800020218 2.22799992561 -0.261999994516 121.0
4.33699989319 2.14400005341 -0.254999995232 120.0
4.05800008774 1.97599995136 -0.238000005484 118.0
4.17000007629 1.99899995327 -0.244000002742 117.0
4.367000103 2.05999994278 -0.254999995232 122.0
4.38500022888 2.03600001335 -0.254999995232 127.0
4.22700023651 1.93200004101 -0.245000004768 164.0
4.20699977875 1.89199995995 -0.243000000715 165.0
4.32299995422 1.9129999876 -0.248999997973 145.0
4.25400018692 1.85099995136 -0.244000002742 175.0
4.32800006866 1.85199999809 -0.247999995947 174.0
4.38800001144 1.84700000286 -0.250999987125 177.0
4.35699987411 1.8029999733 -0.247999995947 192.0
4.36100006104 1.77400004864 -0.247999995947 185.0
4.36600017548 1.74500000477 -0.24699999392 187.0
4.37900018692 1.72000002861 -0.247999995947 183.0
4.40899991989 1.7009999752 -0.248999997973 171.0
4.39099979401 1.66499996185 -0.24699999392 180.0
4.39099979401 1.63499999046 -0.246000006795 191.0
4.39799976349 1.60800004005 -0.246000006795 182.0
4.38500022888 1.57299995422 -0.245000004768 185.0
4.40199995041 1.54999995232 -0.245000004768 178.0
4.41800022125 1.52600002289 -0.246000006795 188.0
4.41200017929 1.49500000477 -0.245000004768 176.0
4.43400001526 1.47300004959 -0.245000004768 175.0
4.42899990082 1.44200003147 -0.245000004768 189.0
4.42299985886 1.41199994087 -0.244000002742 185.0
4.44999980927 1.39100003242 -0.245000004768 175.0
4.42000007629 1.35300004482 -0.241999998689 184.0
4.41599988937 1.32400000095 -0.241999998689 180.0
4.42299985886 1.29700005054 -0.241999998689 184.0
4.41800022125 1.26800000668 -0.240999996662 181.0
4.46199989319 1.25199997425 -0.243000000715 175.0
4.44299983978 1.21899998188 -0.240999996662 170.0
4.43300008774 1.18799996376 -0.239999994636 175.0
4.50899982452 1.17999994755 -0.244000002742 156.0
4.742000103 1.2120000124 -0.256000012159 129.0
4.76399993896 1.18700003624 -0.256999999285 142.0
4.73500013351 1.15100002289 -0.254999995232 142.0
4.74700021744 1.125 -0.254999995232 147.0
4.78399991989 1.10399997234 -0.256999999285 138.0
4.80700016022 1.08000004292 -0.256999999285 131.0
4.78000020981 1.04499995708 -0.256000012159 132.0
4.78999996185 1.01800000668 -0.256000012159 138.0
4.8220000267 0.995000004768 -0.256999999285 134.0
4.83400011063 0.967999994755 -0.256999999285 130.0
4.83099985123 0.93900001049 -0.256999999285 137.0
4.79899978638 0.903999984264 -0.254999995232 134.0
4.88199996948 0.889999985695 -0.259000003338 130.0
4.85200023651 0.855000019073 -0.256999999285 125.0
4.86100006104 0.82800000906 -0.256999999285 132.0
4.88399982452 0.802999973297 -0.25799998641 131.0
4.89099979401 0.774999976158 -0.25799998641 128.0
4.91499996185 0.75 -0.259000003338 119.0
4.875 0.714999973774 -0.256000012159 124.0
4.92000007629 0.691999971867 -0.25799998641 117.0
4.92399978638 0.663999974728 -0.25799998641 125.0
4.91900014877 0.634000003338 -0.25799998641 120.0
4.91599988937 0.605000019073 -0.256999999285 117.0
4.9279999733 0.577000021935 -0.25799998641 117.0
4.9889998436 0.555000007153 -0.261000007391 121.0
4.97700023651 0.524999976158 -0.259999990463 117.0
4.95800018311 0.493999987841 -0.25799998641 120.0
4.99700021744 0.469000011683 -0.259999990463 114.0
5.00199985504 0.439999997616 -0.259999990463 107.0
0.00999999977648 0.00200000009499 -0.0010000000475 85.0
0.157000005245 0.0 -0.00800000037998 51.0
0.730000019073 -0.0130000002682 -0.0379999987781 115.0
0.986999988556 -0.0250000003725 -0.0509999990463 948.0
0.971000015736 -0.0299999993294 -0.0500000007451 720.0
0.938000023365 -0.0340000018477 -0.0480000004172 411.0
0.925000011921 -0.0390000008047 -0.0480000004172 391.0
0.927999973297 -0.0439999997616 -0.0480000004172 379.0
0.903999984264 -0.0480000004172 -0.0469999983907 365.0
0.919000029564 -0.0540000014007 -0.0469999983907 345.0
0.898999989033 -0.0579999983311 -0.0460000000894 337.0
0.908999979496 -0.0640000030398 -0.0469999983907 328.0
0.898000001907 -0.0680000036955 -0.0460000000894 313.0
0.893999993801 -0.0729999989271 -0.0460000000894 308.0
0.889999985695 -0.0780000016093 -0.0460000000894 295.0
0.879999995232 -0.082000002265 -0.0450000017881 297.0
0.876999974251 -0.0869999974966 -0.0450000017881 290.0
0.862999975681 -0.0909999981523 -0.0439999997616 282.0
0.948000013828 -0.104999996722 -0.0489999987185 668.0
0.972000002861 -0.11400000006 -0.0500000007451 1176.0
0.97000002861 -0.119000002742 -0.0500000007451 1215.0
0.971000015736 -0.125 -0.0500000007451 1225.0
0.971000015736 -0.130999997258 -0.0500000007451 1249.0
0.973999977112 -0.136999994516 -0.0500000007451 1266.0
0.97000002861 -0.142000004649 -0.0500000007451 1271.0
0.971000015736 -0.148000001907 -0.0500000007451 1276.0
0.967000007629 -0.152999997139 -0.0500000007451 1306.0
0.959999978542 -0.157000005245 -0.0489999987185 1313.0
0.967000007629 -0.16400000453 -0.0500000007451 1331.0
0.963999986649 -0.170000001788 -0.0500000007451 1340.0
0.959999978542 -0.17499999702 -0.0489999987185 1343.0
0.961000025272 -0.180999994278 -0.0500000007451 1345.0
0.950999975204 -0.184000000358 -0.0489999987185 1212.0
0.879000008106 -0.17499999702 -0.0450000017881 373.0
0.787000000477 -0.16099999845 -0.0410000011325 237.0
0.811999976635 -0.172000005841 -0.0419999994338 231.0
0.813000023365 -0.177000001073 -0.0419999994338 236.0
0.774999976158 -0.172999992967 -0.0399999991059 236.0
0.783999979496 -0.180000007153 -0.0410000011325 221.0
0.773999989033 -0.181999996305 -0.0399999991059 232.0
0.764999985695 -0.185000002384 -0.0399999991059 233.0
0.788999974728 -0.194999992847 -0.0410000011325 235.0
0.782999992371 -0.199000000954 -0.0410000011325 235.0
0.787000000477 -0.204999998212 -0.0410000011325 232.0
0.778999984264 -0.207000002265 -0.0410000011325 225.0
0.785000026226 -0.21400000155 -0.0410000011325 243.0
0.776000022888 -0.216000005603 -0.0399999991059 240.0
0.925999999046 -0.264999985695 -0.0480000004172 900.0
0.93599998951 -0.273999989033 -0.0489999987185 1431.0
0.936999976635 -0.280000001192 -0.0489999987185 1462.0
0.93900001049 -0.287000000477 -0.0489999987185 1474.0
0.929000020027 -0.28900000453 -0.0489999987185 1474.0
0.930000007153 -0.296000003815 -0.0489999987185 1471.0
0.931999981403 -0.301999986172 -0.0489999987185 1481.0
0.925999999046 -0.307000011206 -0.0489999987185 1478.0
0.930999994278 -0.31400001049 -0.0489999987185 1494.0
0.925000011921 -0.317999988794 -0.0489999987185 1491.0
0.922999978065 -0.324000000954 -0.0489999987185 1492.0
0.92199999094 -0.330000013113 -0.0489999987185 1499.0
0.925999999046 -0.337000012398 -0.0489999987185 1511.0
0.916999995708 -0.340000003576 -0.0480000004172 1502.0
0.902999997139 -0.340999990702 -0.0480000004172 957.0
0.783999979496 -0.300999999046 -0.0419999994338 298.0
0.745000004768 -0.291000008583 -0.0399999991059 247.0
0.71899998188 -0.284999996424 -0.0379999987781 244.0
0.730000019073 -0.294999986887 -0.0390000008047 240.0
0.726999998093 -0.298999994993 -0.0390000008047 242.0
0.709999978542 -0.29699999094 -0.0379999987781 237.0
0.699000000954 -0.29699999094 -0.0370000004768 242.0
0.705999970436 -0.305000007153 -0.0379999987781 239.0
0.698000013828 -0.307000011206 -0.0379999987781 238.0
0.702000021935 -0.312999993563 -0.0379999987781 238.0
0.70300000906 -0.319000005722 -0.0379999987781 240.0
0.683000028133 -0.314999997616 -0.0370000004768 243.0
0.695999979973 -0.326000005007 -0.0379999987781 264.0
0.880999982357 -0.421000003815 -0.0480000004172 1169.0
0.888999998569 -0.430999994278 -0.0480000004172 1521.0
0.887000024319 -0.437000006437 -0.0480000004172 1546.0
0.884000003338 -0.442000001669 -0.0480000004172 1540.0
0.884000003338 -0.449000000954 -0.0480000004172 1542.0
0.887000024319 -0.458000004292 -0.0489999987185 1534.0
0.879000008106 -0.460000008345 -0.0480000004172 1550.0
0.879000008106 -0.467000007629 -0.0480000004172 1548.0
0.878000020981 -0.472999989986 -0.0480000004172 1564.0
0.875 -0.479000002146 -0.0480000004172 1553.0
0.870000004768 -0.483000010252 -0.0480000004172 1539.0
4.39300012589 2.52200007439 -0.296000003815 131.0
4.36199998856 2.46900010109 -0.293000012636 124.0
4.40999984741 2.46000003815 -0.294999986887 121.0
4.4390001297 2.43899989128 -0.296000003815 127.0
4.38199996948 2.37299990654 -0.291000008583 130.0
4.42000007629 2.35800004005 -0.293000012636 124.0
4.41800022125 2.3220000267 -0.291999995708 125.0
4.40799999237 2.28200006485 -0.289999991655 105.0
4.41800022125 2.25300002098 -0.289999991655 117.0
4.44600009918 2.23300004005 -0.291000008583 131.0
4.42000007629 2.18600010872 -0.287999987602 112.0
4.26000022888 2.07399988174 -0.277000010014 114.0
4.32299995422 2.07299995422 -0.280000001192 116.0
4.46600008011 2.10800004005 -0.287999987602 132.0
4.42700004578 2.05599999428 -0.284999996424 130.0
4.375 2.0 -0.280999988317 139.0
4.33799982071 1.9509999752 -0.277999997139 146.0
4.43300008774 1.96099996567 -0.282999992371 137.0
4.38100004196 1.90699994564 -0.279000014067 152.0
4.39599990845 1.88199996948 -0.279000014067 142.0
4.43400001526 1.86600005627 -0.280999988317 149.0
4.4310002327 1.83399999142 -0.280000001192 170.0
4.42999982834 1.80200004578 -0.279000014067 164.0
4.44199991226 1.77600002289 -0.279000014067 171.0
4.46099996567 1.75300002098 -0.280000001192 166.0
4.45499992371 1.72000002861 -0.277999997139 159.0
4.45699977875 1.69000005722 -0.277999997139 160.0
4.46600008011 1.6629999876 -0.277999997139 162.0
4.45699977875 1.6289999485 -0.277000010014 158.0
4.48099994659 1.60800004005 -0.277000010014 165.0
4.45900011063 1.57000005245 -0.275999993086 162.0
4.47599983215 1.54600000381 -0.275999993086 162.0
4.47399997711 1.51600003242 -0.27500000596 158.0
4.47200012207 1.48599994183 -0.273999989033 165.0
4.46199989319 1.45299994946 -0.273000001907 163.0
4.45699977875 1.42200005054 -0.272000014782 158.0
4.46199989319 1.39499998093 -0.272000014782 159.0
4.45900011063 1.36600005627 -0.270999997854 162.0
4.48500013351 1.34500002861 -0.272000014782 164.0
4.492000103 1.31799995899 -0.272000014782 167.0
4.44799995422 1.27699995041 -0.268999993801 169.0
4.492000103 1.26100003719 -0.270999997854 166.0
4.48000001907 1.22899997234 -0.270000010729 167.0
4.46700000763 1.1970000267 -0.268999993801 162.0
4.5560002327 1.19299995899 -0.273999989033 143.0
4.75099992752 1.21399998665 -0.284999996424 119.0
4.74700021744 1.18400001526 -0.284000009298 131.0
4.77199983597 1.15999996662 -0.284999996424 136.0
4.72100019455 1.11899995804 -0.282000005245 141.0
4.78999996185 1.10599994659 -0.284999996424 135.0
4.78999996185 1.0759999752 -0.284999996424 130.0
4.78399991989 1.04600000381 -0.284000009298 131.0
4.82899999619 1.02600002289 -0.286000013351 129.0
4.82999992371 0.996999979019 -0.286000013351 137.0
4.84700012207 0.971000015736 -0.287000000477 136.0
4.87799978256 0.948000013828 -0.287999987602 131.0
4.82899999619 0.908999979496 -0.284999996424 128.0
4.83799982071 0.882000029087 -0.284999996424 134.0
4.85799980164 0.856999993324 -0.286000013351 124.0
4.86299991608 0.82800000906 -0.286000013351 127.0
4.89099979401 0.804000020027 -0.287000000477 128.0
4.90799999237 0.777999997139 -0.287000000477 125.0
4.90799999237 0.748000025749 -0.287000000477 119.0
4.89400005341 0.717000007629 -0.286000013351 127.0
4.92600011826 0.693000018597 -0.287000000477 126.0
4.93300008774 0.665000021458 -0.287999987602 123.0
4.95699977875 0.638999998569 -0.28900000453 119.0
4.92299985886 0.606000006199 -0.286000013351 115.0
4.96700000763 0.582000017166 -0.28900000453 121.0
4.94500017166 0.550999999046 -0.287000000477 118.0
4.96199989319 0.523000001907 -0.287999987602 117.0
4.97399997711 0.495999991894 -0.287999987602 118.0
4.99300003052 0.469000011683 -0.28900000453 116.0
5.02500009537 0.442000001669 -0.291000008583 108.0
5.03000020981 0.41400000453 -0.291000008583 81.0
0.222000002861 -0.0010000000475 -0.0130000002682 47.0
0.852999985218 -0.01600000076 -0.0489999987185 151.0
0.985000014305 -0.0240000002086 -0.0570000000298 977.0
1.00100004673 -0.0309999994934 -0.0570000000298 1167.0
0.992999970913 -0.0359999984503 -0.0570000000298 1152.0
0.991999983788 -0.0419999994338 -0.0570000000298 1146.0
0.986999988556 -0.0469999983907 -0.0570000000298 1141.0
0.985000014305 -0.0529999993742 -0.0560000017285 1129.0
0.980000019073 -0.0579999983311 -0.0560000017285 1128.0
0.985000014305 -0.0640000030398 -0.0560000017285 1117.0
0.980000019073 -0.0689999982715 -0.0560000017285 1116.0
0.98400002718 -0.0750000029802 -0.0560000017285 1091.0
0.977999985218 -0.0810000002384 -0.0560000017285 1098.0
0.975000023842 -0.0860000029206 -0.0560000017285 1085.0
0.976000010967 -0.0920000001788 -0.0560000017285 1079.0
0.976000010967 -0.097000002861 -0.0560000017285 1069.0
0.973999977112 -0.103000000119 -0.0560000017285 1058.0
0.95300000906 -0.105999998748 -0.054999999702 721.0
0.915000021458 -0.107000000775 -0.0520000010729 422.0
0.912999987602 -0.112000003457 -0.0520000010729 433.0
0.922999978065 -0.119000002742 -0.0529999993742 453.0
0.916000008583 -0.123000003397 -0.0520000010729 471.0
0.92199999094 -0.128999993205 -0.0529999993742 501.0
0.925999999046 -0.135000005364 -0.0529999993742 528.0
0.927999973297 -0.141000002623 -0.0529999993742 555.0
0.931999981403 -0.146999999881 -0.0529999993742 582.0
0.933000028133 -0.152999997139 -0.0529999993742 620.0
0.925000011921 -0.157000005245 -0.0529999993742 638.0
0.936999976635 -0.165000006557 -0.0540000014007 657.0
0.934000015259 -0.170000001788 -0.0540000014007 686.0
0.93900001049 -0.175999999046 -0.0540000014007 714.0
0.938000023365 -0.181999996305 -0.0540000014007 736.0
0.940999984741 -0.187999993563 -0.0540000014007 775.0
0.931999981403 -0.192000001669 -0.0540000014007 784.0
0.933000028133 -0.197999998927 -0.0540000014007 771.0
0.927999973297 -0.202000007033 -0.0529999993742 745.0
0.926999986172 -0.208000004292 -0.0529999993742 732.0
0.925000011921 -0.212999999523 -0.0529999993742 708.0
0.922999978065 -0.217999994755 -0.0529999993742 701.0
0.916000008583 -0.222000002861 -0.0529999993742 678.0
0.911000013351 -0.225999996066 -0.0529999993742 661.0
0.912000000477 -0.231999993324 -0.0529999993742 645.0
0.902000010014 -0.234999999404 -0.0520000010729 639.0
0.902999997139 -0.240999996662 -0.0520000010729 618.0
0.898000001907 -0.245000004768 -0.0520000010729 598.0
0.897000014782 -0.250999987125 -0.0520000010729 586.0
0.917999982834 -0.263000011444 -0.0529999993742 878.0
0.925999999046 -0.270999997854 -0.0540000014007 1100.0
0.925000011921 -0.275999993086 -0.0540000014007 1122.0
0.930000007153 -0.284000009298 -0.0540000014007 1153.0
0.925000011921 -0.287999987602 -0.0540000014007 1168.0
0.926999986172 -0.294999986887 -0.0540000014007 1183.0
0.925000011921 -0.300000011921 -0.0540000014007 1199.0
0.919000029564 -0.303999990225 -0.0540000014007 1227.0
0.915000021458 -0.308999985456 -0.0540000014007 1233.0
0.917999982834 -0.316000014544 -0.0540000014007 1257.0
0.915000021458 -0.321000009775 -0.0540000014007 1268.0
0.915000021458 -0.326999992132 -0.0540000014007 1274.0
0.913999974728 -0.333000004292 -0.0540000014007 1294.0
0.912000000477 -0.337999999523 -0.0540000014007 1308.0
0.889999985695 -0.33599999547 -0.0520000010729 861.0
0.853999972343 -0.32800000906 -0.0509999990463 430.0
0.834999978542 -0.326999992132 -0.0489999987185 398.0
0.833000004292 -0.331999987364 -0.0489999987185 398.0
0.820999979973 -0.331999987364 -0.0489999987185 395.0
0.82800000906 -0.340999990702 -0.0489999987185 392.0
0.813000023365 -0.340999990702 -0.0480000004172 392.0
0.829999983311 -0.354000002146 -0.0500000007451 383.0
0.802999973297 -0.347999989986 -0.0480000004172 379.0
0.806999981403 -0.354999989271 -0.0480000004172 392.0
0.79699999094 -0.356999993324 -0.0480000004172 376.0
0.777000010014 -0.352999985218 -0.0469999983907 376.0
0.787000000477 -0.363999992609 -0.0469999983907 375.0
0.800999999046 -0.375999987125 -0.0480000004172 410.0
0.883000016212 -0.42199999094 -0.0529999993742 1147.0
0.885999977589 -0.430000007153 -0.0540000014007 1374.0
0.879999995232 -0.433999985456 -0.0529999993742 1403.0
0.883000016212 -0.442000001669 -0.0540000014007 1391.0
0.878000020981 -0.446000009775 -0.0540000014007 1401.0
0.876999974251 -0.451999992132 -0.0540000014007 1404.0
0.875999987125 -0.458999991417 -0.0540000014007 1401.0
0.876999974251 -0.465999990702 -0.0540000014007 1391.0
0.870000004768 -0.469000011683 -0.0540000014007 1416.0
0.861999988556 -0.472000002861 -0.0529999993742 1401.0
0.865000009537 -0.479999989271 -0.0529999993742 1423.0
0.54699999094 0.312999993563 -0.0410000011325 214.0
0.550000011921 0.310000002384 -0.0410000011325 185.0
0.448000013828 0.248999997973 -0.0329999998212 178.0
0.354000002146 0.194000005722 -0.0260000005364 171.0
0.337999999523 0.181999996305 -0.0250000003725 164.0
0.298999994993 0.158000007272 -0.0219999998808 153.0
0.252999991179 0.131999999285 -0.0189999993891 151.0
0.173999994993 0.0890000015497 -0.0130000002682 124.0
0.153999999166 0.0780000016093 -0.0109999999404 120.0
0.108000002801 0.0529999993742 -0.00800000037998 127.0
0.0710000023246 0.0340000018477 -0.00499999988824 123.0
4.47499990463 2.18000006676 -0.319000005722 109.0
4.4359998703 2.12700009346 -0.314999997616 123.0
4.52899980545 2.13800001144 -0.321000009775 128.0
4.52600002289 2.10299992561 -0.319999992847 123.0
4.41400003433 2.01799988747 -0.31099998951 144.0
4.38999986649 1.97500002384 -0.308999985456 143.0
4.46700000763 1.97699999809 -0.312999993563 133.0
4.45200014114 1.93900001049 -0.31099998951 142.0
4.45699977875 1.90799999237 -0.31099998951 149.0
4.46600008011 1.88100004196 -0.31099998951 145.0
4.45900011063 1.84599995613 -0.308999985456 157.0
4.46899986267 1.81900000572 -0.308999985456 148.0
4.49100017548 1.79600000381 -0.310000002384 153.0
4.507999897 1.77199995518 -0.310000002384 145.0
4.54899978638 1.75699996948 -0.312000006437 143.0
4.51300001144 1.71099996567 -0.308999985456 147.0
4.55200004578 1.69500005245 -0.31099998951 142.0
4.55900001526 1.66700005531 -0.31099998951 145.0
