ply
format ascii 1.0
element vertex 921
property float x
property float y
property float z
property float intensity
end_header
1.00499999523 -0.141000002623 0.116999998689 977.0
0.929000020027 -0.136000007391 0.108000002801 253.0
0.838999986649 -0.127000004053 0.097000002861 190.0
0.864000022411 -0.136000007391 0.10000000149 189.0
0.870000004768 -0.142000004649 0.101000003517 195.0
0.851999998093 -0.143999993801 0.0989999994636 196.0
0.866999983788 -0.151999995112 0.101000003517 195.0
0.867999970913 -0.157000005245 0.101000003517 190.0
0.865999996662 -0.162000000477 0.101000003517 196.0
0.867999970913 -0.167999997735 0.101000003517 194.0
0.84500002861 -0.168999999762 0.0989999994636 192.0
0.842999994755 -0.172999992967 0.0989999994636 195.0
0.84399998188 -0.179000005126 0.0989999994636 201.0
0.838999986649 -0.182999998331 0.0989999994636 201.0
0.847999989986 -0.189999997616 0.10000000149 251.0
0.940999984741 -0.216999992728 0.111000001431 1050.0
0.962999999523 -0.228000000119 0.11400000006 1386.0
0.963999986649 -0.233999997377 0.11400000006 1399.0
0.963999986649 -0.239999994636 0.11400000006 1386.0
0.962000012398 -0.246000006795 0.11400000006 1402.0
0.959999978542 -0.250999987125 0.11400000006 1409.0
0.958999991417 -0.256999999285 0.11400000006 1400.0
0.955999970436 -0.261999994516 0.11400000006 1401.0
0.957000017166 -0.268000006676 0.11400000006 1407.0
0.958999991417 -0.27500000596 0.115000002086 1422.0
0.95300000906 -0.279000014067 0.11400000006 1418.0
0.955999970436 -0.286000013351 0.115000002086 1417.0
0.950999975204 -0.291000008583 0.11400000006 1415.0
0.950999975204 -0.29699999094 0.115000002086 1417.0
0.967000007629 -0.308999985456 0.116999998689 717.0
0.85900002718 -0.279000014067 0.104000002146 237.0
0.829999983311 -0.27500000596 0.10000000149 195.0
0.818000018597 -0.275999993086 0.0989999994636 203.0
0.810000002384 -0.279000014067 0.097999997437 200.0
0.805999994278 -0.282999992371 0.097999997437 197.0
0.802999973297 -0.287000000477 0.097999997437 202.0
0.797999978065 -0.291000008583 0.097000002861 203.0
0.809000015259 -0.300000011921 0.0989999994636 205.0
0.787000000477 -0.29699999094 0.097000002861 201.0
0.791000008583 -0.305000007153 0.097000002861 196.0
0.81400001049 -0.319000005722 0.10000000149 209.0
0.778999984264 -0.31099998951 0.0960000008345 200.0
0.799000024796 -0.324000000954 0.0989999994636 264.0
0.903999984264 -0.374000012875 0.112999998033 1124.0
0.92199999094 -0.388000011444 0.115000002086 1428.0
0.930999994278 -0.398999989033 0.116999998689 1447.0
0.922999978065 -0.400999993086 0.115999996662 1443.0
0.925000011921 -0.409000009298 0.115999996662 1431.0
0.925000011921 -0.416000008583 0.116999998689 1443.0
0.925000011921 -0.42199999094 0.116999998689 1436.0
0.921000003815 -0.428000003099 0.116999998689 1426.0
0.921000003815 -0.435000002384 0.116999998689 1443.0
0.916000008583 -0.43900001049 0.116999998689 1438.0
0.915000021458 -0.444999992847 0.116999998689 1420.0
0.921000003815 -0.455000013113 0.118000000715 1437.0
0.920000016689 -0.462000012398 0.118000000715 1341.0
0.902999997139 -0.46099999547 0.116999998689 462.0
0.722999989986 -0.372999995947 0.0930000022054 221.0
0.707000017166 -0.370000004768 0.0909999981523 208.0
0.72000002861 -0.38299998641 0.0930000022054 204.0
0.685000002384 -0.368999987841 0.0890000015497 202.0
0.702000021935 -0.384000003338 0.0909999981523 201.0
0.666000008583 -0.370000004768 0.0869999974966 209.0
0.875 0.504999995232 0.104999996722 992.0
0.876999974251 0.499000012875 0.104999996722 994.0
0.876999974251 0.490999996662 0.104999996722 1010.0
0.884999990463 0.488999992609 0.104999996722 1006.0
0.880999982357 0.479999989271 0.104999996722 1009.0
0.882000029087 0.472999989986 0.104999996722 1016.0
0.889999985695 0.469999998808 0.104999996722 1017.0
0.889999985695 0.462999999523 0.104999996722 1021.0
0.888999998569 0.455000013113 0.104000002146 1021.0
0.888999998569 0.449000000954 0.104000002146 1024.0
0.89099997282 0.442999988794 0.104000002146 1002.0
0.887000024319 0.433999985456 0.104000002146 1001.0
0.893000006676 0.430000007153 0.104000002146 999.0
0.897000014782 0.425999999046 0.104000002146 1025.0
0.898000001907 0.418999999762 0.104000002146 1024.0
0.902000010014 0.414999991655 0.104000002146 1023.0
0.894999980927 0.405000001192 0.103000000119 1011.0
0.90600001812 0.402999997139 0.104000002146 1021.0
0.901000022888 0.393999993801 0.103000000119 1010.0
0.908999979496 0.391000002623 0.104000002146 998.0
0.908999979496 0.384999990463 0.104000002146 1008.0
0.908999979496 0.377999991179 0.104000002146 1012.0
0.908999979496 0.372000008821 0.104000002146 1007.0
0.907999992371 0.365000009537 0.103000000119 1019.0
0.925000011921 0.365999996662 0.104999996722 1013.0
0.916000008583 0.356000006199 0.104000002146 1022.0
0.919000029564 0.34999999404 0.104000002146 1027.0
0.92199999094 0.344999998808 0.104000002146 1043.0
0.919000029564 0.337999999523 0.104000002146 1070.0
0.919000029564 0.331999987364 0.103000000119 1077.0
0.924000024796 0.32800000906 0.104000002146 1087.0
0.925999999046 0.321999996901 0.104000002146 1118.0
0.926999986172 0.316000014544 0.104000002146 1128.0
0.931999981403 0.312000006437 0.104000002146 1153.0
0.931999981403 0.305999994278 0.104000002146 1159.0
0.930000007153 0.298999994993 0.104000002146 1174.0
0.930999994278 0.293000012636 0.104000002146 1170.0
0.931999981403 0.287999987602 0.104000002146 1206.0
0.935000002384 0.282999992371 0.104000002146 1236.0
0.938000023365 0.277000010014 0.104000002146 1223.0
0.939999997616 0.272000014782 0.104000002146 1178.0
0.943000018597 0.266999989748 0.104000002146 1162.0
0.939999997616 0.259999990463 0.104000002146 1158.0
0.947000026703 0.256000012159 0.104999996722 1167.0
0.936999976635 0.24699999392 0.103000000119 1182.0
0.944000005722 0.243000000715 0.104000002146 1203.0
0.945999979973 0.238000005484 0.104000002146 1220.0
0.940999984741 0.231000006199 0.104000002146 1239.0
0.948000013828 0.226999998093 0.104000002146 1262.0
0.949999988079 0.221000000834 0.104000002146 1298.0
0.952000021935 0.216000005603 0.104000002146 1307.0
0.954999983311 0.21099999547 0.104999996722 1318.0
0.950999975204 0.203999996185 0.104000002146 1341.0
0.952000021935 0.199000000954 0.104000002146 1319.0
0.95300000906 0.193000003695 0.104000002146 1343.0
0.95300000906 0.187000006437 0.104000002146 1364.0
0.958000004292 0.181999996305 0.104999996722 1361.0
0.961000025272 0.177000001073 0.104999996722 1362.0
0.961000025272 0.172000005841 0.104999996722 1353.0
0.959999978542 0.165999993682 0.104999996722 1343.0
0.958999991417 0.159999996424 0.104999996722 1332.0
0.957000017166 0.153999999166 0.104000002146 1354.0
0.964999973774 0.149000003934 0.104999996722 1403.0
0.961000025272 0.143000006676 0.104999996722 1423.0
0.964999973774 0.137999996543 0.104999996722 1441.0
0.963999986649 0.131999999285 0.104999996722 1424.0
0.963999986649 0.126000002027 0.104999996722 1393.0
0.96899998188 0.120999999344 0.104999996722 1360.0
0.989000022411 0.118000000715 0.107000000775 1018.0
1.0 0.0270000007004 0.108999997377 1004.0
1.01600003242 0.0209999997169 0.109999999404 762.0
0.990000009537 0.0149999996647 0.107000000775 638.0
0.992999970913 0.00899999961257 0.108000002801 635.0
0.994000017643 0.00400000018999 0.108000002801 623.0
0.990999996662 -0.0010000000475 0.108000002801 622.0
0.990000009537 -0.00700000021607 0.108000002801 612.0
0.981000006199 -0.0120000001043 0.107000000775 608.0
0.977999985218 -0.0179999992251 0.105999998748 599.0
0.995000004768 -0.0240000002086 0.108000002801 601.0
0.981000006199 -0.0289999991655 0.107000000775 590.0
0.987999975681 -0.035000000149 0.108000002801 583.0
0.975000023842 -0.0399999991059 0.105999998748 567.0
0.97000002861 -0.0460000000894 0.105999998748 568.0
0.977999985218 -0.0520000010729 0.107000000775 557.0
0.962999999523 -0.0560000017285 0.104999996722 704.0
0.991999983788 -0.0640000030398 0.108000002801 844.0
0.976999998093 -0.0689999982715 0.107000000775 874.0
0.986000001431 -0.0750000029802 0.108000002801 879.0
0.98400002718 -0.0810000002384 0.108000002801 898.0
0.986999988556 -0.0860000029206 0.108000002801 910.0
0.977999985218 -0.0909999981523 0.107000000775 937.0
0.976999998093 -0.097000002861 0.107000000775 962.0
0.980000019073 -0.103000000119 0.107000000775 976.0
0.976000010967 -0.108000002801 0.107000000775 990.0
0.977999985218 -0.11400000006 0.107000000775 1018.0
0.977999985218 -0.119999997318 0.108000002801 1026.0
0.981999993324 -0.126000002027 0.108000002801 1057.0
0.97000002861 -0.129999995232 0.107000000775 1063.0
0.990999996662 -0.138999998569 0.108999997377 869.0
0.955999970436 -0.140000000596 0.104999996722 401.0
0.952000021935 -0.144999995828 0.104999996722 357.0
0.925999999046 -0.145999997854 0.101999998093 345.0
0.934000015259 -0.152999997139 0.103000000119 342.0
0.930999994278 -0.158000007272 0.103000000119 325.0
0.917999982834 -0.16099999845 0.101999998093 316.0
0.912999987602 -0.165999993682 0.101000003517 304.0
0.916999995708 -0.172000005841 0.101999998093 298.0
0.910000026226 -0.175999999046 0.101000003517 286.0
0.916999995708 -0.182999998331 0.101999998093 282.0
0.898000001907 -0.185000002384 0.10000000149 283.0
0.910000026226 -0.193000003695 0.101000003517 270.0
0.911000013351 -0.197999998927 0.101999998093 270.0
0.876999974251 -0.195999994874 0.097999997437 300.0
0.936999976635 -0.216000005603 0.104999996722 1040.0
0.958999991417 -0.226999998093 0.108000002801 1324.0
0.961000025272 -0.232999995351 0.108000002801 1328.0
0.958999991417 -0.238999992609 0.108000002801 1327.0
0.961000025272 -0.245000004768 0.108000002801 1352.0
0.957000017166 -0.25 0.108000002801 1360.0
0.958999991417 -0.256999999285 0.108999997377 1379.0
0.957000017166 -0.261999994516 0.108000002801 1370.0
0.958000004292 -0.268000006676 0.108999997377 1379.0
0.953999996185 -0.273000001907 0.108999997377 1394.0
0.953999996185 -0.279000014067 0.108999997377 1397.0
0.955999970436 -0.286000013351 0.108999997377 1406.0
0.952000021935 -0.291000008583 0.108999997377 1401.0
0.949999988079 -0.29699999094 0.108999997377 1402.0
0.966000020504 -0.307999998331 0.111000001431 715.0
0.875999987125 -0.284000009298 0.101000003517 234.0
0.842000007629 -0.279000014067 0.097000002861 208.0
0.823000013828 -0.277999997139 0.0949999988079 206.0
0.832000017166 -0.287000000477 0.0960000008345 208.0
0.847000002861 -0.298000007868 0.097999997437 202.0
0.830999970436 -0.29699999094 0.0960000008345 206.0
0.811999976635 -0.296000003815 0.0939999967813 205.0
0.802999973297 -0.298000007868 0.0930000022054 206.0
0.816999971867 -0.308999985456 0.0949999988079 207.0
0.805999994278 -0.310000002384 0.0939999967813 202.0
0.788999974728 -0.308999985456 0.0920000001788 200.0
0.815999984741 -0.324999988079 0.0960000008345 206.0
0.791000008583 -0.321000009775 0.0930000022054 259.0
0.90499997139 -0.374000012875 0.107000000775 1125.0
0.925999999046 -0.388999998569 0.109999999404 1422.0
0.931999981403 -0.398000001907 0.111000001431 1432.0
0.929000020027 -0.404000014067 0.111000001431 1446.0
0.925000011921 -0.409000009298 0.109999999404 1433.0
0.919000029564 -0.412999987602 0.109999999404 1440.0
0.924000024796 -0.42199999094 0.111000001431 1450.0
0.916000008583 -0.425000011921 0.109999999404 1440.0
0.921000003815 -0.433999985456 0.111000001431 1434.0
0.915000021458 -0.437999993563 0.111000001431 1440.0
0.911000013351 -0.442999988794 0.111000001431 1430.0
0.915000021458 -0.451999992132 0.111000001431 1442.0
0.915000021458 -0.458999991417 0.112000003457 1361.0
0.898000001907 -0.458000004292 0.109999999404 497.0
0.751999974251 -0.388000011444 0.0920000001788 218.0
0.726999998093 -0.381000012159 0.0890000015497 208.0
0.731999993324 -0.388999998569 0.0900000035763 200.0
0.702000021935 -0.379000008106 0.0869999974966 202.0
0.699999988079 -0.38299998641 0.0869999974966 208.0
0.699999988079 -0.388999998569 0.0869999974966 203.0
0.870000004768 0.500999987125 0.0989999994636 750.0
0.878000020981 0.499000012875 0.0989999994636 748.0
0.870999991894 0.486999988556 0.097999997437 739.0
0.873000025749 0.481999993324 0.097999997437 733.0
0.880999982357 0.479000002146 0.0989999994636 748.0
0.876999974251 0.469999998808 0.097999997437 742.0
0.879999995232 0.465000003576 0.097999997437 739.0
0.882000029087 0.458999991417 0.097999997437 745.0
0.876999974251 0.449000000954 0.097000002861 742.0
0.884999990463 0.446000009775 0.097999997437 724.0
0.883000016212 0.43900001049 0.097999997437 725.0
0.889999985695 0.435000002384 0.097999997437 714.0
0.893999993801 0.430000007153 0.097999997437 706.0
0.884000003338 0.418999999762 0.097000002861 710.0
0.889999985695 0.414999991655 0.097000002861 712.0
0.89099997282 0.409000009298 0.097000002861 704.0
0.899999976158 0.407000005245 0.097999997437 698.0
0.89099997282 0.395999997854 0.097000002861 690.0
0.899999976158 0.393999993801 0.097999997437 683.0
0.907000005245 0.389999985695 0.097999997437 688.0
0.897000014782 0.379000008106 0.097000002861 678.0
0.907999992371 0.377999991179 0.097999997437 701.0
0.902000010014 0.368999987841 0.097000002861 697.0
0.902000010014 0.363000005484 0.097000002861 705.0
0.915000021458 0.361000001431 0.097999997437 697.0
0.908999979496 0.352999985218 0.097000002861 708.0
0.907000005245 0.345999985933 0.097000002861 703.0
0.907999992371 0.340000003576 0.097000002861 724.0
0.916000008583 0.337000012398 0.097999997437 736.0
0.919000029564 0.331999987364 0.097999997437 748.0
0.917999982834 0.324999988079 0.097999997437 768.0
0.929000020027 0.323000013828 0.0989999994636 761.0
0.922999978065 0.314999997616 0.097999997437 776.0
0.925000011921 0.308999985456 0.097999997437 809.0
0.930000007153 0.305000007153 0.097999997437 813.0
0.934000015259 0.300000011921 0.0989999994636 824.0
0.93599998951 0.294999986887 0.0989999994636 834.0
0.940999984741 0.289999991655 0.0989999994636 838.0
0.938000023365 0.282999992371 0.0989999994636 831.0
0.939999997616 0.277999997139 0.0989999994636 815.0
0.940999984741 0.272000014782 0.0989999994636 814.0
0.93900001049 0.264999985695 0.097999997437 803.0
0.944000005722 0.261000007391 0.0989999994636 813.0
0.950999975204 0.256999999285 0.0989999994636 819.0
0.944000005722 0.248999997973 0.0989999994636 837.0
0.947000026703 0.244000002742 0.0989999994636 833.0
0.947000026703 0.238000005484 0.0989999994636 840.0
0.949000000954 0.232999995351 0.0989999994636 843.0
0.944999992847 0.225999996066 0.097999997437 859.0
0.939999997616 0.218999996781 0.097999997437 880.0
0.952000021935 0.216000005603 0.0989999994636 880.0
0.958000004292 0.21099999547 0.0989999994636 910.0
0.955999970436 0.204999998212 0.0989999994636 930.0
0.957000017166 0.199000000954 0.0989999994636 929.0
0.953999996185 0.193000003695 0.0989999994636 927.0
0.954999983311 0.187999993563 0.0989999994636 934.0
0.959999978542 0.182999998331 0.0989999994636 953.0
0.958999991417 0.177000001073 0.0989999994636 971.0
0.966000020504 0.172000005841 0.10000000149 976.0
0.957000017166 0.165000006557 0.0989999994636 969.0
0.967000007629 0.16099999845 0.10000000149 965.0
0.962999999523 0.155000001192 0.0989999994636 975.0
0.963999986649 0.149000003934 0.0989999994636 986.0
0.964999973774 0.143000006676 0.0989999994636 997.0
0.967999994755 0.137999996543 0.10000000149 1016.0
0.972999989986 0.133000001311 0.10000000149 1030.0
0.972999989986 0.12800000608 0.10000000149 1026.0
0.967000007629 0.120999999344 0.0989999994636 997.0
0.998000025749 0.119000002742 0.103000000119 707.0
0.850000023842 0.0280000008643 0.0869999974966 220.0
0.996999979019 0.0270000007004 0.101999998093 1046.0
1.00999999046 0.0209999997169 0.104000002146 1163.0
1.00999999046 0.0149999996647 0.104000002146 1167.0
1.00699996948 0.00899999961257 0.104000002146 1155.0
1.00800001621 0.00400000018999 0.104000002146 1161.0
1.00999999046 -0.0010000000475 0.104000002146 1173.0
1.00100004673 -0.00700000021607 0.103000000119 1182.0
1.00600004196 -0.0130000002682 0.104000002146 1189.0
1.00100004673 -0.0179999992251 0.103000000119 1190.0
1.00499999523 -0.0240000002086 0.104000002146 1187.0
1.0039999485 -0.0299999993294 0.103000000119 1196.0
0.998000025749 -0.0359999984503 0.103000000119 1192.0
0.995000004768 -0.0410000011325 0.103000000119 1201.0
0.990999996662 -0.0469999983907 0.101999998093 1212.0
1.0039999485 -0.0529999993742 0.104000002146 1185.0
1.02300000191 -0.0599999986589 0.105999998748 525.0
0.90600001812 -0.0579999983311 0.0930000022054 193.0
0.884999990463 -0.0619999989867 0.0909999981523 195.0
0.902999997139 -0.0680000036955 0.0930000022054 190.0
0.898000001907 -0.0729999989271 0.0930000022054 201.0
0.888000011444 -0.0769999995828 0.0920000001788 204.0
0.899999976158 -0.0839999988675 0.0930000022054 206.0
0.89200001955 -0.0879999995232 0.0920000001788 212.0
0.910000026226 -0.0949999988079 0.0939999967813 218.0
0.910000026226 -0.101000003517 0.0939999967813 224.0
0.901000022888 -0.104999996722 0.0939999967813 227.0
0.90499997139 -0.111000001431 0.0939999967813 239.0
0.912000000477 -0.116999998689 0.0949999988079 250.0
0.925999999046 -0.123999997973 0.0960000008345 261.0
0.917999982834 -0.12800000608 0.0960000008345 560.0
0.967999994755 -0.141000002623 0.101000003517 1144.0
0.972999989986 -0.148000001907 0.101999998093 1196.0
0.972000002861 -0.152999997139 0.101999998093 1181.0
0.971000015736 -0.158999994397 0.101999998093 1182.0
0.975000023842 -0.165999993682 0.101999998093 1172.0
0.97000002861 -0.171000003815 0.101999998093 1162.0
0.967000007629 -0.175999999046 0.101999998093 1147.0
0.971000015736 -0.181999996305 0.101999998093 1137.0
0.963999986649 -0.187000006437 0.101999998093 1115.0
0.972999989986 -0.194000005722 0.103000000119 1099.0
0.959999978542 -0.196999996901 0.101000003517 1072.0
0.963999986649 -0.203999996185 0.101999998093 1042.0
0.962999999523 -0.209999993443 0.101999998093 1013.0
0.962000012398 -0.216000005603 0.101999998093 958.0
0.952000021935 -0.218999996781 0.101000003517 666.0
0.945999979973 -0.223000004888 0.101000003517 620.0
0.944000005722 -0.229000002146 0.10000000149 655.0
0.944999992847 -0.234999999404 0.101000003517 699.0
0.944000005722 -0.240999996662 0.101000003517 727.0
0.95300000906 -0.248999997973 0.101999998093 760.0
0.940999984741 -0.252000004053 0.101000003517 809.0
0.949000000954 -0.259999990463 0.101999998093 840.0
0.944000005722 -0.263999998569 0.101000003517 877.0
0.941999971867 -0.270000010729 0.101000003517 913.0
0.940999984741 -0.27500000596 0.101999998093 958.0
0.944999992847 -0.282999992371 0.101999998093 983.0
0.944000005722 -0.28900000453 0.101999998093 1024.0
0.943000018597 -0.293999999762 0.101999998093 1064.0
0.954999983311 -0.303999990225 0.104000002146 730.0
0.922999978065 -0.300000011921 0.10000000149 460.0
0.911000013351 -0.301999986172 0.0989999994636 432.0
0.911000013351 -0.307999998331 0.0989999994636 410.0
0.90499997139 -0.312000006437 0.0989999994636 383.0
0.89099997282 -0.312999993563 0.097999997437 378.0
0.893999993801 -0.319999992847 0.097999997437 361.0
0.888000011444 -0.324000000954 0.097999997437 341.0
0.870000004768 -0.323000013828 0.0960000008345 328.0
0.882000029087 -0.333000004292 0.097000002861 321.0
0.860000014305 -0.331000000238 0.0949999988079 311.0
0.855000019073 -0.335000008345 0.0949999988079 298.0
0.856000006199 -0.340999990702 0.0949999988079 281.0
0.851000010967 -0.344999998808 0.0949999988079 309.0
0.907000005245 -0.375 0.101999998093 1089.0
0.924000024796 -0.388000011444 0.104000002146 1353.0
0.925999999046 -0.395999997854 0.104000002146 1382.0
0.92199999094 -0.400999993086 0.104000002146 1397.0
0.924000024796 -0.407999992371 0.104999996722 1403.0
0.917999982834 -0.412000000477 0.104000002146 1405.0
0.916000008583 -0.418000012636 0.104000002146 1422.0
0.919000029564 -0.425999999046 0.104999996722 1416.0
0.916000008583 -0.430999994278 0.104999996722 1429.0
0.916000008583 -0.43900001049 0.104999996722 1431.0
0.913999974728 -0.444000005722 0.104999996722 1444.0
0.911000013351 -0.449999988079 0.104999996722 1428.0
0.912000000477 -0.456999987364 0.105999998748 1364.0
0.911000013351 -0.463999986649 0.105999998748 509.0
0.786000013351 -0.405999988317 0.0909999981523 234.0
0.736000001431 -0.384999990463 0.0860000029206 203.0
0.709999978542 -0.377000004053 0.082999996841 200.0
0.72000002861 -0.388000011444 0.0839999988675 201.0
0.708000004292 -0.388000011444 0.082999996841 198.0
0.722999989986 -0.402000010014 0.0850000008941 202.0
0.75 0.432000011206 0.0799999982119 240.0
0.772000014782 0.437999993563 0.082000002265 241.0
0.742999970913 0.414999991655 0.0790000036359 229.0
0.739000022411 0.407000005245 0.0780000016093 210.0
0.73400002718 0.398000001907 0.0769999995828 204.0
0.694000005722 0.370999991894 0.0729999989271 221.0
0.666999995708 0.351000010967 0.070000000298 205.0
0.646000027657 0.335000008345 0.0670000016689 190.0
0.625 0.319999992847 0.0649999976158 181.0
0.620000004768 0.307999998331 0.0640000030398 189.0
0.638999998569 0.312000006437 0.0659999996424 184.0
0.519999980927 0.25 0.0529999993742 171.0
0.540000021458 0.256000012159 0.054999999702 162.0
0.521000027657 0.243000000715 0.0529999993742 162.0
0.519999980927 0.238000005484 0.0529999993742 158.0
0.472000002861 0.212999999523 0.0469999983907 149.0
0.526000022888 0.233999997377 0.0529999993742 153.0
0.504999995232 0.219999998808 0.0509999990463 150.0
0.499000012875 0.215000003576 0.0500000007451 150.0
0.448000013828 0.188999995589 0.0450000017881 146.0
0.509000003338 0.211999997497 0.0509999990463 140.0
0.486999988556 0.199000000954 0.0480000004172 141.0
0.495999991894 0.199000000954 0.0489999987185 141.0
0.49200001359 0.194000005722 0.0489999987185 139.0
0.512000024319 0.199000000954 0.0509999990463 150.0
0.533999979496 0.202999994159 0.0529999993742 151.0
0.514999985695 0.193000003695 0.0509999990463 145.0
0.56099998951 0.206000000238 0.0560000017285 144.0
0.554000020027 0.20000000298 0.054999999702 146.0
0.523999989033 0.185000002384 0.0520000010729 144.0
0.555999994278 0.193000003695 0.054999999702 136.0
0.59500002861 0.202999994159 0.0590000003576 145.0
0.587999999523 0.195999994874 0.0579999983311 148.0
0.592000007629 0.194000005722 0.0579999983311 155.0
0.686999976635 0.219999998808 0.0680000036955 194.0
0.856000006199 0.263999998569 0.0850000008941 182.0
0.894999980927 0.270000010729 0.0890000015497 226.0
0.902000010014 0.266000002623 0.0890000015497 228.0
0.910000026226 0.263000011444 0.0900000035763 229.0
0.912000000477 0.25799998641 0.0900000035763 330.0
0.887000024319 0.245000004768 0.0869999974966 195.0
0.90600001812 0.244000002742 0.0890000015497 207.0
0.879000008106 0.231999993324 0.0860000029206 211.0
0.899999976158 0.231999993324 0.0879999995232 217.0
0.899999976158 0.225999996066 0.0879999995232 216.0
0.901000022888 0.221000000834 0.0879999995232 230.0
0.912000000477 0.217999994755 0.0890000015497 232.0
0.898000001907 0.209000006318 0.0879999995232 253.0
0.916000008583 0.208000004292 0.0900000035763 252.0
0.916000008583 0.202000007033 0.0890000015497 265.0
0.922999978065 0.197999998927 0.0900000035763 289.0
0.925000011921 0.193000003695 0.0900000035763 296.0
0.926999986172 0.187000006437 0.0900000035763 305.0
0.938000023365 0.184000000358 0.0909999981523 314.0
0.933000028133 0.177000001073 0.0909999981523 335.0
0.935000002384 0.172000005841 0.0909999981523 349.0
0.944000005722 0.167999997735 0.0920000001788 356.0
0.941999971867 0.162000000477 0.0920000001788 366.0
0.949000000954 0.158000007272 0.0920000001788 366.0
0.952000021935 0.152999997139 0.0920000001788 383.0
0.950999975204 0.146999999881 0.0920000001788 387.0
0.947000026703 0.141000002623 0.0920000001788 398.0
0.958000004292 0.136999994516 0.0930000022054 419.0
0.948000013828 0.129999995232 0.0920000001788 428.0
0.953999996185 0.125 0.0930000022054 432.0
0.958999991417 0.119999997318 0.0930000022054 428.0
0.991999983788 0.118000000715 0.0960000008345 278.0
0.867999970913 0.0280000008643 0.0839999988675 248.0
1.00199997425 0.0270000007004 0.097000002861 1060.0
1.01400005817 0.0209999997169 0.097999997437 1167.0
1.00999999046 0.0149999996647 0.097999997437 1171.0
1.01300001144 0.00899999961257 0.097999997437 1184.0
1.01300001144 0.00400000018999 0.097999997437 1181.0
1.00899994373 -0.0010000000475 0.097999997437 1185.0
1.00800001621 -0.00700000021607 0.097999997437 1191.0
1.00800001621 -0.0130000002682 0.097999997437 1192.0
1.00600004196 -0.0189999993891 0.097999997437 1210.0
1.00800001621 -0.0240000002086 0.097999997437 1198.0
1.00100004673 -0.0299999993294 0.097000002861 1210.0
1.0 -0.0359999984503 0.097000002861 1204.0
1.00499999523 -0.0419999994338 0.097999997437 1218.0
1.00100004673 -0.0469999983907 0.097000002861 1225.0
1.0 -0.0529999993742 0.097000002861 1196.0
1.01800000668 -0.0599999986589 0.0989999994636 498.0
0.882000029087 -0.0570000000298 0.0860000029206 181.0
0.893999993801 -0.0619999989867 0.0869999974966 183.0
0.860000014305 -0.0649999976158 0.0839999988675 186.0
0.884000003338 -0.0719999969006 0.0860000029206 172.0
0.865999996662 -0.0750000029802 0.0839999988675 179.0
0.866999983788 -0.0810000002384 0.0850000008941 183.0
0.870999991894 -0.0860000029206 0.0850000008941 184.0
0.866999983788 -0.0909999981523 0.0850000008941 183.0
0.842999994755 -0.0930000022054 0.082000002265 179.0
0.883000016212 -0.103000000119 0.0860000029206 187.0
0.878000020981 -0.107000000775 0.0860000029206 196.0
0.889999985695 -0.11400000006 0.0869999974966 190.0
0.871999979019 -0.116999998689 0.0860000029206 194.0
0.912000000477 -0.12800000608 0.0900000035763 534.0
0.971000015736 -0.142000004649 0.0960000008345 1259.0
0.981999993324 -0.149000003934 0.097000002861 1322.0
0.977999985218 -0.153999999166 0.097000002861 1322.0
0.975000023842 -0.159999996424 0.0960000008345 1351.0
0.976000010967 -0.165999993682 0.097000002861 1331.0
0.972000002861 -0.171000003815 0.0960000008345 1356.0
0.972999989986 -0.177000001073 0.097000002861 1358.0
0.971000015736 -0.181999996305 0.0960000008345 1363.0
0.972000002861 -0.187999993563 0.097000002861 1363.0
0.97000002861 -0.194000005722 0.097000002861 1376.0
0.973999977112 -0.20000000298 0.097000002861 1375.0
0.97000002861 -0.204999998212 0.097000002861 1378.0
0.967000007629 -0.21099999547 0.097000002861 1378.0
0.971000015736 -0.217999994755 0.097000002861 1319.0
0.989000022411 -0.228000000119 0.0989999994636 474.0
0.873000025749 -0.206000000238 0.0869999974966 211.0
0.847999989986 -0.204999998212 0.0850000008941 206.0
0.84500002861 -0.209999993443 0.0850000008941 203.0
0.867999970913 -0.221000000834 0.0869999974966 211.0
0.853999972343 -0.223000004888 0.0860000029206 209.0
0.833000004292 -0.222000002861 0.0839999988675 211.0
0.855000019073 -0.232999995351 0.0860000029206 214.0
0.861000001431 -0.239999994636 0.0869999974966 220.0
0.85799998045 -0.245000004768 0.0869999974966 227.0
0.865000009537 -0.252999991179 0.0879999995232 235.0
0.862999975681 -0.25799998641 0.0879999995232 244.0
0.860000014305 -0.261999994516 0.0879999995232 258.0
0.861000001431 -0.268000006676 0.0879999995232 266.0
0.907999992371 -0.28900000453 0.0930000022054 883.0
0.93900001049 -0.305000007153 0.097000002861 1296.0
0.944000005722 -0.312999993563 0.097000002861 1317.0
0.944000005722 -0.319000005722 0.097000002861 1288.0
0.93599998951 -0.321999996901 0.097000002861 1250.0
0.934000015259 -0.32800000906 0.097000002861 1203.0
0.933000028133 -0.333999991417 0.097000002861 1177.0
0.931999981403 -0.340000003576 0.097000002861 1136.0
0.933000028133 -0.345999985933 0.097000002861 1081.0
0.927999973297 -0.351000010967 0.097000002861 1023.0
0.922999978065 -0.354999989271 0.097000002861 983.0
0.925999999046 -0.363000005484 0.097000002861 951.0
0.92199999094 -0.368000000715 0.097000002861 899.0
0.917999982834 -0.372999995947 0.097000002861 843.0
0.911000013351 -0.375999987125 0.0960000008345 765.0
0.907000005245 -0.381000012159 0.0960000008345 828.0
0.916000008583 -0.391000002623 0.097000002861 865.0
0.90499997139 -0.393000006676 0.0960000008345 922.0
0.90499997139 -0.40000000596 0.097000002861 966.0
0.913999974728 -0.409999996424 0.097999997437 1032.0
0.912999987602 -0.416000008583 0.097999997437 1082.0
0.910000026226 -0.42199999094 0.097999997437 1119.0
0.907000005245 -0.426999986172 0.097999997437 1145.0
0.908999979496 -0.435000002384 0.097999997437 1184.0
0.903999984264 -0.43900001049 0.097999997437 1199.0
0.90499997139 -0.446999996901 0.0989999994636 1222.0
0.903999984264 -0.45300000906 0.0989999994636 1195.0
0.902000010014 -0.458999991417 0.0989999994636 588.0
0.837000012398 -0.432000011206 0.0920000001788 347.0
0.827000021935 -0.432999998331 0.0909999981523 311.0
0.801999986172 -0.425999999046 0.0890000015497 296.0
0.801999986172 -0.432999998331 0.0890000015497 297.0
0.783999979496 -0.428999990225 0.0869999974966 276.0
0.763000011444 -0.423999994993 0.0850000008941 260.0
4.38199996948 2.52699995041 0.448000013828 80.0
0.0879999995232 0.0489999987185 0.00700000021607 97.0
4.26900005341 2.39199995995 0.433999985456 83.0
4.22300004959 2.33100008965 0.428000003099 80.0
4.21700000763 2.29399991035 0.426999986172 80.0
4.20200014114 2.21900010109 0.423000007868 102.0
4.14300012589 2.15499997139 0.416000008583 97.0
4.21400022507 2.15799999237 0.42199999094 93.0
4.41200017929 2.22600007057 0.441000014544 87.0
4.40500020981 2.18799996376 0.43900001049 97.0
4.40999984741 2.15700006485 0.43900001049 100.0
4.32700014114 2.08400011063 0.428999990225 102.0
4.26800012589 2.02300000191 0.42199999094 109.0
4.37599992752 2.04200005531 0.432000011206 110.0
4.35500001907 2.0 0.428999990225 110.0
4.3220000267 1.95299994946 0.425000011921 104.0
4.39799976349 1.95500004292 0.432000011206 110.0
4.38399982452 1.91700005531 0.428999990225 104.0
4.36899995804 1.8789999485 0.426999986172 102.0
4.40399980545 1.86300003529 0.430000007153 102.0
4.45100021362 1.85099995136 0.432999998331 108.0
4.34100008011 1.77499997616 0.42199999094 92.0
4.43200016022 1.78100001812 0.430000007153 104.0
4.43800020218 1.75199997425 0.430000007153 94.0
4.42999982834 1.71800005436 0.428000003099 102.0
4.45499992371 1.69799995422 0.430000007153 102.0
4.42600011826 1.65600001812 0.425999999046 91.0
4.47800016403 1.64499998093 0.430999994278 89.0
4.45100021362 1.60500001907 0.426999986172 90.0
4.48199987411 1.58599996567 0.430000007153 90.0
4.48099994659 1.55599999428 0.428999990225 89.0
4.44799995422 1.51499998569 0.425000011921 91.0
4.47200012207 1.49300003052 0.426999986172 92.0
4.48299980164 1.46700000763 0.426999986172 93.0
4.53599977493 1.45500004292 0.432000011206 72.0
0.43900001049 0.135000005364 0.0399999991059 61.0
1.00100004673 0.0270000007004 0.0909999981523 1084.0
1.00999999046 0.0209999997169 0.0920000001788 1180.0
1.01100003719 0.0149999996647 0.0920000001788 1165.0
1.01400005817 0.00899999961257 0.0920000001788 1191.0
1.0039999485 0.00400000018999 0.0920000001788 1183.0
1.00899994373 -0.0010000000475 0.0920000001788 1199.0
1.00600004196 -0.00700000021607 0.0920000001788 1197.0
1.00899994373 -0.0130000002682 0.0920000001788 1204.0
0.999000012875 -0.0179999992251 0.0909999981523 1206.0
1.0039999485 -0.0240000002086 0.0920000001788 1210.0
1.00600004196 -0.0299999993294 0.0920000001788 1207.0
1.00100004673 -0.0359999984503 0.0920000001788 1225.0
1.00199997425 -0.0419999994338 0.0920000001788 1219.0
0.995000004768 -0.0469999983907 0.0909999981523 1230.0
1.00300002098 -0.0529999993742 0.0920000001788 1194.0
1.02300000191 -0.0599999986589 0.0939999967813 473.0
0.887000024319 -0.0570000000298 0.0810000002384 182.0
0.884999990463 -0.0619999989867 0.0810000002384 181.0
0.89099997282 -0.0670000016689 0.082000002265 174.0
0.888999998569 -0.0719999969006 0.0810000002384 176.0
0.888000011444 -0.0780000016093 0.0810000002384 179.0
0.869000017643 -0.0810000002384 0.0799999982119 178.0
0.870999991894 -0.0860000029206 0.0799999982119 180.0
0.875999987125 -0.0920000001788 0.0799999982119 184.0
0.875999987125 -0.097000002861 0.0810000002384 184.0
0.85799998045 -0.10000000149 0.0790000036359 188.0
0.882000029087 -0.108000002801 0.0810000002384 192.0
0.873000025749 -0.112000003457 0.0799999982119 189.0
0.870000004768 -0.115999996662 0.0799999982119 195.0
0.907999992371 -0.127000004053 0.0839999988675 554.0
0.966000020504 -0.141000002623 0.0900000035763 1259.0
0.978999972343 -0.149000003934 0.0909999981523 1319.0
0.981000006199 -0.155000001192 0.0909999981523 1334.0
0.976999998093 -0.159999996424 0.0909999981523 1357.0
0.976999998093 -0.165999993682 0.0909999981523 1350.0
0.972000002861 -0.171000003815 0.0909999981523 1352.0
0.975000023842 -0.177000001073 0.0909999981523 1359.0
0.975000023842 -0.182999998331 0.0909999981523 1375.0
0.972000002861 -0.187999993563 0.0909999981523 1380.0
0.972000002861 -0.194000005722 0.0909999981523 1369.0
0.972000002861 -0.20000000298 0.0909999981523 1373.0
0.966000020504 -0.204999998212 0.0909999981523 1392.0
0.967000007629 -0.21099999547 0.0909999981523 1392.0
0.972999989986 -0.217999994755 0.0920000001788 1309.0
0.977999985218 -0.22499999404 0.0920000001788 461.0
0.89099997282 -0.209999993443 0.0839999988675 206.0
0.882000029087 -0.21400000155 0.082999996841 198.0
0.820999979973 -0.202999994159 0.0769999995828 203.0
0.846000015736 -0.215000003576 0.0799999982119 204.0
0.824999988079 -0.215000003576 0.0780000016093 205.0
0.850000023842 -0.226999998093 0.0810000002384 201.0
0.839999973774 -0.229000002146 0.0799999982119 202.0
0.837999999523 -0.233999997377 0.0799999982119 201.0
0.824000000954 -0.234999999404 0.0790000036359 203.0
0.842000007629 -0.246000006795 0.0799999982119 203.0
0.829999983311 -0.24699999392 0.0790000036359 205.0
0.848999977112 -0.259000003338 0.0810000002384 211.0
0.822000026703 -0.256000012159 0.0790000036359 215.0
0.912000000477 -0.289999991655 0.0879999995232 887.0
0.938000023365 -0.305000007153 0.0909999981523 1394.0
0.948000013828 -0.31400001049 0.0920000001788 1430.0
0.93900001049 -0.317000001669 0.0909999981523 1432.0
0.944999992847 -0.324999988079 0.0920000001788 1439.0
0.944999992847 -0.331999987364 0.0920000001788 1430.0
0.939999997616 -0.33599999547 0.0920000001788 1441.0
0.936999976635 -0.342000007629 0.0920000001788 1443.0
0.93900001049 -0.349000006914 0.0920000001788 1434.0
0.938000023365 -0.354999989271 0.0920000001788 1434.0
0.934000015259 -0.360000014305 0.0920000001788 1443.0
0.931999981403 -0.365000009537 0.0920000001788 1432.0
0.931999981403 -0.372000008821 0.0920000001788 1440.0
0.935000002384 -0.379000008106 0.0930000022054 1376.0
0.945999979973 -0.389999985695 0.0939999967813 512.0
0.830999970436 -0.347999989986 0.082999996841 246.0
0.820999979973 -0.34999999404 0.082000002265 247.0
0.819999992847 -0.356000006199 0.082000002265 268.0
0.813000023365 -0.358000010252 0.082000002265 273.0
0.842000007629 -0.377000004053 0.0850000008941 293.0
0.824000000954 -0.375 0.082999996841 314.0
0.842999994755 -0.389999985695 0.0850000008941 330.0
0.829999983311 -0.389999985695 0.0839999988675 360.0
0.861000001431 -0.412000000477 0.0879999995232 395.0
0.85799998045 -0.416000008583 0.0879999995232 440.0
0.870000004768 -0.428999990225 0.0890000015497 490.0
0.865000009537 -0.432999998331 0.0890000015497 551.0
0.888999998569 -0.451999992132 0.0920000001788 874.0
0.89200001955 -0.46099999547 0.0920000001788 938.0
0.893999993801 -0.469000011683 0.0930000022054 897.0
0.889999985695 -0.472999989986 0.0930000022054 857.0
0.883000016212 -0.476999998093 0.0920000001788 823.0
0.879999995232 -0.483000010252 0.0920000001788 761.0
0.869000017643 -0.483000010252 0.0909999981523 712.0
4.33400011063 2.49799990654 0.414999991655 83.0
4.28700017929 2.43600010872 0.409000009298 85.0
4.04199981689 2.23000001907 0.384000003338 81.0
4.15799999237 2.26099991798 0.393999993801 86.0
4.21899986267 2.25999999046 0.398000001907 101.0
4.14099979401 2.18499994278 0.389999985695 127.0
4.0560002327 2.10800004005 0.381000012159 113.0
4.16599988937 2.132999897 0.389999985695 94.0
4.35200023651 2.19400000572 0.407000005245 92.0
4.32700014114 2.14800000191 0.404000014067 94.0
4.35300016403 2.12800002098 0.405000001192 91.0
4.26200008392 2.05100011826 0.395999997854 123.0
4.26999998093 2.02300000191 0.395999997854 124.0
4.28499984741 1.99800002575 0.395999997854 124.0
4.25899982452 1.95500004292 0.393000006676 125.0
4.28900003433 1.93700003624 0.395000010729 113.0
4.3220000267 1.91999995708 0.397000014782 120.0
4.32899999619 1.89199995995 0.397000014782 115.0
4.32299995422 1.85800004005 0.395000010729 115.0
4.31799983978 1.82500004768 0.393999993801 112.0
4.35200023651 1.80900001526 0.397000014782 116.0
4.38899993896 1.79299998283 0.398999989033 108.0
4.34999990463 1.74699997902 0.395000010729 110.0
4.36299991608 1.72200000286 0.395000010729 103.0
4.35799980164 1.68900001049 0.393999993801 106.0
4.39900016785 1.67499995232 0.397000014782 106.0
4.42100000381 1.65299999714 0.398999989033 102.0
4.39699983597 1.61399996281 0.395999997854 104.0
4.40899991989 1.58899998665 0.395999997854 101.0
4.41400003433 1.56099998951 0.395999997854 101.0
4.36899995804 1.51600003242 0.391999989748 101.0
4.40700006485 1.5 0.393999993801 101.0
4.4310002327 1.47899997234 0.395999997854 93.0
4.41300010681 1.44400000572 0.393999993801 102.0
4.45800018311 1.42900002003 0.397000014782 81.0
0.00600000005215 0.00200000009499 -0.0010000000475 61.0
1.00499999523 0.0270000007004 0.0860000029206 1106.0
1.01199996471 0.0209999997169 0.0860000029206 1179.0
1.01400005817 0.0149999996647 0.0869999974966 1186.0
1.01400005817 0.00899999961257 0.0869999974966 1186.0
1.01400005817 0.00400000018999 0.0869999974966 1201.0
1.00899994373 -0.0010000000475 0.0860000029206 1205.0
1.00600004196 -0.00700000021607 0.0860000029206 1199.0
1.01100003719 -0.0130000002682 0.0860000029206 1201.0
1.00499999523 -0.0189999993891 0.0860000029206 1215.0
1.00999999046 -0.0240000002086 0.0860000029206 1209.0
1.00699996948 -0.0299999993294 0.0860000029206 1223.0
0.999000012875 -0.0359999984503 0.0860000029206 1227.0
1.00199997425 -0.0419999994338 0.0860000029206 1224.0
0.999000012875 -0.0469999983907 0.0860000029206 1235.0
1.0039999485 -0.0529999993742 0.0860000029206 1197.0
1.02100002766 -0.0599999986589 0.0879999995232 449.0
0.888000011444 -0.0570000000298 0.0759999975562 180.0
0.896000027657 -0.0630000010133 0.0769999995828 173.0
0.851999998093 -0.0640000030398 0.0729999989271 181.0
0.875999987125 -0.0710000023246 0.0750000029802 182.0
0.874000012875 -0.0759999975562 0.0750000029802 176.0
0.875999987125 -0.0810000002384 0.0750000029802 181.0
0.852999985218 -0.0839999988675 0.0729999989271 178.0
0.847000002861 -0.0879999995232 0.0729999989271 179.0
0.866999983788 -0.0960000008345 0.0750000029802 183.0
0.85799998045 -0.10000000149 0.0740000009537 183.0
0.871999979019 -0.105999998748 0.0750000029802 179.0
0.867999970913 -0.111000001431 0.0750000029802 185.0
0.856999993324 -0.115000002086 0.0740000009537 190.0
0.915000021458 -0.12800000608 0.0790000036359 577.0
0.973999977112 -0.142000004649 0.0850000008941 1266.0
0.981999993324 -0.149000003934 0.0850000008941 1326.0
0.980000019073 -0.155000001192 0.0850000008941 1347.0
0.980000019073 -0.159999996424 0.0850000008941 1350.0
0.977999985218 -0.165999993682 0.0850000008941 1348.0
0.975000023842 -0.171000003815 0.0850000008941 1351.0
0.976000010967 -0.177000001073 0.0850000008941 1360.0
0.976999998093 -0.182999998331 0.0860000029206 1368.0
0.967000007629 -0.187000006437 0.0850000008941 1371.0
0.96899998188 -0.193000003695 0.0850000008941 1372.0
0.967999994755 -0.199000000954 0.0850000008941 1385.0
0.967999994755 -0.204999998212 0.0850000008941 1386.0
0.971000015736 -0.21099999547 0.0860000029206 1386.0
0.975000023842 -0.217999994755 0.0860000029206 1326.0
0.976999998093 -0.22499999404 0.0860000029206 457.0
0.85799998045 -0.202000007033 0.0759999975562 213.0
0.84399998188 -0.203999996185 0.0750000029802 200.0
0.851999998093 -0.21099999547 0.0750000029802 203.0
0.836000025272 -0.211999997497 0.0740000009537 204.0
0.818000018597 -0.212999999523 0.0729999989271 203.0
0.833999991417 -0.222000002861 0.0740000009537 204.0
0.846000015736 -0.231000006199 0.0750000029802 201.0
0.822000026703 -0.229000002146 0.0729999989271 199.0
0.856000006199 -0.244000002742 0.0769999995828 198.0
0.836000025272 -0.244000002742 0.0750000029802 202.0
0.838999986649 -0.25 0.0750000029802 203.0
0.837999999523 -0.254999995232 0.0750000029802 208.0
0.805999994278 -0.250999987125 0.0719999969006 218.0
0.898999989033 -0.286000013351 0.0810000002384 889.0
0.947000026703 -0.307000011206 0.0860000029206 1403.0
0.947000026703 -0.31400001049 0.0860000029206 1435.0
0.944000005722 -0.319000005722 0.0860000029206 1435.0
0.945999979973 -0.326000005007 0.0860000029206 1440.0
0.941999971867 -0.331000000238 0.0860000029206 1434.0
0.940999984741 -0.337000012398 0.0860000029206 1454.0
0.938000023365 -0.342000007629 0.0860000029206 1440.0
0.936999976635 -0.347999989986 0.0860000029206 1434.0
0.934000015259 -0.352999985218 0.0860000029206 1433.0
0.936999976635 -0.361000001431 0.0869999974966 1439.0
0.935000002384 -0.365999996662 0.0869999974966 1452.0
0.930000007153 -0.370999991894 0.0860000029206 1450.0
0.930999994278 -0.377000004053 0.0869999974966 1399.0
0.944999992847 -0.389999985695 0.0879999995232 521.0
0.805000007153 -0.337000012398 0.0750000029802 231.0
0.792999982834 -0.337999999523 0.0740000009537 203.0
0.788999974728 -0.342000007629 0.0740000009537 209.0
0.774999976158 -0.340999990702 0.0729999989271 210.0
0.758000016212 -0.338999986649 0.0710000023246 211.0
0.754000008106 -0.342999994755 0.0710000023246 219.0
0.771000027657 -0.356000006199 0.0729999989271 208.0
0.778999984264 -0.365999996662 0.0740000009537 213.0
0.786000013351 -0.375 0.0750000029802 202.0
0.755999982357 -0.365999996662 0.0719999969006 207.0
0.746999979019 -0.368000000715 0.0719999969006 211.0
0.737999975681 -0.368999987841 0.0710000023246 232.0
0.869000017643 -0.442000001669 0.0839999988675 1040.0
0.902999997139 -0.465999990702 0.0879999995232 1386.0
0.90600001812 -0.47499999404 0.0879999995232 1400.0
0.907999992371 -0.483000010252 0.0890000015497 1389.0
0.898999989033 -0.485000014305 0.0879999995232 1382.0
0.898999989033 -0.493000000715 0.0879999995232 1361.0
0.896000027657 -0.497999995947 0.0879999995232 1335.0
4.23400020599 2.43899989128 0.377000004053 84.0
4.28900003433 2.43499994278 0.381000012159 80.0
3.81699991226 2.13599991798 0.337999999523 85.0
3.742000103 2.06299996376 0.331000000238 87.0
3.99300003052 2.16899991035 0.351999998093 88.0
4.17100000381 2.23300004005 0.36700001359 106.0
4.04600000381 2.13400006294 0.354999989271 138.0
4.00699996948 2.08100008965 0.34999999404 130.0
4.07800006866 2.08599996567 0.356000006199 121.0
4.32399988174 2.17899990082 0.377000004053 99.0
4.3140001297 2.14100003242 0.375 105.0
4.34000015259 2.1210000515 0.375999987125 113.0
4.21799993515 2.02900004387 0.365000009537 148.0
4.19999980927 1.98899996281 0.361999988556 149.0
4.22900009155 1.97099995613 0.363999992609 151.0
4.21400022507 1.93299996853 0.361999988556 150.0
4.25099992752 1.91799998283 0.363999992609 145.0
4.23099994659 1.8789999485 0.361999988556 144.0
4.27600002289 1.86800003052 0.365000009537 136.0
4.242000103 1.8220000267 0.361000001431 141.0
4.25699996948 1.79799997807 0.361999988556 144.0
4.26700019836 1.77199995518 0.361999988556 139.0
4.30000019073 1.75600004196 0.363999992609 144.0
4.27299976349 1.71500003338 0.361000001431 134.0
4.30499982834 1.69799995422 0.363999992609 137.0
4.2389998436 1.64199995995 0.356999993324 135.0
4.27500009537 1.62699997425 0.360000014305 132.0
4.3220000267 1.61500000954 0.363000005484 135.0
4.32600021362 1.58800005913 0.363000005484 130.0
4.31199979782 1.5529999733 0.361000001431 126.0
4.31699991226 1.52600002289 0.361000001431 133.0
4.29600000381 1.49000000954 0.358999997377 126.0
4.31199979782 1.46700000763 0.360000014305 130.0
4.30900001526 1.43700003624 0.358999997377 137.0
4.31300020218 1.40999996662 0.358999997377 133.0
4.42600011826 1.41799998283 0.368000000715 109.0
1.00100004673 0.0260000005364 0.0799999982119 1111.0
1.01100003719 0.0209999997169 0.0799999982119 1191.0
1.01100003719 0.0149999996647 0.0799999982119 1175.0
1.01199996471 0.00899999961257 0.0810000002384 1191.0
1.00899994373 0.00400000018999 0.0799999982119 1195.0
1.00600004196 -0.0010000000475 0.0799999982119 1203.0
1.00600004196 -0.00700000021607 0.0799999982119 1205.0
1.0039999485 -0.0130000002682 0.0799999982119 1215.0
1.0039999485 -0.0189999993891 0.0799999982119 1218.0
1.00600004196 -0.0240000002086 0.0799999982119 1226.0
1.00300002098 -0.0299999993294 0.0799999982119 1228.0
1.00199997425 -0.0359999984503 0.0799999982119 1221.0
0.998000025749 -0.0410000011325 0.0799999982119 1224.0
0.999000012875 -0.0469999983907 0.0799999982119 1241.0
1.00199997425 -0.0529999993742 0.0799999982119 1178.0
1.00999999046 -0.0590000003576 0.0810000002384 432.0
0.879999995232 -0.0560000017285 0.070000000298 183.0
0.903999984264 -0.0630000010133 0.0719999969006 181.0
0.884999990463 -0.0670000016689 0.0710000023246 180.0
0.834999978542 -0.0680000036955 0.0670000016689 184.0
0.865999996662 -0.0750000029802 0.0689999982715 178.0
0.882000029087 -0.082000002265 0.0710000023246 185.0
0.869000017643 -0.0860000029206 0.070000000298 182.0
0.875 -0.0920000001788 0.070000000298 184.0
0.879999995232 -0.097000002861 0.0710000023246 183.0
0.882000029087 -0.101999998093 0.0710000023246 182.0
0.871999979019 -0.105999998748 0.070000000298 187.0
0.883000016212 -0.112999998033 0.0710000023246 190.0
0.866999983788 -0.115999996662 0.070000000298 192.0
0.912999987602 -0.12800000608 0.0740000009537 598.0
0.972999989986 -0.142000004649 0.0790000036359 1291.0
0.976999998093 -0.148000001907 0.0790000036359 1330.0
0.98299998045 -0.155000001192 0.0799999982119 1338.0
0.978999972343 -0.159999996424 0.0799999982119 1359.0
0.973999977112 -0.165000006557 0.0790000036359 1354.0
0.975000023842 -0.171000003815 0.0790000036359 1353.0
0.972999989986 -0.177000001073 0.0790000036359 1362.0
0.967000007629 -0.180999994278 0.0790000036359 1378.0
0.97000002861 -0.187999993563 0.0790000036359 1368.0
0.96899998188 -0.193000003695 0.0790000036359 1375.0
0.96899998188 -0.199000000954 0.0790000036359 1379.0
0.964999973774 -0.203999996185 0.0790000036359 1398.0
0.97000002861 -0.21099999547 0.0799999982119 1394.0
0.97000002861 -0.216999992728 0.0799999982119 1315.0
0.980000019073 -0.22499999404 0.0810000002384 455.0
0.861000001431 -0.202999994159 0.0710000023246 212.0
0.870000004768 -0.209999993443 0.0719999969006 204.0
0.842999994755 -0.209000006318 0.070000000298 199.0
0.850000023842 -0.216000005603 0.070000000298 204.0
0.837000012398 -0.217999994755 0.0689999982715 199.0
0.836000025272 -0.223000004888 0.0689999982715 207.0
0.847000002861 -0.231000006199 0.070000000298 209.0
0.848999977112 -0.237000003457 0.0710000023246 203.0
0.820999979973 -0.233999997377 0.0680000036955 206.0
0.851000010967 -0.247999995947 0.0710000023246 205.0
0.851000010967 -0.254000008106 0.0710000023246 206.0
0.824000000954 -0.250999987125 0.0689999982715 206.0
0.834999978542 -0.259999990463 0.070000000298 209.0
0.90600001812 -0.287999987602 0.0759999975562 894.0
0.943000018597 -0.305999994278 0.0799999982119 1397.0
0.949000000954 -0.31400001049 0.0799999982119 1445.0
0.941999971867 -0.317999988794 0.0799999982119 1444.0
0.936999976635 -0.323000013828 0.0799999982119 1447.0
0.940999984741 -0.330000013113 0.0799999982119 1437.0
0.944999992847 -0.337999999523 0.0810000002384 1439.0
0.93900001049 -0.342000007629 0.0799999982119 1455.0
0.933000028133 -0.345999985933 0.0799999982119 1450.0
0.938000023365 -0.354000002146 0.0810000002384 1435.0
0.938000023365 -0.361000001431 0.0810000002384 1440.0
0.929000020027 -0.363999992609 0.0799999982119 1459.0
0.930000007153 -0.370999991894 0.0810000002384 1474.0
0.938000023365 -0.379999995232 0.082000002265 1409.0
0.949000000954 -0.391000002623 0.082999996841 520.0
0.81099998951 -0.338999986649 0.0710000023246 223.0
0.792999982834 -0.337999999523 0.0689999982715 204.0
0.777999997139 -0.337000012398 0.0680000036955 205.0
0.787000000477 -0.345999985933 0.0689999982715 202.0
0.782000005245 -0.34999999404 0.0689999982715 203.0
0.773000001907 -0.351000010967 0.0680000036955 209.0
0.776000022888 -0.358999997377 0.0689999982715 206.0
0.757000029087 -0.354999989271 0.0670000016689 205.0
0.758000016212 -0.361000001431 0.0670000016689 204.0
0.757000029087 -0.365999996662 0.0670000016689 199.0
