ply
format ascii 1.0
element vertex 982
property float x
property float y
property float z
property float intensity
end_header
2.23600006104 1.27100002766 0.980000019073 135.0
2.2650001049 1.26699995995 0.990000009537 223.0
2.38199996948 1.31200003624 1.0379999876 130.0
3.64599990845 1.54400002956 1.52600002289 82.0
3.875 1.52600002289 1.60899996758 80.0
4.00400018692 1.54700005054 1.6590000391 78.0
4.0110001564 1.52100002766 1.65799999237 81.0
4.12200021744 1.53299999237 1.7009999752 83.0
4.14699983597 1.51199996471 1.70799994469 81.0
4.17399978638 1.49199998379 1.7159999609 78.0
4.23099994659 1.48300004005 1.73599994183 79.0
4.16499996185 1.42999994755 1.70599997044 91.0
4.17999982834 1.40600001812 1.70899999142 115.0
4.14499998093 1.36500000954 1.69200003147 128.0
4.18400001526 1.34899997711 1.70500004292 122.0
4.17299985886 1.31700003147 1.69799995422 126.0
4.18800020218 1.29299998283 1.7009999752 119.0
4.20800018311 1.26999998093 1.70700001717 124.0
4.17999982834 1.23300004005 1.69200003147 113.0
4.16200017929 1.20000004768 1.68299996853 114.0
4.26800012589 1.2009999752 1.72300004959 116.0
4.21899986267 1.1590000391 1.7009999752 114.0
4.16900014877 1.11800003052 1.67900002003 118.0
4.21400022507 1.10199999809 1.69400000572 119.0
4.21700000763 1.07500004768 1.69400000572 113.0
4.20699977875 1.04400002956 1.68700003624 116.0
4.26399993896 1.02999997139 1.70799994469 124.0
4.24599981308 0.998000025749 1.69900000095 118.0
4.22300004959 0.964999973774 1.68799996376 121.0
4.25199985504 0.944000005722 1.6970000267 114.0
4.18699979782 0.902999997139 1.66900002956 117.0
4.19500017166 0.876999974251 1.67100000381 113.0
4.22700023651 0.856999993324 1.68200004101 118.0
4.22100019455 0.828999996185 1.6779999733 120.0
4.26200008392 0.809000015259 1.69299995899 118.0
4.27600002289 0.785000026226 1.6970000267 116.0
4.25899982452 0.754000008106 1.68799996376 111.0
4.25899982452 0.727999985218 1.68700003624 108.0
4.24399995804 0.698000013828 1.67999994755 115.0
4.21400022507 0.666999995708 1.66700005531 109.0
4.29500007629 0.652000010014 1.69799995422 101.0
4.24399995804 0.617999970913 1.67599999905 111.0
4.26999998093 0.59500002861 1.68499994278 106.0
4.257999897 0.566999971867 1.67999994755 98.0
4.24100017548 0.537999987602 1.67200005054 104.0
4.27799987793 0.51599997282 1.68499994278 102.0
4.21899986267 0.483000010252 1.66100001335 105.0
4.23299980164 0.458000004292 1.66600000858 107.0
4.25099992752 0.433999985456 1.67200005054 103.0
4.28800010681 0.411000013351 1.68599998951 105.0
4.22100019455 0.379000008106 1.6590000391 104.0
4.23400020599 0.354000002146 1.66400003433 107.0
4.26900005341 0.330000013113 1.67700004578 99.0
4.23699998856 0.301999986172 1.66400003433 106.0
4.22800016403 0.27500000596 1.65999996662 103.0
4.257999897 0.250999987125 1.67100000381 105.0
4.28100013733 0.225999996066 1.67999994755 104.0
4.257999897 0.199000000954 1.67100000381 99.0
4.2389998436 0.172000005841 1.6629999876 105.0
4.28299999237 0.148000001907 1.67999994755 105.0
4.26000022888 0.120999999344 1.67100000381 100.0
4.24399995804 0.0949999988079 1.66400003433 89.0
4.18699979782 0.0680000036955 1.64199995995 100.0
4.28299999237 0.0430000014603 1.67900002003 106.0
4.25500011444 0.0170000009239 1.66900002956 100.0
4.26300001144 -0.00800000037998 1.67200005054 97.0
4.27600002289 -0.0340000018477 1.67700004578 98.0
4.257999897 -0.0599999986589 1.66999995708 99.0
4.30700016022 -0.0869999974966 1.69000005722 101.0
4.26800012589 -0.112000003457 1.67499995232 97.0
4.29199981689 -0.138999998569 1.68499994278 97.0
4.1890001297 -0.16099999845 1.64499998093 102.0
4.28499984741 -0.190999999642 1.68299996853 94.0
4.23600006104 -0.215000003576 1.66400003433 105.0
4.31300020218 -0.246000006795 1.69500005245 100.0
4.33400011063 -0.273000001907 1.70399999619 97.0
4.29099988937 -0.29699999094 1.68799996376 98.0
4.24499988556 -0.319999992847 1.67100000381 92.0
4.30499982834 -0.351000010967 1.69500005245 99.0
4.26900005341 -0.374000012875 1.68099999428 92.0
4.24399995804 -0.398000001907 1.67299997807 97.0
4.29400014877 -0.428999990225 1.69299995899 87.0
4.2389998436 -0.449999988079 1.67299997807 105.0
4.29799985886 -0.483000010252 1.6970000267 93.0
4.28999996185 -0.509000003338 1.69500005245 98.0
4.32399988174 -0.540000021458 1.71000003815 98.0
4.25299978256 -0.556999981403 1.68299996853 94.0
4.31199979782 -0.592000007629 1.70799994469 93.0
4.32000017166 -0.620000004768 1.7120000124 97.0
4.30100011826 -0.643999993801 1.70599997044 95.0
4.29699993134 -0.671000003815 1.70599997044 89.0
4.28499984741 -0.695999979973 1.70299994946 98.0
4.26800012589 -0.72000002861 1.69799995422 96.0
4.29799985886 -0.751999974251 1.71099996567 100.0
4.24499988556 -0.769999980927 1.69200003147 102.0
4.29799985886 -0.806999981403 1.71500003338 100.0
4.30100011826 -0.834999978542 1.71800005436 96.0
4.34299993515 -0.870999991894 1.73699998856 98.0
4.34399986267 -0.898999989033 1.73899996281 98.0
4.30800008774 -0.920000016689 1.72699999809 97.0
4.3029999733 -0.945999979973 1.72699999809 104.0
4.33099985123 -0.981000006199 1.74100005627 97.0
4.32800006866 -1.00800001621 1.74199998379 95.0
4.31500005722 -1.03299999237 1.73800003529 91.0
4.24599981308 -1.04499995708 1.71300005913 93.0
4.30999994278 -1.08899998665 1.74100005627 95.0
4.31199979782 -1.11800003052 1.74500000477 103.0
4.26499986649 -1.13399994373 1.72800004482 99.0
4.26800012589 -1.16400003433 1.73199999332 99.0
4.30000019073 -1.2009999752 1.74800002575 95.0
4.28900003433 -1.22699999809 1.7460000515 88.0
4.26200008392 -1.24800002575 1.73800003529 104.0
4.33400011063 -1.2990000248 1.77100002766 92.0
4.25 -1.3029999733 1.73899996281 99.0
4.2610001564 -1.33500003815 1.74699997902 96.0
4.28499984741 -1.37199997902 1.75999999046 88.0
4.30499982834 -1.4090000391 1.77100002766 95.0
4.29699993134 -1.43599998951 1.77100002766 96.0
4.29600000381 -1.4659999609 1.77400004864 95.0
4.31500005722 -1.50300002098 1.78600001335 93.0
4.30399990082 -1.52999997139 1.78499996662 93.0
4.25500011444 -1.54299998283 1.76800000668 98.0
4.26399993896 -1.57700002193 1.77499997616 97.0
4.29400014877 -1.61899995804 1.79200005531 102.0
4.33500003815 -1.6970000267 1.81700003147 93.0
4.28599977493 -1.70899999142 1.79999995232 89.0
4.28499984741 -1.74100005627 1.80400002003 91.0
4.24599981308 -1.75600004196 1.79100000858 93.0
4.29500007629 -1.80900001526 1.81700003147 96.0
4.28900003433 -1.83899998665 1.81799995899 91.0
4.28399991989 -1.86899995804 1.82099997997 104.0
4.26000022888 -1.89199995995 1.81500005722 96.0
4.25500011444 -1.92200005054 1.81799995899 86.0
4.24700021744 -1.95200002193 1.81900000572 94.0
4.20599985123 -1.9659999609 1.80599999428 100.0
0.0390000008047 -0.0130000002682 0.0130000002682 105.0
0.0270000007004 -0.00800000037998 0.00800000037998 97.0
0.0179999992251 -0.00400000018999 0.00400000018999 99.0
0.0219999998808 -0.00600000005215 0.00600000005215 97.0
0.0170000009239 -0.00300000002608 0.00400000018999 96.0
0.0189999993891 -0.00400000018999 0.00400000018999 91.0
0.0500000007451 -0.0209999997169 0.0179999992251 97.0
0.0599999986589 -0.0270000007004 0.0230000000447 93.0
0.115999996662 -0.0579999983311 0.0480000004172 100.0
0.0430000014603 -0.0189999993891 0.0149999996647 100.0
0.0860000029206 -0.0430000014603 0.035000000149 101.0
0.156000003219 -0.0839999988675 0.0659999996424 97.0
0.184000000358 -0.101999998093 0.0790000036359 104.0
0.162000000477 -0.0909999981523 0.0689999982715 104.0
0.202999994159 -0.116999998689 0.0879999995232 96.0
2.13100004196 1.32099997997 0.935000002384 213.0
2.13400006294 1.30400002003 0.933000028133 231.0
2.15799999237 1.2990000248 0.940999984741 227.0
2.14299988747 1.27100002766 0.930999994278 215.0
2.17000007629 1.26699995995 0.939999997616 126.0
2.28800010681 1.31599998474 0.987999975681 94.0
2.25600004196 1.27900004387 0.971000015736 164.0
2.27900004387 1.27199995518 0.977999985218 213.0
2.29999995232 1.26400005817 0.98400002718 110.0
3.93099999428 1.60199999809 1.60899996758 78.0
3.95399999619 1.49500000477 1.60599994659 83.0
4.05900001526 1.50600004196 1.64499998093 84.0
4.1360001564 1.50499999523 1.67299997807 81.0
4.22499990463 1.50699996948 1.70599997044 83.0
4.16599988937 1.45700001717 1.67900002003 81.0
4.21500015259 1.44400000572 1.69599997997 100.0
4.17299985886 1.40100002289 1.67599999905 113.0
4.15799999237 1.36600005627 1.66700005531 127.0
4.12599992752 1.32700002193 1.65100002289 125.0
4.19799995422 1.3220000267 1.67700004578 118.0
4.1970000267 1.29299998283 1.6740000248 120.0
4.18300008774 1.25999999046 1.66600000858 113.0
4.20499992371 1.23800003529 1.67200005054 112.0
4.20399999619 1.20899999142 1.66999995708 114.0
4.19099998474 1.17700004578 1.66199994087 117.0
4.20300006866 1.15199995041 1.66400003433 120.0
4.22100019455 1.1289999485 1.66900002956 118.0
4.20699977875 1.09800004959 1.66199994087 119.0
4.21000003815 1.07000005245 1.65999996662 113.0
4.23799991608 1.04999995232 1.66900002956 118.0
4.21700000763 1.01699995995 1.6590000391 114.0
4.24499988556 0.995999991894 1.66799998283 116.0
4.20499992371 0.958999991417 1.65100002289 117.0
4.23299980164 0.938000023365 1.65999996662 111.0
4.20399999619 0.903999984264 1.64600002766 120.0
4.21999979019 0.880999982357 1.65100002289 106.0
4.242000103 0.85799998045 1.65799999237 111.0
4.24499988556 0.830999970436 1.65799999237 119.0
4.21700000763 0.799000024796 1.64499998093 116.0
4.16900014877 0.763000011444 1.625 113.0
4.23600006104 0.749000012875 1.64999997616 116.0
4.20599985123 0.717000007629 1.63699996471 107.0
4.26800012589 0.699999988079 1.6590000391 113.0
4.23299980164 0.667999982834 1.64499998093 107.0
4.25 0.643999993801 1.64999997616 111.0
4.26000022888 0.619000017643 1.65299999714 106.0
4.25500011444 0.592000007629 1.64999997616 107.0
4.26999998093 0.566999971867 1.65400004387 108.0
4.22100019455 0.533999979496 1.63499999046 105.0
4.26499986649 0.513000011444 1.65100002289 105.0
4.22300004959 0.481999993324 1.63399994373 104.0
4.26200008392 0.460000008345 1.64800000191 108.0
4.27099990845 0.435000002384 1.65100002289 108.0
4.23199987411 0.405000001192 1.63499999046 112.0
4.23999977112 0.379000008106 1.63699996471 107.0
4.24800014496 0.354000002146 1.63999998569 112.0
4.19600009918 0.324000000954 1.61899995804 113.0
4.25600004196 0.301999986172 1.64199995995 108.0
4.28700017929 0.277999997139 1.65299999714 109.0
4.22599983215 0.248999997973 1.6289999485 110.0
4.25299978256 0.224000006914 1.63900005817 102.0
4.26200008392 0.199000000954 1.64300000668 107.0
4.26900005341 0.172999992967 1.64499998093 107.0
4.24100017548 0.145999997854 1.63399994373 107.0
4.28299999237 0.120999999344 1.64999997616 108.0
4.24700021744 0.0939999967813 1.63600003719 108.0
4.24800014496 0.0680000036955 1.63600003719 101.0
4.26499986649 0.0430000014603 1.64300000668 107.0
4.23299980164 0.0170000009239 1.63100004196 106.0
4.29799985886 -0.00800000037998 1.65600001812 102.0
4.23799991608 -0.0340000018477 1.63300001621 103.0
4.28599977493 -0.0610000006855 1.65199995041 106.0
4.2610001564 -0.0860000029206 1.64199995995 103.0
4.29899978638 -0.112999998033 1.65799999237 102.0
4.29099988937 -0.138999998569 1.65499997139 100.0
4.30100011826 -0.165999993682 1.6590000391 100.0
4.23199987411 -0.188999995589 1.63300001621 99.0
4.33300018311 -0.219999998808 1.67200005054 101.0
4.29400014877 -0.244000002742 1.65799999237 101.0
4.23000001907 -0.266000002623 1.63399994373 103.0
4.29300022125 -0.29699999094 1.6590000391 98.0
4.25500011444 -0.319999992847 1.64499998093 99.0
4.24599981308 -0.344999998808 1.64199995995 101.0
4.21500015259 -0.368999987841 1.63100004196 99.0
4.30399990082 -0.402999997139 1.66700005531 101.0
4.22900009155 -0.42199999094 1.63900005817 91.0
4.24800014496 -0.449999988079 1.64699995518 97.0
4.33099985123 -0.486000001431 1.67999994755 101.0
4.30700016022 -0.509999990463 1.67200005054 95.0
4.30399990082 -0.536000013351 1.67200005054 104.0
4.27400016785 -0.559000015259 1.66199994087 100.0
4.34299993515 -0.59500002861 1.69000005722 103.0
4.32499980927 -0.620000004768 1.68400001526 98.0
4.24599981308 -0.634999990463 1.65499997139 105.0
4.34299993515 -0.676999986172 1.69400000572 97.0
4.29899978638 -0.697000026703 1.6779999733 95.0
4.27600002289 -0.72000002861 1.67100000381 99.0
4.29799985886 -0.750999987125 1.68099999428 98.0
4.27299976349 -0.773999989033 1.67299997807 99.0
4.31199979782 -0.808000028133 1.69000005722 110.0
4.28399991989 -0.829999983311 1.68099999428 101.0
4.33900022507 -0.869000017643 1.70399999619 102.0
4.28499984741 -0.884999990463 1.68499994278 101.0
4.32899999619 -0.92199999094 1.70500004292 97.0
4.3060002327 -0.944999992847 1.69799995422 96.0
4.27799987793 -0.967000007629 1.68900001049 100.0
4.34299993515 -1.00999999046 1.71700000763 96.0
4.32399988174 -1.0340000391 1.7120000124 102.0
4.29500007629 -1.05499994755 1.70299994946 97.0
4.32899999619 -1.09200000763 1.71800005436 102.0
4.29300022125 -1.11099994183 1.70599997044 97.0
4.30399990082 -1.14199995995 1.71300005913 99.0
4.36600017548 -1.18799996376 1.74100005627 93.0
4.24599981308 -1.18400001526 1.69599997997 103.0
4.3140001297 -1.23199999332 1.72599995136 96.0
4.30700016022 -1.25899994373 1.72500002384 95.0
4.26999998093 -1.27699995041 1.71399998665 102.0
4.32100009918 -1.3220000267 1.73699998856 99.0
4.32999992371 -1.35399997234 1.74399995804 92.0
4.28399991989 -1.36899995804 1.72800004482 98.0
4.28800010681 -1.39999997616 1.73300004005 90.0
4.3189997673 -1.44000005722 1.74899995327 94.0
4.28200006485 -1.45799994469 1.73699998856 97.0
4.24499988556 -1.47500002384 1.72599995136 98.0
4.27799987793 -1.51699995995 1.74199998379 90.0
4.33599996567 -1.56900000572 1.76999998093 94.0
4.3029999733 -1.5870000124 1.75999999046 94.0
4.30499982834 -1.61899995804 1.76400005817 93.0
4.24100017548 -1.62600004673 1.74199998379 89.0
4.28700017929 -1.67499995232 1.76400005817 85.0
4.32499980927 -1.72099995613 1.7840000391 92.0
4.26599979401 -1.76100003719 1.76800000668 104.0
4.30900001526 -1.81099998951 1.78999996185 91.0
4.28700017929 -1.83399999142 1.78499996662 88.0
4.32800006866 -1.88399994373 1.80700004101 95.0
4.29600000381 -1.90299999714 1.79799997807 94.0
0.0170000009239 -0.00200000009499 0.00300000002608 92.0
4.30800008774 -1.97500002384 1.81200003624 93.0
4.29500007629 -2.00300002098 1.81200003624 99.0
4.24599981308 -2.01300001144 1.79600000381 94.0
4.23299980164 -2.03999996185 1.79499995708 98.0
4.26200008392 -2.08899998665 1.81200003624 98.0
4.25099992752 -2.11800003052 1.81299996376 92.0
0.0309999994934 -0.00999999977648 0.00999999977648 89.0
0.070000000298 -0.0309999994934 0.0260000005364 102.0
0.0460000000894 -0.0189999993891 0.01600000076 91.0
0.0920000001788 -0.0430000014603 0.0359999984503 98.0
0.0790000036359 -0.0370000004768 0.0299999993294 99.0
0.0869999974966 -0.0419999994338 0.0340000018477 99.0
0.131999999285 -0.0680000036955 0.0540000014007 100.0
0.118000000715 -0.0610000006855 0.0480000004172 91.0
0.142000004649 -0.0759999975562 0.0579999983311 101.0
0.135000005364 -0.0740000009537 0.0560000017285 109.0
2.16400003433 1.33800005913 0.931999981403 246.0
2.13499999046 1.30099999905 0.916999995708 221.0
2.14299988747 1.28600001335 0.916999995708 231.0
2.13100004196 1.26100003719 0.908999979496 205.0
2.23600006104 1.3029999733 0.950999975204 101.0
2.30200004578 1.3220000267 0.976000010967 113.0
2.27699995041 1.2879999876 0.962000012398 187.0
2.28900003433 1.27499997616 0.964999973774 195.0
2.32299995422 1.27400004864 0.976000010967 106.0
3.82500004768 1.61199998856 1.54400002956 78.0
4.02199983597 1.5759999752 1.61000001431 75.0
4.1939997673 1.52199995518 1.66600000858 81.0
4.17899990082 1.48699998856 1.65699994564 80.0
4.15299987793 1.44900000095 1.64400005341 84.0
4.15799999237 1.42100000381 1.64199995995 95.0
4.17500019073 1.39800000191 1.64600002766 123.0
4.20200014114 1.37800002098 1.65400004387 126.0
4.1779999733 1.3409999609 1.64199995995 121.0
4.18300008774 1.31400001049 1.64100003242 114.0
4.18400001526 1.28600001335 1.63900005817 116.0
4.1939997673 1.25999999046 1.63999998569 117.0
4.1890001297 1.23000001907 1.63600003719 118.0
4.20300006866 1.20599997044 1.63900005817 110.0
4.242000103 1.18900001049 1.65199995041 104.0
4.19500017166 1.14800000191 1.63199996948 114.0
4.25699996948 1.13600003719 1.65299999714 121.0
4.21700000763 1.09800004959 1.63600003719 117.0
4.20599985123 1.06700003147 1.6289999485 121.0
4.20499992371 1.03900003433 1.62699997425 113.0
4.24399995804 1.02100002766 1.63999998569 125.0
4.21199989319 0.986000001431 1.62600004673 115.0
4.28800010681 0.976000010967 1.65299999714 115.0
4.24100017548 0.936999976635 1.63300001621 117.0
4.23099994659 0.907999992371 1.62800002098 117.0
4.23699998856 0.882000029087 1.62800002098 114.0
4.20900011063 0.848999977112 1.61600005627 119.0
4.23099994659 0.827000021935 1.62300002575 118.0
4.22200012207 0.797999978065 1.61800003052 117.0
4.19899988174 0.76700001955 1.60699999332 110.0
4.23199987411 0.745999991894 1.61899995804 117.0
4.18499994278 0.712000012398 1.60000002384 120.0
4.20200014114 0.688000023365 1.60500001907 112.0
4.16599988937 0.65600001812 1.59000003338 115.0
4.26999998093 0.646000027657 1.62800002098 115.0
4.20900011063 0.610000014305 1.60399997234 118.0
4.23699998856 0.587999999523 1.61300003529 111.0
4.19199991226 0.555999994278 1.59500002861 120.0
4.24100017548 0.536000013351 1.61300003529 114.0
4.20599985123 0.504999995232 1.59899997711 120.0
4.1970000267 0.477999985218 1.59500002861 125.0
4.24900007248 0.458000004292 1.61300003529 120.0
4.1810002327 0.425000011921 1.5870000124 120.0
4.23799991608 0.404000014067 1.60800004005 117.0
4.242000103 0.379000008106 1.60899996758 118.0
4.1810002327 0.347999989986 1.58500003815 121.0
4.24599981308 0.326999992132 1.60899996758 124.0
4.21600008011 0.298999994993 1.59700000286 124.0
4.22800016403 0.273999989033 1.60099995136 126.0
4.17999982834 0.245000004768 1.58299994469 117.0
4.21999979019 0.222000002861 1.59800004959 113.0
4.26599979401 0.197999998927 1.61500000954 119.0
4.22800016403 0.171000003815 1.60000002384 121.0
4.23299980164 0.144999995828 1.60199999809 126.0
4.2389998436 0.119999997318 1.60399997234 122.0
4.30399990082 0.0949999988079 1.6289999485 114.0
4.21400022507 0.0680000036955 1.59399998188 118.0
4.23999977112 0.0419999994338 1.60399997234 112.0
4.24599981308 0.01600000076 1.60699999332 110.0
4.27199983597 -0.00800000037998 1.61699998379 109.0
4.25699996948 -0.0340000018477 1.61099994183 114.0
4.26499986649 -0.0599999986589 1.61399996281 105.0
4.21299982071 -0.0850000008941 1.59500002861 108.0
4.22399997711 -0.111000001431 1.59899997711 108.0
4.257999897 -0.137999996543 1.61300003529 108.0
4.25400018692 -0.16400000453 1.61199998856 107.0
4.25299978256 -0.188999995589 1.61199998856 107.0
4.25699996948 -0.216000005603 1.61399996281 92.0
4.26999998093 -0.241999998689 1.61899995804 103.0
4.257999897 -0.268000006676 1.61500000954 97.0
4.27099990845 -0.294999986887 1.6210000515 107.0
4.27699995041 -0.321000009775 1.62399995327 101.0
4.23299980164 -0.344000011683 1.60800004005 106.0
4.24800014496 -0.370999991894 1.61500000954 107.0
4.24800014496 -0.397000014782 1.61600005627 98.0
4.33300018311 -0.432000011206 1.64900004864 93.0
4.24700021744 -0.449000000954 1.61699998379 103.0
4.26200008392 -0.476999998093 1.62399995327 103.0
4.28599977493 -0.505999982357 1.63399994373 102.0
4.28900003433 -0.532999992371 1.63600003719 98.0
4.27299976349 -0.558000028133 1.63199996948 105.0
4.28800010681 -0.587000012398 1.63900005817 94.0
4.21600008011 -0.602999985218 1.61199998856 97.0
4.28399991989 -0.639999985695 1.63999998569 97.0
4.31300020218 -0.671000003815 1.65199995041 97.0
4.34600019455 -0.70300000906 1.66600000858 95.0
4.26999998093 -0.717999994755 1.63900005817 95.0
4.27299976349 -0.745000004768 1.64199995995 94.0
4.32000017166 -0.78100001812 1.66199994087 101.0
4.24700021744 -0.795000016689 1.63499999046 98.0
4.31199979782 -0.833999991417 1.66199994087 96.0
4.29600000381 -0.85900002718 1.65799999237 89.0
4.25699996948 -0.878000020981 1.64400005341 91.0
4.26000022888 -0.90600001812 1.64800000191 106.0
4.32999992371 -0.949000000954 1.67700004578 95.0
4.31300020218 -0.972999989986 1.67200005054 96.0
4.33099985123 -1.00499999523 1.68099999428 105.0
4.27099990845 -1.01900005341 1.65999996662 102.0
4.24100017548 -1.03900003433 1.65100002289 93.0
4.28100013733 -1.07700002193 1.66900002956 101.0
4.34100008011 -1.1210000515 1.69500005245 94.0
4.34700012207 -1.15199995041 1.69900000095 99.0
4.29899978638 -1.16700005531 1.68299996853 97.0
4.34100008011 -1.20799994469 1.70200002193 98.0
4.36800003052 -1.24500000477 1.7159999609 96.0
4.28999996185 -1.25100004673 1.68799996376 102.0
4.28200006485 -1.27799999714 1.68700003624 100.0
4.25500011444 -1.2990000248 1.67999994755 92.0
4.27899980545 -1.33500003815 1.69200003147 102.0
4.31300020218 -1.37600004673 1.70899999142 89.0
4.28999996185 -1.39800000191 1.70200002193 97.0
4.28100013733 -1.42499995232 1.70200002193 96.0
4.30999994278 -1.46399998665 1.71700000763 106.0
4.24800014496 -1.47300004959 1.69599997997 92.0
4.29199981689 -1.51900005341 1.71700000763 101.0
4.28000020981 -1.54499995708 1.71500003338 95.0
4.30900001526 -1.58599996567 1.73099994659 98.0
4.27500009537 -1.60399997234 1.72000002861 89.0
4.28999996185 -1.64100003242 1.73000001907 88.0
4.33699989319 -1.69099998474 1.75300002098 87.0
4.30000019073 -1.70799994469 1.74199998379 95.0
4.26900005341 -1.72699999809 1.73300004005 99.0
4.28399991989 -1.76499998569 1.74399995804 94.0
4.30999994278 -1.80799996853 1.75800001621 95.0
4.24399995804 -1.81200003624 1.73500001431 86.0
4.27099990845 -1.85599994659 1.75100004673 89.0
4.27099990845 -1.88800001144 1.75499999523 89.0
4.32100009918 -1.94299995899 1.77999997139 87.0
4.24800014496 -1.94299995899 1.75499999523 93.0
4.30399990082 -2.00200009346 1.78299999237 94.0
4.24499988556 -2.007999897 1.76300001144 92.0
4.28100013733 -2.05900001526 1.78199994564 98.0
4.25400018692 -2.07999992371 1.77600002289 96.0
0.082999996841 -0.0359999984503 0.0309999994934 89.0
0.0320000015199 -0.0109999999404 0.00999999977648 100.0
0.0299999993294 -0.00999999977648 0.00899999961257 86.0
0.0270000007004 -0.00899999961257 0.00800000037998 95.0
0.136999994516 -0.0689999982715 0.054999999702 99.0
0.0729999989271 -0.035000000149 0.0270000007004 110.0
0.143000006676 -0.0740000009537 0.0579999983311 102.0
0.123000003397 -0.0640000030398 0.0489999987185 93.0
0.0680000036955 -0.0329999998212 0.0250000003725 95.0
0.143000006676 -0.0780000016093 0.0579999983311 102.0
2.1289999485 1.31299996376 0.899999976158 237.0
2.14199995995 1.30200004578 0.902000010014 234.0
2.1210000515 1.27100002766 0.89099997282 235.0
2.12700009346 1.25499999523 0.889999985695 194.0
2.2009999752 1.27999997139 0.919000029564 100.0
2.27399992943 1.30200004578 0.945999979973 122.0
2.21900010109 1.25100004673 0.920000016689 210.0
2.29299998283 1.27400004864 0.948000013828 184.0
2.26699995995 1.24000000954 0.935000002384 102.0
3.89499998093 1.49399995804 1.52699995041 77.0
4.03100013733 1.51800000668 1.57799994946 82.0
4.09499979019 1.51199996471 1.60000002384 82.0
4.16699981689 1.50899994373 1.625 84.0
4.17399978638 1.48199999332 1.62399995327 83.0
4.19899988174 1.4620000124 1.63100004196 85.0
4.18699979782 1.4279999733 1.62399995327 102.0
4.14699983597 1.38499999046 1.60500001907 125.0
4.14699983597 1.35699999332 1.60300004482 131.0
4.15399980545 1.33000004292 1.60300004482 121.0
4.20200014114 1.31700003147 1.61899995804 120.0
4.19600009918 1.28600001335 1.61399996281 120.0
4.16200017929 1.24800002575 1.59800004959 123.0
4.20699977875 1.23300004005 1.61300003529 118.0
4.17199993134 1.19500005245 1.59700000286 116.0
4.18800020218 1.17100000381 1.60099995136 117.0
4.22200012207 1.15199995041 1.61199998856 122.0
4.18699979782 1.11500000954 1.59700000286 116.0
4.19899988174 1.09000003338 1.59899997711 115.0
4.21400022507 1.06700003147 1.60199999809 119.0
4.23000001907 1.04299998283 1.60699999332 118.0
4.20399999619 1.00899994373 1.59500002861 131.0
4.25 0.992999970913 1.61099994183 116.0
4.24100017548 0.962999999523 1.60500001907 119.0
4.15999984741 0.917999982834 1.57299995422 119.0
4.21999979019 0.903999984264 1.59399998188 112.0
4.25099992752 0.883000016212 1.60399997234 111.0
4.21899986267 0.848999977112 1.59000003338 120.0
4.21099996567 0.820999979973 1.58599996567 124.0
4.24800014496 0.800999999046 1.59800004959 119.0
4.24800014496 0.773999989033 1.59700000286 123.0
4.25899982452 0.749000012875 1.59899997711 117.0
4.25500011444 0.722000002861 1.59700000286 123.0
4.1939997673 0.685000002384 1.5720000267 120.0
4.20100021362 0.660000026226 1.57400000095 116.0
4.24599981308 0.64099997282 1.59000003338 118.0
4.22499990463 0.611000001431 1.58099997044 117.0
4.23600006104 0.586000025272 1.58399999142 114.0
4.26999998093 0.564999997616 1.59599995613 111.0
4.20800018311 0.52999997139 1.57099997997 121.0
4.17899990082 0.500999987125 1.55999994278 119.0
4.22800016403 0.481000006199 1.57700002193 121.0
4.17299985886 0.449000000954 1.55599999428 116.0
4.2389998436 0.430000007153 1.58000004292 124.0
4.26499986649 0.405999988317 1.58899998665 117.0
4.20200014114 0.374000012875 1.56500005722 122.0
4.20599985123 0.349000006914 1.56599998474 126.0
4.24900007248 0.326999992132 1.58099997044 127.0
4.16599988937 0.294999986887 1.54999995232 126.0
4.22599983215 0.273000001907 1.5720000267 132.0
4.19000005722 0.245000004768 1.55799996853 128.0
4.19799995422 0.219999998808 1.55999994278 133.0
4.23799991608 0.195999994874 1.57500004768 126.0
4.23099994659 0.170000001788 1.5720000267 133.0
4.24599981308 0.144999995828 1.57799994946 125.0
4.24900007248 0.119000002742 1.57899999619 136.0
4.242000103 0.0939999967813 1.5759999752 126.0
4.26900005341 0.0680000036955 1.58599996567 119.0
4.28200006485 0.0419999994338 1.5909999609 125.0
4.19799995422 0.01600000076 1.55999994278 123.0
4.26700019836 -0.00899999961257 1.58599996567 117.0
4.28499984741 -0.035000000149 1.59300005436 119.0
4.20900011063 -0.0590000003576 1.56400001049 116.0
4.20900011063 -0.0850000008941 1.56500005722 119.0
4.26399993896 -0.112000003457 1.58500003815 123.0
4.21400022507 -0.136000007391 1.56700003147 124.0
4.23000001907 -0.163000002503 1.57400000095 116.0
4.24499988556 -0.188999995589 1.58000004292 113.0
4.22800016403 -0.21400000155 1.57400000095 110.0
4.28599977493 -0.243000000715 1.59599995613 105.0
4.24300003052 -0.266000002623 1.58099997044 106.0
4.30000019073 -0.296000003815 1.60300004482 111.0
4.29199981689 -0.321999996901 1.60000002384 107.0
4.25600004196 -0.344999998808 1.58800005913 104.0
4.28000020981 -0.372999995947 1.59800004959 107.0
4.29899978638 -0.400999993086 1.60599994659 111.0
4.27199983597 -0.425000011921 1.59599995613 111.0
4.26499986649 -0.451000005007 1.59500002861 107.0
4.23999977112 -0.474000006914 1.58599996567 100.0
4.27500009537 -0.504000008106 1.60000002384 104.0
4.29099988937 -0.532999992371 1.60800004005 104.0
4.32299995422 -0.563000023365 1.6210000515 105.0
4.23500013351 -0.57800000906 1.58899998665 95.0
4.2610001564 -0.60799998045 1.60000002384 103.0
4.26000022888 -0.634999990463 1.60099995136 100.0
4.31599998474 -0.670000016689 1.62399995327 97.0
4.30499982834 -0.694999992847 1.6210000515 100.0
4.2389998436 -0.711000025272 1.59800004959 101.0
4.29600000381 -0.748000025749 1.6210000515 98.0
4.28000020981 -0.772000014782 1.61600005627 94.0
4.3109998703 -0.805000007153 1.62999999523 99.0
4.32000017166 -0.833999991417 1.63499999046 104.0
4.257999897 -0.848999977112 1.61300003529 97.0
4.34899997711 -0.894999980927 1.64999997616 93.0
4.29099988937 -0.911000013351 1.62999999523 104.0
4.33099985123 -0.947000026703 1.64699995518 97.0
4.28900003433 -0.966000020504 1.63300001621 100.0
4.28000020981 -0.990999996662 1.63100004196 93.0
4.27099990845 -1.01699995995 1.62999999523 97.0
4.28000020981 -1.04700005054 1.63600003719 98.0
4.32100009918 -1.08599996567 1.65400004387 94.0
4.28700017929 -1.10500001907 1.64300000668 102.0
4.35400009155 -1.15100002289 1.67100000381 103.0
4.29500007629 -1.16400003433 1.65100002289 106.0
4.30399990082 -1.19500005245 1.65699994564 97.0
4.28299999237 -1.21800005436 1.65199995041 87.0
4.36899995804 -1.27199995518 1.68799996376 93.0
4.32100009918 -1.28699994087 1.67200005054 93.0
4.31199979782 -1.31400001049 1.67100000381 96.0
4.34600019455 -1.35399997234 1.68799996376 97.0
4.29799985886 -1.36800003052 1.67200005054 97.0
4.32299995422 -1.40600001812 1.68499994278 92.0
4.27299976349 -1.41900002956 1.66799998283 86.0
4.28599977493 -1.45299994946 1.67599999905 99.0
4.30200004578 -1.48899996281 1.68599998951 105.0
4.26300001144 -1.50499999523 1.6740000248 100.0
4.2610001564 -1.53499996662 1.67700004578 92.0
4.25299978256 -1.56200003624 1.67700004578 97.0
4.3109998703 -1.61500000954 1.70399999619 93.0
4.25199985504 -1.62300002575 1.68400001526 89.0
4.25 -1.65299999714 1.68700003624 86.0
4.30399990082 -1.70599997044 1.7120000124 89.0
4.33400011063 -1.74899995327 1.72800004482 88.0
4.30499982834 -1.76900005341 1.72000002861 96.0
4.2610001564 -1.78299999237 1.70599997044 88.0
4.34000015259 -1.84899997711 1.74300003052 92.0
4.27600002289 -1.85399997234 1.72099995613 90.0
4.30000019073 -1.89699995518 1.73500001431 90.0
4.28000020981 -1.92100000381 1.73099994659 97.0
4.32499980927 -1.97399997711 1.7539999485 89.0
4.29400014877 -1.99300003052 1.7460000515 90.0
4.28499984741 -2.02300000191 1.74699997902 91.0
4.29199981689 -2.05999994278 1.7539999485 97.0
4.28599977493 -2.09100008011 1.75699996948 99.0
0.0170000009239 -0.00300000002608 0.00300000002608 85.0
0.0419999994338 -0.01600000076 0.0140000004321 98.0
0.0560000017285 -0.0230000000447 0.0189999993891 99.0
0.01600000076 -0.00300000002608 0.00300000002608 97.0
0.0280000008643 -0.00899999961257 0.00800000037998 92.0
0.129999995232 -0.0640000030398 0.0509999990463 105.0
0.0430000014603 -0.0179999992251 0.0140000004321 98.0
0.0630000010133 -0.0299999993294 0.0230000000447 93.0
0.172000005841 -0.0909999981523 0.0689999982715 96.0
2.15499997139 1.3259999752 0.893999993801 236.0
2.13700008392 1.29600000381 0.883000016212 246.0
2.15100002289 1.28499996662 0.885999977589 230.0
2.16199994087 1.27300000191 0.888000011444 164.0
2.18799996376 1.26900005341 0.896000027657 100.0
2.25 1.28499996662 0.917999982834 125.0
2.26600003242 1.27499997616 0.92199999094 229.0
2.32999992371 1.29100000858 0.945999979973 142.0
2.40700006485 1.31400001049 0.973999977112 105.0
3.80900001526 1.51400005817 1.47200000286 75.0
4.05700016022 1.5529999733 1.56200003624 79.0
4.11100006104 1.51499998569 1.5759999752 82.0
4.125 1.49100005627 1.57899999619 78.0
4.1890001297 1.48399996758 1.60000002384 84.0
4.17399978638 1.45000004768 1.59200000763 83.0
4.17199993134 1.41999995708 1.58800005913 107.0
4.13500022888 1.37800002098 1.57099997997 129.0
4.16800022125 1.36099994183 1.58099997044 123.0
4.19000005722 1.33899998665 1.5870000124 127.0
4.19799995422 1.31299996376 1.5870000124 115.0
4.13199996948 1.26400005817 1.55999994278 112.0
4.23799991608 1.26800000668 1.59700000286 119.0
4.1939997673 1.22599995136 1.57899999619 120.0
4.1970000267 1.19900000095 1.57700002193 112.0
4.20599985123 1.1740000248 1.57899999619 123.0
4.18499994278 1.13999998569 1.56799995899 121.0
4.19799995422 1.11600005627 1.57099997997 127.0
4.20100021362 1.08899998665 1.57000005245 115.0
4.19099998474 1.05799996853 1.56400001049 121.0
4.20499992371 1.03499996662 1.56799995899 116.0
4.22200012207 1.01100003719 1.5720000267 119.0
4.19500017166 0.977999985218 1.55999994278 121.0
4.21500015259 0.954999983311 1.56599998474 118.0
4.22800016403 0.930999994278 1.56900000572 124.0
4.1779999733 0.893000006676 1.5490000248 113.0
4.16900014877 0.864000022411 1.54400002956 111.0
4.23400020599 0.851000010967 1.56700003147 113.0
4.17999982834 0.813000023365 1.54499995708 115.0
4.23999977112 0.797999978065 1.56599998474 119.0
4.20300006866 0.764999985695 1.55099999905 109.0
4.19899988174 0.736999988556 1.54799997807 107.0
4.22300004959 0.714999973774 1.55599999428 107.0
4.24700021744 0.691999971867 1.56299996376 111.0
4.24700021744 0.666000008583 1.56200003624 109.0
4.21099996567 0.634000003338 1.54799997807 114.0
4.24100017548 0.611999988556 1.55799996853 111.0
4.26599979401 0.588999986649 1.56599998474 106.0
4.26399993896 0.561999976635 1.56400001049 110.0
4.26499986649 0.536000013351 1.56299996376 105.0
4.19000005722 0.500999987125 1.53499996662 101.0
4.21799993515 0.477999985218 1.54499995708 111.0
4.26200008392 0.456999987364 1.55999994278 106.0
4.18200016022 0.423000007868 1.52999997139 106.0
4.28999996185 0.407999992371 1.56900000572 111.0
4.17899990082 0.370999991894 1.52799999714 111.0
4.25500011444 0.351999998093 1.55499994755 109.0
4.27299976349 0.32800000906 1.56099998951 99.0
4.21500015259 0.29699999094 1.53900003433 109.0
4.27400016785 0.275999993086 1.56099998951 109.0
4.29699993134 0.250999987125 1.56900000572 111.0
4.19799995422 0.219999998808 1.53199994564 106.0
4.26900005341 0.196999996901 1.55799996853 106.0
4.23699998856 0.170000001788 1.54600000381 100.0
4.19000005722 0.143000006676 1.52799999714 105.0
4.21899986267 0.118000000715 1.53900003433 108.0
4.25 0.0930000022054 1.54999995232 105.0
4.26000022888 0.0680000036955 1.55400002003 102.0
4.22900009155 0.0419999994338 1.54299998283 100.0
4.26200008392 0.01600000076 1.55499994755 104.0
4.3029999733 -0.00899999961257 1.57000005245 105.0
4.24800014496 -0.0340000018477 1.54999995232 104.0
4.3220000267 -0.0610000006855 1.57700002193 104.0
4.2610001564 -0.0860000029206 1.55499994755 112.0
4.257999897 -0.112000003457 1.55400002003 106.0
4.33400011063 -0.140000000596 1.58200001717 109.0
4.3060002327 -0.165000006557 1.57299995422 100.0
4.26800012589 -0.189999997616 1.55900001526 107.0
4.23999977112 -0.21400000155 1.5490000248 103.0
4.26200008392 -0.240999996662 1.55799996853 107.0
4.24300003052 -0.266000002623 1.55200004578 106.0
4.26700019836 -0.293000012636 1.56099998951 103.0
4.30100011826 -0.321999996901 1.57500004768 101.0
4.26300001144 -0.344999998808 1.56099998951 106.0
4.3189997673 -0.375999987125 1.58299994469 108.0
4.29199981689 -0.40000000596 1.57400000095 100.0
4.22499990463 -0.419999986887 1.54999995232 105.0
4.26999998093 -0.449999988079 1.56799995899 106.0
4.24499988556 -0.474000006914 1.55900001526 103.0
4.26399993896 -0.501999974251 1.56700003147 106.0
4.17999982834 -0.518000006676 1.53699994087 105.0
4.28999996185 -0.558000028133 1.57899999619 101.0
4.32000017166 -0.588999986649 1.5909999609 111.0
4.28200006485 -0.610000014305 1.57899999619 112.0
4.26300001144 -0.634000003338 1.57299995422 102.0
4.27299976349 -0.662000000477 1.57799994946 106.0
4.27699995041 -0.689999997616 1.58099997044 102.0
4.30499982834 -0.721000015736 1.59300005436 102.0
4.28000020981 -0.744000017643 1.58500003815 105.0
4.30100011826 -0.774999976158 1.59500002861 102.0
4.31300020218 -0.804000020027 1.60099995136 98.0
4.27699995041 -0.824000000954 1.58899998665 98.0
4.27799987793 -0.851999998093 1.5909999609 102.0
4.24399995804 -0.871999979019 1.58000004292 103.0
4.30499982834 -0.912000000477 1.60500001907 100.0
4.32999992371 -0.944999992847 1.61600005627 96.0
4.28200006485 -0.962000012398 1.60000002384 102.0
4.31199979782 -0.996999979019 1.61399996281 100.0
4.31799983978 -1.02600002289 1.61800003052 108.0
4.28299999237 -1.04600000381 1.60699999332 103.0
4.30200004578 -1.07899999619 1.61600005627 102.0
4.28499984741 -1.10199999809 1.61199998856 106.0
4.32999992371 -1.14300000668 1.63199996948 92.0
4.30900001526 -1.16600000858 1.62600004673 99.0
4.29699993134 -1.19099998474 1.62399995327 100.0
4.32499980927 -1.22800004482 1.63699996471 99.0
4.32800006866 -1.25800001621 1.64100003242 100.0
4.3109998703 -1.28199994564 1.63800001144 94.0
4.30499982834 -1.30900001526 1.63800001144 95.0
4.34499979019 -1.35099995136 1.65600001812 95.0
4.28900003433 -1.36300003529 1.63800001144 93.0
4.31699991226 -1.40100002289 1.65100002289 94.0
4.30999994278 -1.42900002003 1.65199995041 104.0
4.30999994278 -1.45899999142 1.65499997139 92.0
4.34000015259 -1.49899995327 1.66999995708 87.0
4.27099990845 -1.50499999523 1.64699995518 91.0
4.28299999237 -1.53999996185 1.65400004387 105.0
4.27500009537 -1.56700003147 1.65499997139 89.0
4.29899978638 -1.60699999332 1.66799998283 98.0
4.29300022125 -1.63600003719 1.66900002956 97.0
4.29799985886 -1.66799998283 1.6740000248 89.0
4.28599977493 -1.69500005245 1.67299997807 92.0
4.32800006866 -1.74300003052 1.69299995899 96.0
4.32000017166 -1.77199995518 1.69400000572 92.0
4.28299999237 -1.78900003433 1.68400001526 96.0
4.24100017548 -1.80200004578 1.67100000381 97.0
4.27699995041 -1.85000002384 1.68900001049 94.0
4.30700016022 -1.89600002766 1.70599997044 95.0
4.2610001564 -1.90799999237 1.69200003147 94.0
4.30800008774 -1.9620000124 1.71500003338 98.0
4.29699993134 -1.99000000954 1.71500003338 95.0
4.3140001297 -2.03200006485 1.72599995136 97.0
4.23400020599 -2.02800011635 1.69900000095 93.0
0.0130000002682 -0.0010000000475 0.00200000009499 99.0
4.25600004196 -2.10599994659 1.71700000763 98.0
4.2610001564 -2.14199995995 1.72399997711 102.0
0.035000000149 -0.0120000001043 0.00999999977648 93.0
0.0309999994934 -0.0109999999404 0.00899999961257 95.0
0.0289999991655 -0.00999999977648 0.00800000037998 101.0
0.082000002265 -0.0379999987781 0.0299999993294 88.0
0.0670000016689 -0.0309999994934 0.0240000002086 97.0
0.204999998212 -0.108000002801 0.0810000002384 98.0
2.14800000191 1.31900000572 0.874000012875 251.0
2.16100001335 1.30799996853 0.875999987125 241.0
2.10599994659 1.25600004196 0.851000010967 226.0
2.14899992943 1.26199996471 0.865999996662 142.0
2.21099996567 1.27900004387 0.888000011444 101.0
2.2650001049 1.29100000858 0.907000005245 145.0
2.25200009346 1.26400005817 0.898999989033 220.0
2.31299996376 1.27900004387 0.921000003815 135.0
3.79399991035 1.5039999485 1.43900001049 79.0
4.09999990463 1.56599998474 1.54799997807 73.0
4.07000017166 1.49699997902 1.53100001812 77.0
4.20499992371 1.51600003242 1.57899999619 79.0
4.21099996567 1.48899996281 1.57799994946 75.0
4.21899986267 1.4620000124 1.57899999619 89.0
4.19899988174 1.42599999905 1.56799995899 111.0
4.18400001526 1.39199995995 1.55999994278 130.0
4.22700023651 1.37699997425 1.57299995422 119.0
4.16400003433 1.32799994946 1.54700005054 127.0
4.16900014877 1.30099999905 1.54700005054 117.0
4.22100019455 1.28900003433 1.56400001049 114.0
4.1810002327 1.24800002575 1.54600000381 124.0
4.15299987793 1.2120000124 1.5340000391 122.0
4.20100021362 1.19799995422 1.5490000248 117.0
4.24300003052 1.18099999428 1.56299996376 118.0
4.18300008774 1.13699996471 1.5379999876 118.0
4.20699977875 1.11600005627 1.54499995708 131.0
4.21999979019 1.0909999609 1.54799997807 118.0
4.20900011063 1.06099998951 1.54200005531 120.0
4.20399999619 1.03199994564 1.5379999876 119.0
4.21099996567 1.00600004196 1.53900003433 114.0
4.20900011063 0.978999972343 1.53600001335 124.0
4.22399997711 0.954999983311 1.53999996185 120.0
4.23000001907 0.929000020027 1.54100000858 121.0
4.242000103 0.90499997139 1.54299998283 118.0
4.19799995422 0.867999970913 1.52600002289 118.0
4.24100017548 0.850000023842 1.53999996185 112.0
4.21099996567 0.818000018597 1.52799999714 116.0
4.2610001564 0.800000011921 1.54400002956 111.0
4.242000103 0.769999980927 1.53600001335 90.0
4.23600006104 0.741999983788 1.53299999237 96.0
4.28900003433 0.725000023842 1.55099999905 95.0
4.25 0.691999971867 1.53499996662 85.0
4.26900005341 0.667999982834 1.54100000858 85.0
4.25699996948 0.639999985695 1.53600001335 91.0
4.32700014114 0.623000025749 1.55999994278 88.0
4.28999996185 0.591000020504 1.54499995708 87.0
4.30999994278 0.566999971867 1.55200004578 82.0
4.29799985886 0.538999974728 1.54600000381 85.0
4.18200016022 0.499000012875 1.5039999485 94.0
4.35799980164 0.493000000715 1.56700003147 82.0
4.33900022507 0.463999986649 1.55900001526 86.0
4.37799978256 0.442000001669 1.5720000267 87.0
4.28399991989 0.405999988317 1.5379999876 84.0
4.29600000381 0.381000012159 1.54100000858 81.0
4.25299978256 0.351000010967 1.52600002289 77.0
4.25899982452 0.326000005007 1.52699995041 84.0
4.3220000267 0.303999990225 1.5490000248 86.0
4.25699996948 0.273999989033 1.52600002289 89.0
4.27899980545 0.248999997973 1.53299999237 94.0
4.3140001297 0.22499999404 1.54499995708 88.0
4.34899997711 0.201000005007 1.55799996853 90.0
4.28800010681 0.172000005841 1.53600001335 95.0
4.30499982834 0.145999997854 1.54200005531 95.0
4.26999998093 0.119000002742 1.52900004387 91.0
4.3109998703 0.0939999967813 1.54400002956 94.0
4.33500003815 0.0689999982715 1.55200004578 87.0
4.32399988174 0.0419999994338 1.54799997807 94.0
4.25500011444 0.01600000076 1.52300000191 94.0
4.30499982834 -0.00899999961257 1.54200005531 104.0
4.26200008392 -0.035000000149 1.52600002289 93.0
4.26399993896 -0.0599999986589 1.52699995041 97.0
4.27199983597 -0.0860000029206 1.52999997139 98.0
4.23500013351 -0.111000001431 1.51699995995 93.0
4.29400014877 -0.138999998569 1.53900003433 96.0
4.24900007248 -0.163000002503 1.52300000191 96.0
4.28999996185 -0.190999999642 1.53900003433 97.0
4.28399991989 -0.216000005603 1.53699994087 95.0
4.29899978638 -0.243000000715 1.54299998283 104.0
4.32499980927 -0.270999997854 1.5529999733 95.0
4.29799985886 -0.294999986887 1.54400002956 100.0
4.30100011826 -0.321999996901 1.54499995708 91.0
4.26499986649 -0.344999998808 1.53299999237 103.0
4.29600000381 -0.374000012875 1.54499995708 105.0
4.29199981689 -0.398999989033 1.54499995708 98.0
4.30100011826 -0.426999986172 1.5490000248 105.0
4.34000015259 -0.456999987364 1.56400001049 101.0
4.31599998474 -0.481000006199 1.55599999428 102.0
4.28999996185 -0.504999995232 1.54799997807 99.0
4.29199981689 -0.53100001812 1.54999995232 103.0
4.26900005341 -0.555000007153 1.54200005531 103.0
4.23500013351 -0.575999975204 1.53100001812 103.0
4.26999998093 -0.60799998045 1.54499995708 98.0
4.30399990082 -0.638999998569 1.55900001526 107.0
4.29600000381 -0.665000021458 1.55700004101 102.0
4.32899999619 -0.697000026703 1.57099997997 103.0
4.32499980927 -0.722999989986 1.57099997997 104.0
4.27099990845 -0.740999996662 1.55200004578 105.0
4.30700016022 -0.773999989033 1.56700003147 102.0
4.26999998093 -0.795000016689 1.55599999428 102.0
4.34299993515 -0.836000025272 1.58399999142 103.0
4.28399991989 -0.851000010967 1.56400001049 106.0
4.33300018311 -0.888999998569 1.58399999142 98.0
4.26399993896 -0.902000010014 1.55999994278 102.0
4.31799983978 -0.940999984741 1.58200001717 113.0
4.29400014877 -0.962999999523 1.57500004768 96.0
4.29500007629 -0.990999996662 1.57700002193 107.0
4.25400018692 -1.00899994373 1.56500005722 99.0
4.27199983597 -1.04100000858 1.57299995422 100.0
4.33900022507 -1.08599996567 1.60000002384 101.0
4.28599977493 -1.10099995136 1.58299994469 102.0
4.33099985123 -1.14100003242 1.60199999809 97.0
4.30100011826 -1.16100001335 1.59300005436 100.0
4.3029999733 -1.19000005722 1.59599995613 102.0
4.34000015259 -1.23000001907 1.61300003529 96.0
4.3029999733 -1.24800002575 1.60199999809 95.0
4.30999994278 -1.27900004387 1.60699999332 98.0
4.27500009537 -1.29700005054 1.59599995613 103.0
4.32499980927 -1.34200000763 1.61800003052 94.0
4.31199979782 -1.36699998379 1.61600005627 89.0
4.30200004578 -1.39400005341 1.61500000954 92.0
4.31500005722 -1.42700004578 1.62300002575 102.0
4.28399991989 -1.4470000267 1.61399996281 93.0
4.28200006485 -1.47599995136 1.61699998379 98.0
4.28700017929 -1.50800001621 1.62199997902 97.0
4.36800003052 -1.56700003147 1.65600001812 91.0
4.31199979782 -1.57799994946 1.63800001144 88.0
4.23500013351 -1.61000001431 1.61500000954 94.0
4.33099985123 -1.6779999733 1.65600001812 93.0
4.34600019455 -1.71500003338 1.66499996185 91.0
4.28900003433 -1.72399997711 1.64699995518 100.0
4.27699995041 -1.75100004673 1.64600002766 99.0
4.32100009918 -1.80099999905 1.66700005531 91.0
4.34800004959 -1.84399998188 1.68099999428 88.0
4.24300003052 -1.83200001717 1.64499998093 91.0
4.27199983597 -1.87600004673 1.65999996662 91.0
4.30100011826 -1.92200005054 1.67599999905 95.0
4.27600002289 -1.94400000572 1.66999995708 99.0
4.29600000381 -1.98599994183 1.68299996853 115.0
4.30399990082 -2.02300000191 1.69000005722 89.0
4.27699995041 -2.04399991035 1.68400001526 93.0
4.27099990845 -2.07500004768 1.68599998951 94.0
4.27799987793 -2.11199998856 1.69400000572 100.0
4.27799987793 -2.14700007439 1.69900000095 98.0
0.0659999996424 -0.0289999991655 0.0230000000447 103.0
0.0500000007451 -0.0209999997169 0.01600000076 99.0
0.0500000007451 -0.0209999997169 0.01600000076 90.0
0.070000000298 -0.0320000015199 0.0250000003725 104.0
2.11599993706 1.29600000381 0.84399998188 232.0
2.14299988747 1.29299998283 0.851999998093 226.0
2.12700009346 1.26499998569 0.842999994755 216.0
2.15799999237 1.26400005817 0.852999985218 116.0
2.17600011826 1.25600004196 0.856999993324 103.0
2.24699997902 1.27799999714 0.883000016212 157.0
2.22600007057 1.24699997902 0.871999979019 220.0
2.33899998665 1.29100000858 0.912999987602 120.0
3.55599999428 1.48500001431 1.33099997044 82.0
3.61999988556 1.48500001431 1.35199999809 75.0
3.57899999619 1.44200003147 1.33399999142 84.0
3.72699999809 1.47500002384 1.38600003719 79.0
4.12200021744 1.60099995136 1.52999997139 76.0
4.05100011826 1.54400002956 1.50100004673 83.0
4.0529999733 1.51600003242 1.49899995327 79.0
4.08699989319 1.5 1.50800001621 86.0
4.15100002289 1.49399995804 1.52900004387 84.0
4.1859998703 1.47699999809 1.53900003433 80.0
4.14200019836 1.43299996853 1.51999998093 82.0
4.15500020981 1.40799999237 1.52199995518 117.0
4.16499996185 1.38300001621 1.52300000191 125.0
4.1970000267 1.36399996281 1.53299999237 122.0
4.1890001297 1.33299994469 1.52699995041 128.0
4.20699977875 1.30999994278 1.53100001812 124.0
4.14599990845 1.26300001144 1.50699996948 119.0
4.16900014877 1.24199998379 1.51300001144 116.0
4.20900011063 1.22599995136 1.52499997616 120.0
4.20699977875 1.1970000267 1.52199995518 124.0
4.18499994278 1.1629999876 1.51199996471 127.0
4.20499992371 1.13999998569 1.51699995995 120.0
4.22399997711 1.11800003052 1.52199995518 121.0
4.22800016403 1.0909999609 1.52199995518 124.0
4.20399999619 1.05700004101 1.51100003719 116.0
4.21099996567 1.03199994564 1.51199996471 123.0
4.22599983215 1.00800001621 1.51499998569 120.0
4.242000103 0.985000014305 1.51900005341 116.0
4.17100000381 0.940999984741 1.49199998379 122.0
4.21199989319 0.922999978065 1.50499999523 123.0
4.25 0.903999984264 1.51699995995 115.0
4.19099998474 0.865000009537 1.49500000477 109.0
4.25500011444 0.851000010967 1.51600003242 107.0
4.26599979401 0.827000021935 1.51900005341 103.0
4.22900009155 0.792999982834 1.5039999485 77.0
4.28599977493 -0.16400000453 1.50800001621 72.0
4.22100019455 -0.187000006437 1.48500001431 61.0
4.40799999237 -0.222000002861 1.55200004578 68.0
4.28200006485 -0.241999998689 1.50800001621 75.0
4.28000020981 -0.268000006676 1.50800001621 73.0
4.29500007629 -0.294999986887 1.51400005817 78.0
4.31300020218 -0.321999996901 1.52100002766 86.0
4.27899980545 -0.344999998808 1.50899994373 92.0
4.25600004196 -0.368999987841 1.50199997425 98.0
4.35400009155 -0.405000001192 1.5379999876 83.0
4.37599992752 -0.432999998331 1.54600000381 78.0
4.36600017548 -0.458999991417 1.54400002956 74.0
4.33699989319 -0.483000010252 1.5340000391 83.0
4.31699991226 -0.507000029087 1.52799999714 85.0
4.29899978638 -0.53100001812 1.52300000191 86.0
4.32299995422 -0.56099998951 1.53299999237 92.0
4.30499982834 -0.584999978542 1.52699995041 95.0
4.3060002327 -0.611999988556 1.52900004387 86.0
4.3029999733 -0.638000011444 1.52900004387 89.0
4.3220000267 -0.667999982834 1.53699994087 87.0
4.32600021362 -0.694999992847 1.53999996185 94.0
4.33699989319 -0.723999977112 1.54600000381 99.0
4.26999998093 -0.740000009537 1.52300000191 99.0
4.37900018692 -0.786000013351 1.56400001049 96.0
4.27500009537 -0.794000029564 1.52799999714 94.0
4.3639998436 -0.837999999523 1.56099998951 93.0
4.32000017166 -0.856999993324 1.54799997807 103.0
4.32899999619 -0.887000024319 1.5529999733 102.0
4.29600000381 -0.907000005245 1.54299998283 95.0
4.33699989319 -0.943000018597 1.55900001526 101.0
4.30800008774 -0.964999973774 1.55099999905 100.0
4.33799982071 -0.999000012875 1.56400001049 103.0
4.3060002327 -1.01999998093 1.55400002003 101.0
4.29400014877 -1.04499995708 1.55200004578 97.0
