ply
format ascii 1.0
element vertex 921
property float x
property float y
property float z
property float intensity
end_header
4.63399982452 0.167999997735 0.0540000014007 58.0
4.63899993896 0.142000004649 0.0540000014007 55.0
4.62099981308 0.115000002086 0.0540000014007 57.0
4.66400003433 0.0890000015497 0.054999999702 51.0
4.62099981308 0.0610000006855 0.0540000014007 56.0
4.67600011826 0.035000000149 0.054999999702 53.0
4.625 0.00800000037998 0.054999999702 52.0
4.71899986267 -0.0179999992251 0.0560000017285 55.0
4.70100021362 -0.0989999994636 0.0560000017285 50.0
4.76499986649 -0.12800000608 0.0570000000298 59.0
4.8140001297 -0.157000005245 0.0579999983311 53.0
4.68200016022 -0.179000005126 0.0560000017285 54.0
4.71899986267 -0.208000004292 0.0570000000298 58.0
4.83799982071 -0.268999993801 0.0590000003576 49.0
4.77099990845 -0.293000012636 0.0579999983311 49.0
0.90499997139 -0.131999999285 0.00999999977648 647.0
0.893999993801 -0.135000005364 0.00999999977648 1667.0
0.887000024319 -0.138999998569 0.00999999977648 1793.0
0.89099997282 -0.144999995828 0.00999999977648 1889.0
0.887000024319 -0.15000000596 0.00999999977648 1852.0
0.889999985695 -0.156000003219 0.00999999977648 1795.0
0.884999990463 -0.159999996424 0.00999999977648 1908.0
0.884999990463 -0.165000006557 0.00999999977648 1926.0
0.884000003338 -0.171000003815 0.00999999977648 1862.0
0.882000029087 -0.175999999046 0.00999999977648 1847.0
0.880999982357 -0.180999994278 0.00999999977648 1802.0
0.879999995232 -0.186000004411 0.00999999977648 1815.0
0.885999977589 -0.192000001669 0.00999999977648 1802.0
0.879000008106 -0.195999994874 0.00999999977648 1802.0
0.883000016212 -0.202000007033 0.00999999977648 1820.0
0.875999987125 -0.206000000238 0.00999999977648 1836.0
0.880999982357 -0.212999999523 0.00999999977648 1851.0
0.875 -0.216999992728 0.00999999977648 1851.0
0.875 -0.222000002861 0.00999999977648 1862.0
0.869000017643 -0.225999996066 0.00999999977648 1857.0
0.870000004768 -0.231999993324 0.00999999977648 1839.0
0.870000004768 -0.237000003457 0.00999999977648 1893.0
0.869000017643 -0.241999998689 0.00999999977648 1904.0
0.870000004768 -0.247999995947 0.00999999977648 1880.0
0.870000004768 -0.252999991179 0.0109999999404 1930.0
0.867999970913 -0.25799998641 0.0109999999404 1914.0
0.867999970913 -0.263999998569 0.0109999999404 1910.0
0.864000022411 -0.268000006676 0.0109999999404 1915.0
0.867999970913 -0.27500000596 0.0109999999404 1871.0
0.860000014305 -0.277999997139 0.0109999999404 1891.0
0.85900002718 -0.282999992371 0.0109999999404 1864.0
0.865999996662 -0.291000008583 0.0109999999404 1857.0
0.85900002718 -0.294999986887 0.0109999999404 1862.0
0.85900002718 -0.300000011921 0.0109999999404 1856.0
0.861000001431 -0.307000011206 0.0109999999404 1870.0
0.85799998045 -0.31099998951 0.0109999999404 1866.0
0.851999998093 -0.314999997616 0.0109999999404 1828.0
0.853999972343 -0.321999996901 0.0109999999404 1835.0
0.850000023842 -0.326000005007 0.0109999999404 1869.0
0.856000006199 -0.333999991417 0.0109999999404 1868.0
0.852999985218 -0.338999986649 0.0109999999404 1861.0
0.850000023842 -0.342999994755 0.0109999999404 1884.0
0.852999985218 -0.351000010967 0.0109999999404 1884.0
0.853999972343 -0.356999993324 0.0109999999404 1899.0
0.84500002861 -0.358999997377 0.0109999999404 1916.0
0.84500002861 -0.365000009537 0.0109999999404 1910.0
0.847000002861 -0.372000008821 0.0109999999404 1906.0
0.847999989986 -0.379000008106 0.0109999999404 1904.0
0.842000007629 -0.381999999285 0.0109999999404 1931.0
0.838999986649 -0.386999994516 0.0109999999404 1912.0
0.841000020504 -0.393999993801 0.0109999999404 1911.0
0.836000025272 -0.398000001907 0.0109999999404 1924.0
0.833999991417 -0.402999997139 0.0109999999404 1901.0
0.833999991417 -0.409999996424 0.0109999999404 1911.0
0.836000025272 -0.416999995708 0.0120000001043 1899.0
0.834999978542 -0.423000007868 0.0120000001043 1893.0
0.838999986649 -0.432000011206 0.0120000001043 1894.0
0.837999999523 -0.437999993563 0.0120000001043 1857.0
0.82800000906 -0.43900001049 0.0120000001043 1866.0
0.832000017166 -0.448000013828 0.0120000001043 1869.0
0.82800000906 -0.451999992132 0.0120000001043 1864.0
0.828999996185 -0.458999991417 0.0120000001043 1857.0
1.10800004005 0.634999990463 0.00300000002608 508.0
1.13699996471 0.64200001955 0.00400000018999 447.0
1.47800004482 0.823000013828 0.00499999988824 227.0
1.72300004959 0.944999992847 0.00600000005215 232.0
1.75199997425 0.947000026703 0.00600000005215 223.0
1.73800003529 0.925999999046 0.00600000005215 218.0
1.7879999876 0.938000023365 0.00700000021607 216.0
1.81200003624 0.936999976635 0.00700000021607 179.0
2.02399992943 1.01499998569 0.00800000037998 79.0
2.04099988937 1.00800001621 0.00800000037998 100.0
2.06900000572 1.00600004196 0.00800000037998 160.0
2.12199997902 1.01600003242 0.00800000037998 252.0
2.10199999809 0.990999996662 0.00800000037998 312.0
2.11800003052 0.98299998045 0.00800000037998 300.0
2.12700009346 0.971000015736 0.00899999961257 293.0
2.1289999485 0.957000017166 0.00899999961257 180.0
2.19899988174 0.972000002861 0.00899999961257 114.0
2.21199989319 0.962000012398 0.00899999961257 211.0
2.23200011253 0.954999983311 0.00899999961257 369.0
2.22799992561 0.936999976635 0.00899999961257 227.0
2.33500003815 0.966000020504 0.00999999977648 94.0
3.34699988365 1.00300002098 0.01600000076 94.0
3.32899999619 0.976999998093 0.01600000076 96.0
3.40599989891 0.976999998093 0.01600000076 88.0
3.61800003052 1.01499998569 0.0170000009239 67.0
3.79099988937 1.03999996185 0.0179999992251 106.0
3.78600001335 1.01499998569 0.0179999992251 108.0
3.81500005722 0.999000012875 0.0189999993891 107.0
4.11100006104 1.04999995232 0.019999999553 92.0
4.09600019455 1.02100002766 0.019999999553 85.0
4.12400007248 1.00300002098 0.0209999997169 96.0
4.07600021362 0.966000020504 0.019999999553 156.0
4.08900022507 0.944000005722 0.0209999997169 178.0
4.09999990463 0.921000003815 0.0209999997169 161.0
4.15500020981 0.907999992371 0.0209999997169 127.0
4.14699983597 0.880999982357 0.0209999997169 119.0
4.13800001144 0.853999972343 0.0209999997169 123.0
4.07999992371 0.818000018597 0.0209999997169 123.0
4.16800022125 0.810000002384 0.0219999998808 127.0
4.1139998436 0.774999976158 0.0209999997169 126.0
4.11800003052 0.750999987125 0.0219999998808 127.0
4.13000011444 0.728999972343 0.0219999998808 132.0
4.12599992752 0.70300000906 0.0219999998808 132.0
4.132999897 0.680000007153 0.0219999998808 132.0
4.09899997711 0.649999976158 0.0219999998808 131.0
4.11199998856 0.628000020981 0.0219999998808 131.0
4.07999992371 0.598999977112 0.0219999998808 136.0
4.13100004196 0.582000017166 0.0219999998808 135.0
4.14699983597 0.560000002384 0.0219999998808 138.0
4.11600017548 0.53100001812 0.0219999998808 133.0
4.09899997711 0.504999995232 0.0219999998808 137.0
4.08099985123 0.479000002146 0.0219999998808 147.0
4.11499977112 0.458999991417 0.0230000000447 147.0
4.08599996567 0.432000011206 0.0230000000447 129.0
4.10799980164 0.409999996424 0.0230000000447 134.0
4.09200000763 0.384999990463 0.0230000000447 135.0
4.16099977493 0.36700001359 0.0230000000447 93.0
4.53200006485 0.374000012875 0.0260000005364 63.0
4.60400009155 0.352999985218 0.0260000005364 72.0
4.55700016022 0.323000013828 0.0260000005364 70.0
4.57399988174 0.298000007868 0.0260000005364 70.0
4.60300016403 0.273000001907 0.0270000007004 63.0
4.57299995422 0.245000004768 0.0270000007004 65.0
4.56300020218 0.217999994755 0.0270000007004 62.0
4.61499977112 0.194000005722 0.0270000007004 65.0
4.59100008011 0.165999993682 0.0270000007004 65.0
4.59899997711 0.140000000596 0.0270000007004 62.0
4.60400009155 0.11400000006 0.0270000007004 64.0
4.70300006866 0.0890000015497 0.0280000008643 62.0
4.68699979782 0.0619999989867 0.0280000008643 63.0
4.66200017929 0.035000000149 0.0280000008643 62.0
4.69000005722 0.00800000037998 0.0280000008643 59.0
4.742000103 -0.0179999992251 0.0289999991655 55.0
4.71099996567 -0.0450000017881 0.0289999991655 61.0
4.6859998703 -0.0719999969006 0.0289999991655 59.0
4.70699977875 -0.0989999994636 0.0289999991655 56.0
4.76200008392 -0.12800000608 0.0299999993294 58.0
4.70699977875 -0.152999997139 0.0289999991655 59.0
4.71700000763 -0.180999994278 0.0299999993294 57.0
4.75899982452 -0.209999993443 0.0299999993294 56.0
4.78299999237 -0.238000005484 0.0299999993294 57.0
4.83099985123 -0.268999993801 0.0309999994934 54.0
4.82600021362 -0.296000003815 0.0309999994934 55.0
4.85099983215 -0.326000005007 0.0309999994934 56.0
4.84700012207 -0.352999985218 0.0309999994934 50.0
4.85099983215 -0.381999999285 0.0309999994934 48.0
4.83900022507 -0.409000009298 0.0309999994934 54.0
0.898999989033 -0.130999997258 0.00499999988824 671.0
0.885999977589 -0.134000003338 0.00499999988824 1683.0
0.89200001955 -0.140000000596 0.00499999988824 1804.0
0.89099997282 -0.144999995828 0.00499999988824 1923.0
0.893999993801 -0.150999993086 0.00499999988824 1907.0
0.889999985695 -0.156000003219 0.00499999988824 1792.0
0.89200001955 -0.162000000477 0.00499999988824 1926.0
0.888000011444 -0.165999993682 0.00499999988824 1970.0
0.883000016212 -0.170000001788 0.00499999988824 1871.0
0.887000024319 -0.175999999046 0.00499999988824 1884.0
0.884000003338 -0.180999994278 0.00499999988824 1862.0
0.875 -0.185000002384 0.00499999988824 1837.0
0.880999982357 -0.190999999642 0.00499999988824 1811.0
0.875999987125 -0.195999994874 0.00499999988824 1855.0
0.879000008106 -0.202000007033 0.00499999988824 1838.0
0.880999982357 -0.207000002265 0.00499999988824 1853.0
0.875999987125 -0.211999997497 0.00499999988824 1858.0
0.875 -0.216999992728 0.00499999988824 1842.0
0.878000020981 -0.223000004888 0.00499999988824 1878.0
0.878000020981 -0.228000000119 0.00499999988824 1869.0
0.867999970913 -0.231000006199 0.00499999988824 1873.0
0.875999987125 -0.238999992609 0.00499999988824 1868.0
0.870000004768 -0.243000000715 0.00499999988824 1935.0
0.867999970913 -0.24699999392 0.00499999988824 1933.0
0.870999991894 -0.254000008106 0.00499999988824 1932.0
0.875 -0.261000007391 0.00499999988824 1906.0
0.870000004768 -0.264999985695 0.00499999988824 1927.0
0.867999970913 -0.270000010729 0.00499999988824 1942.0
0.864000022411 -0.273999989033 0.00499999988824 1902.0
0.865999996662 -0.280000001192 0.00600000005215 1904.0
0.865000009537 -0.286000013351 0.00600000005215 1864.0
0.85799998045 -0.28900000453 0.00600000005215 1862.0
0.861999988556 -0.296000003815 0.00600000005215 1895.0
0.852999985218 -0.298000007868 0.00600000005215 1857.0
0.861999988556 -0.307000011206 0.00600000005215 1872.0
0.856000006199 -0.31099998951 0.00600000005215 1912.0
0.856999993324 -0.317000001669 0.00600000005215 1852.0
0.860000014305 -0.324000000954 0.00600000005215 1869.0
0.856000006199 -0.32800000906 0.00600000005215 1874.0
0.853999972343 -0.333000004292 0.00600000005215 1891.0
0.851000010967 -0.337999999523 0.00600000005215 1881.0
0.850000023842 -0.344000011683 0.00600000005215 1875.0
0.846000015736 -0.347999989986 0.00600000005215 1889.0
0.847999989986 -0.354000002146 0.00600000005215 1911.0
0.84500002861 -0.358999997377 0.00600000005215 1898.0
0.847000002861 -0.365999996662 0.00600000005215 1934.0
0.84399998188 -0.370999991894 0.00600000005215 1914.0
0.847000002861 -0.377999991179 0.00600000005215 1915.0
0.839999973774 -0.381000012159 0.00600000005215 1937.0
0.841000020504 -0.388000011444 0.00600000005215 1947.0
0.837000012398 -0.391999989748 0.00600000005215 1921.0
0.837999999523 -0.398999989033 0.00600000005215 1938.0
0.837000012398 -0.405000001192 0.00600000005215 1942.0
0.834999978542 -0.409999996424 0.00600000005215 1934.0
0.837999999523 -0.418000012636 0.00600000005215 1918.0
0.834999978542 -0.423000007868 0.00600000005215 1914.0
0.833000004292 -0.428000003099 0.00600000005215 1904.0
0.82800000906 -0.432000011206 0.00600000005215 1891.0
0.833000004292 -0.441000014544 0.00600000005215 1889.0
0.832000017166 -0.446999996901 0.00600000005215 1892.0
0.825999975204 -0.451000005007 0.00600000005215 1882.0
0.82800000906 -0.458999991417 0.00700000021607 1862.0
1.10099995136 0.630999982357 -0.00300000002608 497.0
1.13399994373 0.639999985695 -0.00300000002608 451.0
1.52600002289 0.848999977112 -0.00400000018999 238.0
1.70200002193 0.934000015259 -0.00400000018999 225.0
1.75600004196 0.949000000954 -0.00400000018999 218.0
1.80599999428 0.962000012398 -0.00400000018999 220.0
1.79499995708 0.941999971867 -0.00400000018999 210.0
1.84300005436 0.95300000906 -0.00400000018999 191.0
2.08699989319 1.06299996376 -0.00400000018999 107.0
2.06399989128 1.03499996662 -0.00400000018999 116.0
2.06900000572 1.02199995518 -0.00400000018999 152.0
2.08999991417 1.01600003242 -0.00400000018999 260.0
2.11299991608 1.01199996471 -0.00400000018999 319.0
2.11199998856 0.995000004768 -0.00400000018999 304.0
2.10299992561 0.976000010967 -0.00400000018999 303.0
2.10100007057 0.958999991417 -0.00400000018999 295.0
2.12299990654 0.953999996185 -0.00400000018999 173.0
2.15599989891 0.95300000906 -0.00400000018999 111.0
2.20399999619 0.958000004292 -0.00400000018999 211.0
2.21799993515 0.948000013828 -0.00400000018999 377.0
2.23900008202 0.941999971867 -0.00400000018999 216.0
2.28999996185 0.947000026703 -0.00400000018999 89.0
3.26399993896 0.977999985218 -0.00300000002608 100.0
3.37700009346 0.990999996662 -0.00300000002608 98.0
3.40899991989 0.977999985218 -0.00300000002608 82.0
3.80100011826 1.06599998474 -0.00300000002608 67.0
3.73900008202 1.02600002289 -0.00300000002608 95.0
3.78200006485 1.01400005817 -0.00300000002608 112.0
3.7990000248 0.994000017643 -0.00300000002608 107.0
4.0560002327 1.03600001335 -0.00300000002608 90.0
4.12300014496 1.02799999714 -0.00300000002608 94.0
4.16699981689 1.01300001144 -0.00300000002608 97.0
4.1139998436 0.975000023842 -0.00300000002608 158.0
4.11100006104 0.949000000954 -0.00200000009499 177.0
4.09499979019 0.920000016689 -0.00200000009499 161.0
4.14300012589 0.90600001812 -0.00200000009499 127.0
4.13800001144 0.879000008106 -0.00200000009499 120.0
4.14300012589 0.855000019073 -0.00200000009499 124.0
4.125 0.827000021935 -0.00200000009499 124.0
4.10599994659 0.797999978065 -0.00200000009499 131.0
4.12699985504 0.777000010014 -0.00200000009499 133.0
4.125 0.751999974251 -0.00200000009499 132.0
4.10200023651 0.723999977112 -0.0010000000475 128.0
4.13100004196 0.703999996185 -0.0010000000475 135.0
4.14799976349 0.681999981403 -0.0010000000475 140.0
4.14200019836 0.657000005245 -0.0010000000475 130.0
4.10699987411 0.626999974251 -0.0010000000475 135.0
4.12799978256 0.606000006199 -0.0010000000475 133.0
4.10699987411 0.57800000906 -0.0010000000475 138.0
4.12599992752 0.556999981403 -0.0010000000475 133.0
4.132999897 0.533999979496 0.0 136.0
4.13199996948 0.509000003338 0.0 143.0
4.09600019455 0.481000006199 0.0 148.0
4.1139998436 0.458999991417 0.0 139.0
4.09899997711 0.432999998331 0.0 125.0
4.10200023651 0.409999996424 0.0 131.0
4.07899999619 0.384000003338 0.0 131.0
4.20399999619 0.370999991894 0.0 91.0
4.50500011444 0.370999991894 0.0 62.0
4.56599998474 0.34999999404 0.0 69.0
4.60900020599 0.326999992132 0.0 71.0
4.56599998474 0.29699999094 0.0 67.0
4.61499977112 0.273999989033 0.0 70.0
4.61999988556 0.24699999392 0.0 63.0
4.54799985886 0.216999992728 0.0 63.0
4.57299995422 0.192000001669 0.0 69.0
4.64300012589 0.167999997735 0.0010000000475 71.0
4.65000009537 0.142000004649 0.0010000000475 64.0
4.57399988174 0.112999998033 0.0010000000475 69.0
4.67299985886 0.0890000015497 0.0010000000475 62.0
4.6859998703 0.0619999989867 0.0010000000475 67.0
4.66200017929 0.035000000149 0.0010000000475 66.0
4.71899986267 0.00800000037998 0.0010000000475 61.0
4.73999977112 -0.0179999992251 0.00200000009499 58.0
4.77500009537 -0.0460000000894 0.00200000009499 59.0
4.72700023651 -0.0719999969006 0.00200000009499 63.0
4.69099998474 -0.0989999994636 0.00200000009499 64.0
4.71999979019 -0.127000004053 0.00200000009499 58.0
4.73999977112 -0.153999999166 0.00200000009499 60.0
4.78999996185 -0.21099999547 0.00300000002608 59.0
4.78700017929 -0.238999992609 0.00300000002608 59.0
4.79600000381 -0.266999989748 0.00300000002608 56.0
4.82800006866 -0.296000003815 0.00300000002608 58.0
4.82800006866 -0.324000000954 0.00300000002608 58.0
4.87300014496 -0.356000006199 0.00300000002608 53.0
4.875 -0.384000003338 0.00300000002608 55.0
4.96000003815 -0.418999999762 0.00400000018999 47.0
0.894999980927 -0.129999995232 0.0 695.0
0.893000006676 -0.135000005364 0.0 1714.0
0.888999998569 -0.140000000596 0.0 1824.0
0.893999993801 -0.145999997854 0.0 1905.0
0.89099997282 -0.150999993086 0.0 1889.0
0.885999977589 -0.155000001192 0.0 1843.0
0.888000011444 -0.16099999845 0.0 1914.0
0.885999977589 -0.165999993682 0.0 1977.0
0.883000016212 -0.170000001788 0.0 1883.0
0.887000024319 -0.175999999046 0.0 1919.0
0.883000016212 -0.180999994278 0.0 1872.0
0.882000029087 -0.186000004411 0.0 1876.0
0.879999995232 -0.190999999642 0.0 1834.0
0.882000029087 -0.196999996901 0.0 1871.0
0.876999974251 -0.201000005007 0.0 1862.0
0.878000020981 -0.207000002265 0.0 1853.0
0.876999974251 -0.211999997497 0.0 1853.0
0.876999974251 -0.216999992728 0.0 1851.0
0.871999979019 -0.221000000834 0.0 1912.0
0.871999979019 -0.226999998093 0.0 1873.0
0.873000025749 -0.231999993324 0.0 1853.0
0.869000017643 -0.237000003457 0.0 1861.0
0.866999983788 -0.241999998689 0.0 1945.0
0.874000012875 -0.248999997973 0.0 1980.0
0.865999996662 -0.252000004053 0.0 1931.0
0.861000001431 -0.256000012159 0.0 1940.0
0.867999970913 -0.263999998569 0.0 1958.0
0.862999975681 -0.268000006676 0.0 1957.0
0.865999996662 -0.27500000596 0.0 1948.0
0.861999988556 -0.279000014067 0.0 1910.0
0.861999988556 -0.284999996424 0.0 1932.0
0.861000001431 -0.289999991655 0.0 1943.0
0.85799998045 -0.293999999762 0.0 1949.0
0.85799998045 -0.300000011921 0.0 1915.0
0.855000019073 -0.305000007153 0.0 1893.0
0.85799998045 -0.312000006437 0.0 1935.0
0.85799998045 -0.317000001669 0.0010000000475 1901.0
0.851999998093 -0.321000009775 0.0010000000475 1899.0
0.851000010967 -0.326000005007 0.0010000000475 1868.0
0.853999972343 -0.333000004292 0.0010000000475 1883.0
0.850000023842 -0.337999999523 0.0010000000475 1864.0
0.852999985218 -0.344000011683 0.0010000000475 1908.0
0.846000015736 -0.347999989986 0.0010000000475 1928.0
0.84500002861 -0.352999985218 0.0010000000475 1927.0
0.846000015736 -0.360000014305 0.0010000000475 1909.0
0.842999994755 -0.363999992609 0.0010000000475 1902.0
0.842999994755 -0.370000004768 0.0010000000475 1902.0
0.842000007629 -0.375999987125 0.0010000000475 1928.0
0.847000002861 -0.384999990463 0.0010000000475 1953.0
0.841000020504 -0.388000011444 0.0010000000475 1957.0
0.837999999523 -0.393000006676 0.0010000000475 1966.0
0.837000012398 -0.398999989033 0.0010000000475 1961.0
0.834999978542 -0.404000014067 0.0010000000475 1987.0
0.837999999523 -0.412000000477 0.0010000000475 1982.0
0.833999991417 -0.416000008583 0.0010000000475 1977.0
0.829999983311 -0.419999986887 0.0010000000475 1920.0
0.836000025272 -0.430000007153 0.0010000000475 1895.0
0.832000017166 -0.433999985456 0.0010000000475 1883.0
0.828999996185 -0.43900001049 0.0010000000475 1862.0
0.830999970436 -0.446999996901 0.0010000000475 1916.0
0.829999983311 -0.45300000906 0.0010000000475 1905.0
0.825999975204 -0.458000004292 0.0010000000475 1892.0
1.10500001907 0.633000016212 -0.00999999977648 492.0
1.12699997425 0.635999977589 -0.00999999977648 454.0
1.49899995327 0.833999991417 -0.0130000002682 231.0
1.72699999809 0.947000026703 -0.0149999996647 235.0
1.71300005913 0.925999999046 -0.0149999996647 221.0
1.75499999523 0.935000002384 -0.0149999996647 215.0
1.80400002003 0.945999979973 -0.0149999996647 221.0
1.85800004005 0.961000025272 -0.01600000076 204.0
2.07500004768 1.05700004101 -0.0170000009239 213.0
2.09500002861 1.05099999905 -0.0170000009239 232.0
2.1099998951 1.04200005531 -0.0170000009239 260.0
2.09599995613 1.01900005341 -0.0170000009239 290.0
2.10400009155 1.00699996948 -0.0170000009239 291.0
2.11299991608 0.995999991894 -0.0170000009239 314.0
2.1210000515 0.98400002718 -0.0170000009239 301.0
2.09999990463 0.958999991417 -0.0170000009239 293.0
2.1289999485 0.955999970436 -0.0170000009239 168.0
2.15799999237 0.953999996185 -0.0170000009239 114.0
2.20199990273 0.957000017166 -0.0170000009239 212.0
2.21799993515 0.949000000954 -0.0170000009239 369.0
2.26300001144 0.950999975204 -0.0179999992251 219.0
2.31699991226 0.958000004292 -0.0179999992251 83.0
3.24399995804 0.972000002861 -0.0219999998808 101.0
3.30800008774 0.97000002861 -0.0230000000447 95.0
3.39599990845 0.973999977112 -0.0230000000447 83.0
3.78099989891 1.06099998951 -0.0260000005364 71.0
3.74699997902 1.02799999714 -0.0250000003725 102.0
3.74000000954 1.00199997425 -0.0250000003725 109.0
3.86199998856 1.01100003719 -0.0260000005364 105.0
4.04199981689 1.03299999237 -0.0270000007004 91.0
4.05200004578 1.00999999046 -0.0270000007004 93.0
4.16099977493 1.01100003719 -0.0270000007004 91.0
4.09600019455 0.97000002861 -0.0270000007004 150.0
4.09000015259 0.944000005722 -0.0270000007004 169.0
4.13199996948 0.927999973297 -0.0270000007004 159.0
4.15600013733 0.907999992371 -0.0270000007004 128.0
4.10599994659 0.871999979019 -0.0260000005364 123.0
4.16400003433 0.860000014305 -0.0260000005364 120.0
4.13100004196 0.82800000906 -0.0260000005364 121.0
4.14900016785 0.805999994278 -0.0260000005364 127.0
4.117000103 0.774999976158 -0.0260000005364 130.0
4.08199977875 0.744000017643 -0.0250000003725 125.0
4.14300012589 0.731000006199 -0.0260000005364 130.0
4.06199979782 0.691999971867 -0.0250000003725 129.0
4.12099981308 0.677999973297 -0.0250000003725 128.0
4.08199977875 0.647000014782 -0.0250000003725 136.0
4.06699991226 0.620999991894 -0.0250000003725 129.0
4.132999897 0.606000006199 -0.0250000003725 131.0
4.10799980164 0.57800000906 -0.0250000003725 133.0
4.10699987411 0.554000020027 -0.0240000002086 142.0
4.11100006104 0.53100001812 -0.0240000002086 138.0
4.09999990463 0.504999995232 -0.0240000002086 143.0
4.11999988556 0.483000010252 -0.0240000002086 142.0
4.11199998856 0.458999991417 -0.0240000002086 142.0
4.07999992371 0.430999994278 -0.0240000002086 126.0
4.09399986267 0.409000009298 -0.0240000002086 133.0
4.10200023651 0.386000007391 -0.0240000002086 129.0
4.1779999733 0.368999987841 -0.0240000002086 90.0
4.56699991226 0.375999987125 -0.0260000005364 68.0
4.5609998703 0.349000006914 -0.0260000005364 72.0
4.58400011063 0.324999988079 -0.0260000005364 70.0
4.63700008392 0.301999986172 -0.0260000005364 66.0
4.55800008774 0.270000010729 -0.0250000003725 65.0
4.60200023651 0.246000006795 -0.0250000003725 69.0
4.63500022888 0.221000000834 -0.0250000003725 64.0
4.60900020599 0.193000003695 -0.0250000003725 68.0
4.67100000381 0.168999999762 -0.0250000003725 67.0
4.65199995041 0.142000004649 -0.0250000003725 63.0
4.66499996185 0.115000002086 -0.0250000003725 71.0
4.65100002289 0.0879999995232 -0.0250000003725 66.0
4.6810002327 0.0619999989867 -0.0250000003725 67.0
4.69500017166 0.035000000149 -0.0250000003725 64.0
4.6859998703 0.00800000037998 -0.0250000003725 65.0
4.65899991989 -0.0179999992251 -0.0240000002086 63.0
4.72700023651 -0.0450000017881 -0.0250000003725 66.0
4.73299980164 -0.0729999989271 -0.0240000002086 58.0
4.72200012207 -0.10000000149 -0.0240000002086 62.0
4.757999897 -0.12800000608 -0.0240000002086 58.0
4.71999979019 -0.153999999166 -0.0240000002086 63.0
4.73400020599 -0.181999996305 -0.0240000002086 58.0
4.77899980545 -0.21099999547 -0.0240000002086 61.0
4.73099994659 -0.236000001431 -0.0240000002086 56.0
4.78900003433 -0.266999989748 -0.0240000002086 57.0
4.83699989319 -0.29699999094 -0.0240000002086 63.0
4.83599996567 -0.324999988079 -0.0240000002086 62.0
4.90999984741 -0.358000010252 -0.0240000002086 55.0
4.85799980164 -0.38299998641 -0.0240000002086 53.0
0.907999992371 -0.131999999285 -0.00499999988824 728.0
0.884999990463 -0.134000003338 -0.00499999988824 1746.0
0.89099997282 -0.140000000596 -0.00499999988824 1832.0
0.888000011444 -0.144999995828 -0.00400000018999 1879.0
0.888999998569 -0.15000000596 -0.00400000018999 1905.0
0.885999977589 -0.155000001192 -0.00400000018999 1865.0
0.888999998569 -0.16099999845 -0.00400000018999 1907.0
0.884999990463 -0.165999993682 -0.00400000018999 1982.0
0.885999977589 -0.171000003815 -0.00400000018999 1935.0
0.884999990463 -0.175999999046 -0.00400000018999 1964.0
0.887000024319 -0.181999996305 -0.00400000018999 1902.0
0.884999990463 -0.187000006437 -0.00400000018999 1906.0
0.879999995232 -0.190999999642 -0.00400000018999 1881.0
0.880999982357 -0.196999996901 -0.00400000018999 1891.0
0.884000003338 -0.202999994159 -0.00400000018999 1887.0
0.879000008106 -0.207000002265 -0.00400000018999 1890.0
0.875999987125 -0.21099999547 -0.00400000018999 1858.0
0.876999974251 -0.216999992728 -0.00400000018999 1895.0
0.876999974251 -0.223000004888 -0.00400000018999 1927.0
0.875 -0.228000000119 -0.00400000018999 1895.0
0.869000017643 -0.231000006199 -0.00400000018999 1837.0
0.874000012875 -0.238000005484 -0.00400000018999 1909.0
0.866999983788 -0.241999998689 -0.00400000018999 1959.0
0.865000009537 -0.24699999392 -0.00400000018999 2020.0
0.871999979019 -0.254000008106 -0.00400000018999 1996.0
0.866999983788 -0.25799998641 -0.00400000018999 1984.0
0.865000009537 -0.263000011444 -0.00400000018999 1996.0
0.866999983788 -0.268999993801 -0.00400000018999 1978.0
0.864000022411 -0.273999989033 -0.00400000018999 1996.0
0.866999983788 -0.280000001192 -0.00400000018999 1960.0
0.860000014305 -0.284000009298 -0.00400000018999 1975.0
0.861000001431 -0.289999991655 -0.00400000018999 2023.0
0.865000009537 -0.29699999094 -0.00400000018999 2016.0
0.85799998045 -0.300000011921 -0.00400000018999 1964.0
0.856999993324 -0.305000007153 -0.00400000018999 1922.0
0.852999985218 -0.310000002384 -0.00400000018999 1951.0
0.856999993324 -0.317000001669 -0.00400000018999 1929.0
0.851999998093 -0.321000009775 -0.00400000018999 1937.0
0.850000023842 -0.326000005007 -0.00400000018999 1880.0
0.856000006199 -0.333999991417 -0.00400000018999 1866.0
0.851000010967 -0.337999999523 -0.00400000018999 1880.0
0.851000010967 -0.344000011683 -0.00400000018999 1915.0
0.848999977112 -0.349000006914 -0.00400000018999 1939.0
0.842999994755 -0.351999998093 -0.00400000018999 1940.0
0.848999977112 -0.361000001431 -0.00400000018999 1914.0
0.848999977112 -0.36700001359 -0.00300000002608 1914.0
0.842000007629 -0.370000004768 -0.00300000002608 1906.0
0.842999994755 -0.377000004053 -0.00300000002608 1938.0
0.838999986649 -0.381000012159 -0.00300000002608 1954.0
0.841000020504 -0.388000011444 -0.00300000002608 1966.0
0.837000012398 -0.391999989748 -0.00300000002608 1986.0
0.842999994755 -0.400999993086 -0.00300000002608 1982.0
0.833999991417 -0.404000014067 -0.00300000002608 1970.0
0.832000017166 -0.407999992371 -0.00300000002608 2008.0
0.834999978542 -0.416999995708 -0.00300000002608 1996.0
0.834999978542 -0.423000007868 -0.00300000002608 1968.0
0.837000012398 -0.430000007153 -0.00300000002608 1905.0
0.828999996185 -0.432999998331 -0.00300000002608 1904.0
0.82800000906 -0.43900001049 -0.00300000002608 1884.0
0.82800000906 -0.444999992847 -0.00300000002608 1904.0
0.820999979973 -0.448000013828 -0.00300000002608 1927.0
0.830999970436 -0.460000008345 -0.00300000002608 1905.0
1.10899996758 0.634999990463 -0.0170000009239 489.0
1.12300002575 0.634000003338 -0.0170000009239 450.0
1.48000001907 0.824000000954 -0.0230000000447 237.0
1.68099999428 0.92199999094 -0.0250000003725 234.0
1.71000003815 0.924000024796 -0.0260000005364 227.0
1.76900005341 0.941999971867 -0.0270000007004 218.0
1.77999997139 0.934000015259 -0.0270000007004 225.0
1.83800005913 0.949999988079 -0.0270000007004 185.0
2.02300000191 1.02999997139 -0.0299999993294 125.0
2.0529999733 1.02999997139 -0.0299999993294 137.0
2.06599998474 1.01999998093 -0.0299999993294 146.0
2.0759999752 1.00999999046 -0.0299999993294 162.0
2.09999990463 1.00499999523 -0.0299999993294 227.0
2.10199999809 0.990999996662 -0.0299999993294 295.0
2.11800003052 0.981999993324 -0.0299999993294 301.0
2.11299991608 0.964999973774 -0.0299999993294 286.0
2.10899996758 0.947000026703 -0.0299999993294 175.0
2.17899990082 0.962999999523 -0.0309999994934 108.0
2.22000002861 0.964999973774 -0.0309999994934 207.0
2.23699998856 0.957000017166 -0.0309999994934 371.0
2.22000002861 0.934000015259 -0.0309999994934 216.0
2.29999995232 0.950999975204 -0.0320000015199 103.0
3.31299996376 0.992999970913 -0.0430000014603 96.0
3.31999993324 0.973999977112 -0.0430000014603 93.0
3.42000007629 0.981000006199 -0.0439999997616 86.0
3.73799991608 1.0490000248 -0.0480000004172 61.0
3.76699995995 1.03299999237 -0.0480000004172 96.0
3.79299998283 1.01600003242 -0.0480000004172 115.0
3.80399990082 0.995999991894 -0.0480000004172 107.0
3.9279999733 1.00300002098 -0.0489999987185 90.0
3.93799996376 0.981999993324 -0.0489999987185 109.0
4.11100006104 0.999000012875 -0.0509999990463 86.0
4.08699989319 0.967999994755 -0.0509999990463 138.0
4.10599994659 0.947000026703 -0.0509999990463 137.0
4.13800001144 0.929000020027 -0.0509999990463 138.0
4.15600013733 0.907999992371 -0.0509999990463 130.0
4.12200021744 0.875999987125 -0.0509999990463 121.0
4.10900020599 0.847999989986 -0.0500000007451 106.0
4.12799978256 0.827000021935 -0.0500000007451 109.0
4.11299991608 0.799000024796 -0.0500000007451 103.0
4.14599990845 0.78100001812 -0.0500000007451 111.0
4.13800001144 0.754000008106 -0.0500000007451 114.0
4.13999986649 0.730000019073 -0.0500000007451 109.0
4.12799978256 0.70300000906 -0.0489999987185 107.0
4.10799980164 0.675000011921 -0.0489999987185 110.0
4.11800003052 0.652999997139 -0.0489999987185 114.0
4.10099983215 0.625999987125 -0.0489999987185 109.0
4.08400011063 0.598999977112 -0.0480000004172 118.0
4.11600017548 0.578999996185 -0.0489999987185 112.0
4.117000103 0.555000007153 -0.0480000004172 139.0
4.09999990463 0.528999984264 -0.0480000004172 136.0
4.12900018692 0.509000003338 -0.0480000004172 135.0
4.14099979401 0.486000001431 -0.0480000004172 145.0
4.09399986267 0.456000000238 -0.0480000004172 138.0
4.08799982071 0.432000011206 -0.0469999983907 123.0
4.10699987411 0.409999996424 -0.0469999983907 128.0
4.10500001907 0.386000007391 -0.0469999983907 128.0
4.19199991226 0.370000004768 -0.0480000004172 88.0
4.48400020599 0.368999987841 -0.0509999990463 64.0
4.56699991226 0.34999999404 -0.0520000010729 77.0
4.59600019455 0.324999988079 -0.0520000010729 78.0
4.59499979019 0.298999994993 -0.0520000010729 67.0
4.65299987793 0.275999993086 -0.0529999993742 60.0
4.58099985123 0.245000004768 -0.0520000010729 60.0
4.55900001526 0.216999992728 -0.0509999990463 66.0
4.65999984741 0.194999992847 -0.0520000010729 68.0
4.64099979401 0.167999997735 -0.0520000010729 67.0
4.64200019836 0.141000002623 -0.0520000010729 67.0
4.64499998093 0.115000002086 -0.0520000010729 67.0
4.71500015259 0.0890000015497 -0.0520000010729 69.0
4.69500017166 0.0619999989867 -0.0520000010729 69.0
4.68800020218 0.035000000149 -0.0520000010729 68.0
4.67299985886 0.00800000037998 -0.0520000010729 62.0
4.68400001526 -0.0179999992251 -0.0520000010729 66.0
4.69999980927 -0.0450000017881 -0.0520000010729 65.0
4.742000103 -0.0729999989271 -0.0520000010729 63.0
4.75 -0.10000000149 -0.0520000010729 60.0
4.78299999237 -0.128999993205 -0.0520000010729 61.0
4.75400018692 -0.155000001192 -0.0520000010729 59.0
4.79899978638 -0.184000000358 -0.0520000010729 61.0
4.73699998856 -0.209000006318 -0.0509999990463 60.0
4.78100013733 -0.238999992609 -0.0520000010729 59.0
4.78599977493 -0.266999989748 -0.0509999990463 61.0
4.79799985886 -0.294999986887 -0.0509999990463 54.0
4.80700016022 -0.323000013828 -0.0509999990463 55.0
4.86199998856 -0.354999989271 -0.0520000010729 55.0
4.89300012589 -0.386000007391 -0.0520000010729 52.0
0.896000027657 -0.130999997258 -0.00999999977648 783.0
0.889999985695 -0.135000005364 -0.00999999977648 1795.0
0.885999977589 -0.138999998569 -0.00999999977648 1884.0
0.89099997282 -0.145999997854 -0.00999999977648 1896.0
0.888000011444 -0.15000000596 -0.00999999977648 1929.0
0.889999985695 -0.156000003219 -0.00999999977648 1898.0
0.888999998569 -0.16099999845 -0.00999999977648 1921.0
0.883000016212 -0.165000006557 -0.00999999977648 1983.0
0.887000024319 -0.171000003815 -0.00999999977648 1979.0
0.883000016212 -0.175999999046 -0.00899999961257 1974.0
0.884000003338 -0.180999994278 -0.00899999961257 1935.0
0.879000008106 -0.186000004411 -0.00899999961257 1927.0
0.884000003338 -0.192000001669 -0.00899999961257 1905.0
0.884000003338 -0.196999996901 -0.00899999961257 1871.0
0.879999995232 -0.202000007033 -0.00899999961257 1905.0
0.875999987125 -0.206000000238 -0.00899999961257 1895.0
0.875999987125 -0.211999997497 -0.00899999961257 1877.0
0.875 -0.216999992728 -0.00899999961257 1854.0
0.875 -0.222000002861 -0.00899999961257 1902.0
0.876999974251 -0.228000000119 -0.00899999961257 1909.0
0.875999987125 -0.232999995351 -0.00899999961257 1870.0
0.873000025749 -0.238000005484 -0.00899999961257 1928.0
0.871999979019 -0.243000000715 -0.00899999961257 1958.0
0.867999970913 -0.24699999392 -0.00899999961257 2034.0
0.865000009537 -0.252000004053 -0.00899999961257 2049.0
0.867999970913 -0.25799998641 -0.00899999961257 1988.0
0.867999970913 -0.263999998569 -0.00899999961257 2006.0
0.864000022411 -0.268000006676 -0.00899999961257 2004.0
0.865999996662 -0.27500000596 -0.00899999961257 2030.0
0.862999975681 -0.279000014067 -0.00899999961257 2022.0
0.861999988556 -0.284999996424 -0.00899999961257 1991.0
0.861999988556 -0.289999991655 -0.00899999961257 2026.0
0.856999993324 -0.293999999762 -0.00899999961257 2038.0
0.85799998045 -0.300000011921 -0.00899999961257 1981.0
0.85900002718 -0.305999994278 -0.00899999961257 1951.0
0.85799998045 -0.31099998951 -0.00899999961257 1948.0
0.856000006199 -0.317000001669 -0.00899999961257 1980.0
0.856999993324 -0.323000013828 -0.00899999961257 1957.0
0.850000023842 -0.326000005007 -0.00899999961257 1955.0
0.856000006199 -0.333999991417 -0.00899999961257 1917.0
0.851999998093 -0.337999999523 -0.00899999961257 1881.0
0.850000023842 -0.342999994755 -0.00899999961257 1900.0
0.848999977112 -0.349000006914 -0.00899999961257 1904.0
0.842000007629 -0.351999998093 -0.00899999961257 1966.0
0.84500002861 -0.358999997377 -0.00899999961257 1928.0
0.84399998188 -0.365000009537 -0.00899999961257 1927.0
0.84500002861 -0.370999991894 -0.00899999961257 1907.0
0.839999973774 -0.375 -0.00899999961257 1924.0
0.838999986649 -0.381000012159 -0.00899999961257 1957.0
0.837000012398 -0.386000007391 -0.00899999961257 1986.0
0.838999986649 -0.393000006676 -0.00899999961257 1998.0
0.841000020504 -0.40000000596 -0.00899999961257 2021.0
0.833000004292 -0.402999997139 -0.00899999961257 2027.0
0.833000004292 -0.409000009298 -0.00899999961257 2041.0
0.833999991417 -0.416000008583 -0.00899999961257 2009.0
0.834999978542 -0.423000007868 -0.00899999961257 2052.0
0.829999983311 -0.426999986172 -0.00800000037998 1944.0
0.827000021935 -0.432000011206 -0.00800000037998 1949.0
0.829999983311 -0.439999997616 -0.00800000037998 1951.0
0.828999996185 -0.446000009775 -0.00800000037998 1927.0
0.827000021935 -0.451000005007 -0.00800000037998 1926.0
0.825999975204 -0.458000004292 -0.00800000037998 1909.0
1.10500001907 0.633000016212 -0.0240000002086 497.0
1.13600003719 0.64099997282 -0.0250000003725 445.0
1.50100004673 0.836000025272 -0.0329999998212 242.0
1.70000004768 0.933000028133 -0.0370000004768 229.0
1.7460000515 0.944000005722 -0.0379999987781 226.0
1.76499998569 0.939999997616 -0.0379999987781 215.0
1.79200005531 0.939999997616 -0.0379999987781 215.0
1.80499994755 0.933000028133 -0.0379999987781 170.0
2.00900006294 1.02300000191 -0.0419999994338 82.0
2.00099992752 1.00300002098 -0.0419999994338 100.0
2.07500004768 1.02499997616 -0.0430000014603 114.0
2.0759999752 1.00999999046 -0.0430000014603 215.0
2.11199998856 1.01100003719 -0.0439999997616 308.0
2.09400010109 0.986999988556 -0.0430000014603 312.0
2.1210000515 0.98400002718 -0.0439999997616 300.0
2.10700011253 0.962000012398 -0.0430000014603 290.0
2.11800003052 0.950999975204 -0.0430000014603 164.0
2.16100001335 0.954999983311 -0.0439999997616 116.0
2.21499991417 0.962999999523 -0.0450000017881 210.0
2.22499990463 0.952000021935 -0.0450000017881 374.0
2.2460000515 0.944999992847 -0.0450000017881 209.0
2.28099989891 0.943000018597 -0.0460000000894 90.0
3.29299998283 0.986999988556 -0.0619999989867 108.0
3.31299996376 0.971000015736 -0.0619999989867 94.0
3.36800003052 0.966000020504 -0.0630000010133 87.0
3.75500011444 1.0529999733 -0.070000000298 58.0
3.74099993706 1.02600002289 -0.070000000298 92.0
3.78800010681 1.01499998569 -0.070000000298 112.0
3.77500009537 0.987999975681 -0.070000000298 97.0
3.89700007439 0.995000004768 -0.0719999969006 86.0
3.92000007629 0.976999998093 -0.0719999969006 121.0
4.05700016022 0.986000001431 -0.0750000029802 107.0
4.11899995804 0.976000010967 -0.0750000029802 134.0
4.13800001144 0.954999983311 -0.0759999975562 131.0
4.15399980545 0.933000028133 -0.0759999975562 125.0
4.07399988174 0.889999985695 -0.0740000009537 131.0
4.10099983215 0.870999991894 -0.0740000009537 118.0
4.07700014114 0.841000020504 -0.0740000009537 115.0
4.11899995804 0.824999988079 -0.0740000009537 121.0
4.13399982452 0.802999973297 -0.0740000009537 124.0
4.132999897 0.777999997139 -0.0740000009537 123.0
4.13199996948 0.753000020981 -0.0740000009537 130.0
4.08599996567 0.721000015736 -0.0729999989271 123.0
4.12300014496 0.702000021935 -0.0729999989271 117.0
4.11999988556 0.676999986172 -0.0729999989271 128.0
4.12699985504 0.653999984264 -0.0729999989271 131.0
4.12200021744 0.629000008106 -0.0729999989271 129.0
4.16099977493 0.610000014305 -0.0729999989271 120.0
4.11600017548 0.578999996185 -0.0719999969006 118.0
4.10599994659 0.554000020027 -0.0719999969006 137.0
4.09399986267 0.527999997139 -0.0719999969006 138.0
4.12599992752 0.508000016212 -0.0719999969006 135.0
4.13100004196 0.485000014305 -0.0719999969006 141.0
4.12200021744 0.458999991417 -0.0719999969006 137.0
4.10200023651 0.432999998331 -0.0710000023246 120.0
4.11800003052 0.411000013351 -0.0710000023246 126.0
4.09299993515 0.384999990463 -0.0710000023246 127.0
4.18400001526 0.368999987841 -0.0719999969006 95.0
4.52299976349 0.372000008821 -0.0780000016093 69.0
4.55499982834 0.349000006914 -0.0780000016093 76.0
4.62400007248 0.326999992132 -0.0790000036359 76.0
4.56799983978 0.29699999094 -0.0780000016093 72.0
4.69199991226 0.277999997139 -0.0799999982119 65.0
4.62300014496 0.24699999392 -0.0790000036359 67.0
4.60500001907 0.219999998808 -0.0780000016093 69.0
4.65600013733 0.194999992847 -0.0790000036359 73.0
4.63399982452 0.166999995708 -0.0790000036359 66.0
4.61800003052 0.140000000596 -0.0780000016093 67.0
4.6810002327 0.115000002086 -0.0790000036359 69.0
4.64300012589 0.0879999995232 -0.0780000016093 69.0
4.66800022125 0.0610000006855 -0.0790000036359 66.0
4.69299983978 0.035000000149 -0.0790000036359 66.0
4.69999980927 0.00800000037998 -0.0790000036359 65.0
4.65899991989 -0.0179999992251 -0.0780000016093 67.0
4.72200012207 -0.0460000000894 -0.0790000036359 60.0
4.66200017929 -0.0719999969006 -0.0780000016093 63.0
4.73600006104 -0.10000000149 -0.0790000036359 60.0
4.72100019455 -0.127000004053 -0.0790000036359 59.0
4.72100019455 -0.153999999166 -0.0790000036359 59.0
4.7610001564 -0.182999998331 -0.0790000036359 59.0
4.77699995041 -0.21099999547 -0.0790000036359 55.0
4.79899978638 -0.239999994636 -0.0790000036359 58.0
4.83799982071 -0.270000010729 -0.0799999982119 58.0
4.81699991226 -0.296000003815 -0.0799999982119 60.0
4.91200017929 -0.330000013113 -0.0810000002384 55.0
4.867000103 -0.356000006199 -0.0799999982119 57.0
4.87799978256 -0.384999990463 -0.0799999982119 55.0
0.898000001907 -0.130999997258 -0.0149999996647 820.0
0.888000011444 -0.135000005364 -0.0149999996647 1819.0
0.89200001955 -0.141000002623 -0.0149999996647 1895.0
0.89200001955 -0.145999997854 -0.0149999996647 1898.0
0.89099997282 -0.150999993086 -0.0149999996647 1950.0
0.885999977589 -0.155000001192 -0.0149999996647 1863.0
0.883000016212 -0.159999996424 -0.0149999996647 1910.0
0.884999990463 -0.165999993682 -0.0149999996647 2006.0
0.884000003338 -0.171000003815 -0.0149999996647 1974.0
0.879999995232 -0.17499999702 -0.0149999996647 1959.0
0.884999990463 -0.180999994278 -0.0149999996647 1952.0
0.876999974251 -0.185000002384 -0.0149999996647 1914.0
0.879000008106 -0.190999999642 -0.0149999996647 1927.0
0.878000020981 -0.195999994874 -0.0149999996647 1874.0
0.883000016212 -0.202999994159 -0.0149999996647 1903.0
0.876999974251 -0.207000002265 -0.0140000004321 1881.0
0.875 -0.21099999547 -0.0140000004321 1856.0
0.875999987125 -0.216999992728 -0.0140000004321 1825.0
0.878000020981 -0.223000004888 -0.0140000004321 1870.0
0.869000017643 -0.225999996066 -0.0140000004321 1874.0
0.873000025749 -0.232999995351 -0.0140000004321 1850.0
0.874000012875 -0.238000005484 -0.0140000004321 1912.0
0.867999970913 -0.241999998689 -0.0140000004321 1921.0
0.869000017643 -0.247999995947 -0.0140000004321 2028.0
0.866999983788 -0.252999991179 -0.0140000004321 2083.0
0.866999983788 -0.25799998641 -0.0140000004321 2007.0
0.864000022411 -0.263000011444 -0.0140000004321 2020.0
0.862999975681 -0.268000006676 -0.0140000004321 2035.0
0.861999988556 -0.273000001907 -0.0140000004321 2065.0
0.862999975681 -0.279000014067 -0.0140000004321 2046.0
0.861999988556 -0.284999996424 -0.0140000004321 1993.0
0.861999988556 -0.289999991655 -0.0140000004321 2027.0
0.85900002718 -0.294999986887 -0.0140000004321 2063.0
0.85799998045 -0.300000011921 -0.0140000004321 2043.0
0.853999972343 -0.303999990225 -0.0140000004321 1999.0
0.853999972343 -0.310000002384 -0.0140000004321 1976.0
0.85900002718 -0.317999988794 -0.0140000004321 1974.0
0.851999998093 -0.321000009775 -0.0140000004321 1963.0
0.853999972343 -0.326999992132 -0.0140000004321 1996.0
0.850000023842 -0.331999987364 -0.0140000004321 1970.0
0.851000010967 -0.337999999523 -0.0140000004321 1927.0
0.847999989986 -0.342999994755 -0.0140000004321 1872.0
0.84500002861 -0.347000002861 -0.0140000004321 1881.0
0.847999989986 -0.354999989271 -0.0140000004321 1934.0
0.842999994755 -0.358000010252 -0.0140000004321 1921.0
0.84399998188 -0.365000009537 -0.0140000004321 1925.0
0.842999994755 -0.370999991894 -0.0140000004321 1899.0
0.841000020504 -0.375999987125 -0.0140000004321 1925.0
0.842999994755 -0.38299998641 -0.0140000004321 1961.0
0.837999999523 -0.386999994516 -0.0140000004321 1969.0
0.837000012398 -0.393000006676 -0.0140000004321 1980.0
0.836000025272 -0.398000001907 -0.0140000004321 2046.0
0.837000012398 -0.405000001192 -0.0140000004321 2064.0
0.834999978542 -0.409999996424 -0.0140000004321 2040.0
0.833000004292 -0.416000008583 -0.0140000004321 2054.0
0.829999983311 -0.419999986887 -0.0140000004321 2065.0
0.82800000906 -0.425999999046 -0.0140000004321 2025.0
0.834999978542 -0.43599998951 -0.0140000004321 1993.0
0.832000017166 -0.441000014544 -0.0140000004321 2014.0
0.829999983311 -0.446999996901 -0.0140000004321 2004.0
0.824999988079 -0.451000005007 -0.0140000004321 1936.0
0.823000013828 -0.456000000238 -0.0140000004321 1940.0
1.10599994659 0.634000003338 -0.0320000015199 505.0
1.13100004196 0.638000011444 -0.0320000015199 458.0
1.47899997234 0.823000013828 -0.0419999994338 236.0
1.72099995613 0.944000005722 -0.0480000004172 224.0
1.73599994183 0.938000023365 -0.0480000004172 224.0
1.7840000391 0.949999988079 -0.0500000007451 218.0
1.79499995708 0.941999971867 -0.0500000007451 228.0
1.83800005913 0.949999988079 -0.0509999990463 202.0
2.06399989128 1.05099999905 -0.0570000000298 174.0
2.0759999752 1.04100000858 -0.0570000000298 205.0
2.08800005913 1.03100001812 -0.0570000000298 244.0
2.10899996758 1.02499997616 -0.0570000000298 300.0
2.10800004005 1.00899994373 -0.0570000000298 305.0
2.1289999485 1.00300002098 -0.0570000000298 310.0
2.11500000954 0.981000006199 -0.0570000000298 297.0
2.1210000515 0.967999994755 -0.0570000000298 284.0
2.09400010109 0.940999984741 -0.0560000017285 160.0
2.15199995041 0.950999975204 -0.0570000000298 105.0
2.18300008774 0.949000000954 -0.0579999983311 209.0
2.21300005913 0.945999979973 -0.0579999983311 367.0
2.24000000954 0.941999971867 -0.0590000003576 209.0
2.26099991798 0.935000002384 -0.0590000003576 98.0
3.36800003052 0.987999975681 -0.082999996841 87.0
3.39400005341 0.973999977112 -0.0839999988675 82.0
3.79500007629 1.06500005722 -0.0939999967813 63.0
3.73099994659 1.02300000191 -0.0920000001788 101.0
3.74900007248 1.00499999523 -0.0920000001788 114.0
3.80100011826 0.995000004768 -0.0930000022054 106.0
3.92700004578 1.00300002098 -0.0960000008345 84.0
3.94899988174 0.98400002718 -0.0960000008345 126.0
4.07399988174 0.990000009537 -0.0989999994636 117.0
4.10400009155 0.972000002861 -0.0989999994636 130.0
4.12400007248 0.952000021935 -0.10000000149 130.0
4.15199995041 0.933000028133 -0.10000000149 132.0
4.14200019836 0.90499997139 -0.10000000149 134.0
4.13899993896 0.879000008106 -0.0989999994636 119.0
4.14599990845 0.855000019073 -0.0989999994636 111.0
4.16499996185 0.833999991417 -0.10000000149 126.0
4.132999897 0.802999973297 -0.0989999994636 133.0
4.10300016403 0.772000014782 -0.097999997437 128.0
4.15899991989 0.758000016212 -0.0989999994636 128.0
4.08900022507 0.721000015736 -0.097000002861 129.0
4.10300016403 0.699000000954 -0.097000002861 135.0
4.10500001907 0.675000011921 -0.097000002861 135.0
4.13700008392 0.65600001812 -0.097000002861 134.0
4.15999984741 0.634999990463 -0.097999997437 141.0
4.11999988556 0.603999972343 -0.097000002861 138.0
4.12799978256 0.580999970436 -0.097000002861 124.0
4.12400007248 0.555999994278 -0.0960000008345 138.0
4.08900022507 0.527000010014 -0.0949999988079 136.0
4.11499977112 0.507000029087 -0.0960000008345 140.0
4.11100006104 0.481999993324 -0.0960000008345 137.0
4.13700008392 0.46099999547 -0.0960000008345 141.0
4.0640001297 0.428999990225 -0.0939999967813 124.0
4.09899997711 0.409000009298 -0.0949999988079 132.0
4.10799980164 0.386000007391 -0.0949999988079 124.0
4.16800022125 0.36700001359 -0.0960000008345 93.0
4.53800010681 0.374000012875 -0.104000002146 64.0
4.60500001907 0.351999998093 -0.105999998748 79.0
4.55900001526 0.323000013828 -0.104999996722 75.0
4.63000011444 0.300999999046 -0.105999998748 66.0
4.63000011444 0.273999989033 -0.105999998748 71.0
4.59700012207 0.246000006795 -0.104999996722 70.0
4.60599994659 0.218999996781 -0.104999996722 67.0
4.61499977112 0.193000003695 -0.104999996722 74.0
4.69799995422 0.170000001788 -0.107000000775 70.0
4.60900020599 0.140000000596 -0.104999996722 70.0
4.65299987793 0.11400000006 -0.105999998748 65.0
4.64799976349 0.0879999995232 -0.104999996722 70.0
4.6939997673 0.0610000006855 -0.105999998748 67.0
4.73299980164 0.035000000149 -0.107000000775 67.0
4.66200017929 0.00700000021607 -0.104999996722 56.0
4.70900011063 -0.0189999993891 -0.105999998748 66.0
4.77099990845 -0.0460000000894 -0.107000000775 61.0
4.70100021362 -0.0729999989271 -0.105999998748 64.0
4.68200016022 -0.0989999994636 -0.104999996722 56.0
4.71799993515 -0.127000004053 -0.105999998748 60.0
4.74399995804 -0.155000001192 -0.105999998748 57.0
4.72300004959 -0.181999996305 -0.105999998748 58.0
4.76000022888 -0.209999993443 -0.105999998748 62.0
4.83199977875 -0.241999998689 -0.108000002801 60.0
4.77699995041 -0.266000002623 -0.107000000775 57.0
4.87599992752 -0.300000011921 -0.108999997377 59.0
4.85300016403 -0.326999992132 -0.108000002801 55.0
4.90000009537 -0.358000010252 -0.108999997377 57.0
4.92600011826 -0.388999998569 -0.108999997377 52.0
0.898999989033 -0.130999997258 -0.019999999553 848.0
0.893999993801 -0.136000007391 -0.019999999553 1870.0
0.889999985695 -0.140000000596 -0.019999999553 1923.0
0.887000024319 -0.144999995828 -0.019999999553 1896.0
0.884000003338 -0.15000000596 -0.019999999553 1963.0
0.883000016212 -0.155000001192 -0.019999999553 1866.0
0.887000024319 -0.16099999845 -0.019999999553 1915.0
0.884999990463 -0.165999993682 -0.019999999553 1994.0
0.887000024319 -0.171000003815 -0.019999999553 1949.0
0.878000020981 -0.17499999702 -0.019999999553 1928.0
0.883000016212 -0.180999994278 -0.019999999553 1944.0
0.879999995232 -0.186000004411 -0.019999999553 1919.0
0.879999995232 -0.190999999642 -0.019999999553 1927.0
