ply
format ascii 1.0
element vertex 906
property float x
property float y
property float z
property float intensity
end_header
0.777000010014 0.354999989271 0.0410000011325 341.0
0.759999990463 0.342000007629 0.0399999991059 343.0
0.771000027657 0.340999990702 0.0399999991059 347.0
0.787000000477 0.342999994755 0.0410000011325 356.0
0.772000014782 0.331000000238 0.0399999991059 368.0
0.790000021458 0.333000004292 0.0410000011325 375.0
0.763000011444 0.316000014544 0.0399999991059 389.0
0.71899998188 0.291999995708 0.0370000004768 274.0
0.786000013351 0.314999997616 0.0410000011325 423.0
0.790000021458 0.31099998951 0.0410000011325 449.0
0.82800000906 0.31400001049 0.0430000014603 479.0
0.856999993324 0.319999992847 0.0439999997616 385.0
0.885999977589 0.136000007391 0.0450000017881 507.0
0.898000001907 0.133000001311 0.0450000017881 1613.0
0.898000001907 0.12800000608 0.0450000017881 1699.0
0.902000010014 0.123000003397 0.0450000017881 1665.0
0.901000022888 0.118000000715 0.0450000017881 1575.0
0.902999997139 0.112000003457 0.0450000017881 1612.0
0.903999984264 0.107000000775 0.0450000017881 1640.0
0.910000026226 0.103000000119 0.0460000000894 1644.0
0.901000022888 0.097000002861 0.0450000017881 1639.0
0.902999997139 0.0909999981523 0.0450000017881 1645.0
0.902999997139 0.0860000029206 0.0450000017881 1593.0
0.902000010014 0.0810000002384 0.0450000017881 1613.0
0.896000027657 0.0750000029802 0.0450000017881 1600.0
0.902000010014 0.0710000023246 0.0450000017881 1583.0
0.902999997139 0.0649999976158 0.0450000017881 1587.0
0.90499997139 0.0599999986589 0.0460000000894 1576.0
0.907999992371 0.054999999702 0.0460000000894 1579.0
0.903999984264 0.0500000007451 0.0460000000894 1576.0
0.907999992371 0.0450000017881 0.0460000000894 1575.0
0.916999995708 0.0399999991059 0.0460000000894 1594.0
0.902000010014 0.0340000018477 0.0450000017881 1595.0
0.908999979496 0.0289999991655 0.0460000000894 1617.0
0.90600001812 0.0240000002086 0.0460000000894 1612.0
0.912999987602 0.0189999993891 0.0460000000894 1591.0
0.907000005245 0.0140000004321 0.0460000000894 1593.0
0.907999992371 0.00800000037998 0.0460000000894 1582.0
0.907000005245 0.00300000002608 0.0460000000894 1564.0
0.912999987602 -0.0010000000475 0.0460000000894 1552.0
0.910000026226 -0.00600000005215 0.0460000000894 1545.0
0.913999974728 -0.0120000001043 0.0460000000894 1541.0
0.907999992371 -0.0170000009239 0.0460000000894 1547.0
0.912000000477 -0.0219999998808 0.0460000000894 1525.0
0.910000026226 -0.0270000007004 0.0460000000894 1518.0
0.916000008583 -0.0329999998212 0.0469999983907 1504.0
0.912999987602 -0.0379999987781 0.0460000000894 1482.0
0.917999982834 -0.0430000014603 0.0469999983907 1487.0
0.913999974728 -0.0480000004172 0.0469999983907 1503.0
0.911000013351 -0.0529999993742 0.0460000000894 1495.0
0.917999982834 -0.0590000003576 0.0469999983907 1482.0
0.916000008583 -0.0640000030398 0.0469999983907 1500.0
0.912999987602 -0.0689999982715 0.0469999983907 1482.0
0.912000000477 -0.0740000009537 0.0469999983907 1489.0
0.916000008583 -0.0799999982119 0.0469999983907 1471.0
0.915000021458 -0.0850000008941 0.0469999983907 1459.0
0.916999995708 -0.0909999981523 0.0469999983907 1468.0
0.920000016689 -0.0960000008345 0.0469999983907 1458.0
0.916999995708 -0.101000003517 0.0469999983907 1454.0
0.920000016689 -0.107000000775 0.0469999983907 1455.0
0.920000016689 -0.112000003457 0.0469999983907 1457.0
0.915000021458 -0.116999998689 0.0469999983907 1465.0
0.922999978065 -0.123999997973 0.0480000004172 1451.0
0.921000003815 -0.128999993205 0.0480000004172 1467.0
0.922999978065 -0.134000003338 0.0480000004172 1446.0
0.916999995708 -0.138999998569 0.0480000004172 1420.0
0.920000016689 -0.144999995828 0.0480000004172 1439.0
0.919000029564 -0.15000000596 0.0480000004172 1451.0
0.92199999094 -0.156000003219 0.0480000004172 1459.0
0.919000029564 -0.16099999845 0.0480000004172 1476.0
0.917999982834 -0.165999993682 0.0480000004172 1469.0
0.922999978065 -0.172999992967 0.0480000004172 1471.0
0.925000011921 -0.179000005126 0.0480000004172 1472.0
0.925000011921 -0.184000000358 0.0480000004172 1472.0
0.92199999094 -0.188999995589 0.0480000004172 1459.0
0.924000024796 -0.194999992847 0.0489999987185 1469.0
0.929000020027 -0.202000007033 0.0489999987185 1425.0
0.924000024796 -0.206000000238 0.0489999987185 1427.0
0.922999978065 -0.211999997497 0.0489999987185 1439.0
0.922999978065 -0.216999992728 0.0489999987185 1444.0
0.925999999046 -0.224000006914 0.0489999987185 1451.0
0.922999978065 -0.229000002146 0.0489999987185 1433.0
0.925000011921 -0.234999999404 0.0489999987185 1421.0
0.92199999094 -0.239999994636 0.0489999987185 1430.0
0.930000007153 -0.247999995947 0.0500000007451 1392.0
0.926999986172 -0.252999991179 0.0500000007451 1376.0
0.927999973297 -0.259000003338 0.0500000007451 1400.0
0.936999976635 -0.268000006676 0.0500000007451 1403.0
0.927999973297 -0.270999997854 0.0500000007451 1404.0
0.926999986172 -0.275999993086 0.0500000007451 1386.0
0.927999973297 -0.282000005245 0.0500000007451 1405.0
0.930999994278 -0.289999991655 0.0500000007451 1382.0
0.930999994278 -0.294999986887 0.0509999990463 1386.0
0.929000020027 -0.300999999046 0.0509999990463 1382.0
0.934000015259 -0.308999985456 0.0509999990463 1368.0
0.927999973297 -0.312999993563 0.0509999990463 1376.0
0.927999973297 -0.319000005722 0.0509999990463 1364.0
0.926999986172 -0.324999988079 0.0509999990463 1369.0
0.930000007153 -0.331999987364 0.0509999990463 1351.0
0.927999973297 -0.337999999523 0.0509999990463 1366.0
0.934000015259 -0.345999985933 0.0520000010729 1357.0
0.935000002384 -0.352999985218 0.0520000010729 1344.0
0.927999973297 -0.356000006199 0.0520000010729 1341.0
0.936999976635 -0.36700001359 0.0520000010729 1334.0
0.934000015259 -0.372000008821 0.0520000010729 1322.0
0.933000028133 -0.377999991179 0.0520000010729 1308.0
0.933000028133 -0.384000003338 0.0529999993742 1307.0
0.93900001049 -0.393000006676 0.0529999993742 1292.0
0.934000015259 -0.398000001907 0.0529999993742 1287.0
0.930999994278 -0.402999997139 0.0529999993742 1282.0
0.931999981403 -0.409999996424 0.0529999993742 1270.0
0.944999992847 -0.423000007868 0.0540000014007 1284.0
0.939999997616 -0.426999986172 0.0540000014007 1242.0
0.938000023365 -0.433999985456 0.0540000014007 1233.0
0.936999976635 -0.439999997616 0.0540000014007 1239.0
0.941999971867 -0.449000000954 0.0540000014007 1280.0
0.935000002384 -0.45300000906 0.0540000014007 1233.0
0.944999992847 -0.465000003576 0.054999999702 1231.0
0.973999977112 -0.486999988556 0.0570000000298 688.0
1.38499999046 -0.705999970436 0.082000002265 114.0
1.97300004959 -1.02300000191 0.118000000715 101.0
1.91900002956 -1.00999999046 0.115000002086 107.0
1.9279999733 -1.02900004387 0.115999996662 120.0
1.90299999714 -1.03100001812 0.115000002086 117.0
1.38300001621 -0.759000003338 0.082999996841 269.0
1.28999996185 -0.717999994755 0.0780000016093 775.0
3.8220000267 2.13199996948 0.188999995589 77.0
3.78800010681 2.08299994469 0.187000006437 82.0
3.84500002861 2.08299994469 0.188999995589 77.0
3.7460000515 2.0 0.184000000358 79.0
3.87199997902 2.03600001335 0.189999997616 81.0
3.81200003624 1.94500005245 0.186000004411 75.0
3.89499998093 1.95700001717 0.189999997616 78.0
3.86400008202 1.91199994087 0.187999993563 79.0
3.90499997139 1.90299999714 0.188999995589 73.0
3.90000009537 1.8710000515 0.188999995589 72.0
3.70199990273 1.72099995613 0.178000003099 71.0
3.87199997902 1.74300003052 0.186000004411 73.0
3.83400011063 1.69799995422 0.184000000358 73.0
4.02099990845 1.75100004673 0.193000003695 74.0
3.83100008965 1.5870000124 0.181999996305 75.0
3.9470000267 1.60699999332 0.187999993563 69.0
3.9509999752 1.58099997044 0.187999993563 68.0
3.88400006294 1.52799999714 0.184000000358 85.0
0.887000024319 0.136000007391 0.0390000008047 558.0
0.89200001955 0.131999999285 0.0399999991059 1631.0
0.898999989033 0.12800000608 0.0399999991059 1742.0
0.899999976158 0.123000003397 0.0399999991059 1730.0
0.901000022888 0.116999998689 0.0399999991059 1671.0
0.899999976158 0.112000003457 0.0399999991059 1683.0
0.898999989033 0.107000000775 0.0399999991059 1682.0
0.902000010014 0.101999998093 0.0399999991059 1677.0
0.902000010014 0.097000002861 0.0399999991059 1635.0
0.902000010014 0.0909999981523 0.0399999991059 1666.0
0.902000010014 0.0860000029206 0.0399999991059 1630.0
0.902999997139 0.0810000002384 0.0399999991059 1627.0
0.901000022888 0.0759999975562 0.0399999991059 1633.0
0.90499997139 0.0710000023246 0.0399999991059 1611.0
0.903999984264 0.0649999976158 0.0399999991059 1594.0
0.907999992371 0.0599999986589 0.0399999991059 1618.0
0.90600001812 0.054999999702 0.0399999991059 1600.0
0.90600001812 0.0500000007451 0.0399999991059 1584.0
0.907000005245 0.0450000017881 0.0399999991059 1604.0
0.902999997139 0.0390000008047 0.0399999991059 1606.0
0.90600001812 0.0340000018477 0.0399999991059 1635.0
0.901000022888 0.0289999991655 0.0399999991059 1651.0
0.908999979496 0.0240000002086 0.0410000011325 1631.0
0.911000013351 0.0189999993891 0.0410000011325 1644.0
0.907000005245 0.0140000004321 0.0410000011325 1643.0
0.910000026226 0.00800000037998 0.0410000011325 1603.0
0.907000005245 0.00300000002608 0.0410000011325 1604.0
0.907999992371 -0.0010000000475 0.0410000011325 1600.0
0.907000005245 -0.00600000005215 0.0410000011325 1579.0
0.910000026226 -0.0109999999404 0.0410000011325 1557.0
0.910000026226 -0.0170000009239 0.0410000011325 1578.0
0.912000000477 -0.0219999998808 0.0410000011325 1560.0
0.911000013351 -0.0270000007004 0.0410000011325 1523.0
0.908999979496 -0.0320000015199 0.0410000011325 1509.0
0.907999992371 -0.0370000004768 0.0410000011325 1502.0
0.910000026226 -0.0430000014603 0.0410000011325 1497.0
0.915000021458 -0.0480000004172 0.0410000011325 1501.0
0.912000000477 -0.0529999993742 0.0410000011325 1479.0
0.912999987602 -0.0590000003576 0.0410000011325 1486.0
0.917999982834 -0.0640000030398 0.0419999994338 1504.0
0.912000000477 -0.0689999982715 0.0410000011325 1494.0
0.911000013351 -0.0740000009537 0.0410000011325 1508.0
0.913999974728 -0.0799999982119 0.0410000011325 1478.0
0.912999987602 -0.0850000008941 0.0419999994338 1475.0
0.916999995708 -0.0909999981523 0.0419999994338 1471.0
0.919000029564 -0.0960000008345 0.0419999994338 1452.0
0.916999995708 -0.101000003517 0.0419999994338 1470.0
0.916999995708 -0.107000000775 0.0419999994338 1468.0
0.917999982834 -0.112000003457 0.0419999994338 1484.0
0.915000021458 -0.116999998689 0.0419999994338 1489.0
0.916000008583 -0.123000003397 0.0419999994338 1469.0
0.916000008583 -0.12800000608 0.0419999994338 1484.0
0.917999982834 -0.134000003338 0.0419999994338 1456.0
0.915000021458 -0.138999998569 0.0419999994338 1449.0
0.920000016689 -0.144999995828 0.0419999994338 1443.0
0.921000003815 -0.15000000596 0.0430000014603 1445.0
0.926999986172 -0.157000005245 0.0430000014603 1442.0
0.917999982834 -0.16099999845 0.0419999994338 1487.0
0.920000016689 -0.166999995708 0.0430000014603 1497.0
0.924000024796 -0.172999992967 0.0430000014603 1489.0
0.917999982834 -0.177000001073 0.0430000014603 1465.0
0.921000003815 -0.182999998331 0.0430000014603 1484.0
0.920000016689 -0.188999995589 0.0430000014603 1476.0
0.921000003815 -0.194000005722 0.0430000014603 1487.0
0.920000016689 -0.20000000298 0.0430000014603 1422.0
0.921000003815 -0.206000000238 0.0430000014603 1424.0
0.924000024796 -0.211999997497 0.0430000014603 1459.0
0.92199999094 -0.216999992728 0.0430000014603 1472.0
0.926999986172 -0.224000006914 0.0439999997616 1477.0
0.92199999094 -0.229000002146 0.0439999997616 1425.0
0.92199999094 -0.233999997377 0.0439999997616 1421.0
0.924000024796 -0.240999996662 0.0439999997616 1429.0
0.924000024796 -0.246000006795 0.0439999997616 1404.0
0.925000011921 -0.252000004053 0.0439999997616 1384.0
0.926999986172 -0.259000003338 0.0439999997616 1387.0
0.925999999046 -0.263999998569 0.0439999997616 1401.0
0.925999999046 -0.270000010729 0.0439999997616 1390.0
0.933000028133 -0.277999997139 0.0450000017881 1392.0
0.929000020027 -0.282999992371 0.0450000017881 1413.0
0.930999994278 -0.28900000453 0.0450000017881 1404.0
0.927999973297 -0.294999986887 0.0450000017881 1397.0
0.930999994278 -0.301999986172 0.0450000017881 1402.0
0.925999999046 -0.305999994278 0.0450000017881 1371.0
0.931999981403 -0.31400001049 0.0450000017881 1387.0
0.924000024796 -0.317000001669 0.0450000017881 1379.0
0.927999973297 -0.324999988079 0.0450000017881 1363.0
0.936999976635 -0.333999991417 0.0460000000894 1363.0
0.931999981403 -0.338999986649 0.0460000000894 1376.0
0.926999986172 -0.342999994755 0.0460000000894 1364.0
0.930999994278 -0.351000010967 0.0460000000894 1365.0
0.927999973297 -0.356000006199 0.0460000000894 1364.0
0.938000023365 -0.36700001359 0.0469999983907 1361.0
0.929000020027 -0.368999987841 0.0460000000894 1344.0
0.933000028133 -0.377999991179 0.0469999983907 1321.0
0.938000023365 -0.386000007391 0.0469999983907 1319.0
0.938000023365 -0.393000006676 0.0469999983907 1296.0
0.930999994278 -0.395999997854 0.0469999983907 1291.0
0.935000002384 -0.405000001192 0.0469999983907 1299.0
0.93599998951 -0.412000000477 0.0469999983907 1294.0
0.93599998951 -0.418999999762 0.0480000004172 1305.0
0.93599998951 -0.425000011921 0.0480000004172 1309.0
0.93900001049 -0.433999985456 0.0480000004172 1254.0
0.940999984741 -0.442000001669 0.0480000004172 1261.0
0.941999971867 -0.449000000954 0.0489999987185 1276.0
0.931999981403 -0.451999992132 0.0480000004172 1245.0
0.943000018597 -0.463999986649 0.0489999987185 1228.0
0.976999998093 -0.488000005484 0.0509999990463 746.0
1.51100003719 -0.769999980927 0.0799999982119 156.0
1.88300001621 -0.976000010967 0.101000003517 150.0
1.88900005817 -0.994000017643 0.101000003517 166.0
1.89499998093 -1.01199996471 0.101999998093 154.0
1.85699999332 -1.00600004196 0.10000000149 170.0
1.40199995041 -0.769999980927 0.0750000029802 289.0
1.29600000381 -0.722000002861 0.070000000298 775.0
3.72399997711 2.07699990273 0.159999996424 79.0
3.82800006866 2.10400009155 0.16400000453 85.0
3.69400000572 2.00099992752 0.158000007272 81.0
3.7990000248 2.02699995041 0.162000000477 74.0
3.82800006866 2.01300001144 0.163000002503 77.0
3.85400009155 1.9960000515 0.16400000453 78.0
3.98200011253 2.03099989891 0.168999999762 76.0
3.92000007629 1.96899998188 0.165999993682 82.0
3.79600000381 1.87800002098 0.159999996424 73.0
3.91199994087 1.90600001812 0.165000006557 72.0
3.96099996567 1.89999997616 0.166999995708 77.0
3.82399988174 1.80499994755 0.16099999845 81.0
3.88499999046 1.80499994755 0.163000002503 75.0
3.86999988556 1.76999998093 0.162000000477 78.0
3.94899988174 1.77699995041 0.165000006557 70.0
3.90400004387 1.72800004482 0.163000002503 72.0
3.82699990273 1.66700005531 0.158999994397 70.0
3.90899991989 1.6740000248 0.163000002503 74.0
3.97499990463 1.64600002766 0.165000006557 75.0
3.91300010681 1.59300005436 0.162000000477 78.0
3.93700003624 1.57500004768 0.163000002503 68.0
3.85700011253 1.51699995995 0.158999994397 73.0
3.99300003052 1.54200005531 0.165000006557 69.0
0.89200001955 0.136999994516 0.035000000149 597.0
0.899999976158 0.133000001311 0.035000000149 1624.0
0.899999976158 0.12800000608 0.035000000149 1714.0
0.902000010014 0.123000003397 0.035000000149 1735.0
0.899999976158 0.116999998689 0.035000000149 1685.0
0.899999976158 0.112000003457 0.035000000149 1706.0
0.896000027657 0.105999998748 0.035000000149 1675.0
0.901000022888 0.101999998093 0.035000000149 1676.0
0.901000022888 0.0960000008345 0.035000000149 1638.0
0.897000014782 0.0909999981523 0.035000000149 1666.0
0.901000022888 0.0860000029206 0.035000000149 1637.0
0.90600001812 0.0810000002384 0.035000000149 1599.0
0.902000010014 0.0759999975562 0.035000000149 1616.0
0.901000022888 0.070000000298 0.035000000149 1600.0
0.907000005245 0.0659999996424 0.035000000149 1574.0
0.907999992371 0.0599999986589 0.035000000149 1582.0
0.90499997139 0.054999999702 0.035000000149 1596.0
0.907999992371 0.0500000007451 0.035000000149 1590.0
0.90499997139 0.0450000017881 0.035000000149 1604.0
0.903999984264 0.0390000008047 0.035000000149 1606.0
0.90499997139 0.0340000018477 0.035000000149 1619.0
0.910000026226 0.0289999991655 0.035000000149 1628.0
0.907999992371 0.0240000002086 0.035000000149 1630.0
0.908999979496 0.0189999993891 0.035000000149 1667.0
0.911000013351 0.0140000004321 0.0359999984503 1657.0
0.912000000477 0.00800000037998 0.0359999984503 1638.0
0.907000005245 0.00300000002608 0.035000000149 1626.0
0.911000013351 -0.0010000000475 0.0359999984503 1616.0
0.908999979496 -0.00600000005215 0.0359999984503 1616.0
0.912999987602 -0.0120000001043 0.0359999984503 1594.0
0.916000008583 -0.0170000009239 0.0359999984503 1589.0
0.908999979496 -0.0219999998808 0.0359999984503 1579.0
0.911000013351 -0.0270000007004 0.0359999984503 1552.0
0.912999987602 -0.0320000015199 0.0359999984503 1525.0
0.912000000477 -0.0379999987781 0.0359999984503 1508.0
0.912000000477 -0.0430000014603 0.0359999984503 1504.0
0.913999974728 -0.0480000004172 0.0359999984503 1516.0
0.916000008583 -0.0540000014007 0.0359999984503 1506.0
0.916999995708 -0.0590000003576 0.0359999984503 1496.0
0.913999974728 -0.0640000030398 0.0359999984503 1518.0
0.912000000477 -0.0689999982715 0.0359999984503 1503.0
0.912000000477 -0.0740000009537 0.0359999984503 1528.0
0.913999974728 -0.0799999982119 0.0359999984503 1514.0
0.911000013351 -0.0850000008941 0.0359999984503 1503.0
0.913999974728 -0.0900000035763 0.0359999984503 1505.0
0.912999987602 -0.0960000008345 0.0359999984503 1464.0
0.915000021458 -0.101000003517 0.0359999984503 1478.0
0.916999995708 -0.107000000775 0.0370000004768 1495.0
0.916000008583 -0.112000003457 0.0370000004768 1485.0
0.916999995708 -0.116999998689 0.0370000004768 1493.0
0.916000008583 -0.123000003397 0.0370000004768 1486.0
0.916999995708 -0.12800000608 0.0370000004768 1494.0
0.925000011921 -0.135000005364 0.0370000004768 1469.0
0.920000016689 -0.138999998569 0.0370000004768 1461.0
0.920000016689 -0.144999995828 0.0370000004768 1452.0
0.920000016689 -0.15000000596 0.0370000004768 1459.0
0.920000016689 -0.156000003219 0.0370000004768 1459.0
0.917999982834 -0.16099999845 0.0370000004768 1465.0
0.920000016689 -0.166999995708 0.0370000004768 1487.0
0.921000003815 -0.172000005841 0.0370000004768 1497.0
0.92199999094 -0.178000003099 0.0379999987781 1500.0
0.920000016689 -0.182999998331 0.0370000004768 1488.0
0.921000003815 -0.188999995589 0.0379999987781 1512.0
0.925000011921 -0.194999992847 0.0379999987781 1498.0
0.922999978065 -0.20000000298 0.0379999987781 1444.0
0.920000016689 -0.204999998212 0.0379999987781 1453.0
0.925999999046 -0.211999997497 0.0379999987781 1477.0
0.92199999094 -0.216999992728 0.0379999987781 1473.0
0.921000003815 -0.223000004888 0.0379999987781 1478.0
0.926999986172 -0.230000004172 0.0379999987781 1438.0
0.92199999094 -0.233999997377 0.0379999987781 1435.0
0.92199999094 -0.239999994636 0.0379999987781 1443.0
0.929000020027 -0.247999995947 0.0390000008047 1413.0
0.925999999046 -0.252999991179 0.0390000008047 1411.0
0.926999986172 -0.259000003338 0.0390000008047 1422.0
0.925999999046 -0.263999998569 0.0390000008047 1431.0
0.926999986172 -0.270000010729 0.0390000008047 1421.0
0.929000020027 -0.277000010014 0.0390000008047 1404.0
0.930999994278 -0.282999992371 0.0390000008047 1427.0
0.934000015259 -0.291000008583 0.0390000008047 1420.0
0.930000007153 -0.294999986887 0.0390000008047 1398.0
0.926999986172 -0.300000011921 0.0390000008047 1407.0
0.930000007153 -0.307000011206 0.0399999991059 1392.0
0.926999986172 -0.312000006437 0.0399999991059 1404.0
0.927999973297 -0.319000005722 0.0399999991059 1385.0
0.930999994278 -0.326000005007 0.0399999991059 1369.0
0.930999994278 -0.331999987364 0.0399999991059 1375.0
0.929000020027 -0.337999999523 0.0399999991059 1381.0
0.927999973297 -0.344000011683 0.0399999991059 1394.0
0.930999994278 -0.351000010967 0.0399999991059 1379.0
0.935000002384 -0.358999997377 0.0410000011325 1370.0
0.933000028133 -0.365000009537 0.0410000011325 1363.0
0.933000028133 -0.370999991894 0.0410000011325 1362.0
0.93599998951 -0.379000008106 0.0410000011325 1330.0
0.933000028133 -0.384000003338 0.0410000011325 1335.0
0.93900001049 -0.393000006676 0.0410000011325 1308.0
0.935000002384 -0.398000001907 0.0410000011325 1305.0
0.934000015259 -0.404000014067 0.0410000011325 1320.0
0.939999997616 -0.41400000453 0.0419999994338 1326.0
0.93900001049 -0.419999986887 0.0419999994338 1308.0
0.938000023365 -0.425999999046 0.0419999994338 1324.0
0.944000005722 -0.43599998951 0.0419999994338 1293.0
0.938000023365 -0.439999997616 0.0419999994338 1267.0
0.93900001049 -0.448000013828 0.0419999994338 1269.0
0.934000015259 -0.451999992132 0.0419999994338 1255.0
0.940999984741 -0.462999999523 0.0430000014603 1248.0
0.981000006199 -0.490999996662 0.0450000017881 777.0
1.47599995136 -0.751999974251 0.0689999982715 177.0
1.92499995232 -0.996999979019 0.0909999981523 182.0
1.85500001907 -0.976000010967 0.0879999995232 175.0
1.88100004196 -1.0039999485 0.0890000015497 183.0
1.87300002575 -1.01400005817 0.0890000015497 197.0
1.42100000381 -0.77999997139 0.0670000016689 297.0
1.29400002956 -0.72000002861 0.0610000006855 783.0
3.75999999046 2.09699988365 0.136999994516 106.0
3.75600004196 2.06399989128 0.136999994516 106.0
3.72000002861 2.01399993896 0.135000005364 107.0
3.82899999619 2.04299998283 0.138999998569 100.0
3.81599998474 2.00500011444 0.137999996543 95.0
3.74499988556 1.93900001049 0.135000005364 90.0
3.81900000572 1.94799995422 0.137999996543 92.0
3.80999994278 1.9129999876 0.136999994516 97.0
3.87299990654 1.88600003719 0.138999998569 91.0
3.75999999046 1.8029999733 0.135000005364 91.0
3.82299995422 1.80400002003 0.136999994516 86.0
3.86100006104 1.79299998283 0.137999996543 86.0
3.81299996376 1.74300003052 0.136000007391 89.0
3.91799998283 1.76199996471 0.138999998569 87.0
3.89800000191 1.72500002384 0.137999996543 90.0
3.88000011444 1.68900001049 0.137999996543 79.0
3.90400004387 1.67100000381 0.137999996543 82.0
3.96300005913 1.66900002956 0.140000000596 84.0
3.867000103 1.60099995136 0.136000007391 91.0
3.79699993134 1.54499995708 0.134000003338 94.0
3.88000011444 1.55200004578 0.136999994516 93.0
3.90599989891 1.53499996662 0.136999994516 97.0
3.81599998474 1.47399997711 0.134000003338 67.0
0.880999982357 0.135000005364 0.0289999991655 639.0
0.893999993801 0.131999999285 0.0289999991655 1650.0
0.902000010014 0.12800000608 0.0299999993294 1732.0
0.898999989033 0.122000001371 0.0299999993294 1747.0
0.902999997139 0.118000000715 0.0299999993294 1690.0
0.898999989033 0.112000003457 0.0299999993294 1694.0
0.898999989033 0.107000000775 0.0299999993294 1700.0
0.898999989033 0.101000003517 0.0299999993294 1649.0
0.898999989033 0.0960000008345 0.0299999993294 1635.0
0.899999976158 0.0909999981523 0.0299999993294 1646.0
0.902999997139 0.0860000029206 0.0299999993294 1627.0
0.902000010014 0.0810000002384 0.0299999993294 1580.0
0.902000010014 0.0759999975562 0.0299999993294 1605.0
0.902999997139 0.0710000023246 0.0299999993294 1576.0
0.898999989033 0.0649999976158 0.0299999993294 1554.0
0.903999984264 0.0599999986589 0.0299999993294 1566.0
0.902999997139 0.054999999702 0.0299999993294 1577.0
0.907999992371 0.0500000007451 0.0299999993294 1563.0
0.90499997139 0.0450000017881 0.0299999993294 1565.0
0.907000005245 0.0390000008047 0.0299999993294 1564.0
0.90600001812 0.0340000018477 0.0299999993294 1574.0
0.902000010014 0.0289999991655 0.0299999993294 1594.0
0.90499997139 0.0240000002086 0.0299999993294 1607.0
0.907999992371 0.0189999993891 0.0299999993294 1671.0
0.913999974728 0.0140000004321 0.0299999993294 1631.0
0.90499997139 0.00800000037998 0.0299999993294 1610.0
0.912000000477 0.00300000002608 0.0299999993294 1591.0
0.908999979496 -0.0010000000475 0.0299999993294 1619.0
0.915000021458 -0.00600000005215 0.0309999994934 1606.0
0.908999979496 -0.0120000001043 0.0299999993294 1589.0
0.907999992371 -0.0170000009239 0.0299999993294 1599.0
0.908999979496 -0.0219999998808 0.0299999993294 1593.0
0.911000013351 -0.0270000007004 0.0309999994934 1566.0
0.912999987602 -0.0329999998212 0.0309999994934 1560.0
0.916000008583 -0.0379999987781 0.0309999994934 1538.0
0.912999987602 -0.0430000014603 0.0309999994934 1518.0
0.912000000477 -0.0480000004172 0.0309999994934 1523.0
0.913999974728 -0.0540000014007 0.0309999994934 1500.0
0.912000000477 -0.0590000003576 0.0309999994934 1514.0
0.912000000477 -0.0640000030398 0.0309999994934 1529.0
0.917999982834 -0.070000000298 0.0309999994934 1520.0
0.916000008583 -0.0750000029802 0.0309999994934 1545.0
0.916000008583 -0.0799999982119 0.0309999994934 1537.0
0.917999982834 -0.0860000029206 0.0309999994934 1531.0
0.915000021458 -0.0909999981523 0.0309999994934 1516.0
0.915000021458 -0.0960000008345 0.0309999994934 1492.0
0.910000026226 -0.101000003517 0.0309999994934 1489.0
0.916000008583 -0.107000000775 0.0309999994934 1492.0
0.912999987602 -0.112000003457 0.0309999994934 1518.0
0.912999987602 -0.116999998689 0.0309999994934 1493.0
0.916999995708 -0.123000003397 0.0309999994934 1507.0
0.924000024796 -0.128999993205 0.0320000015199 1502.0
0.915000021458 -0.133000001311 0.0309999994934 1489.0
0.916999995708 -0.138999998569 0.0320000015199 1483.0
0.921000003815 -0.144999995828 0.0320000015199 1478.0
0.919000029564 -0.15000000596 0.0320000015199 1496.0
0.913999974728 -0.155000001192 0.0320000015199 1476.0
0.92199999094 -0.16099999845 0.0320000015199 1488.0
0.919000029564 -0.166999995708 0.0320000015199 1491.0
0.921000003815 -0.172000005841 0.0320000015199 1507.0
0.925000011921 -0.179000005126 0.0320000015199 1508.0
0.921000003815 -0.182999998331 0.0320000015199 1508.0
0.921000003815 -0.188999995589 0.0320000015199 1499.0
0.926999986172 -0.195999994874 0.0320000015199 1514.0
0.919000029564 -0.20000000298 0.0320000015199 1461.0
0.921000003815 -0.206000000238 0.0320000015199 1470.0
0.919000029564 -0.21099999547 0.0320000015199 1482.0
0.927999973297 -0.218999996781 0.0329999998212 1490.0
0.922999978065 -0.223000004888 0.0329999998212 1486.0
0.924000024796 -0.229000002146 0.0329999998212 1462.0
0.925000011921 -0.234999999404 0.0329999998212 1460.0
0.925999999046 -0.240999996662 0.0329999998212 1437.0
0.921000003815 -0.245000004768 0.0329999998212 1425.0
0.927999973297 -0.252999991179 0.0329999998212 1436.0
0.924000024796 -0.25799998641 0.0329999998212 1433.0
0.926999986172 -0.264999985695 0.0329999998212 1449.0
0.924000024796 -0.268999993801 0.0329999998212 1427.0
0.929000020027 -0.277000010014 0.0340000018477 1423.0
0.924000024796 -0.280999988317 0.0329999998212 1417.0
0.933000028133 -0.289999991655 0.0340000018477 1444.0
0.926999986172 -0.293999999762 0.0340000018477 1427.0
0.929000020027 -0.300999999046 0.0340000018477 1428.0
0.933000028133 -0.307999998331 0.0340000018477 1405.0
0.930000007153 -0.312999993563 0.0340000018477 1410.0
0.931999981403 -0.319999992847 0.0340000018477 1387.0
0.934000015259 -0.326999992132 0.0340000018477 1379.0
0.929000020027 -0.331999987364 0.0340000018477 1404.0
0.931999981403 -0.338999986649 0.035000000149 1396.0
0.931999981403 -0.344999998808 0.035000000149 1393.0
0.934000015259 -0.351999998093 0.035000000149 1399.0
0.936999976635 -0.360000014305 0.035000000149 1388.0
0.934000015259 -0.365000009537 0.035000000149 1393.0
0.931999981403 -0.370999991894 0.035000000149 1381.0
0.93599998951 -0.379000008106 0.035000000149 1342.0
0.930000007153 -0.38299998641 0.035000000149 1333.0
0.933000028133 -0.389999985695 0.035000000149 1329.0
0.930000007153 -0.395999997854 0.035000000149 1317.0
0.934000015259 -0.404000014067 0.0359999984503 1332.0
0.936999976635 -0.412999987602 0.0359999984503 1334.0
0.931999981403 -0.416999995708 0.0359999984503 1319.0
0.936999976635 -0.425999999046 0.0359999984503 1312.0
0.939999997616 -0.433999985456 0.0359999984503 1294.0
0.93900001049 -0.441000014544 0.0359999984503 1261.0
0.931999981403 -0.444999992847 0.0359999984503 1270.0
0.933000028133 -0.451999992132 0.0359999984503 1272.0
0.936999976635 -0.46099999547 0.0370000004768 1261.0
0.97000002861 -0.485000014305 0.0379999987781 836.0
1.47899997234 -0.753000020981 0.0590000003576 177.0
1.90400004387 -0.986000001431 0.0769999995828 182.0
1.90799999237 -1.00300002098 0.0780000016093 201.0
1.90199995041 -1.01499998569 0.0780000016093 195.0
1.86800003052 -1.01199996471 0.0769999995828 200.0
1.41199994087 -0.774999976158 0.0579999983311 298.0
1.30799996853 -0.727999985218 0.0540000014007 764.0
3.70300006866 2.09400010109 0.111000001431 98.0
3.6930000782 2.05900001526 0.111000001431 145.0
3.71700000763 2.04200005531 0.111000001431 143.0
3.74300003052 2.02600002289 0.112000003457 136.0
3.76699995995 2.00900006294 0.112000003457 129.0
3.73399996758 1.9620000124 0.111000001431 121.0
3.79200005531 1.96300005913 0.112999998033 117.0
3.76200008392 1.91799998283 0.112000003457 123.0
3.78800010681 1.90199995041 0.112000003457 125.0
3.83200001717 1.89499998093 0.112999998033 121.0
3.79200005531 1.84599995613 0.112000003457 121.0
3.80100011826 1.8220000267 0.112000003457 119.0
3.78099989891 1.7840000391 0.111000001431 123.0
3.80200004578 1.76499998569 0.112000003457 116.0
3.78999996185 1.73199999332 0.111000001431 119.0
3.79399991035 1.70599997044 0.111000001431 111.0
3.79600000381 1.67900002003 0.111000001431 120.0
3.83299994469 1.66799998283 0.112000003457 110.0
3.83400011063 1.64100003242 0.112000003457 113.0
3.82500004768 1.61000001431 0.112000003457 113.0
3.84100008011 1.59000003338 0.112000003457 121.0
3.84500002861 1.56400001049 0.112000003457 133.0
3.84100008011 1.53600001335 0.112000003457 132.0
3.84100008011 1.50899994373 0.111000001431 138.0
3.76399993896 1.45299994946 0.108999997377 102.0
0.879999995232 0.135000005364 0.0240000002086 686.0
0.896000027657 0.131999999285 0.0240000002086 1683.0
0.898999989033 0.12800000608 0.0240000002086 1767.0
0.896000027657 0.122000001371 0.0240000002086 1739.0
0.90600001812 0.118000000715 0.0250000003725 1660.0
0.903999984264 0.112000003457 0.0250000003725 1703.0
0.898000001907 0.105999998748 0.0240000002086 1721.0
0.903999984264 0.101999998093 0.0250000003725 1666.0
0.901000022888 0.0960000008345 0.0240000002086 1653.0
0.90600001812 0.0920000001788 0.0250000003725 1639.0
0.901000022888 0.0860000029206 0.0240000002086 1628.0
0.901000022888 0.0810000002384 0.0250000003725 1601.0
0.901000022888 0.0750000029802 0.0250000003725 1635.0
0.902999997139 0.070000000298 0.0250000003725 1605.0
0.902000010014 0.0649999976158 0.0250000003725 1583.0
0.903999984264 0.0599999986589 0.0250000003725 1585.0
0.901000022888 0.054999999702 0.0250000003725 1591.0
0.902999997139 0.0500000007451 0.0250000003725 1581.0
0.90600001812 0.0450000017881 0.0250000003725 1573.0
0.899999976158 0.0390000008047 0.0250000003725 1545.0
0.911000013351 0.0340000018477 0.0250000003725 1566.0
0.907999992371 0.0289999991655 0.0250000003725 1624.0
0.908999979496 0.0240000002086 0.0250000003725 1638.0
0.910000026226 0.0189999993891 0.0250000003725 1636.0
0.908999979496 0.0130000002682 0.0250000003725 1622.0
0.90600001812 0.00800000037998 0.0250000003725 1603.0
0.907999992371 0.00300000002608 0.0250000003725 1593.0
0.908999979496 -0.0010000000475 0.0250000003725 1612.0
0.908999979496 -0.00600000005215 0.0250000003725 1556.0
0.90600001812 -0.0109999999404 0.0250000003725 1552.0
0.911000013351 -0.0170000009239 0.0250000003725 1575.0
0.913999974728 -0.0219999998808 0.0250000003725 1593.0
0.915000021458 -0.0270000007004 0.0250000003725 1547.0
0.912999987602 -0.0329999998212 0.0250000003725 1570.0
0.912000000477 -0.0379999987781 0.0250000003725 1554.0
0.910000026226 -0.0430000014603 0.0250000003725 1534.0
0.907999992371 -0.0480000004172 0.0250000003725 1523.0
0.913999974728 -0.0540000014007 0.0260000005364 1489.0
0.915000021458 -0.0590000003576 0.0260000005364 1524.0
0.916000008583 -0.0640000030398 0.0260000005364 1541.0
0.912000000477 -0.0689999982715 0.0260000005364 1526.0
0.911000013351 -0.0740000009537 0.0260000005364 1542.0
0.912999987602 -0.0799999982119 0.0260000005364 1518.0
0.916999995708 -0.0850000008941 0.0260000005364 1542.0
0.913999974728 -0.0900000035763 0.0260000005364 1513.0
0.913999974728 -0.0960000008345 0.0260000005364 1517.0
0.916000008583 -0.101000003517 0.0260000005364 1509.0
0.919000029564 -0.107000000775 0.0260000005364 1515.0
0.912999987602 -0.112000003457 0.0260000005364 1511.0
0.915000021458 -0.116999998689 0.0260000005364 1527.0
0.915000021458 -0.123000003397 0.0260000005364 1502.0
0.921000003815 -0.128999993205 0.0260000005364 1509.0
0.92199999094 -0.134000003338 0.0260000005364 1519.0
0.916000008583 -0.138999998569 0.0260000005364 1498.0
0.920000016689 -0.144999995828 0.0260000005364 1475.0
0.921000003815 -0.15000000596 0.0260000005364 1501.0
0.916999995708 -0.155000001192 0.0260000005364 1495.0
0.915000021458 -0.159999996424 0.0260000005364 1481.0
0.921000003815 -0.166999995708 0.0270000007004 1498.0
0.920000016689 -0.172000005841 0.0270000007004 1494.0
0.922999978065 -0.178000003099 0.0270000007004 1498.0
0.917999982834 -0.182999998331 0.0270000007004 1520.0
0.926999986172 -0.189999997616 0.0270000007004 1521.0
0.92199999094 -0.194999992847 0.0270000007004 1538.0
0.919000029564 -0.20000000298 0.0270000007004 1473.0
0.920000016689 -0.204999998212 0.0270000007004 1481.0
0.919000029564 -0.21099999547 0.0270000007004 1505.0
0.925000011921 -0.217999994755 0.0270000007004 1483.0
0.922999978065 -0.223000004888 0.0270000007004 1474.0
0.925000011921 -0.229000002146 0.0270000007004 1466.0
0.925999999046 -0.234999999404 0.0270000007004 1454.0
0.925000011921 -0.240999996662 0.0270000007004 1456.0
0.921000003815 -0.245000004768 0.0270000007004 1440.0
0.916999995708 -0.25 0.0270000007004 1426.0
0.925999999046 -0.25799998641 0.0280000008643 1476.0
0.929000020027 -0.264999985695 0.0280000008643 1469.0
0.926999986172 -0.270000010729 0.0280000008643 1433.0
0.925000011921 -0.275999993086 0.0280000008643 1453.0
0.92199999094 -0.280999988317 0.0280000008643 1437.0
0.935000002384 -0.291000008583 0.0280000008643 1453.0
0.925000011921 -0.293000012636 0.0280000008643 1456.0
0.925999999046 -0.300000011921 0.0280000008643 1429.0
0.934000015259 -0.307999998331 0.0289999991655 1414.0
0.930000007153 -0.312999993563 0.0280000008643 1421.0
0.930000007153 -0.319000005722 0.0289999991655 1403.0
0.929000020027 -0.324999988079 0.0289999991655 1408.0
0.924000024796 -0.330000013113 0.0289999991655 1412.0
0.929000020027 -0.337999999523 0.0289999991655 1411.0
0.935000002384 -0.345999985933 0.0289999991655 1407.0
0.934000015259 -0.351999998093 0.0289999991655 1417.0
0.931999981403 -0.358000010252 0.0289999991655 1420.0
0.930999994278 -0.363999992609 0.0289999991655 1416.0
0.925999999046 -0.368000000715 0.0289999991655 1401.0
0.925999999046 -0.375 0.0289999991655 1357.0
0.930999994278 -0.38299998641 0.0289999991655 1352.0
0.934000015259 -0.391000002623 0.0299999993294 1356.0
0.940999984741 -0.400999993086 0.0299999993294 1316.0
0.93599998951 -0.405000001192 0.0299999993294 1313.0
0.927999973297 -0.407999992371 0.0299999993294 1332.0
0.935000002384 -0.418000012636 0.0299999993294 1331.0
0.936999976635 -0.425999999046 0.0299999993294 1332.0
0.939999997616 -0.433999985456 0.0299999993294 1294.0
0.93900001049 -0.441000014544 0.0309999994934 1299.0
0.93599998951 -0.446000009775 0.0309999994934 1295.0
0.943000018597 -0.456999987364 0.0309999994934 1269.0
0.941999971867 -0.462999999523 0.0309999994934 1258.0
0.97000002861 -0.485000014305 0.0320000015199 881.0
1.45599997044 -0.741999983788 0.0489999987185 192.0
1.89900004864 -0.98299998045 0.0649999976158 196.0
1.91900002956 -1.00899994373 0.0659999996424 198.0
1.88499999046 -1.00600004196 0.0649999976158 196.0
1.84899997711 -1.00100004673 0.0640000030398 194.0
1.41400003433 -0.776000022888 0.0489999987185 296.0
1.29600000381 -0.721000015736 0.0450000017881 785.0
3.77300000191 2.16499996185 0.0890000015497 89.0
3.73900008202 2.11400008202 0.0879999995232 100.0
3.70499992371 2.06500005722 0.0869999974966 161.0
3.71499991417 2.04099988937 0.0869999974966 155.0
3.68899989128 1.9960000515 0.0860000029206 149.0
3.75 2.0 0.0879999995232 139.0
3.73099994659 1.96000003815 0.0869999974966 135.0
3.77399992943 1.95299994946 0.0879999995232 132.0
3.79299998283 1.93299996853 0.0879999995232 133.0
3.79099988937 1.90299999714 0.0879999995232 134.0
3.77900004387 1.86800003052 0.0879999995232 132.0
3.77900004387 1.83899998665 0.0879999995232 134.0
3.76999998093 1.80700004101 0.0869999974966 135.0
3.75699996948 1.77199995518 0.0869999974966 125.0
3.81100010872 1.76900005341 0.0879999995232 143.0
3.80599999428 1.73899996281 0.0879999995232 133.0
3.78900003433 1.70399999619 0.0869999974966 137.0
3.81999993324 1.69000005722 0.0879999995232 134.0
3.82299995422 1.66400003433 0.0879999995232 134.0
3.84699988365 1.64600002766 0.0879999995232 125.0
3.867000103 1.62800002098 0.0890000015497 126.0
3.83699989319 1.58800005913 0.0879999995232 133.0
3.82100009918 1.55400002003 0.0879999995232 135.0
3.81900000572 1.52699995041 0.0869999974966 135.0
3.84800004959 1.51199996471 0.0879999995232 153.0
3.90899991989 1.50899994373 0.0890000015497 103.0
0.888000011444 0.136000007391 0.0189999993891 712.0
0.898999989033 0.133000001311 0.0189999993891 1719.0
0.898999989033 0.12800000608 0.0189999993891 1809.0
0.897000014782 0.122000001371 0.0189999993891 1755.0
0.898999989033 0.116999998689 0.0189999993891 1691.0
0.898000001907 0.112000003457 0.0189999993891 1697.0
0.899999976158 0.107000000775 0.0189999993891 1742.0
0.898999989033 0.101000003517 0.0189999993891 1687.0
0.897000014782 0.0960000008345 0.0189999993891 1682.0
0.899999976158 0.0909999981523 0.0189999993891 1658.0
0.899999976158 0.0860000029206 0.0189999993891 1637.0
0.901000022888 0.0810000002384 0.0189999993891 1626.0
0.901000022888 0.0750000029802 0.0189999993891 1642.0
0.901000022888 0.070000000298 0.0189999993891 1620.0
0.901000022888 0.0649999976158 0.0189999993891 1616.0
0.902999997139 0.0599999986589 0.0189999993891 1614.0
0.902999997139 0.054999999702 0.0189999993891 1618.0
0.902000010014 0.0500000007451 0.0189999993891 1598.0
0.903999984264 0.0439999997616 0.019999999553 1592.0
0.903999984264 0.0390000008047 0.019999999553 1582.0
0.899999976158 0.0340000018477 0.0189999993891 1569.0
0.90499997139 0.0289999991655 0.019999999553 1636.0
0.903999984264 0.0240000002086 0.019999999553 1666.0
0.90499997139 0.0189999993891 0.019999999553 1652.0
0.907000005245 0.0130000002682 0.019999999553 1624.0
0.902000010014 0.00800000037998 0.019999999553 1618.0
0.912000000477 0.00300000002608 0.019999999553 1623.0
0.907999992371 -0.0010000000475 0.019999999553 1629.0
0.908999979496 -0.00600000005215 0.019999999553 1608.0
0.910000026226 -0.0120000001043 0.019999999553 1594.0
0.910000026226 -0.0170000009239 0.019999999553 1572.0
0.90600001812 -0.0219999998808 0.019999999553 1583.0
0.908999979496 -0.0270000007004 0.019999999553 1583.0
0.907000005245 -0.0320000015199 0.019999999553 1560.0
0.90600001812 -0.0370000004768 0.019999999553 1563.0
0.912999987602 -0.0430000014603 0.019999999553 1547.0
0.912000000477 -0.0480000004172 0.019999999553 1524.0
0.913999974728 -0.0540000014007 0.019999999553 1503.0
0.912000000477 -0.0590000003576 0.019999999553 1526.0
0.916999995708 -0.0640000030398 0.019999999553 1545.0
0.910000026226 -0.0689999982715 0.019999999553 1541.0
0.912999987602 -0.0750000029802 0.019999999553 1542.0
0.916000008583 -0.0799999982119 0.019999999553 1538.0
0.915000021458 -0.0850000008941 0.019999999553 1556.0
0.912000000477 -0.0900000035763 0.019999999553 1558.0
0.917999982834 -0.0960000008345 0.0209999997169 1542.0
0.913999974728 -0.101000003517 0.0209999997169 1535.0
0.917999982834 -0.107000000775 0.0209999997169 1546.0
0.912000000477 -0.111000001431 0.0209999997169 1546.0
0.917999982834 -0.118000000715 0.0209999997169 1535.0
0.920000016689 -0.123000003397 0.0209999997169 1523.0
0.916000008583 -0.12800000608 0.0209999997169 1528.0
0.920000016689 -0.134000003338 0.0209999997169 1529.0
0.917999982834 -0.138999998569 0.0209999997169 1508.0
0.916999995708 -0.143999993801 0.0209999997169 1507.0
0.916999995708 -0.15000000596 0.0209999997169 1493.0
0.915000021458 -0.155000001192 0.0209999997169 1498.0
0.916999995708 -0.16099999845 0.0209999997169 1488.0
0.921000003815 -0.166999995708 0.0209999997169 1497.0
0.919000029564 -0.172000005841 0.0209999997169 1496.0
0.919000029564 -0.177000001073 0.0209999997169 1498.0
0.920000016689 -0.182999998331 0.0209999997169 1525.0
0.919000029564 -0.187999993563 0.0209999997169 1533.0
0.921000003815 -0.194000005722 0.0209999997169 1541.0
0.922999978065 -0.201000005007 0.0219999998808 1461.0
0.925000011921 -0.206000000238 0.0219999998808 1488.0
0.921000003815 -0.21099999547 0.0219999998808 1498.0
0.920000016689 -0.216999992728 0.0219999998808 1480.0
0.92199999094 -0.223000004888 0.0219999998808 1490.0
0.925999999046 -0.229000002146 0.0219999998808 1495.0
0.924000024796 -0.234999999404 0.0219999998808 1474.0
0.922999978065 -0.239999994636 0.0219999998808 1467.0
0.921000003815 -0.245000004768 0.0219999998808 1453.0
0.924000024796 -0.252000004053 0.0219999998808 1458.0
0.922999978065 -0.25799998641 0.0219999998808 1487.0
0.927999973297 -0.264999985695 0.0219999998808 1496.0
0.927999973297 -0.270999997854 0.0219999998808 1475.0
0.925000011921 -0.275999993086 0.0219999998808 1459.0
0.924000024796 -0.280999988317 0.0219999998808 1467.0
0.929000020027 -0.28900000453 0.0230000000447 1484.0
0.925000011921 -0.293999999762 0.0230000000447 1469.0
0.929000020027 -0.300999999046 0.0230000000447 1456.0
0.929000020027 -0.307000011206 0.0230000000447 1430.0
0.933000028133 -0.31400001049 0.0230000000447 1435.0
0.926999986172 -0.319000005722 0.0230000000447 1432.0
0.930000007153 -0.326000005007 0.0230000000447 1428.0
0.925999999046 -0.330000013113 0.0230000000447 1429.0
0.929000020027 -0.337999999523 0.0230000000447 1434.0
0.930999994278 -0.344999998808 0.0230000000447 1436.0
0.933000028133 -0.351999998093 0.0230000000447 1423.0
0.934000015259 -0.358000010252 0.0240000002086 1423.0
0.930999994278 -0.363999992609 0.0240000002086 1409.0
0.926999986172 -0.368000000715 0.0230000000447 1397.0
0.929000020027 -0.375999987125 0.0240000002086 1383.0
0.926999986172 -0.381999999285 0.0240000002086 1373.0
0.930000007153 -0.388999998569 0.0240000002086 1369.0
0.934000015259 -0.397000014782 0.0240000002086 1328.0
0.936999976635 -0.405999988317 0.0240000002086 1339.0
0.93900001049 -0.412999987602 0.0240000002086 1356.0
0.93599998951 -0.418999999762 0.0240000002086 1345.0
0.938000023365 -0.426999986172 0.0240000002086 1343.0
0.934000015259 -0.432000011206 0.0240000002086 1296.0
0.936999976635 -0.439999997616 0.0250000003725 1309.0
0.938000023365 -0.446999996901 0.0250000003725 1312.0
0.930999994278 -0.451000005007 0.0250000003725 1283.0
0.93900001049 -0.462000012398 0.0250000003725 1266.0
0.962999999523 -0.481000006199 0.0260000005364 906.0
1.44000005722 -0.73299998045 0.0399999991059 208.0
1.94500005245 -1.00699996948 0.0540000014007 204.0
1.86899995804 -0.981999993324 0.0520000010729 200.0
1.90600001812 -1.01699995995 0.0540000014007 192.0
1.84700000286 -1.0 0.0520000010729 208.0
1.44200003147 -0.791000008583 0.0399999991059 312.0
1.30499994755 -0.726000010967 0.0370000004768 785.0
3.64499998093 2.09100008011 0.0619999989867 97.0
3.74499988556 2.11800003052 0.0640000030398 131.0
3.69499993324 2.05900001526 0.0630000010133 179.0
3.69600009918 2.02999997139 0.0630000010133 183.0
3.73399996758 2.01999998093 0.0640000030398 164.0
3.74099993706 1.99500000477 0.0640000030398 144.0
3.82699990273 2.00999999046 0.0649999976158 144.0
3.71199989319 1.92100000381 0.0630000010133 138.0
3.76300001144 1.91799998283 0.0640000030398 135.0
3.77399992943 1.89400005341 0.0640000030398 131.0
3.77999997139 1.86800003052 0.0640000030398 138.0
3.75699996948 1.82799994946 0.0630000010133 140.0
3.77900004387 1.81099998951 0.0640000030398 146.0
3.74799990654 1.76800000668 0.0630000010133 143.0
3.79399991035 1.76100003719 0.0640000030398 146.0
3.74900007248 1.71300005913 0.0630000010133 141.0
3.75999999046 1.69000005722 0.0630000010133 137.0
3.81599998474 1.68700003624 0.0640000030398 136.0
3.78200006485 1.64600002766 0.0640000030398 136.0
3.88700008392 1.6629999876 0.0649999976158 132.0
3.8069999218 1.60199999809 0.0640000030398 136.0
3.84699988365 1.59200000763 0.0649999976158 144.0
3.82399988174 1.55499994755 0.0640000030398 143.0
3.82899999619 1.53100001812 0.0640000030398 145.0
3.85100007057 1.51300001144 0.0649999976158 148.0
3.88199996948 1.49800002575 0.0649999976158 105.0
4.32899999619 1.58200001717 0.0729999989271 64.0
0.889999985695 0.136999994516 0.0140000004321 756.0
0.896000027657 0.131999999285 0.0140000004321 1743.0
0.901000022888 0.12800000608 0.0140000004321 1813.0
0.901000022888 0.123000003397 0.0140000004321 1794.0
0.902000010014 0.116999998689 0.0140000004321 1741.0
0.90499997139 0.112000003457 0.0140000004321 1672.0
0.894999980927 0.105999998748 0.0140000004321 1786.0
0.898999989033 0.101000003517 0.0140000004321 1745.0
0.899999976158 0.0960000008345 0.0140000004321 1709.0
0.898999989033 0.0909999981523 0.0140000004321 1683.0
0.902999997139 0.0860000029206 0.0140000004321 1647.0
0.902999997139 0.0810000002384 0.0140000004321 1641.0
0.898999989033 0.0750000029802 0.0140000004321 1644.0
0.907000005245 0.0710000023246 0.0140000004321 1631.0
0.903999984264 0.0649999976158 0.0140000004321 1625.0
0.90499997139 0.0599999986589 0.0140000004321 1639.0
0.903999984264 0.054999999702 0.0140000004321 1639.0
0.902999997139 0.0500000007451 0.0140000004321 1614.0
0.90600001812 0.0450000017881 0.0140000004321 1617.0
0.903999984264 0.0390000008047 0.0140000004321 1607.0
0.908999979496 0.0340000018477 0.0140000004321 1571.0
0.90499997139 0.0289999991655 0.0140000004321 1615.0
0.902999997139 0.0240000002086 0.0140000004321 1668.0
0.90600001812 0.0189999993891 0.0140000004321 1663.0
0.907000005245 0.0130000002682 0.0149999996647 1655.0
0.90600001812 0.00800000037998 0.0149999996647 1639.0
0.908999979496 0.00300000002608 0.0149999996647 1652.0
0.907999992371 -0.0010000000475 0.0149999996647 1643.0
0.907000005245 -0.00600000005215 0.0149999996647 1615.0
0.902999997139 -0.0109999999404 0.0149999996647 1604.0
0.908999979496 -0.0170000009239 0.0149999996647 1604.0
0.908999979496 -0.0219999998808 0.0149999996647 1595.0
0.907999992371 -0.0270000007004 0.0149999996647 1592.0
0.913999974728 -0.0329999998212 0.0149999996647 1575.0
0.913999974728 -0.0379999987781 0.0149999996647 1563.0
0.908999979496 -0.0430000014603 0.0149999996647 1543.0
0.915000021458 -0.0480000004172 0.0149999996647 1549.0
0.911000013351 -0.0529999993742 0.0149999996647 1530.0
0.912999987602 -0.0590000003576 0.0149999996647 1516.0
0.916999995708 -0.0640000030398 0.0149999996647 1554.0
0.912000000477 -0.0689999982715 0.0149999996647 1556.0
0.912999987602 -0.0750000029802 0.0149999996647 1561.0
0.916000008583 -0.0799999982119 0.0149999996647 1552.0
0.916000008583 -0.0850000008941 0.0149999996647 1565.0
0.913999974728 -0.0909999981523 0.0149999996647 1578.0
0.916000008583 -0.0960000008345 0.0149999996647 1552.0
0.917999982834 -0.101999998093 0.0149999996647 1556.0
0.913999974728 -0.105999998748 0.0149999996647 1558.0
0.915000021458 -0.112000003457 0.0149999996647 1565.0
0.916999995708 -0.116999998689 0.0149999996647 1551.0
0.915000021458 -0.123000003397 0.0149999996647 1544.0
0.916999995708 -0.12800000608 0.01600000076 1547.0
0.917999982834 -0.134000003338 0.01600000076 1546.0
0.916000008583 -0.138999998569 0.01600000076 1517.0
0.920000016689 -0.144999995828 0.01600000076 1533.0
0.915000021458 -0.15000000596 0.01600000076 1543.0
0.917999982834 -0.155000001192 0.01600000076 1524.0
0.917999982834 -0.16099999845 0.01600000076 1508.0
0.92199999094 -0.166999995708 0.01600000076 1508.0
0.917999982834 -0.172000005841 0.01600000076 1507.0
0.920000016689 -0.178000003099 0.01600000076 1496.0
0.920000016689 -0.182999998331 0.01600000076 1513.0
0.922999978065 -0.188999995589 0.01600000076 1558.0
0.921000003815 -0.194999992847 0.01600000076 1541.0
0.922999978065 -0.201000005007 0.01600000076 1480.0
0.92199999094 -0.206000000238 0.01600000076 1511.0
0.924000024796 -0.211999997497 0.01600000076 1503.0
0.925999999046 -0.217999994755 0.01600000076 1477.0
