ply
format ascii 1.0
element vertex 908
property float x
property float y
property float z
property float intensity
end_header
4.875 1.01300001144 -0.782000005245 120.0
4.85099983215 0.977999985218 -0.777999997139 128.0
4.89200019836 0.955999970436 -0.782999992371 115.0
4.92999982834 0.934000015259 -0.787999987602 121.0
4.91800022125 0.902000010014 -0.786000013351 116.0
4.90299987793 0.870000004768 -0.782000005245 122.0
4.91599988937 0.842000007629 -0.783999979496 119.0
0.00800000037998 0.00200000009499 -0.0010000000475 112.0
4.92299985886 0.783999979496 -0.782999992371 118.0
4.93200016022 0.755999982357 -0.783999979496 115.0
4.95699977875 0.730000019073 -0.787000000477 116.0
4.9310002327 0.697000026703 -0.782000005245 119.0
4.94299983978 0.670000016689 -0.783999979496 120.0
4.97599983215 0.643999993801 -0.787999987602 120.0
4.97499990463 0.615000009537 -0.787000000477 118.0
4.95900011063 0.583999991417 -0.783999979496 120.0
4.98500013351 0.556999981403 -0.787999987602 118.0
4.98299980164 0.527999997139 -0.787000000477 119.0
4.99100017548 0.499000012875 -0.787999987602 117.0
4.98199987411 0.469000011683 -0.786000013351 122.0
4.97399997711 0.43900001049 -0.783999979496 110.0
0.0630000010133 0.00600000005215 -0.00999999977648 82.0
0.097999997437 0.00899999961257 -0.0149999996647 79.0
0.0930000022054 0.00800000037998 -0.0140000004321 84.0
0.0489999987185 0.00499999988824 -0.00800000037998 76.0
0.118000000715 0.00800000037998 -0.0179999992251 79.0
0.103000000119 0.00700000021607 -0.01600000076 82.0
0.101999998093 0.00600000005215 -0.01600000076 82.0
0.162000000477 0.00800000037998 -0.0250000003725 90.0
0.115000002086 0.00600000005215 -0.0179999992251 89.0
0.0890000015497 0.00400000018999 -0.0140000004321 83.0
0.105999998748 0.00400000018999 -0.01600000076 80.0
0.0740000009537 0.00300000002608 -0.0109999999404 73.0
0.111000001431 0.00300000002608 -0.0170000009239 79.0
0.119000002742 0.00200000009499 -0.0189999993891 76.0
0.0949999988079 0.00200000009499 -0.0149999996647 73.0
0.0520000010729 0.0010000000475 -0.00800000037998 72.0
0.0920000001788 0.0010000000475 -0.0140000004321 71.0
0.0670000016689 0.0010000000475 -0.00999999977648 66.0
0.929000020027 -0.0179999992251 -0.144999995828 408.0
0.98400002718 -0.0250000003725 -0.153999999166 980.0
0.860000014305 -0.0270000007004 -0.134000003338 279.0
0.754999995232 -0.0270000007004 -0.118000000715 186.0
0.730000019073 -0.0309999994934 -0.11400000006 183.0
0.757000029087 -0.0359999984503 -0.118000000715 186.0
0.73299998045 -0.0390000008047 -0.115000002086 184.0
0.739000022411 -0.0439999997616 -0.115999996662 186.0
0.73400002718 -0.0480000004172 -0.115000002086 185.0
0.759999990463 -0.0540000014007 -0.119000002742 188.0
0.736999988556 -0.0570000000298 -0.115000002086 201.0
0.758000016212 -0.0630000010133 -0.119000002742 193.0
0.777999997139 -0.0689999982715 -0.122000001371 195.0
0.746999979019 -0.070000000298 -0.116999998689 198.0
0.749000012875 -0.0750000029802 -0.116999998689 199.0
0.846000015736 -0.0900000035763 -0.133000001311 291.0
0.96899998188 -0.108999997377 -0.151999995112 1085.0
0.971000015736 -0.115000002086 -0.151999995112 1277.0
0.96899998188 -0.120999999344 -0.151999995112 1280.0
0.967999994755 -0.126000002027 -0.151999995112 1291.0
0.966000020504 -0.131999999285 -0.151999995112 1294.0
0.967999994755 -0.137999996543 -0.151999995112 1314.0
0.963999986649 -0.143000006676 -0.151999995112 1313.0
0.962000012398 -0.148000001907 -0.150999993086 1321.0
0.958999991417 -0.153999999166 -0.150999993086 1346.0
0.962000012398 -0.159999996424 -0.151999995112 1349.0
0.964999973774 -0.165999993682 -0.151999995112 1338.0
0.953999996185 -0.170000001788 -0.15000000596 1359.0
0.957000017166 -0.175999999046 -0.150999993086 1361.0
0.954999983311 -0.181999996305 -0.150999993086 1380.0
0.925999999046 -0.180999994278 -0.145999997854 680.0
0.731999993324 -0.146999999881 -0.115999996662 227.0
0.757000029087 -0.157000005245 -0.119999997318 218.0
0.741999983788 -0.158000007272 -0.118000000715 217.0
0.739000022411 -0.162000000477 -0.116999998689 221.0
0.731999993324 -0.165000006557 -0.115999996662 224.0
0.757000029087 -0.175999999046 -0.119999997318 221.0
0.717999994755 -0.171000003815 -0.11400000006 223.0
0.73400002718 -0.179000005126 -0.116999998689 217.0
0.73299998045 -0.184000000358 -0.116999998689 223.0
0.757000029087 -0.194000005722 -0.120999999344 222.0
0.712000012398 -0.187000006437 -0.11400000006 230.0
0.736000001431 -0.197999998927 -0.118000000715 230.0
0.712999999523 -0.195999994874 -0.11400000006 232.0
0.879000008106 -0.247999995947 -0.141000002623 555.0
0.930000007153 -0.268999993801 -0.149000003934 1361.0
0.930000007153 -0.27500000596 -0.149000003934 1442.0
0.930999994278 -0.280999988317 -0.15000000596 1457.0
0.930000007153 -0.287000000477 -0.15000000596 1457.0
0.929000020027 -0.293000012636 -0.15000000596 1467.0
0.929000020027 -0.298999994993 -0.15000000596 1470.0
0.919000029564 -0.301999986172 -0.149000003934 1467.0
0.925999999046 -0.310000002384 -0.15000000596 1462.0
0.922999978065 -0.314999997616 -0.15000000596 1465.0
0.919000029564 -0.319999992847 -0.149000003934 1476.0
0.916999995708 -0.324999988079 -0.149000003934 1460.0
0.910000026226 -0.328999996185 -0.148000001907 1478.0
0.907999992371 -0.335000008345 -0.148000001907 1478.0
0.902000010014 -0.338999986649 -0.148000001907 1203.0
0.787000000477 -0.300000011921 -0.128999993205 344.0
0.688000023365 -0.266000002623 -0.112999998033 242.0
0.694999992847 -0.273999989033 -0.11400000006 231.0
0.680999994278 -0.273000001907 -0.112000003457 235.0
0.688000023365 -0.280999988317 -0.11400000006 239.0
0.677999973297 -0.282000005245 -0.112000003457 239.0
0.704999983311 -0.298000007868 -0.116999998689 226.0
0.67199999094 -0.28900000453 -0.112000003457 232.0
0.671000003815 -0.293000012636 -0.112000003457 232.0
0.672999978065 -0.298999994993 -0.112000003457 236.0
0.661000013351 -0.298000007868 -0.111000001431 235.0
0.658999979496 -0.301999986172 -0.111000001431 243.0
0.643999993801 -0.300000011921 -0.108000002801 243.0
0.864000022411 -0.411000013351 -0.145999997854 981.0
0.883000016212 -0.426999986172 -0.149000003934 1474.0
0.883000016212 -0.432999998331 -0.15000000596 1503.0
0.879000008106 -0.437999993563 -0.149000003934 1498.0
0.884000003338 -0.448000013828 -0.150999993086 1500.0
0.875 -0.449999988079 -0.149000003934 1505.0
0.870999991894 -0.455000013113 -0.149000003934 1535.0
0.871999979019 -0.462000012398 -0.15000000596 1513.0
0.875999987125 -0.470999985933 -0.150999993086 1502.0
0.867999970913 -0.474000006914 -0.15000000596 1521.0
0.870999991894 -0.483000010252 -0.150999993086 1519.0
0.869000017643 -0.488999992609 -0.150999993086 1517.0
0.832000017166 0.481999993324 -0.155000001192 712.0
0.847000002861 0.483999997377 -0.158000007272 720.0
0.837999999523 0.472000002861 -0.156000003219 761.0
0.850000023842 0.472000002861 -0.157000005245 773.0
0.851000010967 0.465000003576 -0.157000005245 789.0
0.85900002718 0.462999999523 -0.158000007272 796.0
0.85900002718 0.456000000238 -0.157000005245 805.0
0.865000009537 0.451999992132 -0.158000007272 800.0
0.867999970913 0.446999996901 -0.158000007272 799.0
0.870999991894 0.441000014544 -0.158000007272 808.0
0.870000004768 0.433999985456 -0.158000007272 795.0
0.871999979019 0.428999990225 -0.158000007272 783.0
0.869000017643 0.419999986887 -0.157000005245 763.0
0.878000020981 0.418000012636 -0.158000007272 765.0
0.865999996662 0.405999988317 -0.155000001192 735.0
0.861999988556 0.397000014782 -0.153999999166 714.0
0.85900002718 0.389999985695 -0.152999997139 685.0
0.85799998045 0.38299998641 -0.151999995112 661.0
0.862999975681 0.379000008106 -0.152999997139 641.0
0.848999977112 0.36700001359 -0.15000000596 609.0
0.847000002861 0.360000014305 -0.149000003934 582.0
0.838999986649 0.351000010967 -0.148000001907 557.0
0.830999970436 0.340999990702 -0.145999997854 518.0
0.824999988079 0.333000004292 -0.143999993801 487.0
0.810000002384 0.321000009775 -0.141000002623 444.0
0.787999987602 0.307000011206 -0.136999994516 416.0
0.795000016689 0.303999990225 -0.137999996543 389.0
0.76599997282 0.287999987602 -0.133000001311 364.0
0.740999996662 0.273000001907 -0.12800000608 324.0
0.72000002861 0.261000007391 -0.123999997973 298.0
0.707000017166 0.250999987125 -0.122000001371 270.0
0.639999985695 0.223000004888 -0.109999999404 236.0
0.620999991894 0.211999997497 -0.107000000775 219.0
0.527999997139 0.177000001073 -0.0909999981523 197.0
0.485000014305 0.158999994397 -0.082999996841 182.0
0.428000003099 0.137999996543 -0.0729999989271 168.0
0.402000010014 0.127000004053 -0.0680000036955 150.0
0.27500000596 0.0850000008941 -0.0469999983907 139.0
0.245000004768 0.0740000009537 -0.0419999994338 127.0
0.168999999762 0.0500000007451 -0.0289999991655 132.0
0.0109999999404 0.00300000002608 -0.00200000009499 133.0
4.74499988556 1.34300005436 -0.804000020027 138.0
4.73099994659 1.30799996853 -0.800000011921 137.0
4.67199993134 1.26300001144 -0.788999974728 139.0
4.73099994659 1.24899995327 -0.797999978065 131.0
0.0419999994338 0.0109999999404 -0.00700000021607 115.0
0.0270000007004 0.00700000021607 -0.00400000018999 115.0
4.85099983215 1.18900001049 -0.81400001049 134.0
4.86000013351 1.15999996662 -0.814999997616 133.0
4.85400009155 1.1289999485 -0.811999976635 127.0
4.86199998856 1.10099995136 -0.813000023365 123.0
4.87900018692 1.07400000095 -0.814999997616 119.0
4.88100004196 1.04499995708 -0.81400001049 120.0
4.88399982452 1.01499998569 -0.813000023365 114.0
4.89099979401 0.986999988556 -0.81400001049 108.0
4.90500020981 0.959999978542 -0.814999997616 110.0
0.0130000002682 0.00300000002608 -0.00200000009499 109.0
0.0130000002682 0.00300000002608 -0.00200000009499 103.0
0.0170000009239 0.00400000018999 -0.00300000002608 102.0
4.94000005722 0.847000002861 -0.816999971867 105.0
0.0460000000894 0.00800000037998 -0.00700000021607 106.0
0.0329999998212 0.00600000005215 -0.00499999988824 96.0
0.0149999996647 0.00300000002608 -0.00200000009499 101.0
0.0410000011325 0.00700000021607 -0.00700000021607 95.0
0.035000000149 0.00600000005215 -0.00600000005215 99.0
0.0309999994934 0.00499999988824 -0.00499999988824 96.0
0.0460000000894 0.00700000021607 -0.00700000021607 92.0
0.0529999993742 0.00800000037998 -0.00899999961257 90.0
0.0509999990463 0.00700000021607 -0.00800000037998 92.0
0.0750000029802 0.00899999961257 -0.0120000001043 97.0
0.0140000004321 0.00300000002608 -0.00200000009499 102.0
0.0379999987781 0.00499999988824 -0.00600000005215 108.0
0.0430000014603 0.00499999988824 -0.00700000021607 99.0
0.0240000002086 0.00300000002608 -0.00400000018999 96.0
0.0759999975562 0.00800000037998 -0.0120000001043 81.0
0.104999996722 0.00899999961257 -0.0170000009239 80.0
0.134000003338 0.0109999999404 -0.0219999998808 75.0
0.136000007391 0.00999999977648 -0.0219999998808 79.0
0.0900000035763 0.00700000021607 -0.0140000004321 84.0
0.0769999995828 0.00600000005215 -0.0120000001043 85.0
0.0520000010729 0.00400000018999 -0.00800000037998 85.0
0.0640000030398 0.00400000018999 -0.00999999977648 87.0
0.0610000006855 0.00400000018999 -0.00999999977648 85.0
0.0289999991655 0.00200000009499 -0.00499999988824 82.0
0.0599999986589 0.00300000002608 -0.00999999977648 74.0
0.0560000017285 0.00300000002608 -0.00899999961257 68.0
0.123000003397 0.00300000002608 -0.019999999553 75.0
0.0370000004768 0.00200000009499 -0.00600000005215 71.0
0.10000000149 0.00200000009499 -0.01600000076 72.0
0.0850000008941 0.0010000000475 -0.0140000004321 74.0
0.0649999976158 0.0010000000475 -0.00999999977648 73.0
0.101999998093 0.0 -0.01600000076 63.0
0.924000024796 -0.0179999992251 -0.15000000596 424.0
0.978999972343 -0.0250000003725 -0.158999994397 974.0
0.851000010967 -0.0260000005364 -0.137999996543 273.0
0.736000001431 -0.0270000007004 -0.119000002742 187.0
0.744000017643 -0.0309999994934 -0.120999999344 182.0
0.749000012875 -0.0359999984503 -0.122000001371 188.0
0.757000029087 -0.0410000011325 -0.123000003397 186.0
0.750999987125 -0.0450000017881 -0.122000001371 188.0
0.70300000906 -0.0460000000894 -0.11400000006 197.0
0.709999978542 -0.0500000007451 -0.115000002086 195.0
0.762000024319 -0.0590000003576 -0.123999997973 191.0
0.772000014782 -0.0640000030398 -0.125 189.0
0.731999993324 -0.0649999976158 -0.119000002742 197.0
0.740000009537 -0.070000000298 -0.119999997318 196.0
0.728999972343 -0.0729999989271 -0.119000002742 202.0
0.861999988556 -0.0920000001788 -0.140000000596 309.0
0.962999999523 -0.108999997377 -0.157000005245 1109.0
0.972000002861 -0.115000002086 -0.158000007272 1275.0
0.96899998188 -0.120999999344 -0.158000007272 1269.0
0.96899998188 -0.127000004053 -0.158000007272 1294.0
0.96899998188 -0.131999999285 -0.158000007272 1304.0
0.962999999523 -0.136999994516 -0.157000005245 1316.0
0.964999973774 -0.143000006676 -0.158000007272 1326.0
0.966000020504 -0.149000003934 -0.158000007272 1320.0
0.958999991417 -0.153999999166 -0.157000005245 1335.0
0.959999978542 -0.159999996424 -0.157000005245 1344.0
0.958000004292 -0.165000006557 -0.157000005245 1360.0
0.954999983311 -0.170000001788 -0.156000003219 1359.0
0.957000017166 -0.175999999046 -0.157000005245 1366.0
0.95300000906 -0.180999994278 -0.156000003219 1361.0
0.915000021458 -0.180000007153 -0.15000000596 637.0
0.763000011444 -0.153999999166 -0.125 224.0
0.740000009537 -0.152999997139 -0.122000001371 219.0
0.73400002718 -0.157000005245 -0.120999999344 216.0
0.737999975681 -0.162000000477 -0.120999999344 215.0
0.736999988556 -0.165999993682 -0.120999999344 224.0
0.72000002861 -0.166999995708 -0.119000002742 219.0
0.740000009537 -0.175999999046 -0.122000001371 220.0
0.713999986649 -0.173999994993 -0.118000000715 217.0
0.723999977112 -0.180999994278 -0.119999997318 223.0
0.735000014305 -0.188999995589 -0.122000001371 225.0
0.731000006199 -0.192000001669 -0.120999999344 219.0
0.725000023842 -0.194999992847 -0.119999997318 229.0
0.745000004768 -0.206000000238 -0.123999997973 228.0
0.880999982357 -0.248999997973 -0.146999999881 596.0
0.930999994278 -0.270000010729 -0.155000001192 1373.0
0.931999981403 -0.275999993086 -0.155000001192 1464.0
0.925999999046 -0.280000001192 -0.155000001192 1446.0
0.929000020027 -0.287000000477 -0.156000003219 1463.0
0.925999999046 -0.291999995708 -0.155000001192 1469.0
0.919000029564 -0.296000003815 -0.153999999166 1461.0
0.921000003815 -0.303000003099 -0.155000001192 1476.0
0.920000016689 -0.308999985456 -0.155000001192 1472.0
0.917999982834 -0.31400001049 -0.155000001192 1482.0
0.916000008583 -0.319000005722 -0.155000001192 1471.0
0.917999982834 -0.326000005007 -0.155000001192 1463.0
0.911000013351 -0.330000013113 -0.153999999166 1474.0
0.912999987602 -0.337000012398 -0.155000001192 1490.0
0.896000027657 -0.33599999547 -0.151999995112 1154.0
0.763999998569 -0.291000008583 -0.129999995232 325.0
0.691999971867 -0.268000006676 -0.118000000715 236.0
0.713999986649 -0.282000005245 -0.122000001371 243.0
0.690999984741 -0.277999997139 -0.118000000715 237.0
0.683000028133 -0.279000014067 -0.116999998689 234.0
0.657000005245 -0.273000001907 -0.112999998033 231.0
0.671000003815 -0.284000009298 -0.115999996662 238.0
0.665000021458 -0.286000013351 -0.115000002086 234.0
0.671000003815 -0.293999999762 -0.115999996662 243.0
0.652999997139 -0.289999991655 -0.112999998033 239.0
0.657999992371 -0.29699999094 -0.11400000006 240.0
0.652999997139 -0.300000011921 -0.11400000006 236.0
0.684000015259 -0.319000005722 -0.119000002742 247.0
0.870000004768 -0.41400000453 -0.151999995112 1023.0
0.879000008106 -0.425000011921 -0.153999999166 1486.0
0.880999982357 -0.432999998331 -0.155000001192 1504.0
0.884999990463 -0.442000001669 -0.156000003219 1517.0
0.880999982357 -0.446999996901 -0.156000003219 1504.0
0.879000008106 -0.451999992132 -0.156000003219 1525.0
0.878000020981 -0.458999991417 -0.156000003219 1510.0
0.870000004768 -0.462000012398 -0.155000001192 1498.0
0.870000004768 -0.467999994755 -0.155000001192 1493.0
0.870999991894 -0.476000010967 -0.156000003219 1529.0
0.865000009537 -0.479999989271 -0.155000001192 1517.0
0.865999996662 -0.488000005484 -0.156000003219 1501.0
0.714999973774 0.41400000453 -0.137999996543 369.0
0.740000009537 0.423000007868 -0.143000006676 410.0
0.776000022888 0.437000006437 -0.149000003934 453.0
0.782999992371 0.435000002384 -0.15000000596 495.0
0.805999994278 0.441000014544 -0.153999999166 550.0
0.818000018597 0.441000014544 -0.156000003219 595.0
0.834999978542 0.442999988794 -0.158000007272 626.0
0.834999978542 0.437000006437 -0.158000007272 666.0
0.850000023842 0.437999993563 -0.159999996424 690.0
0.847999989986 0.430000007153 -0.159999996424 717.0
0.856000006199 0.428000003099 -0.16099999845 752.0
0.85900002718 0.42199999094 -0.16099999845 781.0
0.874000012875 0.423000007868 -0.163000002503 805.0
0.867999970913 0.41400000453 -0.162000000477 817.0
0.865999996662 0.405999988317 -0.16099999845 834.0
0.879999995232 0.405999988317 -0.163000002503 841.0
0.883000016212 0.400999993086 -0.163000002503 858.0
0.887000024319 0.395999997854 -0.163000002503 876.0
0.89099997282 0.391999989748 -0.16400000453 875.0
0.884000003338 0.381999999285 -0.162000000477 880.0
0.884000003338 0.375999987125 -0.162000000477 898.0
0.898000001907 0.375 -0.16400000453 891.0
0.893000006676 0.36700001359 -0.162000000477 901.0
0.897000014782 0.361999988556 -0.163000002503 901.0
0.888999998569 0.352999985218 -0.16099999845 889.0
0.893000006676 0.347999989986 -0.16099999845 899.0
0.899999976158 0.344999998808 -0.162000000477 890.0
0.902999997139 0.338999986649 -0.162000000477 878.0
0.898000001907 0.331000000238 -0.16099999845 860.0
0.901000022888 0.326999992132 -0.16099999845 865.0
0.902999997139 0.321000009775 -0.16099999845 851.0
0.902999997139 0.314999997616 -0.16099999845 827.0
0.903999984264 0.308999985456 -0.16099999845 829.0
0.896000027657 0.300999999046 -0.158999994397 817.0
0.894999980927 0.293999999762 -0.158999994397 780.0
0.901000022888 0.289999991655 -0.158999994397 759.0
0.898999989033 0.284000009298 -0.158999994397 754.0
0.901000022888 0.279000014067 -0.158999994397 711.0
0.902999997139 0.273000001907 -0.158999994397 692.0
0.901000022888 0.266999989748 -0.158000007272 658.0
0.888000011444 0.256999999285 -0.156000003219 639.0
0.884999990463 0.250999987125 -0.155000001192 609.0
0.874000012875 0.241999998689 -0.152999997139 577.0
0.865000009537 0.233999997377 -0.150999993086 548.0
0.867999970913 0.230000004172 -0.151999995112 519.0
0.867999970913 0.224000006914 -0.150999993086 487.0
0.862999975681 0.216999992728 -0.15000000596 470.0
0.851999998093 0.209000006318 -0.148000001907 442.0
0.82800000906 0.197999998927 -0.143999993801 418.0
0.834999978542 0.194999992847 -0.144999995828 392.0
0.833000004292 0.188999995589 -0.143999993801 372.0
0.820999979973 0.180999994278 -0.142000004649 348.0
0.827000021935 0.178000003099 -0.143000006676 321.0
0.795000016689 0.165999993682 -0.136999994516 302.0
0.786000013351 0.158999994397 -0.135000005364 285.0
0.763999998569 0.15000000596 -0.130999997258 268.0
0.800000011921 0.151999995112 -0.136999994516 288.0
0.791999995708 0.145999997854 -0.136000007391 296.0
0.790000021458 0.141000002623 -0.135000005364 290.0
0.778999984264 0.134000003338 -0.133000001311 254.0
0.712999999523 0.119000002742 -0.122000001371 219.0
0.614000022411 0.0989999994636 -0.104999996722 163.0
0.564999997616 0.0879999995232 -0.0960000008345 141.0
0.60900002718 0.0909999981523 -0.104000002146 149.0
0.54699999094 0.0780000016093 -0.0930000022054 147.0
0.51599997282 0.0710000023246 -0.0879999995232 128.0
0.570999979973 0.0750000029802 -0.097000002861 144.0
0.526000022888 0.0659999996424 -0.0890000015497 130.0
0.499000012875 0.0599999986589 -0.0850000008941 117.0
0.428000003099 0.0489999987185 -0.0729999989271 114.0
0.324999988079 0.0359999984503 -0.054999999702 120.0
0.273999989033 0.0289999991655 -0.0460000000894 125.0
0.238999992609 0.0240000002086 -0.0399999991059 119.0
0.287999987602 0.0270000007004 -0.0489999987185 101.0
0.280999988317 0.0240000002086 -0.0469999983907 96.0
0.296000003815 0.0240000002086 -0.0500000007451 90.0
0.289999991655 0.0219999998808 -0.0489999987185 91.0
0.291000008583 0.019999999553 -0.0489999987185 93.0
0.219999998808 0.0140000004321 -0.0370000004768 85.0
0.0540000014007 0.00400000018999 -0.00899999961257 79.0
0.0529999993742 0.00400000018999 -0.00899999961257 72.0
0.0640000030398 0.00400000018999 -0.0109999999404 84.0
0.0879999995232 0.00499999988824 -0.0149999996647 79.0
0.0729999989271 0.00400000018999 -0.0120000001043 78.0
0.0590000003576 0.00300000002608 -0.00999999977648 73.0
0.0659999996424 0.00300000002608 -0.0109999999404 72.0
0.0750000029802 0.00300000002608 -0.0120000001043 73.0
0.0260000005364 0.00200000009499 -0.00400000018999 69.0
0.0430000014603 0.00200000009499 -0.00700000021607 74.0
0.0680000036955 0.0010000000475 -0.0109999999404 73.0
0.0130000002682 0.00200000009499 -0.00200000009499 72.0
0.082999996841 0.0 -0.0140000004321 71.0
0.919000029564 -0.0179999992251 -0.155000001192 450.0
0.978999972343 -0.0250000003725 -0.165000006557 972.0
0.839999973774 -0.0260000005364 -0.141000002623 258.0
0.73299998045 -0.0270000007004 -0.123000003397 187.0
0.728999972343 -0.0309999994934 -0.123000003397 182.0
0.725000023842 -0.035000000149 -0.122000001371 191.0
0.71899998188 -0.0390000008047 -0.120999999344 192.0
0.748000025749 -0.0439999997616 -0.126000002027 183.0
0.757000029087 -0.0489999987185 -0.127000004053 186.0
0.759999990463 -0.0540000014007 -0.12800000608 188.0
0.763999998569 -0.0590000003576 -0.128999993205 195.0
0.717000007629 -0.0590000003576 -0.120999999344 190.0
0.745999991894 -0.0659999996424 -0.126000002027 195.0
0.762000024319 -0.0719999969006 -0.12800000608 197.0
0.751999974251 -0.0750000029802 -0.127000004053 200.0
0.867999970913 -0.0930000022054 -0.145999997854 324.0
0.962999999523 -0.108999997377 -0.162000000477 1128.0
0.971000015736 -0.115000002086 -0.16400000453 1275.0
0.96899998188 -0.120999999344 -0.16400000453 1298.0
0.962999999523 -0.126000002027 -0.163000002503 1287.0
0.959999978542 -0.130999997258 -0.162000000477 1298.0
0.962999999523 -0.136999994516 -0.163000002503 1312.0
0.963999986649 -0.143000006676 -0.163000002503 1326.0
0.962999999523 -0.149000003934 -0.163000002503 1325.0
0.959999978542 -0.153999999166 -0.163000002503 1335.0
0.963999986649 -0.159999996424 -0.163000002503 1344.0
0.959999978542 -0.165999993682 -0.163000002503 1340.0
0.957000017166 -0.171000003815 -0.163000002503 1358.0
0.961000025272 -0.177000001073 -0.163000002503 1352.0
0.954999983311 -0.181999996305 -0.162000000477 1355.0
0.911000013351 -0.179000005126 -0.155000001192 587.0
0.736000001431 -0.148000001907 -0.125 225.0
0.71899998188 -0.149000003934 -0.122000001371 219.0
0.71899998188 -0.153999999166 -0.123000003397 217.0
0.725000023842 -0.158999994397 -0.123999997973 217.0
0.722999989986 -0.163000002503 -0.123000003397 224.0
0.72000002861 -0.166999995708 -0.123000003397 220.0
0.73400002718 -0.17499999702 -0.126000002027 224.0
0.755999982357 -0.185000002384 -0.129999995232 218.0
0.722999989986 -0.180999994278 -0.123999997973 218.0
0.711000025272 -0.182999998331 -0.122000001371 219.0
0.693000018597 -0.181999996305 -0.119000002742 223.0
0.725000023842 -0.194999992847 -0.125 224.0
0.721000015736 -0.199000000954 -0.123999997973 224.0
0.894999980927 -0.254000008106 -0.153999999166 647.0
0.927999973297 -0.268999993801 -0.159999996424 1390.0
0.927999973297 -0.27500000596 -0.16099999845 1450.0
0.926999986172 -0.280999988317 -0.16099999845 1453.0
0.924000024796 -0.286000013351 -0.159999996424 1459.0
0.927999973297 -0.293000012636 -0.16099999845 1470.0
0.927999973297 -0.298999994993 -0.16099999845 1473.0
0.916999995708 -0.301999986172 -0.159999996424 1464.0
0.925999999046 -0.31099998951 -0.162000000477 1476.0
0.919000029564 -0.314999997616 -0.16099999845 1480.0
0.92199999094 -0.321999996901 -0.162000000477 1473.0
0.917999982834 -0.326000005007 -0.16099999845 1466.0
0.916000008583 -0.331999987364 -0.16099999845 1476.0
0.915000021458 -0.337999999523 -0.16099999845 1484.0
0.896000027657 -0.337000012398 -0.158000007272 1082.0
0.763000011444 -0.291000008583 -0.135000005364 314.0
0.702000021935 -0.273000001907 -0.123999997973 237.0
0.657000005245 -0.259999990463 -0.115999996662 241.0
0.684000015259 -0.27500000596 -0.120999999344 235.0
0.695999979973 -0.284999996424 -0.123999997973 234.0
0.691999971867 -0.287999987602 -0.123000003397 237.0
0.657999992371 -0.279000014067 -0.118000000715 242.0
0.671000003815 -0.28900000453 -0.119999997318 237.0
0.679000020027 -0.29699999094 -0.122000001371 233.0
0.661000013351 -0.293999999762 -0.119000002742 233.0
0.660000026226 -0.298999994993 -0.119000002742 235.0
0.649999976158 -0.298999994993 -0.116999998689 229.0
0.691999971867 -0.324000000954 -0.125 267.0
0.876999974251 -0.418000012636 -0.158999994397 1103.0
0.880999982357 -0.426999986172 -0.159999996424 1502.0
0.883000016212 -0.433999985456 -0.16099999845 1518.0
0.878000020981 -0.43900001049 -0.16099999845 1514.0
0.879000008106 -0.446000009775 -0.16099999845 1506.0
0.876999974251 -0.451999992132 -0.16099999845 1510.0
0.871999979019 -0.456000000238 -0.16099999845 1518.0
0.870000004768 -0.462000012398 -0.16099999845 1498.0
0.871999979019 -0.469999998808 -0.162000000477 1498.0
0.870000004768 -0.476000010967 -0.162000000477 1512.0
0.860000014305 -0.477999985218 -0.159999996424 1505.0
0.865000009537 -0.488000005484 -0.162000000477 1510.0
0.0610000006855 0.035000000149 -0.0120000001043 167.0
0.0810000002384 0.0450000017881 -0.01600000076 162.0
0.148000001907 0.082999996841 -0.0289999991655 166.0
0.187000006437 0.103000000119 -0.0370000004768 166.0
0.222000002861 0.120999999344 -0.0439999997616 176.0
0.305000007153 0.16400000453 -0.0599999986589 178.0
0.393999993801 0.209000006318 -0.0769999995828 192.0
0.448000013828 0.233999997377 -0.0879999995232 216.0
0.52999997139 0.273000001907 -0.103000000119 226.0
0.578999996185 0.293999999762 -0.112999998033 256.0
0.651000022888 0.324999988079 -0.126000002027 282.0
0.690999984741 0.340000003576 -0.134000003338 320.0
0.727999985218 0.352999985218 -0.141000002623 351.0
0.760999977589 0.363000005484 -0.146999999881 391.0
0.778999984264 0.365999996662 -0.15000000596 430.0
0.787999987602 0.363999992609 -0.150999993086 482.0
0.81400001049 0.370000004768 -0.156000003219 502.0
0.832000017166 0.372000008821 -0.158000007272 560.0
0.841000020504 0.370000004768 -0.159999996424 603.0
0.847999989986 0.36700001359 -0.16099999845 629.0
0.85900002718 0.365000009537 -0.162000000477 665.0
0.861999988556 0.361000001431 -0.163000002503 703.0
0.876999974251 0.361000001431 -0.165000006557 730.0
0.871999979019 0.352999985218 -0.16400000453 761.0
0.870000004768 0.345999985933 -0.163000002503 783.0
0.89099997282 0.347999989986 -0.166999995708 814.0
0.882000029087 0.337999999523 -0.165000006557 839.0
0.89200001955 0.33599999547 -0.165999993682 863.0
0.89200001955 0.330000013113 -0.165999993682 870.0
0.902000010014 0.326999992132 -0.166999995708 891.0
0.894999980927 0.319000005722 -0.165999993682 920.0
0.902999997139 0.314999997616 -0.166999995708 940.0
0.903999984264 0.310000002384 -0.166999995708 951.0
0.90499997139 0.303999990225 -0.166999995708 952.0
0.912999987602 0.300999999046 -0.167999997735 954.0
0.915000021458 0.294999986887 -0.167999997735 969.0
0.916999995708 0.289999991655 -0.167999997735 980.0
0.917999982834 0.284000009298 -0.167999997735 991.0
0.921000003815 0.279000014067 -0.167999997735 1009.0
0.917999982834 0.272000014782 -0.166999995708 991.0
0.92199999094 0.266999989748 -0.167999997735 999.0
0.925000011921 0.261999994516 -0.167999997735 1020.0
0.925999999046 0.256999999285 -0.167999997735 1018.0
0.925000011921 0.250999987125 -0.166999995708 1008.0
0.930000007153 0.246000006795 -0.167999997735 1011.0
0.931999981403 0.240999996662 -0.167999997735 1018.0
0.934000015259 0.234999999404 -0.167999997735 1000.0
0.934000015259 0.229000002146 -0.167999997735 1008.0
0.941999971867 0.225999996066 -0.168999999762 1012.0
0.934000015259 0.217999994755 -0.166999995708 1005.0
0.935000002384 0.211999997497 -0.167999997735 985.0
0.940999984741 0.208000004292 -0.167999997735 996.0
0.941999971867 0.202000007033 -0.167999997735 989.0
0.93599998951 0.194999992847 -0.166999995708 1000.0
0.93900001049 0.189999997616 -0.166999995708 1026.0
0.943000018597 0.185000002384 -0.167999997735 1012.0
0.948000013828 0.180999994278 -0.168999999762 1045.0
0.940999984741 0.173999994993 -0.166999995708 1109.0
0.943000018597 0.167999997735 -0.166999995708 1138.0
0.941999971867 0.162000000477 -0.166999995708 1131.0
0.950999975204 0.158000007272 -0.167999997735 1076.0
0.944000005722 0.150999993086 -0.166999995708 1006.0
0.941999971867 0.144999995828 -0.165999993682 972.0
0.938000023365 0.138999998569 -0.165999993682 994.0
0.945999979973 0.135000005364 -0.166999995708 999.0
0.943000018597 0.128999993205 -0.165999993682 951.0
0.949000000954 0.123999997973 -0.166999995708 1002.0
0.948000013828 0.118000000715 -0.166999995708 1003.0
0.949999988079 0.112999998033 -0.166999995708 942.0
0.945999979973 0.107000000775 -0.165999993682 907.0
0.941999971867 0.101000003517 -0.165000006557 856.0
0.93599998951 0.0949999988079 -0.16400000453 835.0
0.93900001049 0.0900000035763 -0.165000006557 794.0
0.939999997616 0.0839999988675 -0.165000006557 782.0
0.943000018597 0.0790000036359 -0.165000006557 774.0
0.941999971867 0.0729999989271 -0.165000006557 745.0
0.935000002384 0.0670000016689 -0.16400000453 735.0
0.931999981403 0.0619999989867 -0.163000002503 684.0
0.919000029564 0.054999999702 -0.16099999845 528.0
0.377999991179 0.0209999997169 -0.0659999996424 107.0
0.0529999993742 0.00400000018999 -0.00899999961257 81.0
0.0480000004172 0.00300000002608 -0.00800000037998 79.0
0.0890000015497 0.00499999988824 -0.0149999996647 79.0
0.0260000005364 0.00200000009499 -0.00400000018999 78.0
0.0219999998808 0.00200000009499 -0.00400000018999 82.0
0.123999997973 0.00400000018999 -0.0209999997169 75.0
0.0719999969006 0.00300000002608 -0.0120000001043 74.0
0.070000000298 0.00200000009499 -0.0120000001043 74.0
0.0469999983907 0.00200000009499 -0.00800000037998 75.0
0.0250000003725 0.00200000009499 -0.00400000018999 79.0
0.0520000010729 0.0010000000475 -0.00899999961257 76.0
0.0469999983907 0.0010000000475 -0.00800000037998 80.0
0.933000028133 -0.0179999992251 -0.163000002503 488.0
0.972999989986 -0.0250000003725 -0.170000001788 946.0
0.822000026703 -0.0250000003725 -0.143000006676 251.0
0.727999985218 -0.0260000005364 -0.127000004053 184.0
0.726999998093 -0.0309999994934 -0.127000004053 179.0
0.717999994755 -0.0340000018477 -0.125 186.0
0.725000023842 -0.0390000008047 -0.126000002027 183.0
0.71899998188 -0.0430000014603 -0.125 182.0
0.735000014305 -0.0480000004172 -0.12800000608 191.0
0.728999972343 -0.0520000010729 -0.127000004053 196.0
0.717999994755 -0.054999999702 -0.125 193.0
0.73299998045 -0.0610000006855 -0.12800000608 190.0
0.774999976158 -0.0689999982715 -0.135000005364 192.0
0.727999985218 -0.0689999982715 -0.127000004053 198.0
0.753000020981 -0.0759999975562 -0.130999997258 203.0
0.879000008106 -0.0939999967813 -0.153999999166 344.0
0.962999999523 -0.108999997377 -0.167999997735 1132.0
0.971000015736 -0.115999996662 -0.170000001788 1286.0
0.964999973774 -0.120999999344 -0.168999999762 1277.0
0.971000015736 -0.127000004053 -0.170000001788 1288.0
0.966000020504 -0.131999999285 -0.168999999762 1302.0
0.962999999523 -0.136999994516 -0.168999999762 1311.0
0.962999999523 -0.143000006676 -0.168999999762 1325.0
0.959999978542 -0.148000001907 -0.167999997735 1323.0
0.961000025272 -0.153999999166 -0.167999997735 1317.0
0.959999978542 -0.159999996424 -0.168999999762 1346.0
0.957000017166 -0.165000006557 -0.167999997735 1344.0
0.958000004292 -0.171000003815 -0.167999997735 1359.0
0.954999983311 -0.175999999046 -0.167999997735 1357.0
0.945999979973 -0.180000007153 -0.166999995708 1343.0
0.907000005245 -0.178000003099 -0.159999996424 551.0
0.763000011444 -0.153999999166 -0.134000003338 221.0
0.723999977112 -0.15000000596 -0.12800000608 210.0
0.744000017643 -0.158999994397 -0.130999997258 225.0
0.739000022411 -0.163000002503 -0.130999997258 219.0
0.725000023842 -0.16400000453 -0.12800000608 217.0
0.737999975681 -0.171000003815 -0.130999997258 217.0
0.726000010967 -0.172999992967 -0.128999993205 222.0
0.737999975681 -0.180999994278 -0.130999997258 226.0
0.725000023842 -0.181999996305 -0.128999993205 216.0
0.731000006199 -0.187999993563 -0.129999995232 226.0
0.749000012875 -0.197999998927 -0.133000001311 223.0
0.702000021935 -0.188999995589 -0.125 219.0
0.751999974251 -0.208000004292 -0.134000003338 225.0
0.898000001907 -0.254999995232 -0.16099999845 712.0
0.926999986172 -0.268999993801 -0.165999993682 1397.0
0.930000007153 -0.275999993086 -0.166999995708 1444.0
0.925999999046 -0.280999988317 -0.165999993682 1456.0
0.930999994278 -0.287999987602 -0.166999995708 1456.0
0.925999999046 -0.293000012636 -0.166999995708 1457.0
0.925999999046 -0.298999994993 -0.166999995708 1464.0
0.925999999046 -0.305000007153 -0.166999995708 1460.0
0.916999995708 -0.307999998331 -0.165999993682 1469.0
0.919000029564 -0.314999997616 -0.165999993682 1474.0
0.915000021458 -0.319999992847 -0.165999993682 1474.0
0.907999992371 -0.323000013828 -0.165000006557 1481.0
0.911000013351 -0.331000000238 -0.165999993682 1469.0
0.908999979496 -0.33599999547 -0.165999993682 1481.0
0.893999993801 -0.33599999547 -0.163000002503 1020.0
0.763000011444 -0.291999995708 -0.138999998569 309.0
0.666000008583 -0.259000003338 -0.122000001371 234.0
0.67199999094 -0.266000002623 -0.123000003397 233.0
0.676999986172 -0.272000014782 -0.123999997973 235.0
0.671000003815 -0.27500000596 -0.123999997973 235.0
0.695999979973 -0.289999991655 -0.128999993205 235.0
0.660000026226 -0.280000001192 -0.122000001371 241.0
0.666999995708 -0.287000000477 -0.123999997973 236.0
0.652000010014 -0.286000013351 -0.120999999344 243.0
0.676999986172 -0.301999986172 -0.126000002027 227.0
0.67199999094 -0.303999990225 -0.125 236.0
0.658999979496 -0.303000003099 -0.123000003397 241.0
0.717999994755 -0.33599999547 -0.135000005364 287.0
0.870000004768 -0.414999991655 -0.16400000453 1149.0
0.884000003338 -0.428000003099 -0.166999995708 1489.0
0.887000024319 -0.437000006437 -0.167999997735 1504.0
0.874000012875 -0.437000006437 -0.165999993682 1522.0
0.879000008106 -0.446999996901 -0.166999995708 1503.0
0.873000025749 -0.449999988079 -0.165999993682 1513.0
0.873000025749 -0.456999987364 -0.166999995708 1515.0
0.873000025749 -0.463999986649 -0.166999995708 1493.0
0.865999996662 -0.467000007629 -0.165999993682 1515.0
0.865999996662 -0.474000006914 -0.166999995708 1507.0
0.866999983788 -0.481999993324 -0.166999995708 1509.0
0.862999975681 -0.486999988556 -0.166999995708 1507.0
0.0280000008643 0.0149999996647 -0.00499999988824 167.0
0.00800000037998 0.00300000002608 -0.0010000000475 165.0
4.35400009155 2.46300005913 -0.898000001907 159.0
4.36899995804 2.43499994278 -0.898000001907 156.0
4.37699985504 2.40300011635 -0.897000014782 156.0
4.35200023651 2.35400009155 -0.888999998569 155.0
4.41300010681 2.35100007057 -0.898999989033 155.0
4.42500019073 2.32299995422 -0.898999989033 152.0
4.42500019073 2.28699994087 -0.896000027657 142.0
0.00700000021607 0.00300000002608 -0.0010000000475 138.0
0.0170000009239 0.00700000021607 -0.00300000002608 142.0
4.41300010681 2.1779999733 -0.885999977589 137.0
4.41200017929 2.14299988747 -0.883000016212 138.0
4.43699979782 2.12199997902 -0.884999990463 138.0
4.48600006104 2.11100006104 -0.893000006676 141.0
0.0450000017881 0.019999999553 -0.00899999961257 152.0
0.0670000016689 0.0299999993294 -0.0130000002682 152.0
0.189999997616 0.0850000008941 -0.0370000004768 155.0
0.202999994159 0.0890000015497 -0.0399999991059 158.0
0.238000005484 0.103000000119 -0.0460000000894 176.0
0.331999987364 0.141000002623 -0.0649999976158 182.0
0.381999999285 0.159999996424 -0.0740000009537 187.0
0.509999990463 0.209999993443 -0.0989999994636 200.0
0.564999997616 0.228000000119 -0.109999999404 219.0
0.596000015736 0.237000003457 -0.115000002086 245.0
0.674000024796 0.263000011444 -0.129999995232 280.0
0.699999988079 0.268000006676 -0.135000005364 307.0
0.730000019073 0.27500000596 -0.140000000596 345.0
0.776000022888 0.287000000477 -0.149000003934 361.0
0.790000021458 0.287000000477 -0.150999993086 406.0
0.825999975204 0.293999999762 -0.158000007272 438.0
0.834999978542 0.291999995708 -0.159999996424 477.0
0.853999972343 0.293000012636 -0.163000002503 507.0
0.850000023842 0.286000013351 -0.162000000477 547.0
0.873000025749 0.287999987602 -0.165999993682 571.0
0.871999979019 0.282000005245 -0.165000006557 600.0
0.878000020981 0.277999997139 -0.165999993682 644.0
0.89099997282 0.275999993086 -0.167999997735 684.0
0.888000011444 0.268999993801 -0.167999997735 713.0
0.893999993801 0.264999985695 -0.167999997735 743.0
0.907000005245 0.263000011444 -0.171000003815 773.0
0.907999992371 0.25799998641 -0.170000001788 815.0
0.907000005245 0.252000004053 -0.170000001788 835.0
0.913999974728 0.247999995947 -0.171000003815 849.0
0.911000013351 0.240999996662 -0.170000001788 870.0
0.915000021458 0.237000003457 -0.171000003815 906.0
0.924000024796 0.232999995351 -0.172000005841 920.0
0.925999999046 0.228000000119 -0.172000005841 935.0
0.930999994278 0.223000004888 -0.172999992967 961.0
0.925000011921 0.216000005603 -0.171000003815 974.0
0.926999986172 0.21099999547 -0.172000005841 984.0
0.935000002384 0.207000002265 -0.172999992967 1012.0
0.943000018597 0.202999994159 -0.173999994993 1031.0
0.936999976635 0.195999994874 -0.172999992967 1061.0
0.933000028133 0.188999995589 -0.172000005841 1100.0
0.93900001049 0.185000002384 -0.172999992967 1122.0
0.939999997616 0.179000005126 -0.172999992967 1159.0
0.944000005722 0.173999994993 -0.172999992967 1222.0
0.945999979973 0.168999999762 -0.173999994993 1264.0
0.949999988079 0.16400000453 -0.173999994993 1362.0
0.949000000954 0.158000007272 -0.173999994993 1390.0
0.953999996185 0.152999997139 -0.17499999702 1365.0
0.95300000906 0.146999999881 -0.173999994993 1395.0
0.954999983311 0.142000004649 -0.173999994993 1475.0
0.957000017166 0.136999994516 -0.17499999702 1484.0
0.952000021935 0.129999995232 -0.173999994993 1455.0
0.957000017166 0.125 -0.173999994993 1488.0
0.957000017166 0.119000002742 -0.173999994993 1568.0
0.961000025272 0.11400000006 -0.17499999702 1556.0
0.961000025272 0.108999997377 -0.17499999702 1568.0
0.961000025272 0.103000000119 -0.17499999702 1539.0
0.95300000906 0.0960000008345 -0.172999992967 1510.0
0.962000012398 0.0920000001788 -0.17499999702 1470.0
0.962999999523 0.0860000029206 -0.17499999702 1478.0
0.959999978542 0.0799999982119 -0.173999994993 1513.0
0.962000012398 0.0750000029802 -0.173999994993 1475.0
0.962000012398 0.0689999982715 -0.173999994993 1432.0
0.958000004292 0.0630000010133 -0.172999992967 1344.0
0.941999971867 0.0570000000298 -0.170000001788 1034.0
0.575999975204 0.0320000015199 -0.104000002146 142.0
0.104999996722 0.00600000005215 -0.0189999993891 87.0
0.0439999997616 0.00300000002608 -0.00800000037998 83.0
0.0219999998808 0.00200000009499 -0.00400000018999 78.0
0.0379999987781 0.00300000002608 -0.00700000021607 75.0
0.0329999998212 0.00200000009499 -0.00600000005215 83.0
0.0710000023246 0.00300000002608 -0.0130000002682 78.0
0.0469999983907 0.00200000009499 -0.00800000037998 77.0
0.0299999993294 0.00200000009499 -0.00499999988824 80.0
0.0419999994338 0.00200000009499 -0.00700000021607 76.0
0.0719999969006 0.0010000000475 -0.0130000002682 78.0
5.00299978256 -0.0529999993742 -0.902999997139 83.0
0.104000002146 0.0 -0.0179999992251 80.0
0.931999981403 -0.0179999992251 -0.167999997735 510.0
0.972000002861 -0.0250000003725 -0.17499999702 926.0
0.82800000906 -0.0260000005364 -0.149000003934 244.0
0.728999972343 -0.0260000005364 -0.130999997258 192.0
0.749000012875 -0.0320000015199 -0.135000005364 184.0
0.737999975681 -0.035000000149 -0.133000001311 192.0
0.726000010967 -0.0390000008047 -0.130999997258 187.0
0.730000019073 -0.0439999997616 -0.131999999285 195.0
0.735000014305 -0.0480000004172 -0.133000001311 187.0
0.735000014305 -0.0520000010729 -0.131999999285 194.0
0.730000019073 -0.0560000017285 -0.131999999285 192.0
0.727999985218 -0.0599999986589 -0.130999997258 194.0
0.727999985218 -0.0649999976158 -0.130999997258 192.0
0.73400002718 -0.0689999982715 -0.131999999285 196.0
0.746999979019 -0.0750000029802 -0.135000005364 194.0
0.882000029087 -0.0939999967813 -0.158999994397 363.0
0.966000020504 -0.108999997377 -0.17499999702 1158.0
0.961000025272 -0.115000002086 -0.173999994993 1276.0
0.967999994755 -0.120999999344 -0.17499999702 1276.0
0.961000025272 -0.126000002027 -0.173999994993 1295.0
0.964999973774 -0.131999999285 -0.17499999702 1289.0
0.967999994755 -0.137999996543 -0.17499999702 1312.0
0.963999986649 -0.143999993801 -0.17499999702 1321.0
0.959999978542 -0.149000003934 -0.173999994993 1313.0
0.958999991417 -0.153999999166 -0.173999994993 1335.0
0.955999970436 -0.158999994397 -0.173999994993 1339.0
0.952000021935 -0.16400000453 -0.172999992967 1349.0
0.954999983311 -0.171000003815 -0.173999994993 1350.0
0.953999996185 -0.175999999046 -0.173999994993 1348.0
0.953999996185 -0.181999996305 -0.173999994993 1320.0
0.885999977589 -0.173999994993 -0.16099999845 514.0
0.76599997282 -0.155000001192 -0.140000000596 216.0
0.721000015736 -0.15000000596 -0.131999999285 213.0
0.737999975681 -0.158000007272 -0.135000005364 219.0
0.731999993324 -0.16099999845 -0.134000003338 214.0
0.730000019073 -0.165000006557 -0.133000001311 220.0
0.736999988556 -0.171000003815 -0.135000005364 225.0
0.727999985218 -0.173999994993 -0.134000003338 224.0
0.708000004292 -0.172999992967 -0.129999995232 220.0
0.726999998093 -0.182999998331 -0.134000003338 223.0
0.725000023842 -0.187000006437 -0.133000001311 223.0
0.721000015736 -0.189999997616 -0.133000001311 222.0
0.722000002861 -0.194999992847 -0.133000001311 225.0
0.717000007629 -0.197999998927 -0.131999999285 232.0
0.902000010014 -0.256000012159 -0.166999995708 761.0
0.927999973297 -0.270000010729 -0.172000005841 1408.0
0.922999978065 -0.273999989033 -0.171000003815 1453.0
0.926999986172 -0.280999988317 -0.172000005841 1449.0
0.925999999046 -0.287000000477 -0.172000005841 1473.0
0.922999978065 -0.291999995708 -0.172000005841 1467.0
0.924000024796 -0.298000007868 -0.172000005841 1446.0
0.925999999046 -0.305000007153 -0.172999992967 1483.0
0.92199999094 -0.310000002384 -0.172000005841 1454.0
0.916999995708 -0.31400001049 -0.172000005841 1476.0
0.912999987602 -0.319000005722 -0.171000003815 1469.0
0.917999982834 -0.326999992132 -0.172999992967 1476.0
0.916999995708 -0.333000004292 -0.172999992967 1475.0
0.912999987602 -0.337999999523 -0.172000005841 1485.0
0.89099997282 -0.33599999547 -0.167999997735 943.0
0.722999989986 -0.277000010014 -0.136999994516 292.0
0.681999981403 -0.264999985695 -0.128999993205 235.0
0.693000018597 -0.273999989033 -0.131999999285 238.0
0.666999995708 -0.268999993801 -0.127000004053 243.0
0.665000021458 -0.273000001907 -0.127000004053 236.0
0.65499997139 -0.273000001907 -0.125 233.0
0.679000020027 -0.287999987602 -0.129999995232 241.0
0.649999976158 -0.280000001192 -0.125 237.0
0.657000005245 -0.287999987602 -0.126000002027 234.0
0.647000014782 -0.287999987602 -0.125 241.0
0.660000026226 -0.298999994993 -0.127000004053 242.0
0.657000005245 -0.301999986172 -0.127000004053 247.0
0.739000022411 -0.347000002861 -0.143000006676 323.0
0.871999979019 -0.416000008583 -0.170000001788 1210.0
0.887000024319 -0.430000007153 -0.172999992967 1502.0
0.879999995232 -0.433999985456 -0.172000005841 1500.0
0.878000020981 -0.439999997616 -0.172000005841 1506.0
0.874000012875 -0.444000005722 -0.172000005841 1508.0
0.873000025749 -0.451000005007 -0.172000005841 1518.0
0.875999987125 -0.458999991417 -0.172999992967 1507.0
0.869000017643 -0.462000012398 -0.172000005841 1495.0
0.869000017643 -0.469000011683 -0.172999992967 1506.0
0.870999991894 -0.477999985218 -0.173999994993 1501.0
0.865999996662 -0.481999993324 -0.172999992967 1496.0
0.861999988556 -0.486999988556 -0.172999992967 1507.0
4.29899978638 2.50699996948 -0.92199999094 164.0
4.30700016022 2.47399997711 -0.921000003815 149.0
4.29600000381 2.43300008774 -0.915000021458 146.0
4.32899999619 2.41499996185 -0.919000029564 153.0
4.37400007248 2.40400004387 -0.925999999046 149.0
4.37599992752 2.36999988556 -0.924000024796 145.0
4.37400007248 2.33299994469 -0.920000016689 156.0
4.39599990845 2.30999994278 -0.92199999094 152.0
4.40399980545 2.27900004387 -0.921000003815 143.0
0.00700000021607 0.00200000009499 -0.0010000000475 156.0
4.45599985123 2.23600006104 -0.925999999046 149.0
4.35400009155 2.15100002289 -0.902999997139 136.0
4.39300012589 2.13599991798 -0.907999992371 134.0
4.37799978256 2.09500002861 -0.902999997139 138.0
4.4279999733 2.08599996567 -0.910000026226 149.0
4.48299980164 2.07800006866 -0.919000029564 151.0
4.53499984741 2.0680000782 -0.926999986172 150.0
4.5 2.01900005341 -0.917999982834 144.0
4.53599977493 2.00200009346 -0.922999978065 149.0
4.5560002327 1.97699999809 -0.925000011921 154.0
4.56699991226 1.94900000095 -0.925000011921 143.0
4.55900001526 1.91199994087 -0.921000003815 142.0
4.60300016403 1.89800000191 -0.927999973297 136.0
4.57700014114 1.85500001907 -0.920000016689 133.0
4.59299993515 1.82899999619 -0.921000003815 125.0
4.61199998856 1.80400002003 -0.922999978065 131.0
4.60699987411 1.76999998093 -0.920000016689 128.0
4.64099979401 1.75100004673 -0.925000011921 130.0
4.65799999237 1.72500002384 -0.925999999046 129.0
4.65500020981 1.69200003147 -0.924000024796 132.0
4.6970000267 1.67499995232 -0.930000007153 124.0
4.69899988174 1.64400005341 -0.929000020027 121.0
0.0500000007451 0.0170000009239 -0.00999999977648 124.0
0.0540000014007 0.0179999992251 -0.00999999977648 126.0
0.0939999967813 0.0309999994934 -0.0179999992251 126.0
0.165000006557 0.0529999993742 -0.0320000015199 126.0
0.211999997497 0.0670000016689 -0.0410000011325 136.0
0.31400001049 0.097999997437 -0.0610000006855 139.0
0.381000012159 0.115999996662 -0.0740000009537 147.0
0.453999996185 0.135000005364 -0.0879999995232 165.0
0.379999995232 0.109999999404 -0.0740000009537 178.0
0.444000005722 0.126000002027 -0.0860000029206 189.0
0.503000020981 0.140000000596 -0.097000002861 202.0
0.555999994278 0.150999993086 -0.107000000775 210.0
0.65499997139 0.173999994993 -0.126000002027 243.0
0.736999988556 0.190999999642 -0.142000004649 266.0
0.76599997282 0.194000005722 -0.146999999881 291.0
0.788999974728 0.194000005722 -0.151999995112 318.0
0.815999984741 0.195999994874 -0.156000003219 347.0
0.822000026703 0.192000001669 -0.157000005245 370.0
0.851999998093 0.194000005722 -0.163000002503 391.0
0.861000001431 0.190999999642 -0.165000006557 426.0
0.867999970913 0.187000006437 -0.165999993682 457.0
0.879999995232 0.184000000358 -0.167999997735 483.0
0.898000001907 0.181999996305 -0.171000003815 522.0
0.894999980927 0.175999999046 -0.170000001788 553.0
0.902000010014 0.172000005841 -0.171000003815 596.0
0.915000021458 0.168999999762 -0.173999994993 626.0
0.911000013351 0.163000002503 -0.172999992967 679.0
0.925000011921 0.159999996424 -0.17499999702 743.0
0.926999986172 0.153999999166 -0.17499999702 813.0
0.934000015259 0.15000000596 -0.177000001073 880.0
0.927999973297 0.143999993801 -0.17499999702 916.0
0.93900001049 0.140000000596 -0.177000001073 980.0
0.936999976635 0.134000003338 -0.177000001073 1040.0
0.943000018597 0.128999993205 -0.178000003099 1065.0
0.944000005722 0.123999997973 -0.178000003099 1097.0
0.948000013828 0.118000000715 -0.178000003099 1139.0
0.950999975204 0.112999998033 -0.179000005126 1168.0
0.941999971867 0.105999998748 -0.177000001073 1191.0
0.95300000906 0.101999998093 -0.179000005126 1210.0
0.944999992847 0.0960000008345 -0.177000001073 1232.0
0.953999996185 0.0909999981523 -0.179000005126 1228.0
0.949000000954 0.0850000008941 -0.178000003099 1239.0
0.954999983311 0.0799999982119 -0.179000005126 1263.0
0.958999991417 0.0750000029802 -0.180000007153 1260.0
0.955999970436 0.0689999982715 -0.179000005126 1234.0
0.95300000906 0.0630000010133 -0.178000003099 1164.0
0.944000005722 0.0570000000298 -0.175999999046 919.0
0.532999992371 0.0299999993294 -0.0989999994636 126.0
0.0469999983907 0.00400000018999 -0.00800000037998 87.0
