ply
format ascii 1.0
element vertex 894
property float x
property float y
property float z
property float intensity
end_header
0.89200001955 0.0329999998212 -0.243000000715 1482.0
0.893999993801 0.0280000008643 -0.243000000715 1524.0
0.898000001907 0.0230000000447 -0.244000002742 1534.0
0.893000006676 0.0179999992251 -0.243000000715 1525.0
0.897000014782 0.0120000001043 -0.244000002742 1540.0
0.893000006676 0.00700000021607 -0.243000000715 1551.0
0.893999993801 0.00200000009499 -0.243000000715 1532.0
0.893999993801 -0.00300000002608 -0.243000000715 1542.0
0.902000010014 -0.00800000037998 -0.245000004768 1537.0
0.893999993801 -0.0130000002682 -0.243000000715 1540.0
0.889999985695 -0.0179999992251 -0.241999998689 1541.0
0.893000006676 -0.0240000002086 -0.243000000715 1554.0
0.89099997282 -0.0289999991655 -0.241999998689 1549.0
0.89099997282 -0.0340000018477 -0.241999998689 1549.0
0.893000006676 -0.0390000008047 -0.243000000715 1552.0
0.898000001907 -0.0450000017881 -0.244000002742 1543.0
0.896000027657 -0.0500000007451 -0.244000002742 1531.0
0.893999993801 -0.054999999702 -0.243000000715 1545.0
0.889999985695 -0.0599999986589 -0.241999998689 1527.0
0.898000001907 -0.0659999996424 -0.244000002742 1556.0
0.893999993801 -0.0710000023246 -0.243000000715 1558.0
0.89200001955 -0.0759999975562 -0.243000000715 1549.0
0.888000011444 -0.0810000002384 -0.241999998689 1529.0
0.893999993801 -0.0869999974966 -0.244000002742 1540.0
0.89099997282 -0.0920000001788 -0.243000000715 1547.0
0.889999985695 -0.097000002861 -0.243000000715 1526.0
0.888999998569 -0.103000000119 -0.243000000715 1543.0
0.893999993801 -0.108000002801 -0.244000002742 1548.0
0.888999998569 -0.112999998033 -0.243000000715 1532.0
0.893000006676 -0.119000002742 -0.244000002742 1545.0
0.893000006676 -0.125 -0.244000002742 1553.0
0.89099997282 -0.129999995232 -0.244000002742 1521.0
0.89200001955 -0.135000005364 -0.244000002742 1541.0
0.888999998569 -0.140000000596 -0.243000000715 1535.0
0.888999998569 -0.145999997854 -0.244000002742 1564.0
0.888000011444 -0.150999993086 -0.244000002742 1577.0
0.893000006676 -0.157000005245 -0.245000004768 1548.0
0.889999985695 -0.162000000477 -0.245000004768 1549.0
0.888000011444 -0.166999995708 -0.244000002742 1562.0
0.884000003338 -0.172000005841 -0.243000000715 1581.0
0.89200001955 -0.179000005126 -0.246000006795 1563.0
0.885999977589 -0.182999998331 -0.244000002742 1553.0
0.888999998569 -0.188999995589 -0.245000004768 1559.0
0.89099997282 -0.194999992847 -0.246000006795 1559.0
0.89200001955 -0.201000005007 -0.24699999392 1551.0
0.885999977589 -0.204999998212 -0.245000004768 1563.0
0.888999998569 -0.211999997497 -0.246000006795 1563.0
0.887000024319 -0.216999992728 -0.246000006795 1562.0
0.887000024319 -0.222000002861 -0.246000006795 1562.0
0.884999990463 -0.228000000119 -0.246000006795 1547.0
0.885999977589 -0.233999997377 -0.24699999392 1567.0
0.888999998569 -0.239999994636 -0.247999995947 1572.0
0.89099997282 -0.246000006795 -0.248999997973 1557.0
0.887000024319 -0.250999987125 -0.247999995947 1532.0
0.888999998569 -0.256999999285 -0.248999997973 1541.0
0.887000024319 -0.263000011444 -0.248999997973 1546.0
0.887000024319 -0.268999993801 -0.248999997973 1523.0
0.889999985695 -0.27500000596 -0.25 1515.0
0.884000003338 -0.279000014067 -0.248999997973 1519.0
0.882000029087 -0.284000009298 -0.248999997973 1534.0
0.884000003338 -0.291000008583 -0.25 1522.0
0.887000024319 -0.298000007868 -0.250999987125 1496.0
0.879999995232 -0.301999986172 -0.25 1493.0
0.883000016212 -0.308999985456 -0.250999987125 1519.0
0.884000003338 -0.314999997616 -0.252000004053 1532.0
0.885999977589 -0.321999996901 -0.252999991179 1517.0
0.883000016212 -0.326999992132 -0.252000004053 1526.0
0.882000029087 -0.333000004292 -0.252000004053 1529.0
0.879999995232 -0.337999999523 -0.252000004053 1508.0
0.879000008106 -0.344000011683 -0.252000004053 1493.0
0.880999982357 -0.351000010967 -0.254000008106 1506.0
0.880999982357 -0.356999993324 -0.254000008106 1499.0
0.883000016212 -0.365000009537 -0.254999995232 1506.0
0.879000008106 -0.370000004768 -0.254999995232 1491.0
0.882000029087 -0.377000004053 -0.256000012159 1473.0
0.876999974251 -0.381999999285 -0.254999995232 1477.0
0.875999987125 -0.388000011444 -0.254999995232 1491.0
0.875 -0.393999993801 -0.256000012159 1468.0
0.884000003338 -0.404000014067 -0.259000003338 1492.0
0.874000012875 -0.405999988317 -0.256999999285 1503.0
0.878000020981 -0.414999991655 -0.259000003338 1499.0
0.876999974251 -0.421000003815 -0.259000003338 1468.0
0.875 -0.426999986172 -0.259000003338 1473.0
0.883000016212 -0.437999993563 -0.261999994516 1457.0
0.878000020981 -0.442000001669 -0.261000007391 1440.0
0.871999979019 -0.446000009775 -0.259999990463 1445.0
0.874000012875 -0.453999996185 -0.261999994516 1446.0
0.875999987125 -0.462000012398 -0.263000011444 1445.0
0.873000025749 -0.467999994755 -0.263000011444 1435.0
0.875999987125 -0.476000010967 -0.263999998569 1400.0
0.875 -0.483000010252 -0.264999985695 1393.0
0.879000008106 -0.493000000715 -0.266999989748 1402.0
0.878000020981 -0.5 -0.266999989748 1395.0
0.878000020981 -0.507000029087 -0.268000006676 1370.0
0.887000024319 0.0379999987781 -0.24699999392 1453.0
0.894999980927 0.0329999998212 -0.248999997973 1473.0
0.893999993801 0.0280000008643 -0.248999997973 1511.0
0.898000001907 0.0230000000447 -0.25 1530.0
0.893000006676 0.0179999992251 -0.247999995947 1532.0
0.896000027657 0.0120000001043 -0.248999997973 1550.0
0.898000001907 0.00700000021607 -0.25 1535.0
0.894999980927 0.00200000009499 -0.248999997973 1508.0
0.894999980927 -0.00300000002608 -0.248999997973 1531.0
0.896000027657 -0.00800000037998 -0.248999997973 1517.0
0.894999980927 -0.0130000002682 -0.248999997973 1511.0
0.893999993801 -0.0179999992251 -0.248999997973 1523.0
0.893000006676 -0.0240000002086 -0.247999995947 1532.0
0.898000001907 -0.0289999991655 -0.25 1524.0
0.89200001955 -0.0340000018477 -0.247999995947 1528.0
0.899999976158 -0.0399999991059 -0.25 1538.0
0.898999989033 -0.0450000017881 -0.25 1518.0
0.89200001955 -0.0500000007451 -0.247999995947 1511.0
0.893999993801 -0.054999999702 -0.248999997973 1514.0
0.89099997282 -0.0599999986589 -0.247999995947 1531.0
0.89200001955 -0.0659999996424 -0.247999995947 1536.0
0.897000014782 -0.0719999969006 -0.25 1542.0
0.896000027657 -0.0769999995828 -0.25 1525.0
0.898000001907 -0.082000002265 -0.25 1533.0
0.888999998569 -0.0869999974966 -0.247999995947 1537.0
0.89099997282 -0.0920000001788 -0.248999997973 1535.0
0.896000027657 -0.097999997437 -0.25 1528.0
0.894999980927 -0.103000000119 -0.25 1529.0
0.893000006676 -0.108999997377 -0.248999997973 1545.0
0.889999985695 -0.11400000006 -0.248999997973 1536.0
0.893000006676 -0.119000002742 -0.25 1549.0
0.89099997282 -0.123999997973 -0.248999997973 1559.0
0.889999985695 -0.129999995232 -0.248999997973 1532.0
0.888999998569 -0.135000005364 -0.248999997973 1533.0
0.888000011444 -0.140000000596 -0.248999997973 1545.0
0.883000016212 -0.144999995828 -0.247999995947 1565.0
0.888999998569 -0.150999993086 -0.25 1569.0
0.889999985695 -0.157000005245 -0.25 1554.0
0.884999990463 -0.16099999845 -0.248999997973 1551.0
0.89099997282 -0.167999997735 -0.250999987125 1549.0
0.889999985695 -0.172999992967 -0.250999987125 1570.0
0.884999990463 -0.178000003099 -0.248999997973 1549.0
0.887000024319 -0.184000000358 -0.25 1546.0
0.89200001955 -0.189999997616 -0.252000004053 1557.0
0.884000003338 -0.194000005722 -0.25 1550.0
0.884000003338 -0.20000000298 -0.25 1532.0
0.883000016212 -0.204999998212 -0.25 1554.0
0.887000024319 -0.211999997497 -0.252000004053 1542.0
0.883000016212 -0.216000005603 -0.250999987125 1548.0
0.883000016212 -0.222000002861 -0.250999987125 1543.0
0.885999977589 -0.228000000119 -0.252000004053 1533.0
0.885999977589 -0.233999997377 -0.252000004053 1552.0
0.889999985695 -0.240999996662 -0.254000008106 1545.0
0.888000011444 -0.246000006795 -0.254000008106 1539.0
0.89099997282 -0.252999991179 -0.254999995232 1536.0
0.883000016212 -0.256000012159 -0.252999991179 1543.0
0.885999977589 -0.263000011444 -0.254000008106 1547.0
0.882000029087 -0.268000006676 -0.254000008106 1521.0
0.879999995232 -0.273000001907 -0.252999991179 1516.0
0.887000024319 -0.280999988317 -0.256000012159 1519.0
0.880999982357 -0.284999996424 -0.254000008106 1507.0
0.884000003338 -0.291999995708 -0.256000012159 1506.0
0.885999977589 -0.298000007868 -0.256999999285 1478.0
0.883000016212 -0.303000003099 -0.256000012159 1514.0
0.883000016212 -0.308999985456 -0.256999999285 1502.0
0.882000029087 -0.314999997616 -0.256999999285 1523.0
0.884000003338 -0.321999996901 -0.25799998641 1512.0
0.880999982357 -0.326999992132 -0.256999999285 1501.0
0.883000016212 -0.333999991417 -0.259000003338 1513.0
0.879999995232 -0.338999986649 -0.25799998641 1497.0
0.876999974251 -0.344000011683 -0.25799998641 1492.0
0.879000008106 -0.351000010967 -0.259000003338 1499.0
0.875 -0.356000006199 -0.25799998641 1504.0
0.876999974251 -0.363000005484 -0.259999990463 1501.0
0.882000029087 -0.370999991894 -0.261000007391 1487.0
0.878000020981 -0.375999987125 -0.261000007391 1472.0
0.874000012875 -0.381000012159 -0.259999990463 1492.0
0.882000029087 -0.391000002623 -0.263000011444 1469.0
0.879999995232 -0.397000014782 -0.263000011444 1478.0
0.876999974251 -0.402000010014 -0.263000011444 1456.0
0.871999979019 -0.405999988317 -0.261999994516 1501.0
0.883000016212 -0.418000012636 -0.266000002623 1469.0
0.873000025749 -0.419999986887 -0.263999998569 1458.0
0.874000012875 -0.426999986172 -0.264999985695 1472.0
0.880999982357 -0.437999993563 -0.268000006676 1472.0
0.875 -0.441000014544 -0.266000002623 1443.0
0.878000020981 -0.449999988079 -0.268000006676 1443.0
0.875 -0.455000013113 -0.268000006676 1470.0
0.878000020981 -0.463999986649 -0.270000010729 1454.0
0.878000020981 -0.472000002861 -0.270000010729 1417.0
0.871999979019 -0.47499999404 -0.268999993801 1409.0
0.875 -0.483999997377 -0.270999997854 1392.0
0.878000020981 -0.493000000715 -0.273000001907 1357.0
0.874000012875 -0.499000012875 -0.272000014782 1375.0
0.874000012875 -0.505999982357 -0.273000001907 1374.0
0.887000024319 0.0379999987781 -0.252999991179 1439.0
0.896000027657 0.0329999998212 -0.254999995232 1442.0
0.893999993801 0.0280000008643 -0.254999995232 1495.0
0.894999980927 0.0230000000447 -0.254999995232 1496.0
0.89200001955 0.0179999992251 -0.254000008106 1510.0
0.897000014782 0.0120000001043 -0.254999995232 1498.0
0.894999980927 0.00700000021607 -0.254999995232 1499.0
0.898999989033 0.00200000009499 -0.256000012159 1487.0
0.894999980927 -0.00300000002608 -0.254999995232 1497.0
0.893999993801 -0.00800000037998 -0.254000008106 1501.0
0.894999980927 -0.0130000002682 -0.254999995232 1482.0
0.889999985695 -0.0179999992251 -0.252999991179 1495.0
0.894999980927 -0.0240000002086 -0.254999995232 1506.0
0.893000006676 -0.0289999991655 -0.254000008106 1513.0
0.894999980927 -0.0340000018477 -0.254999995232 1499.0
0.898000001907 -0.0399999991059 -0.256000012159 1503.0
0.888999998569 -0.0450000017881 -0.252999991179 1501.0
0.896000027657 -0.0500000007451 -0.254999995232 1506.0
0.889999985695 -0.054999999702 -0.252999991179 1503.0
0.893999993801 -0.0610000006855 -0.254999995232 1515.0
0.89200001955 -0.0659999996424 -0.254000008106 1510.0
0.889999985695 -0.0710000023246 -0.254000008106 1514.0
0.888999998569 -0.0759999975562 -0.252999991179 1524.0
0.896000027657 -0.082000002265 -0.254999995232 1527.0
0.894999980927 -0.0879999995232 -0.254999995232 1516.0
0.893000006676 -0.0930000022054 -0.254999995232 1517.0
0.893999993801 -0.097999997437 -0.254999995232 1507.0
0.893000006676 -0.103000000119 -0.254999995232 1514.0
0.896000027657 -0.108999997377 -0.256000012159 1538.0
0.888999998569 -0.11400000006 -0.254000008106 1530.0
0.889999985695 -0.119000002742 -0.254000008106 1529.0
0.888000011444 -0.123999997973 -0.254000008106 1520.0
0.89099997282 -0.129999995232 -0.254999995232 1534.0
0.888999998569 -0.135000005364 -0.254999995232 1540.0
0.887000024319 -0.140000000596 -0.254000008106 1531.0
0.888000011444 -0.145999997854 -0.254999995232 1553.0
0.885999977589 -0.150999993086 -0.254000008106 1558.0
0.888999998569 -0.157000005245 -0.256000012159 1552.0
0.888999998569 -0.162000000477 -0.256000012159 1550.0
0.893999993801 -0.168999999762 -0.256999999285 1549.0
0.89099997282 -0.173999994993 -0.256999999285 1558.0
0.888000011444 -0.179000005126 -0.256000012159 1544.0
0.888999998569 -0.184000000358 -0.256999999285 1530.0
0.885999977589 -0.188999995589 -0.256000012159 1539.0
0.888999998569 -0.195999994874 -0.256999999285 1530.0
0.885999977589 -0.20000000298 -0.256000012159 1541.0
0.888000011444 -0.207000002265 -0.256999999285 1558.0
0.888999998569 -0.211999997497 -0.25799998641 1547.0
0.888000011444 -0.217999994755 -0.25799998641 1564.0
0.888999998569 -0.224000006914 -0.259000003338 1546.0
0.884000003338 -0.228000000119 -0.256999999285 1546.0
0.885999977589 -0.233999997377 -0.25799998641 1522.0
0.880999982357 -0.238999992609 -0.256999999285 1538.0
0.889999985695 -0.24699999392 -0.259999990463 1527.0
0.885999977589 -0.250999987125 -0.259000003338 1535.0
0.888000011444 -0.25799998641 -0.259999990463 1531.0
0.885999977589 -0.263000011444 -0.259999990463 1530.0
0.885999977589 -0.268999993801 -0.261000007391 1510.0
0.885999977589 -0.27500000596 -0.261000007391 1503.0
0.885999977589 -0.280999988317 -0.261000007391 1500.0
0.879999995232 -0.284999996424 -0.259999990463 1484.0
0.884999990463 -0.293000012636 -0.261999994516 1484.0
0.879999995232 -0.29699999094 -0.261000007391 1464.0
0.882000029087 -0.303000003099 -0.261999994516 1480.0
0.882000029087 -0.310000002384 -0.261999994516 1496.0
0.878000020981 -0.31400001049 -0.261999994516 1496.0
0.884000003338 -0.323000013828 -0.263999998569 1489.0
0.879999995232 -0.326999992132 -0.263000011444 1498.0
0.883000016212 -0.335000008345 -0.264999985695 1515.0
0.884999990463 -0.340999990702 -0.266000002623 1493.0
0.875999987125 -0.344000011683 -0.263999998569 1488.0
0.879999995232 -0.351999998093 -0.264999985695 1505.0
0.882000029087 -0.358999997377 -0.266000002623 1505.0
0.882000029087 -0.365000009537 -0.266999989748 1468.0
0.879000008106 -0.370999991894 -0.266999989748 1454.0
0.875999987125 -0.375999987125 -0.266000002623 1455.0
0.876999974251 -0.38299998641 -0.266999989748 1474.0
0.879999995232 -0.389999985695 -0.268999993801 1472.0
0.880999982357 -0.398000001907 -0.270000010729 1467.0
0.875 -0.402000010014 -0.268999993801 1451.0
0.879000008106 -0.409999996424 -0.270000010729 1479.0
0.878000020981 -0.416000008583 -0.270999997854 1461.0
0.875999987125 -0.42199999094 -0.270999997854 1443.0
0.875 -0.428999990225 -0.270999997854 1458.0
0.875999987125 -0.43599998951 -0.272000014782 1459.0
0.879000008106 -0.444000005722 -0.273999989033 1437.0
0.874000012875 -0.449000000954 -0.273000001907 1444.0
0.875 -0.456000000238 -0.273999989033 1467.0
0.879999995232 -0.465999990702 -0.275999993086 1426.0
0.879000008106 -0.472999989986 -0.277000010014 1400.0
0.878000020981 -0.479999989271 -0.277000010014 1375.0
0.873000025749 -0.483999997377 -0.277000010014 1370.0
0.875999987125 -0.493000000715 -0.277999997139 1341.0
0.871999979019 -0.497999995947 -0.277999997139 1341.0
0.867999970913 -0.503000020981 -0.277999997139 1332.0
0.89099997282 0.0390000008047 -0.259000003338 1429.0
0.89099997282 0.0329999998212 -0.259999990463 1453.0
0.898000001907 0.0280000008643 -0.261999994516 1487.0
0.89099997282 0.0230000000447 -0.259000003338 1496.0
0.893999993801 0.0179999992251 -0.259999990463 1499.0
0.89099997282 0.0120000001043 -0.259000003338 1485.0
0.888000011444 0.00700000021607 -0.25799998641 1493.0
0.89200001955 0.00200000009499 -0.259000003338 1483.0
0.896000027657 -0.00300000002608 -0.261000007391 1507.0
0.894999980927 -0.00800000037998 -0.259999990463 1489.0
0.893000006676 -0.0130000002682 -0.259999990463 1496.0
0.894999980927 -0.0189999993891 -0.259999990463 1493.0
0.893999993801 -0.0240000002086 -0.259999990463 1501.0
0.888000011444 -0.0289999991655 -0.25799998641 1486.0
0.896000027657 -0.0340000018477 -0.259999990463 1498.0
0.893999993801 -0.0399999991059 -0.259999990463 1507.0
0.89099997282 -0.0450000017881 -0.259000003338 1486.0
0.893000006676 -0.0500000007451 -0.259999990463 1478.0
0.883000016212 -0.054999999702 -0.256999999285 1492.0
0.888000011444 -0.0610000006855 -0.259000003338 1512.0
0.89099997282 -0.0659999996424 -0.259000003338 1511.0
0.888999998569 -0.0710000023246 -0.259000003338 1496.0
0.89099997282 -0.0769999995828 -0.259999990463 1509.0
0.888000011444 -0.082000002265 -0.259000003338 1511.0
0.885999977589 -0.0869999974966 -0.25799998641 1522.0
0.893999993801 -0.0930000022054 -0.261000007391 1508.0
0.888000011444 -0.097999997437 -0.259000003338 1515.0
0.893000006676 -0.104000002146 -0.261000007391 1517.0
0.889999985695 -0.108999997377 -0.259999990463 1543.0
0.885999977589 -0.112999998033 -0.259000003338 1524.0
0.893000006676 -0.119999997318 -0.261000007391 1524.0
0.89200001955 -0.125 -0.261000007391 1518.0
0.884999990463 -0.128999993205 -0.259000003338 1525.0
0.888000011444 -0.135000005364 -0.259999990463 1520.0
0.888999998569 -0.141000002623 -0.259999990463 1524.0
0.897000014782 -0.148000001907 -0.263000011444 1560.0
0.893000006676 -0.151999995112 -0.261999994516 1547.0
0.889999985695 -0.157000005245 -0.261999994516 1548.0
0.889999985695 -0.163000002503 -0.261999994516 1526.0
0.888000011444 -0.167999997735 -0.261000007391 1538.0
0.889999985695 -0.173999994993 -0.261999994516 1542.0
0.887000024319 -0.179000005126 -0.261999994516 1532.0
0.89099997282 -0.185000002384 -0.263000011444 1527.0
0.89099997282 -0.190999999642 -0.263000011444 1534.0
0.89099997282 -0.195999994874 -0.263000011444 1529.0
0.888999998569 -0.201000005007 -0.263000011444 1548.0
0.887000024319 -0.207000002265 -0.263000011444 1572.0
0.887000024319 -0.211999997497 -0.263000011444 1545.0
0.89099997282 -0.218999996781 -0.264999985695 1545.0
0.89099997282 -0.22499999404 -0.264999985695 1548.0
0.888999998569 -0.230000004172 -0.264999985695 1534.0
0.884999990463 -0.233999997377 -0.263999998569 1500.0
0.883000016212 -0.239999994636 -0.263999998569 1525.0
0.884000003338 -0.246000006795 -0.263999998569 1503.0
0.883000016212 -0.250999987125 -0.263999998569 1507.0
0.883000016212 -0.256999999285 -0.264999985695 1496.0
0.884000003338 -0.263000011444 -0.264999985695 1506.0
0.884000003338 -0.268999993801 -0.266000002623 1511.0
0.883000016212 -0.273999989033 -0.266000002623 1488.0
0.880999982357 -0.280000001192 -0.266000002623 1473.0
0.883000016212 -0.286000013351 -0.266999989748 1497.0
0.875999987125 -0.289999991655 -0.264999985695 1477.0
0.883000016212 -0.298000007868 -0.268000006676 1458.0
0.883000016212 -0.303999990225 -0.268000006676 1470.0
0.882000029087 -0.310000002384 -0.268000006676 1492.0
0.878000020981 -0.314999997616 -0.266999989748 1488.0
0.879999995232 -0.321000009775 -0.268000006676 1480.0
0.879999995232 -0.32800000906 -0.268999993801 1488.0
0.879999995232 -0.333999991417 -0.270000010729 1496.0
0.878000020981 -0.338999986649 -0.270000010729 1475.0
0.878000020981 -0.345999985933 -0.270000010729 1478.0
0.882000029087 -0.354000002146 -0.272000014782 1483.0
0.879000008106 -0.358999997377 -0.272000014782 1479.0
0.874000012875 -0.363000005484 -0.270999997854 1467.0
0.873000025749 -0.368999987841 -0.270999997854 1455.0
0.880999982357 -0.379000008106 -0.273999989033 1450.0
0.882000029087 -0.386000007391 -0.27500000596 1474.0
0.870000004768 -0.386999994516 -0.272000014782 1456.0
0.879000008106 -0.397000014782 -0.27500000596 1445.0
0.879999995232 -0.404000014067 -0.275999993086 1443.0
0.870999991894 -0.407000005245 -0.273999989033 1466.0
0.879999995232 -0.418000012636 -0.277999997139 1461.0
0.875 -0.42199999094 -0.277000010014 1442.0
0.875999987125 -0.430000007153 -0.277999997139 1446.0
0.880999982357 -0.43900001049 -0.280000001192 1448.0
0.874000012875 -0.442999988794 -0.279000014067 1425.0
0.878000020981 -0.451999992132 -0.280999988317 1416.0
0.878000020981 -0.458999991417 -0.280999988317 1426.0
0.876999974251 -0.465000003576 -0.282000005245 1398.0
0.875 -0.472000002861 -0.282000005245 1376.0
0.873000025749 -0.476999998093 -0.282000005245 1348.0
0.879000008106 -0.488000005484 -0.284999996424 1357.0
0.875 -0.493000000715 -0.284999996424 1337.0
0.879000008106 -0.503000020981 -0.287000000477 1333.0
0.871999979019 -0.505999982357 -0.284999996424 1333.0
0.887000024319 0.0379999987781 -0.263999998569 1423.0
0.893999993801 0.0329999998212 -0.266000002623 1424.0
0.889999985695 0.0280000008643 -0.264999985695 1479.0
0.893999993801 0.0230000000447 -0.266000002623 1497.0
0.89200001955 0.0179999992251 -0.264999985695 1487.0
0.898000001907 0.0120000001043 -0.266999989748 1493.0
0.893999993801 0.00700000021607 -0.266000002623 1498.0
0.894999980927 0.00200000009499 -0.266000002623 1479.0
0.894999980927 -0.00300000002608 -0.266000002623 1483.0
0.89200001955 -0.00800000037998 -0.264999985695 1484.0
0.89200001955 -0.0130000002682 -0.264999985695 1480.0
0.898000001907 -0.0189999993891 -0.266999989748 1469.0
0.888000011444 -0.0240000002086 -0.263999998569 1494.0
0.894999980927 -0.0289999991655 -0.266000002623 1495.0
0.89200001955 -0.0340000018477 -0.264999985695 1484.0
0.893999993801 -0.0399999991059 -0.266000002623 1495.0
0.888999998569 -0.0450000017881 -0.263999998569 1491.0
0.89099997282 -0.0500000007451 -0.264999985695 1486.0
0.887000024319 -0.054999999702 -0.263999998569 1482.0
0.89099997282 -0.0610000006855 -0.264999985695 1488.0
0.894999980927 -0.0659999996424 -0.266000002623 1500.0
0.89099997282 -0.0710000023246 -0.264999985695 1502.0
0.888000011444 -0.0759999975562 -0.263999998569 1509.0
0.888999998569 -0.082000002265 -0.264999985695 1497.0
0.887000024319 -0.0869999974966 -0.263999998569 1512.0
0.889999985695 -0.0930000022054 -0.264999985695 1514.0
0.888999998569 -0.097999997437 -0.264999985695 1489.0
0.887000024319 -0.103000000119 -0.264999985695 1507.0
0.893000006676 -0.108999997377 -0.266000002623 1530.0
0.889999985695 -0.11400000006 -0.266000002623 1517.0
0.89200001955 -0.119999997318 -0.266999989748 1531.0
0.894999980927 -0.126000002027 -0.268000006676 1511.0
0.888000011444 -0.129999995232 -0.266000002623 1506.0
0.89200001955 -0.136000007391 -0.266999989748 1518.0
0.884000003338 -0.140000000596 -0.264999985695 1524.0
0.89099997282 -0.146999999881 -0.266999989748 1547.0
0.887000024319 -0.151999995112 -0.266000002623 1525.0
0.887000024319 -0.157000005245 -0.266000002623 1544.0
0.888000011444 -0.163000002503 -0.266999989748 1515.0
0.888000011444 -0.167999997735 -0.266999989748 1506.0
0.884999990463 -0.172999992967 -0.266000002623 1508.0
0.887000024319 -0.179000005126 -0.266999989748 1529.0
0.885999977589 -0.184000000358 -0.266999989748 1521.0
0.884000003338 -0.189999997616 -0.266999989748 1531.0
0.887000024319 -0.195999994874 -0.268000006676 1547.0
0.887000024319 -0.201000005007 -0.268000006676 1553.0
0.888000011444 -0.207000002265 -0.268999993801 1560.0
0.885999977589 -0.211999997497 -0.268999993801 1555.0
0.882000029087 -0.216999992728 -0.268000006676 1560.0
0.879000008106 -0.222000002861 -0.266999989748 1539.0
0.888999998569 -0.230000004172 -0.270999997854 1517.0
0.884999990463 -0.234999999404 -0.270000010729 1505.0
0.883000016212 -0.239999994636 -0.270000010729 1504.0
0.884999990463 -0.246000006795 -0.270000010729 1480.0
0.879000008106 -0.25 -0.268999993801 1464.0
0.884000003338 -0.25799998641 -0.270999997854 1450.0
0.884000003338 -0.263999998569 -0.270999997854 1491.0
0.884999990463 -0.270000010729 -0.272000014782 1490.0
0.879999995232 -0.273999989033 -0.270999997854 1487.0
0.885999977589 -0.282000005245 -0.273000001907 1473.0
0.879000008106 -0.286000013351 -0.270999997854 1476.0
0.878000020981 -0.291000008583 -0.272000014782 1475.0
0.883000016212 -0.298999994993 -0.273999989033 1445.0
0.879000008106 -0.303999990225 -0.273000001907 1458.0
0.884000003338 -0.31099998951 -0.27500000596 1490.0
0.880999982357 -0.316000014544 -0.273999989033 1487.0
0.879000008106 -0.321999996901 -0.273999989033 1468.0
0.882000029087 -0.328999996185 -0.275999993086 1470.0
0.880999982357 -0.335000008345 -0.275999993086 1479.0
0.879000008106 -0.340000003576 -0.275999993086 1465.0
0.878000020981 -0.345999985933 -0.275999993086 1464.0
0.878000020981 -0.352999985218 -0.277000010014 1458.0
0.878000020981 -0.358999997377 -0.277000010014 1457.0
0.875999987125 -0.363999992609 -0.277000010014 1443.0
0.882000029087 -0.372999995947 -0.280000001192 1441.0
0.876999974251 -0.377999991179 -0.279000014067 1458.0
0.885999977589 -0.388000011444 -0.282000005245 1449.0
0.879000008106 -0.391000002623 -0.280999988317 1441.0
0.878000020981 -0.398000001907 -0.280999988317 1430.0
0.875999987125 -0.402999997139 -0.280999988317 1442.0
0.876999974251 -0.411000013351 -0.282000005245 1444.0
0.874000012875 -0.416000008583 -0.282000005245 1457.0
0.876999974251 -0.423999994993 -0.282999992371 1437.0
0.871999979019 -0.428999990225 -0.282999992371 1438.0
0.875999987125 -0.437999993563 -0.284999996424 1437.0
0.879000008106 -0.446000009775 -0.286000013351 1409.0
0.873000025749 -0.449999988079 -0.284999996424 1407.0
0.871999979019 -0.456000000238 -0.286000013351 1434.0
0.875 -0.465000003576 -0.287000000477 1393.0
0.871999979019 -0.470999985933 -0.287000000477 1374.0
0.874000012875 -0.479000002146 -0.28900000453 1332.0
0.871999979019 -0.485000014305 -0.28900000453 1324.0
0.879999995232 -0.497000008821 -0.293000012636 1341.0
0.875999987125 -0.501999974251 -0.291999995708 1329.0
0.870999991894 -0.507000029087 -0.291000008583 1329.0
0.893000006676 0.0390000008047 -0.272000014782 1405.0
0.89099997282 0.0329999998212 -0.270999997854 1412.0
0.896000027657 0.0280000008643 -0.272000014782 1469.0
0.894999980927 0.0230000000447 -0.272000014782 1487.0
0.894999980927 0.0179999992251 -0.272000014782 1496.0
0.89200001955 0.0120000001043 -0.270999997854 1492.0
0.89200001955 0.00700000021607 -0.270999997854 1489.0
0.897000014782 0.00200000009499 -0.272000014782 1482.0
0.894999980927 -0.00300000002608 -0.272000014782 1489.0
0.888999998569 -0.00800000037998 -0.270000010729 1494.0
0.889999985695 -0.0130000002682 -0.270000010729 1491.0
0.893999993801 -0.0189999993891 -0.270999997854 1468.0
0.89200001955 -0.0240000002086 -0.270999997854 1487.0
0.897000014782 -0.0289999991655 -0.272000014782 1483.0
0.888999998569 -0.0340000018477 -0.270000010729 1470.0
0.893000006676 -0.0399999991059 -0.270999997854 1478.0
0.89200001955 -0.0450000017881 -0.270999997854 1484.0
0.893999993801 -0.0500000007451 -0.270999997854 1481.0
0.893999993801 -0.0560000017285 -0.272000014782 1479.0
0.89099997282 -0.0610000006855 -0.270999997854 1498.0
0.893999993801 -0.0670000016689 -0.272000014782 1510.0
0.89200001955 -0.0719999969006 -0.270999997854 1495.0
0.89200001955 -0.0769999995828 -0.270999997854 1504.0
0.893000006676 -0.082999996841 -0.272000014782 1479.0
0.893000006676 -0.0879999995232 -0.272000014782 1499.0
0.893000006676 -0.0930000022054 -0.272000014782 1515.0
0.89200001955 -0.097999997437 -0.272000014782 1485.0
0.888000011444 -0.103000000119 -0.270999997854 1492.0
0.89200001955 -0.108999997377 -0.272000014782 1522.0
0.889999985695 -0.11400000006 -0.272000014782 1526.0
0.894999980927 -0.119999997318 -0.273000001907 1533.0
0.893000006676 -0.126000002027 -0.273000001907 1510.0
0.89099997282 -0.130999997258 -0.272000014782 1485.0
0.884999990463 -0.135000005364 -0.270999997854 1504.0
0.885999977589 -0.141000002623 -0.270999997854 1489.0
0.888000011444 -0.146999999881 -0.272000014782 1534.0
0.888999998569 -0.151999995112 -0.272000014782 1540.0
0.885999977589 -0.157000005245 -0.272000014782 1540.0
0.89099997282 -0.16400000453 -0.273999989033 1516.0
0.885999977589 -0.167999997735 -0.272000014782 1504.0
0.888000011444 -0.173999994993 -0.273000001907 1519.0
0.885999977589 -0.179000005126 -0.273000001907 1535.0
0.888999998569 -0.185000002384 -0.273999989033 1526.0
0.884999990463 -0.189999997616 -0.273000001907 1536.0
0.888999998569 -0.196999996901 -0.273999989033 1558.0
0.884000003338 -0.201000005007 -0.273000001907 1533.0
0.884000003338 -0.207000002265 -0.273999989033 1538.0
0.884000003338 -0.211999997497 -0.273999989033 1534.0
0.884999990463 -0.217999994755 -0.273999989033 1545.0
0.885999977589 -0.224000006914 -0.27500000596 1499.0
0.884999990463 -0.229000002146 -0.27500000596 1492.0
0.884000003338 -0.234999999404 -0.27500000596 1485.0
0.884000003338 -0.240999996662 -0.27500000596 1482.0
0.884999990463 -0.24699999392 -0.275999993086 1451.0
0.884999990463 -0.252999991179 -0.277000010014 1434.0
0.879000008106 -0.256999999285 -0.27500000596 1454.0
0.882000029087 -0.263000011444 -0.277000010014 1468.0
0.882000029087 -0.268999993801 -0.277000010014 1482.0
0.879000008106 -0.273999989033 -0.275999993086 1473.0
0.878000020981 -0.280000001192 -0.275999993086 1463.0
0.882000029087 -0.287000000477 -0.277999997139 1482.0
0.884999990463 -0.293999999762 -0.280000001192 1449.0
0.880999982357 -0.298999994993 -0.279000014067 1419.0
0.883000016212 -0.305000007153 -0.280000001192 1445.0
0.879000008106 -0.310000002384 -0.279000014067 1462.0
0.879999995232 -0.316000014544 -0.280000001192 1463.0
0.878000020981 -0.321999996901 -0.280000001192 1463.0
0.876999974251 -0.32800000906 -0.280000001192 1464.0
0.875999987125 -0.333000004292 -0.280000001192 1486.0
0.878000020981 -0.340000003576 -0.280999988317 1473.0
0.870000004768 -0.344000011683 -0.280000001192 1472.0
0.883000016212 -0.354999989271 -0.284000009298 1450.0
0.875999987125 -0.358999997377 -0.282999992371 1427.0
0.875 -0.365000009537 -0.282999992371 1427.0
0.879000008106 -0.372999995947 -0.284999996424 1420.0
0.870000004768 -0.375 -0.282999992371 1436.0
0.882000029087 -0.386999994516 -0.287000000477 1427.0
0.873000025749 -0.389999985695 -0.284999996424 1426.0
0.875999987125 -0.397000014782 -0.286000013351 1416.0
0.870999991894 -0.402000010014 -0.286000013351 1421.0
0.875999987125 -0.411000013351 -0.287999987602 1424.0
0.879000008106 -0.418999999762 -0.289999991655 1435.0
0.867999970913 -0.421000003815 -0.287000000477 1419.0
0.867999970913 -0.426999986172 -0.287000000477 1415.0
0.873000025749 -0.437000006437 -0.289999991655 1413.0
0.873000025749 -0.444000005722 -0.291000008583 1387.0
0.870000004768 -0.449000000954 -0.289999991655 1395.0
0.873000025749 -0.458000004292 -0.291999995708 1415.0
0.876999974251 -0.467000007629 -0.293999999762 1383.0
0.871999979019 -0.472000002861 -0.293999999762 1358.0
0.874000012875 -0.479999989271 -0.294999986887 1330.0
0.879000008106 -0.490000009537 -0.298000007868 1333.0
0.875999987125 -0.495999991894 -0.298000007868 1345.0
0.873000025749 -0.500999987125 -0.29699999094 1319.0
0.870000004768 -0.507000029087 -0.29699999094 1316.0
0.883000016212 0.0379999987781 -0.273999989033 1420.0
0.89099997282 0.0329999998212 -0.277000010014 1466.0
0.893000006676 0.0280000008643 -0.277000010014 1471.0
0.894999980927 0.0230000000447 -0.277999997139 1478.0
0.89200001955 0.0179999992251 -0.277000010014 1499.0
0.89200001955 0.0120000001043 -0.277000010014 1501.0
0.889999985695 0.00700000021607 -0.275999993086 1485.0
0.894999980927 0.00200000009499 -0.277999997139 1469.0
0.893999993801 -0.00300000002608 -0.277000010014 1460.0
0.89099997282 -0.00800000037998 -0.275999993086 1463.0
0.898000001907 -0.0130000002682 -0.277999997139 1483.0
0.888999998569 -0.0189999993891 -0.275999993086 1472.0
0.89099997282 -0.0240000002086 -0.275999993086 1456.0
0.888000011444 -0.0289999991655 -0.27500000596 1468.0
0.89200001955 -0.035000000149 -0.277000010014 1466.0
0.889999985695 -0.0399999991059 -0.275999993086 1473.0
0.89099997282 -0.0450000017881 -0.275999993086 1490.0
0.89099997282 -0.0500000007451 -0.275999993086 1487.0
0.902000010014 -0.0560000017285 -0.280000001192 1472.0
0.894999980927 -0.0610000006855 -0.277999997139 1487.0
0.894999980927 -0.0670000016689 -0.277999997139 1504.0
0.899999976158 -0.0719999969006 -0.279000014067 1489.0
0.888000011444 -0.0769999995828 -0.275999993086 1478.0
0.893000006676 -0.082999996841 -0.277000010014 1486.0
0.889999985695 -0.0879999995232 -0.277000010014 1500.0
0.888000011444 -0.0930000022054 -0.275999993086 1494.0
0.888999998569 -0.097999997437 -0.275999993086 1483.0
0.888999998569 -0.104000002146 -0.277000010014 1506.0
0.89099997282 -0.108999997377 -0.277999997139 1506.0
0.882000029087 -0.11400000006 -0.27500000596 1519.0
0.889999985695 -0.119999997318 -0.277000010014 1520.0
0.893999993801 -0.126000002027 -0.279000014067 1497.0
0.880999982357 -0.129999995232 -0.27500000596 1493.0
0.883000016212 -0.135000005364 -0.275999993086 1494.0
0.889999985695 -0.142000004649 -0.277999997139 1491.0
0.885999977589 -0.146999999881 -0.277000010014 1520.0
0.887000024319 -0.151999995112 -0.277999997139 1523.0
0.884000003338 -0.157000005245 -0.277000010014 1521.0
0.882000029087 -0.162000000477 -0.277000010014 1513.0
0.882000029087 -0.167999997735 -0.277000010014 1506.0
0.888000011444 -0.173999994993 -0.279000014067 1510.0
0.885999977589 -0.180000007153 -0.279000014067 1532.0
0.880999982357 -0.184000000358 -0.277000010014 1525.0
0.885999977589 -0.190999999642 -0.279000014067 1525.0
0.883000016212 -0.195999994874 -0.279000014067 1533.0
0.888999998569 -0.202000007033 -0.280999988317 1494.0
0.89099997282 -0.209000006318 -0.282000005245 1482.0
0.889999985695 -0.21400000155 -0.282000005245 1497.0
0.888000011444 -0.218999996781 -0.280999988317 1506.0
0.884999990463 -0.224000006914 -0.280999988317 1498.0
0.884999990463 -0.230000004172 -0.280999988317 1473.0
0.882000029087 -0.234999999404 -0.280999988317 1484.0
0.883000016212 -0.240999996662 -0.280999988317 1476.0
0.880999982357 -0.246000006795 -0.280999988317 1438.0
0.883000016212 -0.252000004053 -0.282000005245 1439.0
0.883000016212 -0.25799998641 -0.282000005245 1450.0
0.879999995232 -0.263000011444 -0.282000005245 1478.0
0.884000003338 -0.270000010729 -0.282999992371 1477.0
0.883000016212 -0.275999993086 -0.284000009298 1451.0
0.879999995232 -0.280999988317 -0.282999992371 1459.0
0.882000029087 -0.287999987602 -0.284000009298 1478.0
0.880999982357 -0.293000012636 -0.284000009298 1447.0
0.876999974251 -0.298000007868 -0.284000009298 1413.0
0.879999995232 -0.305000007153 -0.284999996424 1434.0
0.878000020981 -0.310000002384 -0.284999996424 1459.0
0.880999982357 -0.317999988794 -0.286000013351 1444.0
0.880999982357 -0.324000000954 -0.287000000477 1440.0
0.875999987125 -0.32800000906 -0.286000013351 1460.0
0.876999974251 -0.335000008345 -0.287000000477 1478.0
0.875 -0.340000003576 -0.287000000477 1456.0
0.879000008106 -0.347999989986 -0.28900000453 1452.0
0.879999995232 -0.354000002146 -0.28900000453 1436.0
0.873000025749 -0.358000010252 -0.287999987602 1430.0
0.878000020981 -0.36700001359 -0.289999991655 1428.0
0.876999974251 -0.372000008821 -0.289999991655 1419.0
0.878000020981 -0.379000008106 -0.291000008583 1397.0
0.875999987125 -0.384999990463 -0.291000008583 1415.0
0.880999982357 -0.393999993801 -0.293999999762 1415.0
0.880999982357 -0.400999993086 -0.293999999762 1421.0
0.874000012875 -0.404000014067 -0.293000012636 1415.0
0.875999987125 -0.412000000477 -0.293999999762 1406.0
0.870999991894 -0.416000008583 -0.293000012636 1419.0
0.879000008106 -0.426999986172 -0.29699999094 1404.0
0.879999995232 -0.433999985456 -0.298000007868 1388.0
0.873000025749 -0.437999993563 -0.296000003815 1391.0
0.871999979019 -0.444000005722 -0.29699999094 1379.0
0.874000012875 -0.451999992132 -0.298000007868 1382.0
0.870999991894 -0.458000004292 -0.298000007868 1408.0
0.874000012875 -0.465999990702 -0.300000011921 1382.0
0.869000017643 -0.470999985933 -0.298999994993 1350.0
0.865999996662 -0.476000010967 -0.298999994993 1342.0
0.878000020981 -0.490999996662 -0.303999990225 1334.0
0.871999979019 -0.495000004768 -0.303000003099 1326.0
0.875999987125 -0.504000008106 -0.305000007153 1298.0
0.869000017643 -0.508000016212 -0.303000003099 1312.0
0.888000011444 0.0390000008047 -0.282000005245 1427.0
0.888000011444 0.0329999998212 -0.280999988317 1449.0
0.89099997282 0.0280000008643 -0.282000005245 1456.0
0.898000001907 0.0230000000447 -0.284000009298 1464.0
0.89200001955 0.0170000009239 -0.282000005245 1472.0
0.894999980927 0.0120000001043 -0.282999992371 1480.0
0.89099997282 0.00700000021607 -0.282000005245 1465.0
0.893999993801 0.00200000009499 -0.282999992371 1472.0
0.893000006676 -0.00300000002608 -0.282999992371 1456.0
0.89200001955 -0.00800000037998 -0.282000005245 1474.0
0.888000011444 -0.0130000002682 -0.280999988317 1487.0
0.888000011444 -0.0189999993891 -0.280999988317 1499.0
0.89099997282 -0.0240000002086 -0.282000005245 1468.0
0.89200001955 -0.0289999991655 -0.282000005245 1470.0
0.888000011444 -0.0340000018477 -0.280999988317 1481.0
0.893999993801 -0.0399999991059 -0.282999992371 1466.0
0.888000011444 -0.0450000017881 -0.280999988317 1482.0
0.89200001955 -0.0509999990463 -0.282999992371 1463.0
0.89200001955 -0.0560000017285 -0.282999992371 1470.0
0.887000024319 -0.0610000006855 -0.280999988317 1486.0
0.888000011444 -0.0659999996424 -0.280999988317 1495.0
0.89200001955 -0.0719999969006 -0.282999992371 1463.0
0.888999998569 -0.0769999995828 -0.282000005245 1486.0
0.884999990463 -0.082000002265 -0.280999988317 1500.0
0.893000006676 -0.0879999995232 -0.282999992371 1492.0
0.888999998569 -0.0930000022054 -0.282000005245 1490.0
0.89099997282 -0.0989999994636 -0.282999992371 1500.0
0.885999977589 -0.104000002146 -0.282000005245 1498.0
0.888000011444 -0.108999997377 -0.282000005245 1502.0
0.888999998569 -0.115000002086 -0.282999992371 1486.0
0.89099997282 -0.119999997318 -0.284000009298 1493.0
0.89200001955 -0.126000002027 -0.284000009298 1474.0
0.893000006676 -0.131999999285 -0.284999996424 1477.0
0.884000003338 -0.136000007391 -0.282000005245 1474.0
0.888999998569 -0.142000004649 -0.284000009298 1465.0
0.879999995232 -0.145999997854 -0.280999988317 1491.0
0.885999977589 -0.151999995112 -0.282999992371 1514.0
0.89099997282 -0.158999994397 -0.284999996424 1512.0
0.884999990463 -0.163000002503 -0.282999992371 1516.0
0.889999985695 -0.170000001788 -0.284999996424 1498.0
0.884999990463 -0.173999994993 -0.284000009298 1483.0
0.884000003338 -0.179000005126 -0.284000009298 1525.0
0.887000024319 -0.186000004411 -0.284999996424 1522.0
0.884999990463 -0.190999999642 -0.284999996424 1513.0
0.885999977589 -0.196999996901 -0.284999996424 1501.0
0.887000024319 -0.202000007033 -0.286000013351 1471.0
0.884000003338 -0.207000002265 -0.284999996424 1476.0
0.880999982357 -0.211999997497 -0.284999996424 1487.0
0.880999982357 -0.217999994755 -0.284999996424 1504.0
0.884000003338 -0.224000006914 -0.286000013351 1495.0
0.880999982357 -0.229000002146 -0.286000013351 1463.0
0.882000029087 -0.234999999404 -0.286000013351 1482.0
0.883000016212 -0.240999996662 -0.287000000477 1470.0
0.878000020981 -0.246000006795 -0.286000013351 1431.0
0.873000025749 -0.25 -0.284999996424 1424.0
0.880999982357 -0.25799998641 -0.287999987602 1442.0
0.879999995232 -0.263999998569 -0.287999987602 1461.0
0.884000003338 -0.270999997854 -0.28900000453 1453.0
0.874000012875 -0.273999989033 -0.287000000477 1447.0
0.880999982357 -0.282000005245 -0.28900000453 1449.0
0.888999998569 -0.289999991655 -0.291999995708 1447.0
0.883000016212 -0.294999986887 -0.291000008583 1432.0
0.879999995232 -0.298999994993 -0.291000008583 1412.0
0.878000020981 -0.305000007153 -0.289999991655 1433.0
0.879000008106 -0.31099998951 -0.291000008583 1455.0
0.880999982357 -0.317999988794 -0.291999995708 1440.0
0.883000016212 -0.324999988079 -0.293999999762 1434.0
0.873000025749 -0.32800000906 -0.291000008583 1455.0
0.874000012875 -0.333999991417 -0.291999995708 1460.0
0.880999982357 -0.342999994755 -0.294999986887 1452.0
0.870999991894 -0.344999998808 -0.291999995708 1438.0
0.874000012875 -0.352999985218 -0.293999999762 1410.0
0.875 -0.360000014305 -0.294999986887 1404.0
0.873000025749 -0.365000009537 -0.294999986887 1411.0
0.875 -0.372999995947 -0.296000003815 1401.0
0.879000008106 -0.381000012159 -0.298000007868 1407.0
0.876999974251 -0.386000007391 -0.298000007868 1415.0
0.871999979019 -0.391000002623 -0.29699999094 1409.0
0.874000012875 -0.398000001907 -0.298000007868 1420.0
0.875999987125 -0.405999988317 -0.300000011921 1415.0
0.875999987125 -0.412999987602 -0.300000011921 1381.0
0.876999974251 -0.419999986887 -0.300999999046 1404.0
0.876999974251 -0.426999986172 -0.301999986172 1386.0
0.876999974251 -0.433999985456 -0.303000003099 1383.0
0.874000012875 -0.43900001049 -0.303000003099 1376.0
0.870000004768 -0.444000005722 -0.301999986172 1359.0
0.866999983788 -0.449000000954 -0.301999986172 1378.0
0.873000025749 -0.460000008345 -0.305000007153 1401.0
0.875999987125 -0.469000011683 -0.307000011206 1365.0
0.871999979019 -0.472999989986 -0.305999994278 1342.0
0.878000020981 -0.483999997377 -0.308999985456 1318.0
0.871999979019 -0.488000005484 -0.307999998331 1326.0
0.869000017643 -0.493999987841 -0.307999998331 1334.0
0.873000025749 -0.504000008106 -0.31099998951 1311.0
0.875999987125 -0.513000011444 -0.312999993563 1304.0
0.893000006676 0.0390000008047 -0.28900000453 1390.0
0.89200001955 0.0329999998212 -0.287999987602 1400.0
0.89200001955 0.0280000008643 -0.287999987602 1429.0
0.888999998569 0.0230000000447 -0.287000000477 1450.0
0.89200001955 0.0179999992251 -0.287999987602 1477.0
0.893000006676 0.0120000001043 -0.28900000453 1475.0
0.889999985695 0.00700000021607 -0.287000000477 1458.0
0.89200001955 0.00200000009499 -0.287999987602 1463.0
0.888000011444 -0.00300000002608 -0.287000000477 1476.0
0.889999985695 -0.00800000037998 -0.287000000477 1473.0
0.887000024319 -0.0130000002682 -0.287000000477 1473.0
0.89200001955 -0.0189999993891 -0.287999987602 1503.0
0.888000011444 -0.0240000002086 -0.287000000477 1487.0
0.893999993801 -0.0289999991655 -0.28900000453 1465.0
0.888999998569 -0.035000000149 -0.287000000477 1489.0
0.888999998569 -0.0399999991059 -0.287000000477 1470.0
0.888000011444 -0.0450000017881 -0.287000000477 1470.0
0.89200001955 -0.0509999990463 -0.287999987602 1484.0
0.894999980927 -0.0560000017285 -0.28900000453 1470.0
0.893000006676 -0.0610000006855 -0.28900000453 1476.0
0.887000024319 -0.0659999996424 -0.287000000477 1492.0
0.89200001955 -0.0719999969006 -0.28900000453 1487.0
0.897000014782 -0.0780000016093 -0.289999991655 1464.0
0.889999985695 -0.082999996841 -0.287999987602 1477.0
0.893000006676 -0.0879999995232 -0.28900000453 1469.0
0.888000011444 -0.0930000022054 -0.287999987602 1474.0
0.888000011444 -0.0989999994636 -0.287999987602 1479.0
0.884999990463 -0.104000002146 -0.287000000477 1473.0
0.884000003338 -0.108999997377 -0.287000000477 1483.0
0.884999990463 -0.11400000006 -0.287000000477 1474.0
0.887000024319 -0.119999997318 -0.287999987602 1478.0
0.887000024319 -0.125 -0.287999987602 1455.0
0.888999998569 -0.130999997258 -0.28900000453 1447.0
0.885999977589 -0.136000007391 -0.287999987602 1459.0
0.879999995232 -0.141000002623 -0.287000000477 1480.0
0.884999990463 -0.146999999881 -0.28900000453 1499.0
0.883000016212 -0.151999995112 -0.287999987602 1495.0
0.883000016212 -0.158000007272 -0.287999987602 1505.0
0.885999977589 -0.16400000453 -0.289999991655 1512.0
0.884999990463 -0.168999999762 -0.28900000453 1498.0
0.885999977589 -0.17499999702 -0.289999991655 1478.0
0.885999977589 -0.180000007153 -0.289999991655 1502.0
0.882000029087 -0.185000002384 -0.28900000453 1506.0
0.887000024319 -0.192000001669 -0.291000008583 1503.0
0.89099997282 -0.197999998927 -0.293000012636 1494.0
0.884999990463 -0.202000007033 -0.291000008583 1452.0
0.883000016212 -0.207000002265 -0.291000008583 1457.0
0.880999982357 -0.212999999523 -0.291000008583 1470.0
0.888999998569 -0.219999998808 -0.293999999762 1492.0
0.884999990463 -0.22499999404 -0.293000012636 1481.0
0.882000029087 -0.230000004172 -0.291999995708 1463.0
0.876999974251 -0.233999997377 -0.291000008583 1479.0
0.883000016212 -0.241999998689 -0.293000012636 1482.0
0.879000008106 -0.246000006795 -0.291999995708 1441.0
0.882000029087 -0.252999991179 -0.293000012636 1447.0
0.883000016212 -0.259000003338 -0.293999999762 1442.0
0.876999974251 -0.263000011444 -0.293000012636 1469.0
0.876999974251 -0.268999993801 -0.293000012636 1453.0
0.876999974251 -0.27500000596 -0.293999999762 1453.0
0.878000020981 -0.280999988317 -0.294999986887 1462.0
0.879000008106 -0.287999987602 -0.294999986887 1445.0
0.879999995232 -0.293999999762 -0.296000003815 1426.0
0.879000008106 -0.300000011921 -0.296000003815 1421.0
0.875999987125 -0.305000007153 -0.296000003815 1435.0
0.875 -0.310000002384 -0.296000003815 1436.0
0.882000029087 -0.319000005722 -0.298999994993 1439.0
0.880999982357 -0.324999988079 -0.298999994993 1442.0
0.879000008106 -0.330000013113 -0.298999994993 1457.0
0.875999987125 -0.335000008345 -0.298000007868 1460.0
0.875 -0.340999990702 -0.298999994993 1437.0
0.879999995232 -0.349000006914 -0.300999999046 1431.0
0.870999991894 -0.351999998093 -0.298999994993 1392.0
0.870999991894 -0.358999997377 -0.298999994993 1409.0
0.873000025749 -0.365999996662 -0.300999999046 1420.0
0.871999979019 -0.372000008821 -0.300999999046 1384.0
0.873000025749 -0.379000008106 -0.301999986172 1415.0
0.870999991894 -0.384000003338 -0.301999986172 1423.0
0.876999974251 -0.393999993801 -0.305000007153 1404.0
0.871999979019 -0.398000001907 -0.303999990225 1400.0
0.878000020981 -0.407999992371 -0.307000011206 1398.0
0.870999991894 -0.411000013351 -0.305000007153 1395.0
0.875 -0.419999986887 -0.307000011206 1384.0
0.875999987125 -0.426999986172 -0.307999998331 1380.0
0.875 -0.432999998331 -0.308999985456 1368.0
0.871999979019 -0.43900001049 -0.308999985456 1356.0
0.870999991894 -0.444999992847 -0.308999985456 1348.0
0.870999991894 -0.45300000906 -0.310000002384 1377.0
0.870000004768 -0.458999991417 -0.310000002384 1406.0
0.874000012875 -0.469000011683 -0.312999993563 1387.0
0.865999996662 -0.470999985933 -0.31099998951 1342.0
0.870999991894 -0.481000006199 -0.312999993563 1314.0
0.869000017643 -0.486999988556 -0.312999993563 1302.0
0.870000004768 -0.495999991894 -0.314999997616 1316.0
0.866999983788 -0.500999987125 -0.314999997616 1299.0
0.871999979019 -0.510999977589 -0.317999988794 1286.0
0.884999990463 0.0390000008047 -0.291999995708 1397.0
0.89099997282 0.0329999998212 -0.293999999762 1384.0
0.893999993801 0.0280000008643 -0.294999986887 1417.0
0.893000006676 0.0230000000447 -0.294999986887 1440.0
0.893999993801 0.0179999992251 -0.294999986887 1452.0
0.885999977589 0.0120000001043 -0.291999995708 1455.0
0.89200001955 0.00700000021607 -0.293999999762 1469.0
0.89099997282 0.00200000009499 -0.293999999762 1455.0
0.889999985695 -0.00300000002608 -0.293000012636 1482.0
0.888000011444 -0.00800000037998 -0.293000012636 1454.0
0.89099997282 -0.0130000002682 -0.293000012636 1458.0
0.89099997282 -0.0189999993891 -0.293000012636 1488.0
0.888999998569 -0.0240000002086 -0.293000012636 1498.0
0.896000027657 -0.0299999993294 -0.294999986887 1481.0
0.889999985695 -0.035000000149 -0.293000012636 1474.0
0.889999985695 -0.0399999991059 -0.293000012636 1468.0
0.893000006676 -0.0460000000894 -0.293999999762 1453.0
0.893000006676 -0.0509999990463 -0.293999999762 1466.0
0.893000006676 -0.0560000017285 -0.294999986887 1477.0
0.898999989033 -0.0619999989867 -0.29699999094 1465.0
0.888000011444 -0.0670000016689 -0.293000012636 1488.0
0.889999985695 -0.0719999969006 -0.293999999762 1490.0
0.885999977589 -0.0769999995828 -0.291999995708 1467.0
0.884000003338 -0.082000002265 -0.291999995708 1459.0
0.879999995232 -0.0869999974966 -0.291000008583 1469.0
0.888000011444 -0.0930000022054 -0.293999999762 1479.0
0.884999990463 -0.097999997437 -0.293000012636 1472.0
0.882000029087 -0.103000000119 -0.291999995708 1461.0
0.887000024319 -0.108999997377 -0.293999999762 1480.0
0.888999998569 -0.115000002086 -0.294999986887 1464.0
0.887000024319 -0.119999997318 -0.293999999762 1466.0
0.887000024319 -0.126000002027 -0.293999999762 1468.0
0.887000024319 -0.130999997258 -0.293999999762 1460.0
0.884999990463 -0.136000007391 -0.293999999762 1467.0
0.884000003338 -0.142000004649 -0.293999999762 1464.0
0.887000024319 -0.148000001907 -0.294999986887 1480.0
0.882000029087 -0.151999995112 -0.293000012636 1486.0
0.884999990463 -0.158000007272 -0.294999986887 1485.0
0.885999977589 -0.16400000453 -0.294999986887 1486.0
0.880999982357 -0.167999997735 -0.293999999762 1477.0
