ply
format ascii 1.0
element vertex 916
property float x
property float y
property float z
property float intensity
end_header
0.81099998951 -0.228000000119 -0.119999997318 269.0
0.819999992847 -0.236000001431 -0.122000001371 277.0
0.878000020981 -0.259000003338 -0.129999995232 569.0
0.930999994278 -0.280999988317 -0.137999996543 1234.0
0.927999973297 -0.286000013351 -0.137999996543 1284.0
0.925000011921 -0.291000008583 -0.137999996543 1263.0
0.924000024796 -0.29699999094 -0.137999996543 1240.0
0.921000003815 -0.301999986172 -0.137999996543 1206.0
0.916999995708 -0.307000011206 -0.136999994516 1171.0
0.917999982834 -0.312999993563 -0.137999996543 1146.0
0.911000013351 -0.317000001669 -0.136999994516 1093.0
0.907999992371 -0.321999996901 -0.136999994516 1062.0
0.902999997139 -0.326000005007 -0.136000007391 1037.0
0.893999993801 -0.328999996185 -0.135000005364 1008.0
0.894999980927 -0.335000008345 -0.135000005364 977.0
0.89099997282 -0.340000003576 -0.135000005364 945.0
0.885999977589 -0.344000011683 -0.135000005364 910.0
0.879999995232 -0.347999989986 -0.134000003338 882.0
0.883000016212 -0.354999989271 -0.135000005364 905.0
0.875 -0.358000010252 -0.134000003338 927.0
0.876999974251 -0.365000009537 -0.134000003338 969.0
0.871999979019 -0.368999987841 -0.134000003338 1000.0
0.875 -0.377000004053 -0.134000003338 1033.0
0.869000017643 -0.379999995232 -0.134000003338 1078.0
0.862999975681 -0.384000003338 -0.133000001311 1104.0
0.869000017643 -0.393000006676 -0.134000003338 1164.0
0.870999991894 -0.400999993086 -0.135000005364 1187.0
0.865000009537 -0.404000014067 -0.134000003338 1231.0
0.856000006199 -0.405999988317 -0.133000001311 1259.0
0.866999983788 -0.418000012636 -0.135000005364 1310.0
0.85900002718 -0.421000003815 -0.134000003338 1001.0
0.81099998951 -0.402999997139 -0.127000004053 580.0
0.799000024796 -0.402999997139 -0.126000002027 529.0
0.794000029564 -0.407000005245 -0.125 528.0
0.777999997139 -0.405000001192 -0.123000003397 521.0
0.783999979496 -0.41400000453 -0.123999997973 523.0
0.778999984264 -0.418000012636 -0.123999997973 498.0
0.769999980927 -0.418999999762 -0.123000003397 507.0
0.751999974251 -0.414999991655 -0.119999997318 505.0
0.760999977589 -0.425999999046 -0.122000001371 504.0
0.850000023842 0.49200001359 -0.146999999881 354.0
0.931999981403 0.53100001812 -0.16099999845 488.0
0.875 0.490999996662 -0.150999993086 352.0
0.896000027657 0.495999991894 -0.153999999166 381.0
0.908999979496 0.495999991894 -0.156000003219 426.0
0.943000018597 0.507000029087 -0.16099999845 479.0
0.93900001049 0.497000008821 -0.159999996424 512.0
0.941999971867 0.490999996662 -0.159999996424 556.0
0.949000000954 0.488000005484 -0.159999996424 571.0
0.961000025272 0.486000001431 -0.162000000477 618.0
0.955999970436 0.476000010967 -0.16099999845 645.0
0.954999983311 0.469000011683 -0.159999996424 659.0
0.96899998188 0.467999994755 -0.162000000477 691.0
0.963999986649 0.458000004292 -0.16099999845 715.0
0.967999994755 0.45300000906 -0.16099999845 714.0
0.976000010967 0.449000000954 -0.162000000477 736.0
0.97000002861 0.439999997616 -0.159999996424 746.0
0.967999994755 0.432000011206 -0.159999996424 754.0
0.972000002861 0.425999999046 -0.159999996424 741.0
0.976000010967 0.421000003815 -0.159999996424 753.0
0.971000015736 0.412000000477 -0.158999994397 736.0
0.964999973774 0.402000010014 -0.158000007272 719.0
0.971000015736 0.398000001907 -0.158000007272 682.0
0.964999973774 0.388999998569 -0.157000005245 658.0
0.973999977112 0.386000007391 -0.158000007272 633.0
0.955999970436 0.372000008821 -0.155000001192 608.0
0.963999986649 0.368000000715 -0.156000003219 567.0
0.945999979973 0.354999989271 -0.151999995112 527.0
0.950999975204 0.34999999404 -0.152999997139 478.0
0.938000023365 0.338999986649 -0.150999993086 426.0
0.931999981403 0.330000013113 -0.149000003934 387.0
0.916000008583 0.319000005722 -0.145999997854 351.0
0.882000029087 0.300999999046 -0.141000002623 309.0
0.875 0.293000012636 -0.138999998569 268.0
0.850000023842 0.279000014067 -0.135000005364 235.0
0.820999979973 0.263999998569 -0.129999995232 205.0
0.759000003338 0.238999992609 -0.119999997318 170.0
0.670000016689 0.207000002265 -0.105999998748 141.0
0.620000004768 0.187000006437 -0.097999997437 129.0
0.43900001049 0.129999995232 -0.0689999982715 100.0
0.28900000453 0.0839999988675 -0.0450000017881 92.0
0.307999998331 0.0869999974966 -0.0480000004172 90.0
0.182999998331 0.0509999990463 -0.0289999991655 89.0
4.71199989319 1.27199995518 -0.737999975681 76.0
4.62900018692 1.22000002861 -0.723999977112 65.0
4.66300010681 1.20000004768 -0.727999985218 86.0
4.84299993515 1.21500003338 -0.754999995232 81.0
0.00999999977648 0.00300000002608 -0.0010000000475 77.0
4.76300001144 1.13600003719 -0.740000009537 86.0
4.65999984741 1.08200001717 -0.722999989986 97.0
4.69999980927 1.06200003624 -0.728999972343 104.0
4.66400003433 1.02600002289 -0.722000002861 101.0
4.65000009537 0.994000017643 -0.71899998188 101.0
4.75600004196 0.986999988556 -0.73400002718 94.0
4.84499979019 0.976000010967 -0.746999979019 73.0
4.77500009537 0.933000028133 -0.736000001431 78.0
4.79300022125 0.907000005245 -0.737999975681 84.0
4.78100013733 0.875999987125 -0.735000014305 80.0
4.71099996567 0.834999978542 -0.722999989986 85.0
4.75500011444 0.81400001049 -0.730000019073 84.0
4.73999977112 0.782999992371 -0.726000010967 74.0
4.75699996948 0.757000029087 -0.727999985218 82.0
4.82000017166 0.739000022411 -0.736999988556 77.0
4.7389998436 0.698000013828 -0.723999977112 76.0
4.78200006485 0.675999999046 -0.730000019073 74.0
4.78800010681 0.648000001907 -0.730000019073 74.0
4.77400016785 0.617999970913 -0.727999985218 76.0
4.78000020981 0.591000020504 -0.727999985218 73.0
4.77600002289 0.561999976635 -0.726999998093 74.0
4.83400011063 0.540000021458 -0.735000014305 79.0
4.80800008774 0.509000003338 -0.731000006199 75.0
4.882999897 0.488000005484 -0.741999983788 79.0
4.86299991608 0.458000004292 -0.737999975681 76.0
4.82299995422 0.425999999046 -0.731999993324 88.0
4.67700004578 0.384999990463 -0.708999991417 119.0
4.67000007629 0.358000010252 -0.707000017166 129.0
4.63000011444 0.326999992132 -0.700999975204 127.0
4.63700008392 0.300999999046 -0.702000021935 132.0
4.83099985123 0.284999996424 -0.731000006199 104.0
4.98199987411 0.264999985695 -0.753000020981 96.0
4.94199991226 0.233999997377 -0.746999979019 116.0
4.867000103 0.202000007033 -0.735000014305 119.0
4.88700008392 0.17499999702 -0.737999975681 130.0
4.89900016785 0.146999999881 -0.740000009537 125.0
4.86600017548 0.118000000715 -0.73400002718 125.0
4.87799978256 0.0900000035763 -0.736000001431 126.0
4.8860001564 0.0610000006855 -0.736999988556 113.0
4.90000009537 0.0329999998212 -0.739000022411 119.0
4.90600013733 0.00499999988824 -0.740000009537 117.0
4.90500020981 -0.0230000000447 -0.739000022411 114.0
4.89300012589 -0.0509999990463 -0.736999988556 111.0
4.90799999237 -0.0799999982119 -0.740000009537 111.0
4.90600013733 -0.108000002801 -0.739000022411 119.0
4.92100000381 -0.136999994516 -0.740999996662 111.0
4.93499994278 -0.165999993682 -0.744000017643 123.0
4.92299985886 -0.194000005722 -0.741999983788 119.0
4.93300008774 -0.223000004888 -0.742999970913 122.0
4.92600011826 -0.252000004053 -0.741999983788 126.0
4.93800020218 -0.280999988317 -0.744000017643 123.0
4.94600009918 -0.310000002384 -0.745000004768 120.0
4.94500017166 -0.338999986649 -0.745000004768 128.0
4.93800020218 -0.36700001359 -0.744000017643 119.0
4.95200014114 -0.397000014782 -0.745999991894 123.0
4.94099998474 -0.425000011921 -0.745000004768 129.0
4.92100000381 -0.451999992132 -0.741999983788 121.0
4.96099996567 -0.485000014305 -0.748000025749 123.0
4.98199987411 -0.51700001955 -0.751999974251 121.0
4.98999977112 -0.54699999094 -0.753000020981 102.0
0.0439999997616 -0.00200000009499 -0.00700000021607 76.0
0.112000003457 -0.00999999977648 -0.0170000009239 70.0
0.120999999344 -0.0120000001043 -0.0179999992251 71.0
0.149000003934 -0.01600000076 -0.0219999998808 71.0
0.123000003397 -0.0140000004321 -0.0179999992251 70.0
0.0790000036359 -0.00800000037998 -0.0120000001043 72.0
0.0790000036359 -0.00800000037998 -0.0120000001043 78.0
0.17499999702 -0.0240000002086 -0.0260000005364 82.0
0.215000003576 -0.0320000015199 -0.0320000015199 87.0
0.119000002742 -0.0170000009239 -0.0179999992251 81.0
0.158999994397 -0.0240000002086 -0.0240000002086 77.0
0.201000005007 -0.0340000018477 -0.0299999993294 77.0
0.193000003695 -0.0340000018477 -0.0289999991655 72.0
0.123000003397 -0.0209999997169 -0.0189999993891 74.0
0.907999992371 -0.182999998331 -0.137999996543 553.0
0.976999998093 -0.203999996185 -0.149000003934 964.0
0.856000006199 -0.182999998331 -0.129999995232 258.0
0.754999995232 -0.165000006557 -0.115000002086 196.0
0.751999974251 -0.170000001788 -0.115000002086 197.0
0.736999988556 -0.171000003815 -0.112999998033 194.0
0.748000025749 -0.178000003099 -0.11400000006 195.0
0.759000003338 -0.185000002384 -0.115999996662 199.0
0.753000020981 -0.187999993563 -0.115000002086 197.0
0.745000004768 -0.190999999642 -0.11400000006 198.0
0.744000017643 -0.194999992847 -0.11400000006 204.0
0.782000005245 -0.209999993443 -0.119999997318 214.0
0.745999991894 -0.204999998212 -0.115000002086 214.0
0.742999970913 -0.209000006318 -0.115000002086 211.0
0.763000011444 -0.219999998808 -0.118000000715 212.0
0.879000008106 -0.259000003338 -0.136000007391 578.0
0.933000028133 -0.282000005245 -0.143999993801 1343.0
0.93599998951 -0.28900000453 -0.144999995828 1431.0
0.930000007153 -0.293000012636 -0.143999993801 1438.0
0.929000020027 -0.298999994993 -0.143999993801 1446.0
0.930000007153 -0.305000007153 -0.144999995828 1451.0
0.925999999046 -0.310000002384 -0.143999993801 1455.0
0.922999978065 -0.314999997616 -0.143999993801 1471.0
0.924000024796 -0.321000009775 -0.143999993801 1468.0
0.919000029564 -0.326000005007 -0.143999993801 1473.0
0.912000000477 -0.330000013113 -0.143000006676 1485.0
0.915000021458 -0.337000012398 -0.143999993801 1508.0
0.907999992371 -0.340000003576 -0.143000006676 1506.0
0.907000005245 -0.345999985933 -0.143000006676 1500.0
0.911000013351 -0.354000002146 -0.143999993801 1130.0
0.800999999046 -0.316000014544 -0.127000004053 340.0
0.754999995232 -0.303000003099 -0.119999997318 269.0
0.73299998045 -0.298999994993 -0.116999998689 274.0
0.755999982357 -0.31400001049 -0.119999997318 297.0
0.751999974251 -0.317999988794 -0.119999997318 307.0
0.744000017643 -0.319999992847 -0.119000002742 307.0
0.763999998569 -0.333999991417 -0.122000001371 320.0
0.768000006676 -0.340999990702 -0.123000003397 332.0
0.776000022888 -0.351000010967 -0.125 347.0
0.763000011444 -0.351000010967 -0.123000003397 363.0
0.762000024319 -0.356000006199 -0.123000003397 383.0
0.782000005245 -0.370999991894 -0.127000004053 400.0
0.762000024319 -0.36700001359 -0.123999997973 411.0
0.825999975204 -0.405000001192 -0.135000005364 797.0
0.850000023842 -0.423000007868 -0.138999998569 1388.0
0.856000006199 -0.432999998331 -0.140000000596 1443.0
0.848999977112 -0.43599998951 -0.138999998569 1461.0
0.851000010967 -0.444000005722 -0.140000000596 1423.0
0.847999989986 -0.449000000954 -0.140000000596 1405.0
0.837999999523 -0.449999988079 -0.138999998569 1395.0
0.841000020504 -0.458000004292 -0.138999998569 1394.0
0.836000025272 -0.462999999523 -0.138999998569 1395.0
0.834999978542 -0.469000011683 -0.138999998569 1374.0
0.723999977112 0.418999999762 -0.129999995232 255.0
0.943000018597 0.537999987602 -0.168999999762 532.0
0.374000012875 0.209999993443 -0.0670000016689 132.0
0.405999988317 0.22499999404 -0.0719999969006 111.0
0.760999977589 0.414999991655 -0.135000005364 116.0
0.912000000477 0.490000009537 -0.162000000477 127.0
1.03199994564 0.54699999094 -0.181999996305 156.0
0.936999976635 0.488999992609 -0.165000006557 170.0
0.818000018597 0.419999986887 -0.143999993801 190.0
0.846000015736 0.428999990225 -0.148000001907 218.0
0.870000004768 0.433999985456 -0.151999995112 257.0
0.885999977589 0.435000002384 -0.153999999166 283.0
0.916999995708 0.442999988794 -0.158999994397 327.0
0.930000007153 0.442000001669 -0.16099999845 386.0
0.936999976635 0.43900001049 -0.162000000477 426.0
0.940999984741 0.433999985456 -0.162000000477 495.0
0.93599998951 0.425000011921 -0.16099999845 541.0
0.964999973774 0.430000007153 -0.165000006557 592.0
0.962999999523 0.423000007868 -0.165000006557 650.0
0.971000015736 0.418999999762 -0.165999993682 663.0
0.958999991417 0.407000005245 -0.163000002503 716.0
0.962000012398 0.400999993086 -0.163000002503 750.0
0.977999985218 0.400999993086 -0.165000006557 763.0
0.971000015736 0.391000002623 -0.16400000453 784.0
0.972999989986 0.386000007391 -0.16400000453 804.0
0.978999972343 0.381000012159 -0.165000006557 827.0
0.973999977112 0.372000008821 -0.163000002503 834.0
0.976999998093 0.36700001359 -0.163000002503 842.0
0.976999998093 0.360000014305 -0.163000002503 850.0
0.975000023842 0.352999985218 -0.162000000477 836.0
0.97000002861 0.344000011683 -0.16099999845 839.0
0.975000023842 0.340000003576 -0.162000000477 831.0
0.980000019073 0.335000008345 -0.162000000477 819.0
0.981999993324 0.328999996185 -0.162000000477 808.0
0.972999989986 0.319999992847 -0.16099999845 804.0
0.973999977112 0.31400001049 -0.16099999845 784.0
0.977999985218 0.307999998331 -0.16099999845 762.0
0.975000023842 0.300999999046 -0.159999996424 748.0
0.972999989986 0.293999999762 -0.158999994397 714.0
0.962000012398 0.284999996424 -0.157000005245 678.0
0.962999999523 0.279000014067 -0.157000005245 632.0
0.961000025272 0.272000014782 -0.157000005245 609.0
0.948000013828 0.261999994516 -0.153999999166 559.0
0.957000017166 0.259000003338 -0.155000001192 498.0
0.93900001049 0.247999995947 -0.151999995112 457.0
0.929000020027 0.238999992609 -0.15000000596 421.0
0.913999974728 0.230000004172 -0.148000001907 368.0
0.90499997139 0.222000002861 -0.145999997854 333.0
0.878000020981 0.209999993443 -0.142000004649 296.0
0.811999976635 0.188999995589 -0.130999997258 246.0
0.776000022888 0.175999999046 -0.125 220.0
0.708999991417 0.157000005245 -0.11400000006 183.0
0.614000022411 0.131999999285 -0.097999997437 158.0
0.60900002718 0.127000004053 -0.097999997437 144.0
0.518000006676 0.104999996722 -0.082999996841 126.0
0.430000007153 0.0850000008941 -0.0689999982715 107.0
0.301999986172 0.0579999983311 -0.0480000004172 96.0
0.155000001192 0.0289999991655 -0.0250000003725 92.0
0.070000000298 0.0130000002682 -0.0109999999404 83.0
4.94799995422 0.847999989986 -0.788999974728 78.0
4.88500022888 0.806999981403 -0.777999997139 79.0
4.83099985123 0.769999980927 -0.768999993801 79.0
4.82000017166 0.739000022411 -0.76599997282 75.0
4.84899997711 0.714999973774 -0.769999980927 78.0
4.8189997673 0.680999994278 -0.764999985695 77.0
4.84899997711 0.657000005245 -0.768999993801 76.0
4.81599998474 0.624000012875 -0.763000011444 74.0
4.86299991608 0.601000010967 -0.769999980927 76.0
4.89499998093 0.575999975204 -0.773999989033 75.0
4.88399982452 0.546000003815 -0.772000014782 74.0
4.88999986649 0.518000006676 -0.772000014782 76.0
4.95300006866 0.495000004768 -0.782000005245 75.0
4.91099977493 0.462000012398 -0.774999976158 80.0
4.83500003815 0.426999986172 -0.762000024319 94.0
4.72399997711 0.388999998569 -0.744000017643 113.0
4.71199989319 0.361000001431 -0.741999983788 111.0
4.70499992371 0.333000004292 -0.740000009537 113.0
4.73000001907 0.307000011206 -0.744000017643 119.0
4.87599992752 0.287999987602 -0.76599997282 99.0
4.99599981308 0.266000002623 -0.785000026226 90.0
4.95599985123 0.234999999404 -0.777999997139 107.0
4.90999984741 0.203999996185 -0.771000027657 111.0
4.95900011063 0.177000001073 -0.777999997139 109.0
4.92299985886 0.146999999881 -0.772000014782 112.0
4.91099977493 0.119000002742 -0.769999980927 107.0
4.92899990082 0.0900000035763 -0.773000001907 111.0
4.9279999733 0.0619999989867 -0.773000001907 109.0
4.92100000381 0.0329999998212 -0.771000027657 108.0
4.96899986267 0.00499999988824 -0.778999984264 100.0
4.90500020981 -0.0230000000447 -0.768000006676 105.0
4.96700000763 -0.0520000010729 -0.777999997139 101.0
4.9439997673 -0.0810000002384 -0.773999989033 98.0
5.01200008392 -0.111000001431 -0.785000026226 102.0
4.96099996567 -0.137999996543 -0.777000010014 104.0
5.01200008392 -0.168999999762 -0.785000026226 104.0
4.9390001297 -0.194999992847 -0.773000001907 98.0
4.94600009918 -0.224000006914 -0.773999989033 100.0
4.93699979782 -0.252999991179 -0.773000001907 106.0
4.96600008011 -0.282999992371 -0.777999997139 105.0
4.94799995422 -0.31099998951 -0.774999976158 108.0
4.97599983215 -0.342000007629 -0.778999984264 105.0
4.95900011063 -0.368999987841 -0.777000010014 109.0
4.94899988174 -0.398000001907 -0.774999976158 107.0
4.97499990463 -0.428999990225 -0.77999997139 103.0
4.98299980164 -0.458999991417 -0.78100001812 108.0
4.97900009155 -0.488000005484 -0.78100001812 111.0
4.96700000763 -0.51599997282 -0.778999984264 110.0
0.00899999961257 0.0010000000475 -0.0010000000475 91.0
0.0719999969006 -0.00499999988824 -0.0109999999404 73.0
0.129999995232 -0.0130000002682 -0.019999999553 64.0
0.105999998748 -0.00999999977648 -0.0170000009239 65.0
0.170000001788 -0.0189999993891 -0.0260000005364 66.0
0.104999996722 -0.0109999999404 -0.01600000076 65.0
0.135000005364 -0.01600000076 -0.0209999997169 64.0
0.148000001907 -0.0189999993891 -0.0230000000447 70.0
0.125 -0.01600000076 -0.019999999553 80.0
0.16099999845 -0.0230000000447 -0.0250000003725 82.0
0.128999993205 -0.0179999992251 -0.019999999553 72.0
0.0750000029802 -0.00999999977648 -0.0120000001043 65.0
0.082999996841 -0.0109999999404 -0.0130000002682 68.0
0.0860000029206 -0.0120000001043 -0.0130000002682 72.0
0.126000002027 -0.0209999997169 -0.019999999553 72.0
0.116999998689 -0.019999999553 -0.0179999992251 71.0
0.919000029564 -0.186000004411 -0.144999995828 595.0
0.971000015736 -0.202000007033 -0.153999999166 922.0
0.829999983311 -0.177000001073 -0.130999997258 256.0
0.748000025749 -0.16400000453 -0.119000002742 189.0
0.768999993801 -0.173999994993 -0.122000001371 195.0
0.758000016212 -0.175999999046 -0.119999997318 189.0
0.693000018597 -0.165000006557 -0.109999999404 199.0
0.76599997282 -0.187000006437 -0.122000001371 195.0
0.759000003338 -0.189999997616 -0.120999999344 196.0
0.740000009537 -0.189999997616 -0.118000000715 201.0
0.760999977589 -0.20000000298 -0.122000001371 208.0
0.740999996662 -0.199000000954 -0.118000000715 213.0
0.744000017643 -0.204999998212 -0.119000002742 209.0
0.731000006199 -0.206000000238 -0.116999998689 207.0
0.744000017643 -0.215000003576 -0.119000002742 213.0
0.878000020981 -0.259000003338 -0.141000002623 637.0
0.933000028133 -0.282000005245 -0.15000000596 1342.0
0.931999981403 -0.287999987602 -0.15000000596 1425.0
0.938000023365 -0.296000003815 -0.150999993086 1439.0
0.929000020027 -0.298999994993 -0.15000000596 1443.0
0.925000011921 -0.303999990225 -0.15000000596 1458.0
0.921000003815 -0.308999985456 -0.149000003934 1465.0
0.925000011921 -0.316000014544 -0.15000000596 1469.0
0.919000029564 -0.319999992847 -0.149000003934 1475.0
0.916000008583 -0.324999988079 -0.149000003934 1481.0
0.917999982834 -0.331999987364 -0.15000000596 1498.0
0.912999987602 -0.33599999547 -0.149000003934 1505.0
0.907000005245 -0.340000003576 -0.148000001907 1511.0
0.90600001812 -0.345999985933 -0.149000003934 1522.0
0.899999976158 -0.34999999404 -0.148000001907 1071.0
0.783999979496 -0.310000002384 -0.128999993205 316.0
0.672999978065 -0.270000010729 -0.111000001431 238.0
0.722000002861 -0.294999986887 -0.119000002742 243.0
0.700999975204 -0.291000008583 -0.115999996662 250.0
0.72000002861 -0.303999990225 -0.119000002742 246.0
0.694000005722 -0.298000007868 -0.115000002086 258.0
0.70300000906 -0.307000011206 -0.116999998689 258.0
0.702000021935 -0.312000006437 -0.116999998689 252.0
0.68599998951 -0.310000002384 -0.115000002086 259.0
0.680999994278 -0.312999993563 -0.11400000006 261.0
0.683000028133 -0.319000005722 -0.115000002086 258.0
0.675000011921 -0.319999992847 -0.11400000006 262.0
0.698000013828 -0.33599999547 -0.118000000715 275.0
0.822000026703 -0.402999997139 -0.138999998569 871.0
0.856999993324 -0.426999986172 -0.145999997854 1612.0
0.861000001431 -0.43599998951 -0.146999999881 1680.0
0.855000019073 -0.439999997616 -0.145999997854 1684.0
0.85799998045 -0.448000013828 -0.146999999881 1698.0
0.851000010967 -0.451000005007 -0.145999997854 1691.0
0.851000010967 -0.458000004292 -0.145999997854 1709.0
0.84500002861 -0.46099999547 -0.145999997854 1720.0
0.837000012398 -0.462999999523 -0.144999995828 1729.0
0.839999973774 -0.472000002861 -0.145999997854 1727.0
0.635999977589 0.368000000715 -0.119000002742 223.0
0.950999975204 0.542999982834 -0.177000001073 569.0
0.41400000453 0.231999993324 -0.0769999995828 138.0
0.421000003815 0.232999995351 -0.0780000016093 98.0
0.991999983788 0.541999995708 -0.182999998331 97.0
1.33500003815 0.71899998188 -0.246000006795 114.0
1.48800003529 0.790000021458 -0.273000001907 158.0
1.38499999046 0.723999977112 -0.252999991179 124.0
0.827000021935 0.425999999046 -0.150999993086 77.0
0.615000009537 0.31099998951 -0.112000003457 74.0
0.518000006676 0.25799998641 -0.0939999967813 75.0
0.536000013351 0.254999995232 -0.0960000008345 73.0
0.81099998951 0.379999995232 -0.144999995828 75.0
0.723999977112 0.333999991417 -0.128999993205 121.0
0.745999991894 0.338999986649 -0.133000001311 139.0
0.885999977589 0.395999997854 -0.158000007272 182.0
0.888000011444 0.384000003338 -0.157000005245 216.0
0.838999986649 0.356000006199 -0.148000001907 232.0
0.889999985695 0.372000008821 -0.157000005245 274.0
0.936999976635 0.384999990463 -0.165000006557 312.0
0.945999979973 0.381999999285 -0.165999993682 363.0
0.941999971867 0.374000012875 -0.165000006557 422.0
0.927999973297 0.361000001431 -0.162000000477 467.0
0.934000015259 0.356999993324 -0.162000000477 522.0
0.943000018597 0.354000002146 -0.16400000453 573.0
0.944999992847 0.349000006914 -0.16400000453 620.0
0.955999970436 0.345999985933 -0.165000006557 675.0
0.967999994755 0.344000011683 -0.166999995708 703.0
0.962000012398 0.335000008345 -0.165999993682 738.0
0.963999986649 0.330000013113 -0.165999993682 781.0
0.97000002861 0.324999988079 -0.165999993682 815.0
0.971000015736 0.319000005722 -0.165999993682 836.0
0.973999977112 0.31400001049 -0.166999995708 869.0
0.975000023842 0.307999998331 -0.165999993682 892.0
0.980000019073 0.303000003099 -0.166999995708 918.0
0.972999989986 0.293999999762 -0.165000006557 938.0
0.981999993324 0.291000008583 -0.166999995708 946.0
0.977999985218 0.282999992371 -0.165999993682 953.0
0.98299998045 0.277999997139 -0.165999993682 971.0
0.98299998045 0.272000014782 -0.165999993682 958.0
0.978999972343 0.264999985695 -0.165000006557 962.0
0.986999988556 0.261000007391 -0.165999993682 948.0
0.98400002718 0.254000008106 -0.165000006557 958.0
0.98400002718 0.247999995947 -0.165000006557 933.0
0.98299998045 0.240999996662 -0.165000006557 939.0
0.980000019073 0.233999997377 -0.16400000453 904.0
0.981000006199 0.229000002146 -0.16400000453 914.0
0.975000023842 0.221000000834 -0.163000002503 893.0
0.98400002718 0.216999992728 -0.16400000453 866.0
0.977999985218 0.209999993443 -0.163000002503 846.0
0.975000023842 0.202999994159 -0.162000000477 822.0
0.972000002861 0.196999996901 -0.16099999845 777.0
0.967999994755 0.189999997616 -0.16099999845 743.0
0.97000002861 0.185000002384 -0.16099999845 701.0
0.961000025272 0.177000001073 -0.158999994397 667.0
0.959999978542 0.171000003815 -0.158999994397 621.0
0.959999978542 0.165000006557 -0.158999994397 572.0
0.949000000954 0.158000007272 -0.157000005245 545.0
0.947000026703 0.151999995112 -0.156000003219 494.0
0.935000002384 0.143999993801 -0.153999999166 450.0
0.913999974728 0.135000005364 -0.15000000596 410.0
0.90600001812 0.128999993205 -0.149000003934 370.0
0.903999984264 0.123000003397 -0.149000003934 322.0
0.876999974251 0.11400000006 -0.143999993801 283.0
0.832000017166 0.104000002146 -0.136999994516 246.0
0.823000013828 0.097999997437 -0.135000005364 215.0
0.757000029087 0.0860000029206 -0.123999997973 193.0
0.699000000954 0.0750000029802 -0.11400000006 168.0
0.662999987602 0.0670000016689 -0.108000002801 153.0
0.602999985218 0.0579999983311 -0.0989999994636 134.0
0.365999996662 0.0329999998212 -0.0599999986589 127.0
0.0989999994636 0.00899999961257 -0.01600000076 117.0
0.0329999998212 0.00400000018999 -0.00499999988824 117.0
4.95800018311 0.351000010967 -0.810000002384 117.0
4.92399978638 0.319999992847 -0.804000020027 105.0
0.0299999993294 0.00300000002608 -0.00499999988824 95.0
0.179000005126 0.0109999999404 -0.0289999991655 90.0
0.0570000000298 0.00400000018999 -0.00899999961257 98.0
4.9889998436 0.207000002265 -0.813000023365 119.0
4.98400020599 0.178000003099 -0.811999976635 108.0
4.97900009155 0.149000003934 -0.81099998951 105.0
4.98699998856 0.119999997318 -0.811999976635 102.0
4.99499988556 0.0909999981523 -0.813000023365 104.0
4.99399995804 0.0619999989867 -0.811999976635 96.0
5.01300001144 0.0340000018477 -0.814999997616 92.0
5.00899982452 0.00400000018999 -0.814999997616 90.0
0.0480000004172 0.0010000000475 -0.00800000037998 84.0
0.0120000001043 0.00200000009499 -0.00200000009499 87.0
5.01499986649 -0.082000002265 -0.814999997616 83.0
5.00899982452 -0.111000001431 -0.81400001049 83.0
0.0270000007004 0.0010000000475 -0.00400000018999 83.0
0.0320000015199 0.0010000000475 -0.00499999988824 84.0
0.0430000014603 0.0 -0.00700000021607 83.0
0.0599999986589 0.0 -0.00999999977648 80.0
4.99599981308 -0.256000012159 -0.811999976635 80.0
0.0590000003576 0.0 -0.00899999961257 84.0
0.0140000004321 0.0010000000475 -0.00200000009499 79.0
0.0189999993891 0.0010000000475 -0.00300000002608 86.0
0.0370000004768 0.0 -0.00600000005215 80.0
0.0640000030398 -0.00200000009499 -0.00999999977648 80.0
0.0630000010133 -0.00200000009499 -0.00999999977648 80.0
4.992000103 -0.460000008345 -0.811999976635 89.0
4.98799991608 -0.488999992609 -0.811999976635 97.0
4.98500013351 -0.518000006676 -0.811999976635 88.0
0.0419999994338 -0.0010000000475 -0.00700000021607 76.0
0.0410000011325 -0.0010000000475 -0.00600000005215 65.0
0.0649999976158 -0.00499999988824 -0.00999999977648 68.0
0.111000001431 -0.0109999999404 -0.0179999992251 69.0
0.126000002027 -0.0130000002682 -0.019999999553 67.0
0.120999999344 -0.0140000004321 -0.019999999553 65.0
0.168999999762 -0.0209999997169 -0.0270000007004 67.0
0.115999996662 -0.0140000004321 -0.0189999993891 75.0
0.0780000016093 -0.00899999961257 -0.0130000002682 79.0
0.170000001788 -0.0240000002086 -0.0280000008643 68.0
0.0689999982715 -0.00800000037998 -0.0109999999404 68.0
0.112000003457 -0.01600000076 -0.0179999992251 69.0
0.115000002086 -0.0170000009239 -0.0189999993891 66.0
0.103000000119 -0.01600000076 -0.0170000009239 66.0
0.0949999988079 -0.0149999996647 -0.0149999996647 69.0
0.217999994755 -0.0399999991059 -0.0359999984503 68.0
0.929000020027 -0.187999993563 -0.152999997139 640.0
0.967999994755 -0.202000007033 -0.158999994397 895.0
0.85900002718 -0.184000000358 -0.141000002623 248.0
0.757000029087 -0.165999993682 -0.125 194.0
0.757000029087 -0.171000003815 -0.125 187.0
0.73299998045 -0.170000001788 -0.120999999344 191.0
0.71899998188 -0.171000003815 -0.119000002742 199.0
0.730000019073 -0.178000003099 -0.120999999344 201.0
0.73299998045 -0.182999998331 -0.120999999344 197.0
0.731999993324 -0.187999993563 -0.120999999344 199.0
0.723999977112 -0.189999997616 -0.119999997318 202.0
0.726000010967 -0.194999992847 -0.119999997318 209.0
0.727999985218 -0.201000005007 -0.120999999344 210.0
0.722000002861 -0.203999996185 -0.119999997318 210.0
0.725000023842 -0.209000006318 -0.120999999344 220.0
0.880999982357 -0.261000007391 -0.146999999881 693.0
0.930000007153 -0.280999988317 -0.155000001192 1353.0
0.936999976635 -0.289999991655 -0.157000005245 1424.0
0.935000002384 -0.294999986887 -0.157000005245 1440.0
0.929000020027 -0.298999994993 -0.156000003219 1449.0
0.927999973297 -0.305000007153 -0.156000003219 1470.0
0.925000011921 -0.310000002384 -0.156000003219 1470.0
0.922999978065 -0.314999997616 -0.156000003219 1480.0
0.92199999094 -0.321000009775 -0.156000003219 1483.0
0.916000008583 -0.324999988079 -0.155000001192 1484.0
0.907000005245 -0.32800000906 -0.153999999166 1491.0
0.910000026226 -0.33599999547 -0.153999999166 1510.0
0.907999992371 -0.340999990702 -0.153999999166 1509.0
0.90499997139 -0.345999985933 -0.153999999166 1526.0
0.898999989033 -0.34999999404 -0.152999997139 989.0
0.772000014782 -0.305000007153 -0.131999999285 301.0
0.709999978542 -0.286000013351 -0.122000001371 239.0
0.689999997616 -0.282000005245 -0.118000000715 238.0
0.70300000906 -0.293000012636 -0.120999999344 244.0
0.722999989986 -0.305999994278 -0.125 246.0
0.700999975204 -0.301999986172 -0.120999999344 252.0
0.708999991417 -0.310000002384 -0.123000003397 256.0
0.667999982834 -0.29699999094 -0.115999996662 257.0
0.703999996185 -0.317999988794 -0.122000001371 250.0
0.672999978065 -0.308999985456 -0.116999998689 255.0
0.666000008583 -0.31099998951 -0.115999996662 248.0
0.68599998951 -0.326000005007 -0.119999997318 265.0
0.680999994278 -0.32800000906 -0.119000002742 268.0
0.830999970436 -0.407999992371 -0.145999997854 960.0
0.85799998045 -0.428000003099 -0.150999993086 1620.0
0.860000014305 -0.43599998951 -0.151999995112 1669.0
0.862999975681 -0.444000005722 -0.152999997139 1706.0
0.852999985218 -0.446000009775 -0.151999995112 1693.0
0.851000010967 -0.451999992132 -0.151999995112 1694.0
0.846000015736 -0.455000013113 -0.150999993086 1706.0
0.84500002861 -0.462000012398 -0.150999993086 1719.0
0.839999973774 -0.465999990702 -0.150999993086 1726.0
0.837000012398 -0.470999985933 -0.150999993086 1747.0
0.546000003815 0.316000014544 -0.105999998748 188.0
0.938000023365 0.536000013351 -0.180999994278 533.0
0.386000007391 0.216999992728 -0.0740000009537 130.0
0.294999986887 0.163000002503 -0.0560000017285 111.0
1.15100002289 0.629999995232 -0.219999998808 97.0
1.49300003052 0.805999994278 -0.284999996424 154.0
1.62300002575 0.862999975681 -0.308999985456 236.0
1.58800005913 0.830999970436 -0.300999999046 176.0
1.17599999905 0.597000002861 -0.222000002861 77.0
1.07799994946 0.538999974728 -0.202000007033 78.0
0.103000000119 0.0430000014603 -0.0189999993891 80.0
0.0960000008345 0.0399999991059 -0.0170000009239 68.0
0.307999998331 0.119999997318 -0.0560000017285 85.0
0.321000009775 0.123000003397 -0.0579999983311 104.0
0.361999988556 0.136000007391 -0.0649999976158 111.0
0.486999988556 0.180000007153 -0.0869999974966 121.0
0.624000012875 0.225999996066 -0.112000003457 138.0
0.695999979973 0.24699999392 -0.123999997973 159.0
0.744000017643 0.259999990463 -0.133000001311 198.0
0.799000024796 0.273000001907 -0.142000004649 226.0
0.861000001431 0.28900000453 -0.152999997139 268.0
0.875 0.287999987602 -0.155000001192 326.0
0.898000001907 0.28900000453 -0.158999994397 382.0
0.907000005245 0.286000013351 -0.159999996424 429.0
0.929000020027 0.287000000477 -0.16400000453 472.0
0.943000018597 0.284999996424 -0.165999993682 537.0
0.940999984741 0.279000014067 -0.165000006557 583.0
0.962999999523 0.279000014067 -0.168999999762 629.0
0.955999970436 0.270999997854 -0.167999997735 689.0
0.967999994755 0.268000006676 -0.170000001788 735.0
0.96899998188 0.261999994516 -0.168999999762 774.0
0.971000015736 0.256999999285 -0.168999999762 812.0
0.975000023842 0.252000004053 -0.170000001788 858.0
0.977999985218 0.246000006795 -0.170000001788 885.0
0.972999989986 0.238999992609 -0.168999999762 915.0
0.976999998093 0.233999997377 -0.170000001788 953.0
0.981999993324 0.229000002146 -0.170000001788 968.0
0.976000010967 0.222000002861 -0.168999999762 994.0
0.981999993324 0.216999992728 -0.170000001788 1014.0
0.98400002718 0.21099999547 -0.170000001788 1024.0
0.985000014305 0.204999998212 -0.170000001788 1038.0
0.977999985218 0.197999998927 -0.167999997735 1045.0
0.977999985218 0.192000001669 -0.167999997735 1046.0
0.976000010967 0.186000004411 -0.167999997735 1055.0
0.981999993324 0.180999994278 -0.167999997735 1072.0
0.976000010967 0.173999994993 -0.166999995708 1069.0
0.976999998093 0.167999997735 -0.166999995708 1071.0
0.981999993324 0.163000002503 -0.167999997735 1084.0
0.986999988556 0.158000007272 -0.168999999762 1078.0
0.977999985218 0.150999993086 -0.166999995708 1056.0
0.98400002718 0.145999997854 -0.167999997735 1052.0
0.976999998093 0.138999998569 -0.166999995708 1038.0
0.981999993324 0.134000003338 -0.166999995708 1040.0
0.98400002718 0.12800000608 -0.167999997735 1010.0
0.975000023842 0.122000001371 -0.165999993682 986.0
0.976000010967 0.115999996662 -0.165999993682 971.0
0.976000010967 0.109999999404 -0.165999993682 953.0
0.97000002861 0.104000002146 -0.165000006557 917.0
0.971000015736 0.097999997437 -0.165000006557 884.0
0.97000002861 0.0920000001788 -0.16400000453 852.0
0.962000012398 0.0860000029206 -0.163000002503 820.0
0.964999973774 0.0810000002384 -0.163000002503 789.0
0.964999973774 0.0750000029802 -0.163000002503 739.0
0.961000025272 0.0689999982715 -0.162000000477 704.0
0.955999970436 0.0630000010133 -0.16099999845 673.0
0.948000013828 0.0570000000298 -0.159999996424 630.0
0.949999988079 0.0520000010729 -0.159999996424 594.0
0.93900001049 0.0460000000894 -0.158000007272 550.0
0.92199999094 0.0399999991059 -0.156000003219 515.0
0.925000011921 0.0340000018477 -0.156000003219 476.0
0.921000003815 0.0289999991655 -0.155000001192 437.0
0.912999987602 0.0230000000447 -0.153999999166 408.0
0.912999987602 0.0179999992251 -0.153999999166 376.0
0.893000006676 0.0130000002682 -0.15000000596 345.0
0.908999979496 0.00700000021607 -0.152999997139 402.0
0.889999985695 0.00200000009499 -0.15000000596 381.0
0.897000014782 -0.00200000009499 -0.150999993086 369.0
0.871999979019 -0.00700000021607 -0.146999999881 310.0
0.851000010967 -0.0120000001043 -0.143000006676 259.0
0.759999990463 -0.0140000004321 -0.12800000608 175.0
0.722000002861 -0.0179999992251 -0.120999999344 168.0
0.717000007629 -0.0219999998808 -0.120999999344 161.0
0.680000007153 -0.0240000002086 -0.11400000006 156.0
0.665000021458 -0.0280000008643 -0.112000003457 137.0
0.694999992847 -0.0329999998212 -0.116999998689 147.0
0.624000012875 -0.0329999998212 -0.104999996722 131.0
0.605000019073 -0.035000000149 -0.101999998093 116.0
0.526000022888 -0.0329999998212 -0.0879999995232 105.0
0.43599998951 -0.0299999993294 -0.0729999989271 103.0
0.462999999523 -0.0340000018477 -0.0780000016093 100.0
0.358999997377 -0.0280000008643 -0.0599999986589 90.0
0.270999997854 -0.0219999998808 -0.0460000000894 97.0
0.217999994755 -0.0179999992251 -0.0370000004768 104.0
0.187999993563 -0.01600000076 -0.0320000015199 97.0
0.231000006199 -0.0219999998808 -0.0390000008047 82.0
0.224000006914 -0.0230000000447 -0.0379999987781 79.0
0.134000003338 -0.0130000002682 -0.0219999998808 65.0
0.116999998689 -0.0120000001043 -0.019999999553 64.0
0.165999993682 -0.0189999993891 -0.0280000008643 66.0
0.0649999976158 -0.00600000005215 -0.0109999999404 63.0
0.116999998689 -0.0140000004321 -0.019999999553 68.0
0.0329999998212 -0.00200000009499 -0.00499999988824 67.0
0.0520000010729 -0.00499999988824 -0.00899999961257 68.0
0.0299999993294 -0.0010000000475 -0.00499999988824 66.0
0.0189999993891 0.0 -0.00300000002608 67.0
0.0890000015497 -0.0120000001043 -0.0149999996647 66.0
0.143000006676 -0.0219999998808 -0.0240000002086 63.0
0.082000002265 -0.0120000001043 -0.0140000004321 64.0
0.0450000017881 -0.00499999988824 -0.00700000021607 61.0
0.150999993086 -0.0270000007004 -0.0260000005364 64.0
0.929000020027 -0.187999993563 -0.158000007272 694.0
0.972000002861 -0.202999994159 -0.165999993682 859.0
0.833000004292 -0.178000003099 -0.142000004649 230.0
0.754000008106 -0.165999993682 -0.128999993205 191.0
0.735000014305 -0.165999993682 -0.125 192.0
0.727999985218 -0.168999999762 -0.123999997973 194.0
0.742999970913 -0.177000001073 -0.127000004053 195.0
0.722000002861 -0.175999999046 -0.123999997973 193.0
0.753000020981 -0.188999995589 -0.128999993205 194.0
0.726999998093 -0.187000006437 -0.125 199.0
0.751999974251 -0.197999998927 -0.128999993205 205.0
0.714999973774 -0.193000003695 -0.123000003397 201.0
0.750999987125 -0.207000002265 -0.128999993205 207.0
0.72000002861 -0.202999994159 -0.123999997973 215.0
0.723999977112 -0.209000006318 -0.125 215.0
0.888999998569 -0.263000011444 -0.153999999166 753.0
0.930000007153 -0.282000005245 -0.16099999845 1370.0
0.931999981403 -0.287999987602 -0.162000000477 1424.0
0.929000020027 -0.293000012636 -0.16099999845 1442.0
0.931999981403 -0.300999999046 -0.162000000477 1451.0
0.925999999046 -0.305000007153 -0.16099999845 1458.0
0.925000011921 -0.31099998951 -0.162000000477 1466.0
0.922999978065 -0.316000014544 -0.16099999845 1468.0
0.920000016689 -0.321000009775 -0.16099999845 1486.0
0.917999982834 -0.326000005007 -0.16099999845 1495.0
0.916000008583 -0.331999987364 -0.16099999845 1509.0
0.908999979496 -0.33599999547 -0.159999996424 1517.0
0.901000022888 -0.338999986649 -0.158999994397 1506.0
0.898000001907 -0.344000011683 -0.158999994397 1514.0
0.898000001907 -0.34999999404 -0.158999994397 917.0
0.750999987125 -0.29699999094 -0.133000001311 285.0
0.708999991417 -0.284999996424 -0.126000002027 243.0
0.690999984741 -0.282999992371 -0.123000003397 250.0
0.681999981403 -0.284000009298 -0.122000001371 243.0
0.693000018597 -0.293999999762 -0.123999997973 241.0
0.68599998951 -0.296000003815 -0.123000003397 242.0
0.68599998951 -0.300000011921 -0.123000003397 256.0
0.698000013828 -0.31099998951 -0.125 247.0
0.683000028133 -0.308999985456 -0.123000003397 257.0
0.693000018597 -0.319000005722 -0.125 248.0
0.680999994278 -0.317999988794 -0.123000003397 254.0
0.675000011921 -0.321000009775 -0.123000003397 265.0
0.674000024796 -0.324999988079 -0.123000003397 268.0
0.839999973774 -0.412999987602 -0.152999997139 1053.0
0.860000014305 -0.428999990225 -0.157000005245 1625.0
0.856999993324 -0.433999985456 -0.157000005245 1670.0
0.853999972343 -0.439999997616 -0.157000005245 1701.0
0.851999998093 -0.446000009775 -0.157000005245 1716.0
0.848999977112 -0.451000005007 -0.157000005245 1716.0
0.850000023842 -0.458000004292 -0.158000007272 1693.0
0.842999994755 -0.46099999547 -0.157000005245 1719.0
0.839999973774 -0.465999990702 -0.157000005245 1721.0
0.838999986649 -0.472999989986 -0.157000005245 1730.0
0.456000000238 0.263999998569 -0.0909999981523 169.0
0.947000026703 0.541999995708 -0.188999995589 572.0
0.428000003099 0.240999996662 -0.0850000008941 148.0
0.333000004292 0.185000002384 -0.0659999996424 102.0
1.14400005341 0.626999974251 -0.225999996066 98.0
1.46399998665 0.790000021458 -0.28900000453 141.0
1.69400000572 0.901000022888 -0.333000004292 236.0
1.6210000515 0.848999977112 -0.317999988794 193.0
1.21300005913 0.625999987125 -0.237000003457 79.0
1.15699994564 0.587999999523 -0.225999996066 79.0
2.29699993134 1.07899999619 -0.442000001669 82.0
2.23300004005 1.01600003242 -0.426999986172 74.0
2.27099990845 1.0 -0.432000011206 89.0
4.6360001564 1.80999994278 -0.867999970913 76.0
0.00999999977648 0.00300000002608 -0.0010000000475 86.0
0.0489999987185 0.0179999992251 -0.00899999961257 85.0
0.0390000008047 0.0140000004321 -0.00700000021607 96.0
0.0260000005364 0.00899999961257 -0.00499999988824 78.0
4.69000005722 1.66900002956 -0.869000017643 79.0
0.0250000003725 0.00899999961257 -0.00400000018999 90.0
0.00499999988824 0.00200000009499 -0.0010000000475 87.0
4.71899986267 1.58399999142 -0.870000004768 82.0
4.72300004959 1.55499994755 -0.869000017643 77.0
4.72700023651 1.52499997616 -0.867999970913 89.0
0.0399999991059 0.0130000002682 -0.00700000021607 84.0
0.0390000008047 0.0120000001043 -0.00700000021607 75.0
0.0810000002384 0.0250000003725 -0.0140000004321 91.0
0.21400000155 0.0630000010133 -0.0390000008047 93.0
0.300999999046 0.0879999995232 -0.054999999702 101.0
0.423999994993 0.119999997318 -0.0769999995828 115.0
0.537000000477 0.149000003934 -0.097000002861 138.0
0.587000012398 0.158999994397 -0.105999998748 133.0
0.675000011921 0.179000005126 -0.122000001371 165.0
0.745000004768 0.193000003695 -0.134000003338 200.0
0.800999999046 0.202000007033 -0.143999993801 243.0
0.861000001431 0.211999997497 -0.155000001192 299.0
0.869000017643 0.208000004292 -0.156000003219 353.0
0.893999993801 0.209000006318 -0.159999996424 409.0
0.921000003815 0.209000006318 -0.165000006557 465.0
0.935000002384 0.207000002265 -0.166999995708 516.0
0.947000026703 0.202999994159 -0.168999999762 560.0
0.957000017166 0.20000000298 -0.171000003815 616.0
0.955999970436 0.194000005722 -0.170000001788 654.0
0.961000025272 0.188999995589 -0.171000003815 709.0
0.97000002861 0.185000002384 -0.172000005841 758.0
0.962999999523 0.178000003099 -0.171000003815 806.0
0.967000007629 0.172000005841 -0.172000005841 845.0
0.967000007629 0.166999995708 -0.171000003815 876.0
0.972999989986 0.162000000477 -0.172000005841 917.0
0.976000010967 0.157000005245 -0.172999992967 967.0
0.973999977112 0.15000000596 -0.172000005841 1007.0
0.972000002861 0.143999993801 -0.172000005841 1013.0
0.973999977112 0.138999998569 -0.172000005841 1035.0
0.976000010967 0.133000001311 -0.172000005841 1064.0
0.976000010967 0.12800000608 -0.172000005841 1083.0
0.976999998093 0.122000001371 -0.172000005841 1105.0
0.976999998093 0.115999996662 -0.172000005841 1117.0
0.976999998093 0.109999999404 -0.172000005841 1131.0
0.975000023842 0.104000002146 -0.171000003815 1127.0
0.973999977112 0.097999997437 -0.171000003815 1139.0
0.972999989986 0.0930000022054 -0.171000003815 1159.0
0.975000023842 0.0869999974966 -0.171000003815 1162.0
0.973999977112 0.0810000002384 -0.171000003815 1159.0
0.978999972343 0.0759999975562 -0.172000005841 1165.0
0.971000015736 0.070000000298 -0.170000001788 1156.0
0.975000023842 0.0640000030398 -0.171000003815 1172.0
0.976999998093 0.0590000003576 -0.171000003815 1171.0
0.972999989986 0.0529999993742 -0.170000001788 1154.0
0.972000002861 0.0469999983907 -0.170000001788 1140.0
0.97000002861 0.0419999994338 -0.170000001788 1126.0
0.975000023842 0.0359999984503 -0.170000001788 1117.0
0.97000002861 0.0299999993294 -0.168999999762 1091.0
0.971000015736 0.0250000003725 -0.168999999762 1094.0
0.975000023842 0.0189999993891 -0.170000001788 1092.0
0.976000010967 0.0130000002682 -0.170000001788 1087.0
0.97000002861 0.00800000037998 -0.168999999762 1112.0
0.976999998093 0.00200000009499 -0.170000001788 1124.0
0.972999989986 -0.00200000009499 -0.170000001788 1159.0
0.976999998093 -0.00800000037998 -0.170000001788 1156.0
0.964999973774 -0.0140000004321 -0.167999997735 1080.0
0.96899998188 -0.0189999993891 -0.168999999762 1004.0
0.967999994755 -0.0250000003725 -0.168999999762 1004.0
0.964999973774 -0.0299999993294 -0.167999997735 1011.0
0.962999999523 -0.0359999984503 -0.167999997735 999.0
0.958000004292 -0.0410000011325 -0.166999995708 961.0
0.962999999523 -0.0469999983907 -0.167999997735 1016.0
0.971000015736 -0.0529999993742 -0.168999999762 980.0
0.958000004292 -0.0579999983311 -0.166999995708 928.0
0.957000017166 -0.0630000010133 -0.166999995708 881.0
0.959999978542 -0.0689999982715 -0.166999995708 856.0
0.958999991417 -0.0750000029802 -0.166999995708 829.0
0.957000017166 -0.0799999982119 -0.166999995708 783.0
0.954999983311 -0.0860000029206 -0.166999995708 759.0
0.952000021935 -0.0909999981523 -0.165999993682 755.0
0.944000005722 -0.0960000008345 -0.165000006557 731.0
0.948000013828 -0.101999998093 -0.165999993682 695.0
0.935000002384 -0.105999998748 -0.163000002503 639.0
0.917999982834 -0.108999997377 -0.159999996424 374.0
0.347999989986 -0.0410000011325 -0.0610000006855 77.0
0.122000001371 -0.0130000002682 -0.0209999997169 66.0
0.097999997437 -0.00999999977648 -0.0170000009239 66.0
0.0799999982119 -0.00800000037998 -0.0140000004321 66.0
0.104000002146 -0.0120000001043 -0.0179999992251 65.0
0.0839999988675 -0.00999999977648 -0.0140000004321 65.0
0.0590000003576 -0.00600000005215 -0.00999999977648 72.0
0.0529999993742 -0.00499999988824 -0.00899999961257 68.0
0.0329999998212 -0.00200000009499 -0.00499999988824 69.0
0.0469999983907 -0.00499999988824 -0.00800000037998 67.0
0.0710000023246 -0.00999999977648 -0.0120000001043 70.0
0.0540000014007 -0.00700000021607 -0.00899999961257 65.0
0.138999998569 -0.0240000002086 -0.0240000002086 71.0
0.930000007153 -0.187999993563 -0.16400000453 746.0
0.959999978542 -0.20000000298 -0.168999999762 818.0
0.818000018597 -0.17499999702 -0.143999993801 230.0
0.731000006199 -0.16099999845 -0.128999993205 194.0
0.727999985218 -0.165000006557 -0.128999993205 193.0
0.758000016212 -0.175999999046 -0.134000003338 191.0
0.703999996185 -0.167999997735 -0.125 197.0
0.735000014305 -0.180000007153 -0.129999995232 195.0
0.737999975681 -0.185000002384 -0.130999997258 200.0
0.735000014305 -0.188999995589 -0.130999997258 200.0
0.740999996662 -0.194999992847 -0.131999999285 203.0
0.726999998093 -0.195999994874 -0.129999995232 201.0
0.754999995232 -0.209000006318 -0.135000005364 211.0
0.721000015736 -0.203999996185 -0.128999993205 209.0
0.717000007629 -0.207000002265 -0.12800000608 217.0
0.898000001907 -0.266000002623 -0.16099999845 822.0
0.934000015259 -0.282999992371 -0.167999997735 1377.0
0.930999994278 -0.287999987602 -0.166999995708 1437.0
0.934000015259 -0.294999986887 -0.167999997735 1451.0
0.929000020027 -0.300000011921 -0.166999995708 1457.0
0.920000016689 -0.303000003099 -0.165999993682 1465.0
0.927999973297 -0.312000006437 -0.167999997735 1471.0
0.915000021458 -0.312999993563 -0.165999993682 1489.0
0.920000016689 -0.321000009775 -0.166999995708 1493.0
0.912999987602 -0.324999988079 -0.165999993682 1482.0
0.913999974728 -0.331999987364 -0.165999993682 1497.0
0.908999979496 -0.33599999547 -0.165999993682 1512.0
0.911000013351 -0.342999994755 -0.165999993682 1522.0
0.901000022888 -0.344999998808 -0.165000006557 1527.0
0.888999998569 -0.347000002861 -0.163000002503 830.0
0.753000020981 -0.298000007868 -0.137999996543 274.0
0.702000021935 -0.282999992371 -0.128999993205 239.0
0.700999975204 -0.287000000477 -0.128999993205 242.0
0.694000005722 -0.28900000453 -0.12800000608 241.0
0.698000013828 -0.296000003815 -0.128999993205 245.0
0.695999979973 -0.300000011921 -0.128999993205 244.0
0.675000011921 -0.296000003815 -0.125 249.0
0.694999992847 -0.310000002384 -0.129999995232 249.0
0.680000007153 -0.307999998331 -0.127000004053 248.0
0.667999982834 -0.307000011206 -0.125 264.0
0.666000008583 -0.312000006437 -0.125 257.0
0.672999978065 -0.319999992847 -0.126000002027 266.0
0.681999981403 -0.330000013113 -0.128999993205 284.0
0.830999970436 -0.409000009298 -0.157000005245 1129.0
0.856000006199 -0.428000003099 -0.162000000477 1633.0
0.860000014305 -0.437000006437 -0.163000002503 1674.0
0.855000019073 -0.441000014544 -0.163000002503 1690.0
0.851999998093 -0.446000009775 -0.163000002503 1689.0
0.850000023842 -0.451999992132 -0.163000002503 1707.0
0.847000002861 -0.456999987364 -0.163000002503 1720.0
0.847000002861 -0.463999986649 -0.163000002503 1728.0
0.84399998188 -0.469000011683 -0.163000002503 1726.0
0.838999986649 -0.472999989986 -0.163000002503 1729.0
0.437999993563 0.254000008106 -0.0909999981523 183.0
0.933000028133 0.535000026226 -0.193000003695 581.0
0.433999985456 0.245000004768 -0.0890000015497 147.0
0.344999998808 0.190999999642 -0.0710000023246 101.0
1.0870000124 0.596000015736 -0.223000004888 94.0
1.38399994373 0.748000025749 -0.282000005245 139.0
1.63300001621 0.870000004768 -0.331999987364 222.0
1.57000005245 0.823000013828 -0.317999988794 184.0
1.2159999609 0.628000020981 -0.246000006795 81.0
1.22200000286 0.620999991894 -0.246000006795 74.0
2.22600007057 0.996999979019 -0.43900001049 82.0
2.27399992943 1.00199997425 -0.448000013828 95.0
2.40899991989 0.991999983788 -0.469999998808 93.0
2.40700006485 0.973999977112 -0.467999994755 104.0
4.65399980545 1.78600001335 -0.899999976158 79.0
4.63999986649 1.74899995327 -0.894999980927 78.0
4.65000009537 1.72000002861 -0.894999980927 80.0
4.61299991608 1.67499995232 -0.885999977589 81.0
4.66300010681 1.66100001335 -0.893999993801 69.0
4.64499998093 1.62300002575 -0.888999998569 89.0
4.66699981689 1.60000002384 -0.89099997282 86.0
4.67999982834 1.57299995422 -0.89200001955 77.0
4.72800016403 1.55700004101 -0.898999989033 80.0
0.0149999996647 0.00499999988824 -0.00300000002608 87.0
4.67700004578 1.47899997234 -0.885999977589 81.0
