ply
format ascii 1.0
element vertex 894
property float x
property float y
property float z
property float intensity
end_header
0.898000001907 0.0599999986589 -0.201000005007 1563.0
0.897000014782 0.0540000014007 -0.20000000298 1543.0
0.897000014782 0.0489999987185 -0.20000000298 1516.0
0.897000014782 0.0439999997616 -0.20000000298 1526.0
0.898000001907 0.0390000008047 -0.20000000298 1539.0
0.898999989033 0.0329999998212 -0.20000000298 1534.0
0.899999976158 0.0280000008643 -0.20000000298 1511.0
0.898999989033 0.0230000000447 -0.20000000298 1507.0
0.899999976158 0.0179999992251 -0.20000000298 1521.0
0.903999984264 0.0120000001043 -0.201000005007 1523.0
0.902999997139 0.00700000021607 -0.201000005007 1519.0
0.898999989033 0.00200000009499 -0.20000000298 1497.0
0.901000022888 -0.00200000009499 -0.201000005007 1503.0
0.899999976158 -0.00800000037998 -0.20000000298 1498.0
0.902000010014 -0.0130000002682 -0.201000005007 1499.0
0.902999997139 -0.0179999992251 -0.201000005007 1498.0
0.899999976158 -0.0230000000447 -0.20000000298 1504.0
0.902000010014 -0.0289999991655 -0.201000005007 1516.0
0.902000010014 -0.0340000018477 -0.201000005007 1501.0
0.90600001812 -0.0390000008047 -0.201000005007 1515.0
0.898999989033 -0.0439999997616 -0.20000000298 1530.0
0.90600001812 -0.0500000007451 -0.202000007033 1520.0
0.903999984264 -0.054999999702 -0.201000005007 1515.0
0.907999992371 -0.0610000006855 -0.202000007033 1509.0
0.902000010014 -0.0659999996424 -0.201000005007 1509.0
0.902999997139 -0.0710000023246 -0.201000005007 1497.0
0.907000005245 -0.0769999995828 -0.202000007033 1506.0
0.907000005245 -0.082000002265 -0.202000007033 1481.0
0.912000000477 -0.0879999995232 -0.202999994159 1489.0
0.908999979496 -0.0930000022054 -0.202999994159 1474.0
0.90600001812 -0.097999997437 -0.202000007033 1475.0
0.907000005245 -0.104000002146 -0.202000007033 1474.0
0.908999979496 -0.108999997377 -0.202999994159 1492.0
0.912999987602 -0.115000002086 -0.203999996185 1480.0
0.910000026226 -0.119999997318 -0.202999994159 1471.0
0.907999992371 -0.125 -0.202999994159 1468.0
0.911000013351 -0.130999997258 -0.203999996185 1468.0
0.908999979496 -0.136000007391 -0.202999994159 1459.0
0.912000000477 -0.142000004649 -0.203999996185 1455.0
0.911000013351 -0.146999999881 -0.203999996185 1462.0
0.916000008583 -0.153999999166 -0.204999998212 1462.0
0.912000000477 -0.158999994397 -0.204999998212 1464.0
0.912999987602 -0.16400000453 -0.204999998212 1467.0
0.919000029564 -0.171000003815 -0.206000000238 1450.0
0.915000021458 -0.175999999046 -0.206000000238 1461.0
0.913999974728 -0.180999994278 -0.206000000238 1467.0
0.915000021458 -0.187000006437 -0.206000000238 1451.0
0.913999974728 -0.193000003695 -0.206000000238 1453.0
0.910000026226 -0.196999996901 -0.204999998212 1444.0
0.913999974728 -0.203999996185 -0.206000000238 1435.0
0.919000029564 -0.21099999547 -0.208000004292 1454.0
0.916000008583 -0.216000005603 -0.207000002265 1442.0
0.919000029564 -0.222000002861 -0.208000004292 1436.0
0.916999995708 -0.228000000119 -0.208000004292 1436.0
0.912999987602 -0.231999993324 -0.207000002265 1421.0
0.919000029564 -0.239999994636 -0.209000006318 1425.0
0.925000011921 -0.24699999392 -0.21099999547 1425.0
0.919000029564 -0.250999987125 -0.209000006318 1447.0
0.915000021458 -0.256000012159 -0.209000006318 1441.0
0.915000021458 -0.261999994516 -0.209000006318 1413.0
0.922999978065 -0.270000010729 -0.21099999547 1384.0
0.921000003815 -0.275999993086 -0.21099999547 1384.0
0.92199999094 -0.282000005245 -0.211999997497 1374.0
0.922999978065 -0.28900000453 -0.211999997497 1374.0
0.925999999046 -0.296000003815 -0.212999999523 1384.0
0.92199999094 -0.300000011921 -0.212999999523 1382.0
0.925000011921 -0.307000011206 -0.21400000155 1381.0
0.925999999046 -0.31400001049 -0.21400000155 1382.0
0.926999986172 -0.321000009775 -0.215000003576 1372.0
0.925999999046 -0.326999992132 -0.215000003576 1358.0
0.926999986172 -0.333000004292 -0.216000005603 1345.0
0.925999999046 -0.338999986649 -0.216000005603 1344.0
0.925999999046 -0.345999985933 -0.216000005603 1362.0
0.925999999046 -0.351999998093 -0.216999992728 1333.0
0.929000020027 -0.360000014305 -0.217999994755 1309.0
0.922999978065 -0.363999992609 -0.216999992728 1307.0
0.930000007153 -0.372999995947 -0.218999996781 1314.0
0.927999973297 -0.379000008106 -0.218999996781 1327.0
0.929000020027 -0.386000007391 -0.218999996781 1316.0
0.933000028133 -0.395000010729 -0.221000000834 1305.0
0.931999981403 -0.400999993086 -0.221000000834 1310.0
0.933000028133 -0.407999992371 -0.222000002861 1300.0
0.93599998951 -0.416000008583 -0.223000004888 1297.0
0.927999973297 -0.419999986887 -0.222000002861 1295.0
0.933000028133 -0.428999990225 -0.223000004888 1273.0
0.931999981403 -0.435000002384 -0.224000006914 1268.0
0.933000028133 -0.442999988794 -0.224000006914 1242.0
0.931999981403 -0.449000000954 -0.22499999404 1255.0
0.933000028133 -0.456999987364 -0.22499999404 1241.0
1.24199998379 -0.638999998569 -0.303000003099 192.0
1.27799999714 -0.667999982834 -0.312000006437 188.0
1.26900005341 -0.674000024796 -0.31099998951 203.0
1.28100001812 -0.690999984741 -0.314999997616 230.0
1.25899994373 -0.68900001049 -0.310000002384 234.0
1.23300004005 -0.685000002384 -0.305000007153 224.0
1.20399999619 -0.677999973297 -0.298999994993 219.0
1.17599999905 -0.672999978065 -0.293000012636 159.0
0.897000014782 0.134000003338 -0.208000004292 1512.0
0.89200001955 0.12800000608 -0.206000000238 1533.0
0.89200001955 0.123000003397 -0.206000000238 1573.0
0.888999998569 0.116999998689 -0.204999998212 1569.0
0.888000011444 0.112000003457 -0.204999998212 1568.0
0.888999998569 0.105999998748 -0.204999998212 1567.0
0.889999985695 0.101000003517 -0.204999998212 1568.0
0.888000011444 0.0960000008345 -0.203999996185 1555.0
0.893999993801 0.0909999981523 -0.206000000238 1548.0
0.898000001907 0.0860000029206 -0.206000000238 1563.0
0.893999993801 0.0810000002384 -0.204999998212 1591.0
0.89099997282 0.0750000029802 -0.204999998212 1573.0
0.893999993801 0.070000000298 -0.204999998212 1571.0
0.897000014782 0.0649999976158 -0.206000000238 1568.0
0.893999993801 0.0590000003576 -0.204999998212 1562.0
0.893999993801 0.0540000014007 -0.204999998212 1545.0
0.896000027657 0.0489999987185 -0.204999998212 1539.0
0.893000006676 0.0439999997616 -0.204999998212 1528.0
0.893999993801 0.0390000008047 -0.204999998212 1547.0
0.898000001907 0.0329999998212 -0.206000000238 1542.0
0.893999993801 0.0280000008643 -0.203999996185 1522.0
0.902000010014 0.0230000000447 -0.206000000238 1516.0
0.894999980927 0.0179999992251 -0.204999998212 1536.0
0.898999989033 0.0120000001043 -0.204999998212 1530.0
0.901000022888 0.00700000021607 -0.206000000238 1535.0
0.898999989033 0.00200000009499 -0.204999998212 1516.0
0.894999980927 -0.00200000009499 -0.204999998212 1504.0
0.898999989033 -0.00800000037998 -0.204999998212 1504.0
0.90499997139 -0.0130000002682 -0.207000002265 1497.0
0.907000005245 -0.0179999992251 -0.207000002265 1511.0
0.902000010014 -0.0230000000447 -0.206000000238 1516.0
0.90499997139 -0.0289999991655 -0.207000002265 1495.0
0.902999997139 -0.0340000018477 -0.206000000238 1484.0
0.902000010014 -0.0390000008047 -0.206000000238 1492.0
0.903999984264 -0.0450000017881 -0.207000002265 1511.0
0.902999997139 -0.0500000007451 -0.206000000238 1516.0
0.898999989033 -0.054999999702 -0.206000000238 1494.0
0.910000026226 -0.0610000006855 -0.208000004292 1521.0
0.90499997139 -0.0659999996424 -0.207000002265 1517.0
0.902999997139 -0.0710000023246 -0.207000002265 1501.0
0.901000022888 -0.0759999975562 -0.206000000238 1494.0
0.907999992371 -0.082000002265 -0.208000004292 1479.0
0.907999992371 -0.0879999995232 -0.208000004292 1484.0
0.908999979496 -0.0930000022054 -0.208000004292 1475.0
0.903999984264 -0.097999997437 -0.207000002265 1492.0
0.910000026226 -0.104000002146 -0.209000006318 1466.0
0.912999987602 -0.109999999404 -0.209000006318 1479.0
0.908999979496 -0.115000002086 -0.209000006318 1470.0
0.911000013351 -0.119999997318 -0.209000006318 1474.0
0.911000013351 -0.126000002027 -0.209000006318 1477.0
0.911000013351 -0.130999997258 -0.209000006318 1483.0
0.912000000477 -0.136999994516 -0.209999993443 1466.0
0.911000013351 -0.142000004649 -0.209999993443 1458.0
0.912999987602 -0.148000001907 -0.209999993443 1456.0
0.912999987602 -0.153999999166 -0.209999993443 1475.0
0.912000000477 -0.158999994397 -0.209999993443 1466.0
0.912000000477 -0.16400000453 -0.209999993443 1448.0
0.912000000477 -0.170000001788 -0.21099999547 1448.0
0.912000000477 -0.175999999046 -0.21099999547 1450.0
0.913999974728 -0.181999996305 -0.21099999547 1461.0
0.916000008583 -0.187999993563 -0.211999997497 1452.0
0.915000021458 -0.193000003695 -0.211999997497 1453.0
0.916000008583 -0.199000000954 -0.212999999523 1432.0
0.912000000477 -0.203999996185 -0.211999997497 1421.0
0.916999995708 -0.209999993443 -0.212999999523 1441.0
0.913999974728 -0.216000005603 -0.212999999523 1424.0
0.916999995708 -0.222000002861 -0.21400000155 1414.0
0.916000008583 -0.228000000119 -0.21400000155 1431.0
0.913999974728 -0.232999995351 -0.212999999523 1419.0
0.920000016689 -0.239999994636 -0.215000003576 1395.0
0.917999982834 -0.246000006795 -0.215000003576 1410.0
0.915000021458 -0.250999987125 -0.215000003576 1434.0
0.919000029564 -0.25799998641 -0.216000005603 1424.0
0.920000016689 -0.263999998569 -0.216000005603 1411.0
0.917999982834 -0.268999993801 -0.216000005603 1389.0
0.916999995708 -0.27500000596 -0.216000005603 1367.0
0.917999982834 -0.280999988317 -0.216999992728 1368.0
0.929000020027 -0.291000008583 -0.219999998808 1381.0
0.915000021458 -0.291999995708 -0.216999992728 1388.0
0.919000029564 -0.300000011921 -0.217999994755 1379.0
0.917999982834 -0.305999994278 -0.217999994755 1376.0
0.921000003815 -0.312999993563 -0.218999996781 1386.0
0.927999973297 -0.321000009775 -0.221000000834 1366.0
0.921000003815 -0.324999988079 -0.219999998808 1349.0
0.925000011921 -0.333000004292 -0.221000000834 1346.0
0.925999999046 -0.340000003576 -0.222000002861 1350.0
0.924000024796 -0.344999998808 -0.222000002861 1365.0
0.926999986172 -0.352999985218 -0.223000004888 1363.0
0.922999978065 -0.358000010252 -0.222000002861 1338.0
0.926999986172 -0.365999996662 -0.224000006914 1317.0
0.933000028133 -0.375 -0.225999996066 1327.0
0.926999986172 -0.379000008106 -0.22499999404 1313.0
0.929000020027 -0.386999994516 -0.225999996066 1322.0
0.930999994278 -0.393999993801 -0.225999996066 1330.0
0.930999994278 -0.400999993086 -0.226999998093 1317.0
0.927999973297 -0.405999988317 -0.226999998093 1294.0
0.930000007153 -0.41400000453 -0.228000000119 1284.0
0.929000020027 -0.421000003815 -0.228000000119 1281.0
0.929000020027 -0.428000003099 -0.229000002146 1256.0
0.933000028133 -0.437000006437 -0.230000004172 1255.0
0.934000015259 -0.444000005722 -0.231000006199 1229.0
0.935000002384 -0.451999992132 -0.231999993324 1234.0
0.929000020027 -0.456000000238 -0.231000006199 1212.0
1.25100004673 -0.644999980927 -0.31400001049 195.0
1.27199995518 -0.666000008583 -0.319999992847 202.0
1.25699996948 -0.667999982834 -0.317000001669 212.0
1.26400005817 -0.683000028133 -0.319999992847 244.0
1.24100005627 -0.680000007153 -0.314999997616 240.0
1.27999997139 -0.712000012398 -0.326000005007 245.0
1.22599995136 -0.691999971867 -0.312999993563 232.0
1.19000005722 -0.681999981403 -0.303999990225 158.0
0.898000001907 0.134000003338 -0.212999999523 1519.0
0.885999977589 0.127000004053 -0.209999993443 1547.0
0.884999990463 0.122000001371 -0.209999993443 1567.0
0.889999985695 0.116999998689 -0.21099999547 1563.0
0.888999998569 0.112000003457 -0.21099999547 1552.0
0.89200001955 0.107000000775 -0.21099999547 1554.0
0.893999993801 0.101999998093 -0.211999997497 1560.0
0.893999993801 0.097000002861 -0.21099999547 1562.0
0.89099997282 0.0909999981523 -0.209999993443 1545.0
0.893000006676 0.0860000029206 -0.21099999547 1552.0
0.893999993801 0.0810000002384 -0.21099999547 1574.0
0.89099997282 0.0750000029802 -0.209999993443 1567.0
0.897000014782 0.070000000298 -0.21099999547 1560.0
0.89099997282 0.0649999976158 -0.209999993443 1565.0
0.898999989033 0.0599999986589 -0.211999997497 1566.0
0.898000001907 0.054999999702 -0.21099999547 1555.0
0.896000027657 0.0489999987185 -0.21099999547 1561.0
0.893999993801 0.0439999997616 -0.209999993443 1538.0
0.897000014782 0.0390000008047 -0.21099999547 1532.0
0.898000001907 0.0329999998212 -0.21099999547 1540.0
0.896000027657 0.0280000008643 -0.209999993443 1514.0
0.899999976158 0.0230000000447 -0.21099999547 1524.0
0.897000014782 0.0179999992251 -0.21099999547 1524.0
0.894999980927 0.0120000001043 -0.209999993443 1516.0
0.90499997139 0.00700000021607 -0.211999997497 1520.0
0.894999980927 0.00200000009499 -0.209999993443 1509.0
0.903999984264 -0.00200000009499 -0.211999997497 1520.0
0.896000027657 -0.00800000037998 -0.209999993443 1517.0
0.908999979496 -0.0130000002682 -0.212999999523 1513.0
0.898999989033 -0.0179999992251 -0.21099999547 1522.0
0.899999976158 -0.0230000000447 -0.21099999547 1515.0
0.901000022888 -0.0289999991655 -0.21099999547 1507.0
0.902000010014 -0.0340000018477 -0.211999997497 1493.0
0.901000022888 -0.0390000008047 -0.21099999547 1498.0
0.898000001907 -0.0439999997616 -0.21099999547 1515.0
0.899999976158 -0.0500000007451 -0.21099999547 1505.0
0.902999997139 -0.054999999702 -0.211999997497 1493.0
0.901000022888 -0.0599999986589 -0.211999997497 1504.0
0.903999984264 -0.0659999996424 -0.211999997497 1511.0
0.899999976158 -0.0710000023246 -0.21099999547 1489.0
0.907999992371 -0.0769999995828 -0.212999999523 1477.0
0.90499997139 -0.082000002265 -0.212999999523 1485.0
0.907000005245 -0.0879999995232 -0.212999999523 1480.0
0.907999992371 -0.0930000022054 -0.21400000155 1481.0
0.910000026226 -0.0989999994636 -0.21400000155 1479.0
0.907999992371 -0.104000002146 -0.21400000155 1485.0
0.908999979496 -0.108999997377 -0.21400000155 1484.0
0.90600001812 -0.11400000006 -0.21400000155 1485.0
0.910000026226 -0.119999997318 -0.21400000155 1477.0
0.907999992371 -0.126000002027 -0.21400000155 1455.0
0.907000005245 -0.130999997258 -0.21400000155 1469.0
0.913999974728 -0.136999994516 -0.216000005603 1460.0
0.912999987602 -0.143000006676 -0.216000005603 1448.0
0.912000000477 -0.148000001907 -0.216000005603 1460.0
0.915000021458 -0.153999999166 -0.216000005603 1460.0
0.907000005245 -0.158000007272 -0.215000003576 1455.0
0.912000000477 -0.165000006557 -0.216000005603 1452.0
0.911000013351 -0.170000001788 -0.216000005603 1437.0
0.912000000477 -0.175999999046 -0.216999992728 1439.0
0.912999987602 -0.181999996305 -0.216999992728 1443.0
0.911000013351 -0.187000006437 -0.216999992728 1437.0
0.911000013351 -0.193000003695 -0.216999992728 1436.0
0.911000013351 -0.197999998927 -0.216999992728 1428.0
0.922999978065 -0.206000000238 -0.219999998808 1417.0
0.916000008583 -0.21099999547 -0.218999996781 1423.0
0.916999995708 -0.216999992728 -0.218999996781 1422.0
0.920000016689 -0.223000004888 -0.219999998808 1423.0
0.915000021458 -0.228000000119 -0.218999996781 1428.0
0.910000026226 -0.231999993324 -0.217999994755 1412.0
0.919000029564 -0.239999994636 -0.221000000834 1391.0
0.919000029564 -0.246000006795 -0.221000000834 1403.0
0.921000003815 -0.252999991179 -0.222000002861 1419.0
0.920000016689 -0.25799998641 -0.222000002861 1410.0
0.916999995708 -0.263000011444 -0.221000000834 1380.0
0.919000029564 -0.270000010729 -0.222000002861 1382.0
0.922999978065 -0.277000010014 -0.223000004888 1370.0
0.917999982834 -0.282000005245 -0.223000004888 1373.0
0.924000024796 -0.28900000453 -0.224000006914 1387.0
0.925000011921 -0.296000003815 -0.22499999404 1392.0
0.924000024796 -0.301999986172 -0.22499999404 1382.0
0.925000011921 -0.307999998331 -0.225999996066 1389.0
0.925999999046 -0.314999997616 -0.225999996066 1382.0
0.924000024796 -0.319999992847 -0.225999996066 1383.0
0.92199999094 -0.326000005007 -0.225999996066 1345.0
0.920000016689 -0.331999987364 -0.225999996066 1341.0
0.925000011921 -0.340000003576 -0.226999998093 1343.0
0.929000020027 -0.347999989986 -0.229000002146 1353.0
0.924000024796 -0.351999998093 -0.228000000119 1366.0
0.927999973297 -0.360000014305 -0.229000002146 1321.0
0.925999999046 -0.365999996662 -0.230000004172 1321.0
0.925000011921 -0.372000008821 -0.230000004172 1313.0
0.925999999046 -0.379000008106 -0.231000006199 1309.0
0.930999994278 -0.388000011444 -0.231999993324 1323.0
0.930000007153 -0.393999993801 -0.232999995351 1313.0
0.922999978065 -0.398000001907 -0.231000006199 1302.0
0.930000007153 -0.407999992371 -0.232999995351 1293.0
0.929000020027 -0.41400000453 -0.233999997377 1275.0
0.929000020027 -0.421000003815 -0.233999997377 1251.0
0.930999994278 -0.428999990225 -0.234999999404 1253.0
0.935000002384 -0.437999993563 -0.237000003457 1239.0
0.931999981403 -0.444000005722 -0.237000003457 1223.0
0.931999981403 -0.451000005007 -0.237000003457 1215.0
0.927999973297 -0.456000000238 -0.237000003457 1194.0
1.23500001431 -0.638000011444 -0.317999988794 201.0
1.29600000381 -0.680000007153 -0.335000008345 220.0
1.28100001812 -0.683000028133 -0.331999987364 231.0
1.26300001144 -0.683000028133 -0.32800000906 238.0
1.23500001431 -0.677999973297 -0.321999996901 239.0
1.23000001907 -0.685000002384 -0.321000009775 228.0
1.23099994659 -0.695999979973 -0.323000013828 228.0
1.18200004101 -0.677999973297 -0.31099998951 166.0
0.902999997139 0.135000005364 -0.219999998808 1489.0
0.885999977589 0.127000004053 -0.216000005603 1525.0
0.893000006676 0.123000003397 -0.216999992728 1570.0
0.89200001955 0.118000000715 -0.216999992728 1550.0
0.893999993801 0.112999998033 -0.216999992728 1556.0
0.888999998569 0.107000000775 -0.216000005603 1548.0
0.888999998569 0.101000003517 -0.216000005603 1553.0
0.896000027657 0.097000002861 -0.216999992728 1540.0
0.893999993801 0.0909999981523 -0.216999992728 1545.0
0.889999985695 0.0860000029206 -0.216000005603 1531.0
0.89200001955 0.0810000002384 -0.216000005603 1557.0
0.89200001955 0.0750000029802 -0.216000005603 1555.0
0.899999976158 0.0710000023246 -0.217999994755 1551.0
0.893999993801 0.0649999976158 -0.216000005603 1560.0
0.893000006676 0.0590000003576 -0.216000005603 1553.0
0.896000027657 0.0540000014007 -0.216000005603 1538.0
0.894999980927 0.0489999987185 -0.216000005603 1523.0
0.898999989033 0.0439999997616 -0.216999992728 1529.0
0.896000027657 0.0390000008047 -0.216000005603 1539.0
0.894999980927 0.0329999998212 -0.216000005603 1532.0
0.899999976158 0.0280000008643 -0.216999992728 1508.0
0.898000001907 0.0230000000447 -0.216000005603 1518.0
0.901000022888 0.0179999992251 -0.216999992728 1515.0
0.901000022888 0.0120000001043 -0.216999992728 1516.0
0.901000022888 0.00700000021607 -0.216999992728 1519.0
0.901000022888 0.00200000009499 -0.216999992728 1517.0
0.899999976158 -0.00200000009499 -0.216999992728 1506.0
0.901000022888 -0.00800000037998 -0.216999992728 1507.0
0.899999976158 -0.0130000002682 -0.216999992728 1497.0
0.899999976158 -0.0179999992251 -0.216999992728 1515.0
0.902000010014 -0.0240000002086 -0.216999992728 1514.0
0.897000014782 -0.0289999991655 -0.216000005603 1495.0
0.898000001907 -0.0340000018477 -0.216000005603 1507.0
0.902000010014 -0.0390000008047 -0.216999992728 1496.0
0.90600001812 -0.0450000017881 -0.217999994755 1496.0
0.899999976158 -0.0500000007451 -0.216999992728 1506.0
0.907000005245 -0.0560000017285 -0.217999994755 1484.0
0.902999997139 -0.0610000006855 -0.217999994755 1483.0
0.90499997139 -0.0659999996424 -0.217999994755 1489.0
0.90499997139 -0.0710000023246 -0.217999994755 1498.0
0.902000010014 -0.0769999995828 -0.217999994755 1501.0
0.90600001812 -0.082000002265 -0.218999996781 1498.0
0.907999992371 -0.0879999995232 -0.218999996781 1494.0
0.910000026226 -0.0930000022054 -0.219999998808 1495.0
0.911000013351 -0.0989999994636 -0.219999998808 1482.0
0.907999992371 -0.104000002146 -0.218999996781 1470.0
0.911000013351 -0.109999999404 -0.219999998808 1484.0
0.912999987602 -0.115000002086 -0.221000000834 1467.0
0.908999979496 -0.119999997318 -0.219999998808 1478.0
0.908999979496 -0.126000002027 -0.219999998808 1459.0
0.911000013351 -0.131999999285 -0.221000000834 1475.0
0.911000013351 -0.136999994516 -0.221000000834 1455.0
0.912000000477 -0.143000006676 -0.221000000834 1459.0
0.908999979496 -0.148000001907 -0.221000000834 1467.0
0.915000021458 -0.153999999166 -0.222000002861 1464.0
0.913999974728 -0.159999996424 -0.222000002861 1455.0
0.910000026226 -0.165000006557 -0.221000000834 1458.0
0.908999979496 -0.170000001788 -0.221000000834 1450.0
0.915000021458 -0.177000001073 -0.223000004888 1450.0
0.916000008583 -0.181999996305 -0.223000004888 1448.0
0.916000008583 -0.187999993563 -0.224000006914 1448.0
0.916000008583 -0.194000005722 -0.224000006914 1432.0
0.911000013351 -0.197999998927 -0.223000004888 1428.0
0.915000021458 -0.204999998212 -0.224000006914 1426.0
0.917999982834 -0.21099999547 -0.22499999404 1430.0
0.907000005245 -0.21400000155 -0.223000004888 1431.0
0.920000016689 -0.223000004888 -0.225999996066 1436.0
0.920000016689 -0.229000002146 -0.225999996066 1433.0
0.915000021458 -0.233999997377 -0.22499999404 1404.0
0.915000021458 -0.239999994636 -0.225999996066 1403.0
0.925000011921 -0.247999995947 -0.228000000119 1414.0
0.912999987602 -0.250999987125 -0.225999996066 1413.0
0.925000011921 -0.259999990463 -0.229000002146 1411.0
0.919000029564 -0.263999998569 -0.228000000119 1401.0
0.92199999094 -0.270999997854 -0.229000002146 1391.0
0.924000024796 -0.277999997139 -0.229000002146 1384.0
0.921000003815 -0.282999992371 -0.229000002146 1388.0
0.927999973297 -0.291000008583 -0.231000006199 1386.0
0.922999978065 -0.296000003815 -0.230000004172 1395.0
0.921000003815 -0.300999999046 -0.230000004172 1389.0
0.926999986172 -0.308999985456 -0.231999993324 1403.0
0.925999999046 -0.314999997616 -0.231999993324 1384.0
0.925999999046 -0.321999996901 -0.232999995351 1379.0
0.925000011921 -0.32800000906 -0.232999995351 1349.0
0.924000024796 -0.333000004292 -0.232999995351 1350.0
0.924000024796 -0.340000003576 -0.232999995351 1345.0
0.924000024796 -0.345999985933 -0.233999997377 1336.0
0.916000008583 -0.34999999404 -0.231999993324 1347.0
0.924000024796 -0.358999997377 -0.234999999404 1323.0
0.921000003815 -0.365000009537 -0.233999997377 1331.0
0.927999973297 -0.374000012875 -0.237000003457 1299.0
0.926999986172 -0.379999995232 -0.237000003457 1306.0
0.922999978065 -0.384999990463 -0.236000001431 1304.0
0.925000011921 -0.393000006676 -0.237000003457 1300.0
0.926999986172 -0.40000000596 -0.238000005484 1299.0
0.925000011921 -0.405999988317 -0.238000005484 1288.0
0.926999986172 -0.41400000453 -0.239999994636 1266.0
0.930000007153 -0.42199999094 -0.240999996662 1244.0
0.929000020027 -0.428999990225 -0.240999996662 1226.0
0.931999981403 -0.437000006437 -0.243000000715 1237.0
0.931999981403 -0.444000005722 -0.243000000715 1220.0
0.93599998951 -0.453999996185 -0.245000004768 1217.0
0.921000003815 -0.45300000906 -0.240999996662 1182.0
1.28299999237 -0.663999974728 -0.338999986649 204.0
1.26800000668 -0.666000008583 -0.33599999547 220.0
1.27799999714 -0.681999981403 -0.340000003576 221.0
1.27600002289 -0.690999984741 -0.340000003576 247.0
1.25 -0.686999976635 -0.333999991417 248.0
1.24300003052 -0.693000018597 -0.333000004292 241.0
1.20700001717 -0.683000028133 -0.324999988079 233.0
1.17999994755 -0.677999973297 -0.317999988794 162.0
0.897000014782 0.134000003338 -0.224000006914 1450.0
0.894999980927 0.128999993205 -0.224000006914 1455.0
0.893999993801 0.123000003397 -0.223000004888 1540.0
0.888999998569 0.116999998689 -0.222000002861 1527.0
0.888000011444 0.112000003457 -0.221000000834 1545.0
0.89099997282 0.107000000775 -0.222000002861 1539.0
0.888000011444 0.101000003517 -0.221000000834 1544.0
0.888000011444 0.0960000008345 -0.221000000834 1542.0
0.89099997282 0.0909999981523 -0.221000000834 1540.0
0.89099997282 0.0860000029206 -0.221000000834 1538.0
0.893000006676 0.0810000002384 -0.222000002861 1557.0
0.889999985695 0.0750000029802 -0.221000000834 1562.0
0.888000011444 0.070000000298 -0.219999998808 1547.0
0.89200001955 0.0649999976158 -0.221000000834 1539.0
0.894999980927 0.0599999986589 -0.222000002861 1547.0
0.894999980927 0.0540000014007 -0.222000002861 1558.0
0.897000014782 0.0489999987185 -0.222000002861 1539.0
0.893999993801 0.0439999997616 -0.221000000834 1523.0
0.897000014782 0.0390000008047 -0.222000002861 1536.0
0.893000006676 0.0329999998212 -0.221000000834 1530.0
0.896000027657 0.0280000008643 -0.222000002861 1522.0
0.902000010014 0.0230000000447 -0.223000004888 1511.0
0.903999984264 0.0179999992251 -0.223000004888 1508.0
0.898000001907 0.0120000001043 -0.222000002861 1507.0
0.902000010014 0.00700000021607 -0.223000004888 1510.0
0.896000027657 0.00200000009499 -0.221000000834 1507.0
0.901000022888 -0.00200000009499 -0.223000004888 1522.0
0.898999989033 -0.00800000037998 -0.222000002861 1518.0
0.898999989033 -0.0130000002682 -0.222000002861 1505.0
0.898999989033 -0.0179999992251 -0.222000002861 1506.0
0.90499997139 -0.0240000002086 -0.224000006914 1522.0
0.897000014782 -0.0289999991655 -0.221000000834 1503.0
0.903999984264 -0.0340000018477 -0.223000004888 1505.0
0.902999997139 -0.0399999991059 -0.223000004888 1501.0
0.902000010014 -0.0450000017881 -0.223000004888 1505.0
0.898999989033 -0.0500000007451 -0.222000002861 1502.0
0.908999979496 -0.0560000017285 -0.22499999404 1479.0
0.903999984264 -0.0610000006855 -0.223000004888 1480.0
0.90499997139 -0.0659999996424 -0.224000006914 1498.0
0.907000005245 -0.0719999969006 -0.224000006914 1500.0
0.902999997139 -0.0769999995828 -0.223000004888 1491.0
0.907999992371 -0.082999996841 -0.22499999404 1488.0
0.907000005245 -0.0879999995232 -0.22499999404 1497.0
0.90499997139 -0.0930000022054 -0.224000006914 1493.0
0.90600001812 -0.0989999994636 -0.224000006914 1483.0
0.898000001907 -0.103000000119 -0.223000004888 1482.0
0.907999992371 -0.109999999404 -0.22499999404 1480.0
0.912000000477 -0.115999996662 -0.225999996066 1476.0
0.90499997139 -0.119999997318 -0.22499999404 1471.0
0.90600001812 -0.126000002027 -0.22499999404 1445.0
0.911000013351 -0.131999999285 -0.225999996066 1467.0
0.910000026226 -0.136999994516 -0.225999996066 1475.0
0.907000005245 -0.142000004649 -0.225999996066 1467.0
0.908999979496 -0.148000001907 -0.225999996066 1465.0
0.911000013351 -0.153999999166 -0.226999998093 1470.0
0.912999987602 -0.159999996424 -0.228000000119 1463.0
0.910000026226 -0.165000006557 -0.226999998093 1463.0
0.913999974728 -0.171000003815 -0.228000000119 1461.0
0.913999974728 -0.177000001073 -0.228000000119 1464.0
0.917999982834 -0.182999998331 -0.230000004172 1458.0
0.912000000477 -0.187999993563 -0.228000000119 1449.0
0.915000021458 -0.194000005722 -0.229000002146 1448.0
0.915000021458 -0.20000000298 -0.230000004172 1439.0
0.912999987602 -0.204999998212 -0.229000002146 1411.0
0.915000021458 -0.21099999547 -0.230000004172 1432.0
0.917999982834 -0.216999992728 -0.231000006199 1435.0
0.916000008583 -0.223000004888 -0.231000006199 1438.0
0.919000029564 -0.229000002146 -0.231999993324 1442.0
0.916000008583 -0.233999997377 -0.231000006199 1431.0
0.915000021458 -0.239999994636 -0.231000006199 1404.0
0.919000029564 -0.24699999392 -0.232999995351 1415.0
0.917999982834 -0.252999991179 -0.232999995351 1419.0
0.916000008583 -0.25799998641 -0.232999995351 1413.0
0.917999982834 -0.263999998569 -0.232999995351 1392.0
0.917999982834 -0.270000010729 -0.233999997377 1409.0
0.919000029564 -0.277000010014 -0.233999997377 1393.0
0.922999978065 -0.284000009298 -0.234999999404 1396.0
0.917999982834 -0.28900000453 -0.234999999404 1396.0
0.925000011921 -0.29699999094 -0.237000003457 1392.0
0.922999978065 -0.301999986172 -0.237000003457 1392.0
0.925000011921 -0.308999985456 -0.238000005484 1397.0
0.927999973297 -0.317000001669 -0.238999992609 1383.0
0.920000016689 -0.319999992847 -0.237000003457 1375.0
0.929000020027 -0.330000013113 -0.239999994636 1369.0
0.921000003815 -0.333000004292 -0.238000005484 1353.0
0.924000024796 -0.340000003576 -0.238999992609 1348.0
0.922999978065 -0.347000002861 -0.239999994636 1332.0
0.925000011921 -0.354000002146 -0.240999996662 1343.0
0.92199999094 -0.358999997377 -0.239999994636 1335.0
0.924000024796 -0.365999996662 -0.240999996662 1305.0
0.929000020027 -0.375 -0.243000000715 1308.0
0.925000011921 -0.379999995232 -0.241999998689 1301.0
0.924000024796 -0.386000007391 -0.243000000715 1282.0
0.929000020027 -0.395000010729 -0.245000004768 1298.0
0.933000028133 -0.402999997139 -0.246000006795 1287.0
0.933000028133 -0.409999996424 -0.24699999392 1284.0
0.929000020027 -0.414999991655 -0.246000006795 1269.0
0.929000020027 -0.42199999094 -0.24699999392 1250.0
0.925999999046 -0.428000003099 -0.24699999392 1236.0
0.930000007153 -0.437000006437 -0.247999995947 1233.0
0.93900001049 -0.448000013828 -0.250999987125 1219.0
0.930999994278 -0.451999992132 -0.25 1206.0
0.925000011921 -0.456000000238 -0.248999997973 1179.0
1.27799999714 -0.662000000477 -0.347000002861 197.0
1.26400005817 -0.665000021458 -0.344000011683 210.0
1.27699995041 -0.681999981403 -0.347999989986 239.0
1.27799999714 -0.693000018597 -0.34999999404 257.0
1.25800001621 -0.691999971867 -0.344999998808 250.0
1.25600004196 -0.702000021935 -0.345999985933 257.0
1.21500003338 -0.68900001049 -0.335000008345 226.0
1.1779999733 -0.677999973297 -0.326000005007 147.0
0.901000022888 0.135000005364 -0.231000006199 1457.0
0.888999998569 0.12800000608 -0.228000000119 1485.0
0.889999985695 0.123000003397 -0.228000000119 1547.0
0.89200001955 0.118000000715 -0.228000000119 1546.0
0.889999985695 0.112000003457 -0.226999998093 1547.0
0.887000024319 0.107000000775 -0.225999996066 1555.0
0.887000024319 0.101000003517 -0.225999996066 1544.0
0.885999977589 0.0960000008345 -0.225999996066 1534.0
0.893000006676 0.0909999981523 -0.228000000119 1528.0
0.897000014782 0.0860000029206 -0.228000000119 1536.0
0.896000027657 0.0810000002384 -0.228000000119 1564.0
0.885999977589 0.0750000029802 -0.22499999404 1558.0
0.899999976158 0.0710000023246 -0.229000002146 1560.0
0.897000014782 0.0649999976158 -0.228000000119 1569.0
0.888000011444 0.0590000003576 -0.22499999404 1563.0
0.893000006676 0.0540000014007 -0.226999998093 1539.0
0.897000014782 0.0489999987185 -0.228000000119 1535.0
0.89099997282 0.0439999997616 -0.225999996066 1527.0
0.897000014782 0.0390000008047 -0.226999998093 1521.0
0.898000001907 0.0329999998212 -0.228000000119 1530.0
0.89200001955 0.0280000008643 -0.225999996066 1519.0
0.893000006676 0.0230000000447 -0.225999996066 1518.0
0.896000027657 0.0179999992251 -0.226999998093 1509.0
0.898000001907 0.0120000001043 -0.226999998093 1500.0
0.897000014782 0.00700000021607 -0.226999998093 1507.0
0.903999984264 0.00200000009499 -0.229000002146 1490.0
0.902999997139 -0.00200000009499 -0.229000002146 1508.0
0.903999984264 -0.00800000037998 -0.229000002146 1509.0
0.898000001907 -0.0130000002682 -0.226999998093 1500.0
0.901000022888 -0.0179999992251 -0.228000000119 1505.0
0.902000010014 -0.0240000002086 -0.228000000119 1496.0
0.902999997139 -0.0289999991655 -0.229000002146 1486.0
0.898000001907 -0.0340000018477 -0.226999998093 1495.0
0.898999989033 -0.0390000008047 -0.228000000119 1493.0
0.902000010014 -0.0450000017881 -0.228000000119 1502.0
0.908999979496 -0.0509999990463 -0.230000004172 1497.0
0.901000022888 -0.054999999702 -0.228000000119 1481.0
0.902999997139 -0.0610000006855 -0.229000002146 1483.0
0.903999984264 -0.0659999996424 -0.229000002146 1492.0
0.901000022888 -0.0710000023246 -0.228000000119 1498.0
0.907999992371 -0.0769999995828 -0.230000004172 1497.0
0.90600001812 -0.082999996841 -0.230000004172 1488.0
0.903999984264 -0.0879999995232 -0.229000002146 1494.0
0.907999992371 -0.0939999967813 -0.230000004172 1481.0
0.910000026226 -0.0989999994636 -0.231000006199 1477.0
0.903999984264 -0.104000002146 -0.230000004172 1456.0
0.912000000477 -0.109999999404 -0.231999993324 1467.0
0.90499997139 -0.115000002086 -0.230000004172 1476.0
0.907000005245 -0.120999999344 -0.231000006199 1456.0
0.907999992371 -0.126000002027 -0.231000006199 1459.0
0.912999987602 -0.131999999285 -0.232999995351 1461.0
0.907999992371 -0.136999994516 -0.231000006199 1474.0
0.911000013351 -0.143000006676 -0.231999993324 1474.0
0.910000026226 -0.148000001907 -0.231999993324 1461.0
0.907000005245 -0.152999997139 -0.231999993324 1453.0
0.912999987602 -0.159999996424 -0.232999995351 1448.0
0.912999987602 -0.165999993682 -0.232999995351 1455.0
0.913999974728 -0.171000003815 -0.233999997377 1451.0
0.911000013351 -0.175999999046 -0.232999995351 1456.0
0.912000000477 -0.181999996305 -0.233999997377 1459.0
0.912999987602 -0.187999993563 -0.233999997377 1459.0
0.911000013351 -0.193000003695 -0.233999997377 1429.0
0.910000026226 -0.199000000954 -0.233999997377 1423.0
0.916999995708 -0.206000000238 -0.236000001431 1407.0
0.916999995708 -0.211999997497 -0.236000001431 1432.0
0.917999982834 -0.217999994755 -0.237000003457 1420.0
0.920000016689 -0.224000006914 -0.238000005484 1441.0
0.919000029564 -0.230000004172 -0.238000005484 1446.0
0.912000000477 -0.233999997377 -0.236000001431 1435.0
0.916999995708 -0.240999996662 -0.238000005484 1422.0
0.916999995708 -0.24699999392 -0.238000005484 1405.0
0.916000008583 -0.252000004053 -0.238000005484 1412.0
0.921000003815 -0.259999990463 -0.239999994636 1407.0
0.92199999094 -0.266000002623 -0.239999994636 1392.0
0.92199999094 -0.272000014782 -0.240999996662 1417.0
0.92199999094 -0.277999997139 -0.240999996662 1392.0
0.916999995708 -0.282999992371 -0.239999994636 1389.0
0.917999982834 -0.28900000453 -0.240999996662 1396.0
0.92199999094 -0.296000003815 -0.241999998689 1390.0
0.921000003815 -0.301999986172 -0.241999998689 1392.0
0.925000011921 -0.310000002384 -0.244000002742 1390.0
0.924000024796 -0.314999997616 -0.244000002742 1382.0
0.924000024796 -0.321999996901 -0.244000002742 1374.0
0.922999978065 -0.32800000906 -0.244000002742 1358.0
0.926999986172 -0.33599999547 -0.246000006795 1349.0
0.922999978065 -0.340000003576 -0.245000004768 1336.0
0.927999973297 -0.349000006914 -0.24699999392 1344.0
0.929000020027 -0.356000006199 -0.247999995947 1337.0
0.921000003815 -0.358999997377 -0.246000006795 1317.0
0.925000011921 -0.36700001359 -0.247999995947 1304.0
0.929000020027 -0.375 -0.248999997973 1299.0
0.927999973297 -0.381999999285 -0.248999997973 1292.0
0.920000016689 -0.384999990463 -0.247999995947 1285.0
0.925000011921 -0.393999993801 -0.25 1276.0
0.926999986172 -0.402000010014 -0.250999987125 1263.0
0.931999981403 -0.411000013351 -0.252999991179 1260.0
0.930000007153 -0.416999995708 -0.252999991179 1243.0
0.931999981403 -0.425000011921 -0.254000008106 1229.0
0.929000020027 -0.430000007153 -0.254000008106 1230.0
0.929000020027 -0.437000006437 -0.254000008106 1212.0
0.936999976635 -0.448000013828 -0.256999999285 1217.0
0.930000007153 -0.451999992132 -0.256000012159 1213.0
0.92199999094 -0.455000013113 -0.254000008106 1170.0
1.25499999523 -0.651000022888 -0.349000006914 198.0
1.27999997139 -0.675000011921 -0.356999993324 218.0
1.25600004196 -0.67199999094 -0.351999998093 237.0
1.23399996758 -0.670000016689 -0.345999985933 247.0
1.28499996662 -0.708999991417 -0.361999988556 258.0
1.24300003052 -0.695999979973 -0.351000010967 256.0
1.21800005436 -0.691999971867 -0.344999998808 214.0
1.19900000095 -0.690999984741 -0.340999990702 131.0
0.902999997139 0.136000007391 -0.237000003457 1459.0
0.89099997282 0.128999993205 -0.233999997377 1514.0
0.893999993801 0.123999997973 -0.233999997377 1551.0
0.89099997282 0.118000000715 -0.232999995351 1558.0
0.888999998569 0.112000003457 -0.232999995351 1553.0
0.888000011444 0.107000000775 -0.231999993324 1575.0
0.89200001955 0.101999998093 -0.232999995351 1554.0
0.89099997282 0.0960000008345 -0.232999995351 1553.0
0.889999985695 0.0909999981523 -0.231999993324 1545.0
0.888999998569 0.0860000029206 -0.231999993324 1542.0
0.89200001955 0.0810000002384 -0.232999995351 1559.0
0.89099997282 0.0750000029802 -0.231999993324 1565.0
0.894999980927 0.070000000298 -0.232999995351 1558.0
0.893000006676 0.0649999976158 -0.231999993324 1563.0
0.893999993801 0.0599999986589 -0.232999995351 1555.0
0.894999980927 0.0540000014007 -0.232999995351 1548.0
0.893000006676 0.0489999987185 -0.231999993324 1539.0
0.898000001907 0.0439999997616 -0.233999997377 1539.0
0.894999980927 0.0390000008047 -0.232999995351 1550.0
0.893000006676 0.0329999998212 -0.231999993324 1524.0
0.894999980927 0.0280000008643 -0.231999993324 1522.0
0.898999989033 0.0230000000447 -0.232999995351 1522.0
0.896000027657 0.0179999992251 -0.232999995351 1531.0
0.901000022888 0.0120000001043 -0.233999997377 1512.0
0.898999989033 0.00700000021607 -0.232999995351 1498.0
0.90600001812 0.00200000009499 -0.234999999404 1486.0
0.898000001907 -0.00200000009499 -0.232999995351 1512.0
0.902999997139 -0.00800000037998 -0.233999997377 1508.0
0.902000010014 -0.0130000002682 -0.233999997377 1495.0
0.903999984264 -0.0179999992251 -0.234999999404 1499.0
0.902000010014 -0.0240000002086 -0.233999997377 1501.0
0.902999997139 -0.0289999991655 -0.233999997377 1483.0
0.901000022888 -0.0340000018477 -0.233999997377 1474.0
0.902999997139 -0.0399999991059 -0.233999997377 1485.0
0.90600001812 -0.0450000017881 -0.234999999404 1492.0
0.902999997139 -0.0500000007451 -0.233999997377 1494.0
0.901000022888 -0.0560000017285 -0.233999997377 1487.0
0.903999984264 -0.0610000006855 -0.234999999404 1482.0
0.90600001812 -0.0670000016689 -0.234999999404 1486.0
0.907999992371 -0.0719999969006 -0.236000001431 1483.0
0.908999979496 -0.0780000016093 -0.236000001431 1479.0
0.902999997139 -0.082000002265 -0.234999999404 1483.0
0.908999979496 -0.0879999995232 -0.236000001431 1486.0
0.907000005245 -0.0939999967813 -0.236000001431 1482.0
0.90499997139 -0.0989999994636 -0.234999999404 1469.0
0.90600001812 -0.104000002146 -0.236000001431 1465.0
0.907999992371 -0.109999999404 -0.236000001431 1463.0
0.910000026226 -0.115999996662 -0.237000003457 1458.0
0.912999987602 -0.120999999344 -0.238000005484 1452.0
0.911000013351 -0.127000004053 -0.238000005484 1466.0
0.902000010014 -0.130999997258 -0.234999999404 1468.0
0.912000000477 -0.137999996543 -0.238000005484 1459.0
0.907999992371 -0.143000006676 -0.237000003457 1461.0
0.910000026226 -0.149000003934 -0.238000005484 1454.0
0.911000013351 -0.153999999166 -0.238000005484 1471.0
0.913999974728 -0.159999996424 -0.239999994636 1459.0
0.912000000477 -0.165999993682 -0.238999992609 1453.0
0.907000005245 -0.170000001788 -0.238000005484 1449.0
0.912999987602 -0.177000001073 -0.239999994636 1450.0
0.912000000477 -0.181999996305 -0.239999994636 1436.0
0.907999992371 -0.187000006437 -0.238999992609 1431.0
0.912000000477 -0.194000005722 -0.239999994636 1427.0
0.911000013351 -0.199000000954 -0.239999994636 1405.0
0.919000029564 -0.207000002265 -0.241999998689 1395.0
0.913999974728 -0.21099999547 -0.240999996662 1415.0
0.912999987602 -0.216999992728 -0.240999996662 1425.0
0.915000021458 -0.223000004888 -0.241999998689 1418.0
0.908999979496 -0.226999998093 -0.240999996662 1411.0
0.917999982834 -0.236000001431 -0.244000002742 1415.0
0.912999987602 -0.239999994636 -0.243000000715 1399.0
0.916999995708 -0.24699999392 -0.244000002742 1391.0
0.916999995708 -0.252999991179 -0.244000002742 1399.0
0.919000029564 -0.259000003338 -0.245000004768 1404.0
0.916999995708 -0.264999985695 -0.245000004768 1407.0
0.915000021458 -0.270000010729 -0.245000004768 1407.0
0.915000021458 -0.275999993086 -0.245000004768 1388.0
0.917999982834 -0.282999992371 -0.246000006795 1365.0
0.920000016689 -0.289999991655 -0.24699999392 1378.0
0.924000024796 -0.29699999094 -0.248999997973 1375.0
0.924000024796 -0.303999990225 -0.248999997973 1375.0
0.925000011921 -0.310000002384 -0.25 1384.0
0.916999995708 -0.31400001049 -0.247999995947 1369.0
0.924000024796 -0.321999996901 -0.25 1367.0
0.92199999094 -0.32800000906 -0.25 1356.0
0.917999982834 -0.333000004292 -0.25 1334.0
0.924000024796 -0.340999990702 -0.252000004053 1325.0
0.917999982834 -0.345999985933 -0.25 1323.0
0.919000029564 -0.351999998093 -0.250999987125 1338.0
0.922999978065 -0.360000014305 -0.252999991179 1334.0
0.927999973297 -0.368999987841 -0.254999995232 1297.0
0.927999973297 -0.375999987125 -0.254999995232 1299.0
0.925999999046 -0.381999999285 -0.254999995232 1285.0
0.926999986172 -0.388000011444 -0.256000012159 1272.0
0.924000024796 -0.393999993801 -0.256000012159 1262.0
0.925999999046 -0.402000010014 -0.256999999285 1257.0
0.930999994278 -0.411000013351 -0.259000003338 1245.0
0.930999994278 -0.418000012636 -0.259000003338 1251.0
0.927999973297 -0.423000007868 -0.259000003338 1232.0
0.927999973297 -0.430000007153 -0.259999990463 1220.0
0.925000011921 -0.43599998951 -0.259999990463 1209.0
0.93599998951 -0.448000013828 -0.263000011444 1196.0
0.925999999046 -0.451000005007 -0.261000007391 1214.0
0.916999995708 -0.45300000906 -0.259000003338 1159.0
1.29499995708 -0.672999978065 -0.370000004768 211.0
1.29499995708 -0.684000015259 -0.370999991894 224.0
1.26100003719 -0.675999999046 -0.361999988556 231.0
1.2539999485 -0.681999981403 -0.361000001431 241.0
1.23800003529 -0.684000015259 -0.356999993324 249.0
1.23800003529 -0.694000005722 -0.358000010252 258.0
1.17299997807 -0.666999995708 -0.340999990702 198.0
0.90600001812 0.136000007391 -0.244000002742 1457.0
0.887000024319 0.12800000608 -0.238000005484 1499.0
0.888000011444 0.123000003397 -0.238000005484 1550.0
0.888000011444 0.118000000715 -0.238000005484 1557.0
0.884999990463 0.112000003457 -0.237000003457 1551.0
0.89099997282 0.107000000775 -0.238999992609 1556.0
0.888000011444 0.101999998093 -0.238000005484 1576.0
0.884000003338 0.0960000008345 -0.236000001431 1558.0
0.89200001955 0.0909999981523 -0.238000005484 1539.0
0.89200001955 0.0860000029206 -0.238000005484 1536.0
0.893999993801 0.0810000002384 -0.238999992609 1551.0
0.897000014782 0.0759999975562 -0.238999992609 1552.0
0.888000011444 0.070000000298 -0.237000003457 1545.0
0.894999980927 0.0649999976158 -0.238999992609 1550.0
0.89099997282 0.0599999986589 -0.237000003457 1546.0
0.89099997282 0.0540000014007 -0.237000003457 1554.0
0.894999980927 0.0489999987185 -0.238000005484 1535.0
0.898999989033 0.0439999997616 -0.238999992609 1530.0
0.898999989033 0.0390000008047 -0.238999992609 1547.0
0.893999993801 0.0329999998212 -0.238000005484 1523.0
0.899999976158 0.0280000008643 -0.238999992609 1519.0
0.899999976158 0.0230000000447 -0.238999992609 1523.0
0.898999989033 0.0179999992251 -0.238999992609 1532.0
0.897000014782 0.0120000001043 -0.238000005484 1517.0
0.894999980927 0.00700000021607 -0.238000005484 1514.0
0.90499997139 0.00200000009499 -0.239999994636 1498.0
0.901000022888 -0.00300000002608 -0.238999992609 1505.0
0.899999976158 -0.00800000037998 -0.238999992609 1506.0
0.898000001907 -0.0130000002682 -0.238000005484 1515.0
0.899999976158 -0.0179999992251 -0.238999992609 1497.0
0.897000014782 -0.0240000002086 -0.238000005484 1517.0
0.898000001907 -0.0289999991655 -0.238000005484 1501.0
0.899999976158 -0.0340000018477 -0.238999992609 1466.0
0.90499997139 -0.0399999991059 -0.239999994636 1484.0
0.90499997139 -0.0450000017881 -0.239999994636 1485.0
0.899999976158 -0.0500000007451 -0.238999992609 1496.0
0.899999976158 -0.0560000017285 -0.238999992609 1483.0
0.902000010014 -0.0610000006855 -0.239999994636 1472.0
0.90600001812 -0.0670000016689 -0.240999996662 1480.0
0.903999984264 -0.0719999969006 -0.240999996662 1483.0
0.90600001812 -0.0769999995828 -0.240999996662 1479.0
0.90600001812 -0.082999996841 -0.240999996662 1475.0
0.90499997139 -0.0879999995232 -0.240999996662 1478.0
0.903999984264 -0.0930000022054 -0.240999996662 1462.0
0.901000022888 -0.097999997437 -0.239999994636 1453.0
0.907999992371 -0.104999996722 -0.241999998689 1452.0
0.90600001812 -0.109999999404 -0.241999998689 1457.0
0.907000005245 -0.115000002086 -0.241999998689 1470.0
0.910000026226 -0.120999999344 -0.243000000715 1454.0
0.907999992371 -0.127000004053 -0.243000000715 1443.0
0.911000013351 -0.131999999285 -0.243000000715 1454.0
0.907999992371 -0.136999994516 -0.243000000715 1460.0
0.911000013351 -0.143000006676 -0.244000002742 1461.0
0.907999992371 -0.149000003934 -0.243000000715 1463.0
0.908999979496 -0.153999999166 -0.244000002742 1447.0
0.911000013351 -0.159999996424 -0.244000002742 1462.0
0.908999979496 -0.165000006557 -0.244000002742 1463.0
0.910000026226 -0.171000003815 -0.244000002742 1428.0
0.912999987602 -0.177000001073 -0.246000006795 1436.0
0.913999974728 -0.182999998331 -0.246000006795 1427.0
0.913999974728 -0.188999995589 -0.246000006795 1415.0
0.907999992371 -0.193000003695 -0.245000004768 1431.0
0.907000005245 -0.199000000954 -0.245000004768 1397.0
0.916000008583 -0.206000000238 -0.24699999392 1392.0
0.910000026226 -0.21099999547 -0.246000006795 1420.0
0.912999987602 -0.216999992728 -0.24699999392 1418.0
0.916999995708 -0.224000006914 -0.248999997973 1423.0
0.912000000477 -0.229000002146 -0.247999995947 1432.0
0.912000000477 -0.233999997377 -0.247999995947 1400.0
0.911000013351 -0.239999994636 -0.247999995947 1396.0
0.907999992371 -0.245000004768 -0.24699999392 1384.0
0.915000021458 -0.252999991179 -0.25 1386.0
0.921000003815 -0.259999990463 -0.250999987125 1390.0
0.915000021458 -0.264999985695 -0.25 1386.0
0.917999982834 -0.270999997854 -0.250999987125 1390.0
0.920000016689 -0.277999997139 -0.252000004053 1367.0
0.916999995708 -0.282999992371 -0.252000004053 1351.0
0.917999982834 -0.289999991655 -0.252999991179 1368.0
0.92199999094 -0.29699999094 -0.254000008106 1385.0
0.926999986172 -0.305000007153 -0.256000012159 1364.0
0.917999982834 -0.307999998331 -0.254000008106 1375.0
0.916999995708 -0.31400001049 -0.254000008106 1360.0
0.920000016689 -0.321000009775 -0.254999995232 1350.0
0.920000016689 -0.32800000906 -0.256000012159 1337.0
0.921000003815 -0.335000008345 -0.256999999285 1329.0
0.921000003815 -0.340999990702 -0.256999999285 1319.0
0.920000016689 -0.347000002861 -0.256999999285 1320.0
0.924000024796 -0.354999989271 -0.259000003338 1319.0
0.921000003815 -0.360000014305 -0.25799998641 1319.0
0.92199999094 -0.36700001359 -0.259000003338 1297.0
0.925999999046 -0.375 -0.261000007391 1291.0
0.927999973297 -0.38299998641 -0.261999994516 1275.0
0.92199999094 -0.386999994516 -0.261000007391 1264.0
0.925000011921 -0.395000010729 -0.261999994516 1236.0
0.925000011921 -0.402000010014 -0.263000011444 1257.0
0.927999973297 -0.409999996424 -0.263999998569 1267.0
0.922999978065 -0.414999991655 -0.263000011444 1242.0
0.929000020027 -0.423999994993 -0.266000002623 1224.0
0.929000020027 -0.432000011206 -0.266999989748 1227.0
0.930000007153 -0.43900001049 -0.266999989748 1212.0
0.929000020027 -0.446000009775 -0.268000006676 1202.0
0.929000020027 -0.45300000906 -0.268999993801 1192.0
0.907000005245 -0.449000000954 -0.263000011444 1133.0
1.10899996758 -0.568000018597 -0.323000013828 232.0
1.27400004864 -0.662999987602 -0.372000008821 215.0
1.28499996662 -0.679000020027 -0.377000004053 234.0
1.28199994564 -0.688000023365 -0.377000004053 230.0
1.27400004864 -0.694000005722 -0.375999987125 255.0
1.23199999332 -0.681999981403 -0.363999992609 250.0
1.23199999332 -0.691999971867 -0.365000009537 252.0
1.19299995899 -0.680000007153 -0.354999989271 177.0
1.22300004959 -0.708000004292 -0.365000009537 101.0
0.908999979496 0.136999994516 -0.25 1452.0
0.89200001955 0.128999993205 -0.245000004768 1524.0
0.887000024319 0.123000003397 -0.244000002742 1549.0
0.89200001955 0.118000000715 -0.245000004768 1559.0
0.89099997282 0.112999998033 -0.244000002742 1556.0
0.89099997282 0.107000000775 -0.244000002742 1560.0
0.888000011444 0.101999998093 -0.243000000715 1548.0
0.89099997282 0.097000002861 -0.244000002742 1545.0
0.89200001955 0.0920000001788 -0.244000002742 1538.0
0.885999977589 0.0860000029206 -0.241999998689 1538.0
0.89099997282 0.0810000002384 -0.243000000715 1539.0
0.894999980927 0.0759999975562 -0.245000004768 1552.0
0.888999998569 0.070000000298 -0.243000000715 1524.0
0.89099997282 0.0649999976158 -0.243000000715 1530.0
0.89200001955 0.0599999986589 -0.243000000715 1557.0
0.898999989033 0.054999999702 -0.245000004768 1527.0
0.893000006676 0.0489999987185 -0.243000000715 1508.0
0.897000014782 0.0439999997616 -0.244000002742 1512.0
0.89099997282 0.0390000008047 -0.243000000715 1528.0
0.894999980927 0.0329999998212 -0.244000002742 1542.0
