ply
format ascii 1.0
element vertex 904
property float x
property float y
property float z
property float intensity
end_header
0.744000017643 -0.261000007391 -0.282000005245 293.0
0.887000024319 -0.319000005722 -0.337000012398 613.0
0.901000022888 -0.330000013113 -0.342999994755 649.0
0.885999977589 -0.331000000238 -0.337999999523 665.0
0.893000006676 -0.340000003576 -0.342000007629 669.0
0.89200001955 -0.345999985933 -0.342000007629 662.0
0.89099997282 -0.351999998093 -0.342000007629 657.0
0.893000006676 -0.358999997377 -0.344000011683 659.0
0.885999977589 -0.363000005484 -0.342000007629 657.0
0.888000011444 -0.370000004768 -0.342999994755 662.0
0.888000011444 -0.377000004053 -0.344000011683 651.0
0.888000011444 -0.384000003338 -0.344999998808 661.0
0.879000008106 -0.386999994516 -0.342000007629 646.0
0.791000008583 -0.352999985218 -0.308999985456 365.0
0.421000003815 -0.188999995589 -0.16400000453 171.0
0.372999995947 -0.168999999762 -0.144999995828 167.0
0.324999988079 -0.149000003934 -0.127000004053 170.0
0.361999988556 -0.170000001788 -0.142000004649 167.0
0.321999996901 -0.152999997139 -0.126000002027 161.0
0.31400001049 -0.151999995112 -0.123000003397 161.0
0.31099998951 -0.152999997139 -0.123000003397 167.0
0.323000013828 -0.16099999845 -0.12800000608 165.0
0.273999989033 -0.137999996543 -0.108999997377 165.0
0.308999985456 -0.158999994397 -0.123000003397 171.0
0.442999988794 -0.233999997377 -0.177000001073 181.0
0.804000020027 -0.43599998951 -0.324000000954 454.0
0.879000008106 -0.485000014305 -0.354999989271 325.0
0.991999983788 -0.555999994278 -0.402000010014 281.0
1.01900005341 -0.579999983311 -0.41400000453 279.0
0.991999983788 -0.573000013828 -0.405000001192 287.0
1.00999999046 -0.592000007629 -0.412999987602 287.0
1.00499999523 -0.597999989986 -0.412999987602 271.0
4.07100009918 2.49300003052 -1.74300003052 237.0
4.0689997673 2.45499992371 -1.73599994183 226.0
4.0720000267 2.42100000381 -1.73099994659 233.0
4.11499977112 2.40899991989 -1.74300003052 232.0
4.1360001564 2.38599991798 -1.74699997902 235.0
4.12599992752 2.34400010109 -1.73699998856 233.0
4.15399980545 2.32399988174 -1.74300003052 222.0
4.17899990082 2.3029999733 -1.74800002575 218.0
4.17399978638 2.26399993896 -1.74000000954 216.0
0.0109999999404 0.00499999988824 -0.00300000002608 219.0
0.0230000000447 0.0109999999404 -0.00800000037998 212.0
4.21600008011 2.1819999218 -1.74199998379 214.0
4.23999977112 2.16000008583 -1.74699997902 207.0
4.23099994659 2.1210000515 -1.73800003529 213.0
0.00800000037998 0.00300000002608 -0.00200000009499 214.0
4.27500009537 2.07500004768 -1.7460000515 202.0
4.28999996185 2.04800009727 -1.74699997902 199.0
4.31300020218 2.02500009537 -1.75199997425 208.0
4.27899980545 1.97599995136 -1.73399996758 194.0
4.29899978638 1.9509999752 -1.73699998856 197.0
4.32499980927 1.92999994755 -1.74300003052 196.0
4.35500001907 1.90999996662 -1.75100004673 193.0
4.36199998856 1.87999999523 -1.75 193.0
4.35400009155 1.84399998188 -1.74199998379 181.0
4.38999986649 1.8259999752 -1.75199997425 181.0
4.41300010681 1.8029999733 -1.75699996948 177.0
4.40600013733 1.76800000668 -1.75100004673 184.0
4.41800022125 1.74000000954 -1.75100004673 170.0
4.44600009918 1.71899998188 -1.75899994373 161.0
4.45200014114 1.68900001049 -1.75699996948 162.0
0.0240000002086 0.00899999961257 -0.00800000037998 158.0
4.46500015259 1.62999999523 -1.75499999523 160.0
4.47300004959 1.60099995136 -1.75499999523 148.0
0.0130000002682 0.00499999988824 -0.00400000018999 152.0
4.49100017548 1.54400002956 -1.7539999485 146.0
4.50600004196 1.51800000668 -1.75699996948 140.0
0.0299999993294 0.00999999977648 -0.00999999977648 133.0
4.53399991989 1.46399998665 -1.76100003719 136.0
0.0130000002682 0.00400000018999 -0.00400000018999 135.0
0.0280000008643 0.00899999961257 -0.00999999977648 135.0
0.0230000000447 0.00700000021607 -0.00700000021607 128.0
0.0130000002682 0.00400000018999 -0.00400000018999 132.0
0.0410000011325 0.0120000001043 -0.0149999996647 125.0
0.0170000009239 0.00499999988824 -0.00499999988824 128.0
4.57399988174 1.25999999046 -1.75600004196 131.0
0.0280000008643 0.00800000037998 -0.00999999977648 128.0
0.0359999984503 0.00999999977648 -0.0120000001043 117.0
0.0170000009239 0.00499999988824 -0.00499999988824 117.0
0.0289999991655 0.00800000037998 -0.00999999977648 115.0
0.0410000011325 0.00999999977648 -0.0140000004321 120.0
0.00600000005215 0.00200000009499 -0.0010000000475 114.0
0.00700000021607 0.00200000009499 -0.0010000000475 117.0
0.0230000000447 0.00600000005215 -0.00800000037998 109.0
0.0230000000447 0.00600000005215 -0.00700000021607 119.0
0.0719999969006 0.01600000076 -0.0260000005364 108.0
0.0149999996647 0.00400000018999 -0.00400000018999 105.0
0.0179999992251 0.00400000018999 -0.00600000005215 103.0
0.0320000015199 0.00700000021607 -0.0109999999404 105.0
0.0430000014603 0.00899999961257 -0.0149999996647 108.0
0.0630000010133 0.0120000001043 -0.0219999998808 100.0
0.0619999989867 0.0109999999404 -0.0219999998808 105.0
0.054999999702 0.00999999977648 -0.0189999993891 98.0
0.0240000002086 0.00499999988824 -0.00800000037998 102.0
0.0189999993891 0.00400000018999 -0.00600000005215 95.0
0.0599999986589 0.00999999977648 -0.0209999997169 101.0
0.0529999993742 0.00800000037998 -0.0189999993891 98.0
0.0370000004768 0.00600000005215 -0.0130000002682 101.0
4.70699977875 0.603999972343 -1.75999999046 98.0
0.0230000000447 0.00400000018999 -0.00700000021607 93.0
0.0189999993891 0.00300000002608 -0.00600000005215 104.0
0.0439999997616 0.00600000005215 -0.0149999996647 99.0
0.0689999982715 0.00800000037998 -0.0240000002086 95.0
0.00600000005215 0.00200000009499 -0.0010000000475 103.0
0.0729999989271 0.00800000037998 -0.0260000005364 105.0
0.902000010014 0.0780000016093 -0.335000008345 457.0
0.924000024796 0.0740000009537 -0.342999994755 561.0
0.597999989986 0.0450000017881 -0.221000000834 174.0
0.509000003338 0.035000000149 -0.187999993563 164.0
0.559000015259 0.035000000149 -0.207000002265 158.0
0.542999982834 0.0309999994934 -0.20000000298 163.0
0.549000024796 0.0280000008643 -0.202999994159 158.0
0.555999994278 0.0250000003725 -0.204999998212 160.0
0.497000008821 0.0189999993891 -0.182999998331 153.0
0.501999974251 0.0170000009239 -0.185000002384 163.0
0.544000029564 0.0149999996647 -0.201000005007 162.0
0.568000018597 0.0120000001043 -0.209000006318 158.0
0.512000024319 0.00800000037998 -0.187999993563 160.0
0.559000015259 0.00499999988824 -0.206000000238 159.0
0.591000020504 0.0010000000475 -0.217999994755 163.0
0.925000011921 -0.00300000002608 -0.342000007629 554.0
0.954999983311 -0.00899999961257 -0.352999985218 822.0
0.949999988079 -0.0149999996647 -0.351000010967 813.0
0.958999991417 -0.0209999997169 -0.354000002146 801.0
0.950999975204 -0.0260000005364 -0.351000010967 818.0
0.958000004292 -0.0320000015199 -0.354000002146 792.0
0.948000013828 -0.0379999987781 -0.34999999404 766.0
0.943000018597 -0.0430000014603 -0.349000006914 737.0
0.948000013828 -0.0489999987185 -0.351000010967 737.0
0.947000026703 -0.054999999702 -0.34999999404 718.0
0.945999979973 -0.0610000006855 -0.34999999404 722.0
0.945999979973 -0.0659999996424 -0.34999999404 716.0
0.944000005722 -0.0719999969006 -0.349000006914 703.0
0.947000026703 -0.0780000016093 -0.351000010967 692.0
0.841000020504 -0.0740000009537 -0.31099998951 339.0
0.5 -0.0460000000894 -0.185000002384 151.0
0.446000009775 -0.0430000014603 -0.165000006557 149.0
0.499000012875 -0.0520000010729 -0.184000000358 150.0
0.462999999523 -0.0509999990463 -0.171000003815 151.0
0.451999992132 -0.0520000010729 -0.166999995708 144.0
0.430000007153 -0.0520000010729 -0.158999994397 146.0
0.430000007153 -0.054999999702 -0.158999994397 144.0
0.465999990702 -0.0619999989867 -0.172000005841 152.0
0.456999987364 -0.0640000030398 -0.168999999762 147.0
0.43599998951 -0.0630000010133 -0.162000000477 148.0
0.414999991655 -0.0630000010133 -0.153999999166 156.0
0.433999985456 -0.0680000036955 -0.16099999845 148.0
0.493999987841 -0.082000002265 -0.184000000358 149.0
0.870999991894 -0.151999995112 -0.324999988079 430.0
0.931999981403 -0.168999999762 -0.347999989986 658.0
0.933000028133 -0.17499999702 -0.349000006914 665.0
0.925999999046 -0.179000005126 -0.347000002861 656.0
0.929000020027 -0.186000004411 -0.347999989986 665.0
0.92199999094 -0.189999997616 -0.345999985933 671.0
0.916000008583 -0.194999992847 -0.344000011683 664.0
0.916000008583 -0.201000005007 -0.344000011683 667.0
0.915000021458 -0.206000000238 -0.344000011683 669.0
0.926999986172 -0.215000003576 -0.349000006914 658.0
0.920000016689 -0.219999998808 -0.347000002861 670.0
0.926999986172 -0.226999998093 -0.34999999404 662.0
0.916999995708 -0.231000006199 -0.347000002861 653.0
0.912999987602 -0.236000001431 -0.345999985933 648.0
0.760999977589 -0.201000005007 -0.287999987602 289.0
0.423000007868 -0.112999998033 -0.159999996424 156.0
0.407000005245 -0.111000001431 -0.153999999166 159.0
0.395999997854 -0.109999999404 -0.15000000596 160.0
0.428999990225 -0.123000003397 -0.163000002503 157.0
0.368000000715 -0.107000000775 -0.140000000596 157.0
0.354999989271 -0.105999998748 -0.135000005364 152.0
0.412000000477 -0.126000002027 -0.157000005245 160.0
0.356000006199 -0.111000001431 -0.136000007391 157.0
0.379000008106 -0.120999999344 -0.144999995828 161.0
0.370000004768 -0.119999997318 -0.142000004649 155.0
0.402999997139 -0.134000003338 -0.155000001192 159.0
0.439999997616 -0.15000000596 -0.168999999762 155.0
0.76599997282 -0.270000010729 -0.296000003815 341.0
0.89200001955 -0.321000009775 -0.345999985933 629.0
0.898999989033 -0.330000013113 -0.349000006914 655.0
0.888999998569 -0.333000004292 -0.345999985933 656.0
0.884000003338 -0.337000012398 -0.344000011683 666.0
0.894999980927 -0.347999989986 -0.34999999404 663.0
0.889999985695 -0.352999985218 -0.349000006914 657.0
0.885999977589 -0.356999993324 -0.347000002861 657.0
0.879000008106 -0.361000001431 -0.345999985933 654.0
0.885999977589 -0.370999991894 -0.349000006914 653.0
0.875999987125 -0.372000008821 -0.345999985933 659.0
0.883000016212 -0.381999999285 -0.349000006914 662.0
0.888999998569 -0.391999989748 -0.352999985218 625.0
0.759999990463 -0.340000003576 -0.301999986172 316.0
0.388999998569 -0.173999994993 -0.153999999166 174.0
0.349000006914 -0.158999994397 -0.137999996543 168.0
0.33599999547 -0.155000001192 -0.134000003338 173.0
0.347000002861 -0.163000002503 -0.137999996543 164.0
0.300999999046 -0.143000006676 -0.119999997318 155.0
0.337000012398 -0.16400000453 -0.135000005364 166.0
0.342999994755 -0.168999999762 -0.137999996543 168.0
0.347999989986 -0.17499999702 -0.140000000596 172.0
0.293000012636 -0.149000003934 -0.118000000715 174.0
0.296000003815 -0.152999997139 -0.119999997318 167.0
0.523000001907 -0.277999997139 -0.21400000155 215.0
0.827000021935 -0.449999988079 -0.340000003576 471.0
0.938000023365 -0.518999993801 -0.386000007391 304.0
1.00499999523 -0.564999997616 -0.414999991655 276.0
1.00999999046 -0.575999975204 -0.418999999762 287.0
1.00300002098 -0.580999970436 -0.416999995708 284.0
1.01900005341 -0.598999977112 -0.425000011921 278.0
0.995000004768 -0.59399998188 -0.416000008583 279.0
4.05700016022 2.49000000954 -1.76900005341 241.0
4.07399988174 2.46399998665 -1.76999998093 243.0
4.07399988174 2.4279999733 -1.76400005817 239.0
4.09100008011 2.40100002289 -1.76600003242 238.0
4.10900020599 2.37599992752 -1.76800000668 240.0
0.00499999988824 0.00200000009499 -0.0010000000475 225.0
4.15100002289 2.32800006866 -1.77400004864 238.0
4.13999986649 2.28699994087 -1.76400005817 238.0
4.17100000381 2.26799988747 -1.77100002766 221.0
4.19099998474 2.24399995804 -1.77499997616 216.0
4.19099998474 2.20900011063 -1.76900005341 225.0
4.21500015259 2.18700003624 -1.77400004864 214.0
0.0120000001043 0.00499999988824 -0.00300000002608 210.0
0.0209999997169 0.00999999977648 -0.00700000021607 218.0
4.25400018692 2.10299992561 -1.77499997616 224.0
4.27099990845 2.07699990273 -1.77699995041 211.0
4.28100013733 2.04800009727 -1.77600002289 202.0
0.0189999993891 0.00800000037998 -0.00600000005215 204.0
4.31799983978 1.99800002575 -1.78199994564 203.0
4.30999994278 1.96099996567 -1.77400004864 205.0
4.34299993515 1.94200003147 -1.78299999237 201.0
4.35400009155 1.91400003433 -1.78299999237 198.0
4.35200023651 1.87999999523 -1.77799999714 191.0
4.38000011444 1.85899996758 -1.78499996662 185.0
4.38700008392 1.82899999619 -1.7840000391 181.0
4.39400005341 1.7990000248 -1.78199994564 178.0
4.38899993896 1.76499998569 -1.77600002289 180.0
4.4279999733 1.74800002575 -1.7879999876 171.0
4.42999982834 1.7159999609 -1.78499996662 167.0
4.44299983978 1.68900001049 -1.78600001335 160.0
0.0149999996647 0.00499999988824 -0.00400000018999 160.0
0.0140000004321 0.00499999988824 -0.00400000018999 153.0
0.0130000002682 0.00400000018999 -0.00400000018999 158.0
0.0109999999404 0.00400000018999 -0.00300000002608 153.0
0.0340000018477 0.0120000001043 -0.0120000001043 141.0
4.50199985504 1.51999998093 -1.7879999876 149.0
0.0240000002086 0.00800000037998 -0.00800000037998 147.0
4.52500009537 1.46399998665 -1.78999996185 140.0
0.0359999984503 0.0109999999404 -0.0130000002682 138.0
4.54099988937 1.40699994564 -1.78999996185 140.0
4.53900003433 1.375 -1.78600001335 141.0
0.0219999998808 0.00700000021607 -0.00700000021607 135.0
0.0270000007004 0.00800000037998 -0.00899999961257 132.0
0.019999999553 0.00600000005215 -0.00700000021607 128.0
0.0320000015199 0.00899999961257 -0.0109999999404 131.0
0.0170000009239 0.00499999988824 -0.00499999988824 122.0
0.035000000149 0.00999999977648 -0.0120000001043 123.0
0.0209999997169 0.00600000005215 -0.00700000021607 123.0
4.61299991608 1.15100002289 -1.79299998283 126.0
0.0329999998212 0.00899999961257 -0.0120000001043 114.0
0.0149999996647 0.00400000018999 -0.00400000018999 110.0
0.0120000001043 0.00300000002608 -0.00300000002608 116.0
0.0120000001043 0.00300000002608 -0.00300000002608 116.0
0.0460000000894 0.0109999999404 -0.0170000009239 109.0
0.0359999984503 0.00800000037998 -0.0130000002682 113.0
0.0460000000894 0.00999999977648 -0.01600000076 105.0
0.0120000001043 0.00300000002608 -0.00300000002608 107.0
0.0419999994338 0.00899999961257 -0.0149999996647 108.0
0.0740000009537 0.0140000004321 -0.0270000007004 98.0
0.00600000005215 0.00200000009499 -0.0010000000475 105.0
0.0410000011325 0.00800000037998 -0.0140000004321 108.0
0.0270000007004 0.00499999988824 -0.00899999961257 106.0
0.0460000000894 0.00800000037998 -0.01600000076 104.0
0.0130000002682 0.00300000002608 -0.00400000018999 106.0
0.0170000009239 0.00300000002608 -0.00499999988824 100.0
0.0520000010729 0.00800000037998 -0.0179999992251 99.0
0.0149999996647 0.00300000002608 -0.00400000018999 98.0
0.0520000010729 0.00800000037998 -0.0179999992251 106.0
4.71400022507 0.575999975204 -1.79400002956 100.0
0.0309999994934 0.00499999988824 -0.00999999977648 98.0
0.0390000008047 0.00499999988824 -0.0140000004321 103.0
0.0260000005364 0.00400000018999 -0.00899999961257 106.0
4.72800016403 0.46099999547 -1.79400002956 98.0
0.118000000715 0.0120000001043 -0.0430000014603 101.0
0.896000027657 0.0769999995828 -0.338999986649 440.0
0.921000003815 0.0740000009537 -0.347999989986 509.0
0.580999970436 0.0439999997616 -0.218999996781 171.0
0.53100001812 0.0370000004768 -0.20000000298 156.0
0.493999987841 0.0309999994934 -0.186000004411 159.0
0.54699999094 0.0309999994934 -0.206000000238 158.0
0.513000011444 0.0260000005364 -0.193000003695 159.0
0.497999995947 0.0230000000447 -0.187000006437 158.0
0.495999991894 0.0189999993891 -0.186000004411 159.0
0.493000000715 0.01600000076 -0.185000002384 156.0
0.518000006676 0.0140000004321 -0.194000005722 157.0
0.51599997282 0.0109999999404 -0.194000005722 154.0
0.518999993801 0.00800000037998 -0.194999992847 161.0
0.542999982834 0.00499999988824 -0.203999996185 152.0
0.546000003815 0.0010000000475 -0.204999998212 168.0
0.920000016689 -0.00300000002608 -0.345999985933 534.0
0.944999992847 -0.00899999961257 -0.356000006199 763.0
0.954999983311 -0.0149999996647 -0.358999997377 750.0
0.95300000906 -0.0209999997169 -0.358000010252 745.0
0.952000021935 -0.0260000005364 -0.358000010252 729.0
0.957000017166 -0.0320000015199 -0.360000014305 733.0
0.948000013828 -0.0379999987781 -0.356999993324 721.0
0.954999983311 -0.0439999997616 -0.360000014305 709.0
0.945999979973 -0.0489999987185 -0.356000006199 691.0
0.945999979973 -0.054999999702 -0.356000006199 697.0
0.952000021935 -0.0610000006855 -0.358999997377 679.0
0.945999979973 -0.0659999996424 -0.356000006199 677.0
0.949000000954 -0.0729999989271 -0.358000010252 667.0
0.945999979973 -0.0780000016093 -0.356999993324 650.0
0.815999984741 -0.0719999969006 -0.307000011206 308.0
0.455000013113 -0.0410000011325 -0.171000003815 152.0
0.391000002623 -0.0379999987781 -0.146999999881 151.0
0.416000008583 -0.0430000014603 -0.156000003219 156.0
0.40000000596 -0.0430000014603 -0.15000000596 155.0
0.419999986887 -0.0480000004172 -0.158000007272 147.0
0.485000014305 -0.0590000003576 -0.182999998331 161.0
0.400999993086 -0.0509999990463 -0.150999993086 153.0
0.479000002146 -0.0640000030398 -0.180999994278 150.0
0.419999986887 -0.0590000003576 -0.158000007272 146.0
0.41400000453 -0.0599999986589 -0.156000003219 151.0
0.425000011921 -0.0649999976158 -0.16099999845 146.0
0.405000001192 -0.0640000030398 -0.152999997139 150.0
0.490000009537 -0.0810000002384 -0.185000002384 154.0
0.882000029087 -0.153999999166 -0.335000008345 462.0
0.935000002384 -0.170000001788 -0.356000006199 655.0
0.927999973297 -0.173999994993 -0.354000002146 664.0
0.921000003815 -0.179000005126 -0.351000010967 656.0
0.926999986172 -0.186000004411 -0.354000002146 655.0
0.921000003815 -0.190999999642 -0.351999998093 660.0
0.908999979496 -0.194000005722 -0.347999989986 655.0
0.925999999046 -0.202999994159 -0.354999989271 645.0
0.912000000477 -0.206000000238 -0.34999999404 673.0
0.919000029564 -0.21400000155 -0.352999985218 660.0
0.920000016689 -0.219999998808 -0.352999985218 659.0
0.908999979496 -0.223000004888 -0.34999999404 659.0
0.907999992371 -0.229000002146 -0.34999999404 669.0
0.901000022888 -0.232999995351 -0.347000002861 615.0
0.712999999523 -0.187999993563 -0.27500000596 261.0
0.41400000453 -0.109999999404 -0.158999994397 161.0
0.386000007391 -0.104999996722 -0.149000003934 161.0
0.404000014067 -0.112999998033 -0.156000003219 157.0
0.349000006914 -0.0989999994636 -0.135000005364 152.0
0.388999998569 -0.11400000006 -0.15000000596 161.0
0.377000004053 -0.112999998033 -0.145999997854 162.0
0.381000012159 -0.115999996662 -0.148000001907 151.0
0.358999997377 -0.112000003457 -0.138999998569 155.0
0.377999991179 -0.120999999344 -0.146999999881 158.0
0.365999996662 -0.119000002742 -0.143000006676 161.0
0.384000003338 -0.12800000608 -0.15000000596 157.0
0.416999995708 -0.142000004649 -0.163000002503 164.0
0.81400001049 -0.287000000477 -0.321000009775 386.0
0.893999993801 -0.323000013828 -0.352999985218 650.0
0.893000006676 -0.328999996185 -0.352999985218 654.0
0.898000001907 -0.337000012398 -0.356000006199 655.0
0.888999998569 -0.340000003576 -0.352999985218 653.0
0.888000011444 -0.345999985933 -0.354000002146 664.0
0.889999985695 -0.352999985218 -0.354999989271 656.0
0.884000003338 -0.356999993324 -0.352999985218 653.0
0.875999987125 -0.360000014305 -0.351000010967 657.0
0.887000024319 -0.372000008821 -0.356000006199 659.0
0.888000011444 -0.379000008106 -0.356999993324 650.0
0.876999974251 -0.379999995232 -0.352999985218 650.0
0.875999987125 -0.386999994516 -0.354000002146 612.0
0.667999982834 -0.298999994993 -0.270000010729 275.0
0.340999990702 -0.152999997139 -0.137999996543 174.0
0.333999991417 -0.151999995112 -0.135000005364 168.0
0.293999999762 -0.135000005364 -0.119000002742 169.0
0.330000013113 -0.155000001192 -0.134000003338 167.0
0.289999991655 -0.137999996543 -0.118000000715 173.0
0.300000011921 -0.144999995828 -0.122000001371 164.0
0.277000010014 -0.136000007391 -0.112999998033 167.0
0.282999992371 -0.141000002623 -0.115999996662 178.0
0.317000001669 -0.162000000477 -0.130999997258 172.0
0.321999996901 -0.166999995708 -0.133000001311 166.0
0.598999977112 -0.319999992847 -0.25 257.0
0.839999973774 -0.458000004292 -0.351000010967 458.0
0.912000000477 -0.504999995232 -0.38299998641 304.0
1.0 -0.563000023365 -0.421000003815 275.0
0.998000025749 -0.570999979973 -0.42199999094 291.0
1.01999998093 -0.592999994755 -0.432000011206 277.0
0.996999979019 -0.587000012398 -0.423999994993 287.0
1.02199995518 -0.611999988556 -0.43599998951 282.0
0.0170000009239 0.00899999961257 -0.00600000005215 259.0
0.035000000149 0.019999999553 -0.0140000004321 253.0
4.07600021362 2.43400001526 -1.79799997807 239.0
4.09899997711 2.41199994087 -1.80200004578 244.0
4.09800004959 2.375 -1.79499995708 240.0
4.11899995804 2.35100007057 -1.7990000248 238.0
4.12300014496 2.3180000782 -1.79499995708 237.0
4.13800001144 2.29099988937 -1.79600000381 233.0
4.17000007629 2.27300000191 -1.80400002003 246.0
4.17199993134 2.23900008202 -1.7990000248 238.0
4.19299983978 2.21499991417 -1.8029999733 232.0
4.20499992371 2.18700003624 -1.80200004578 224.0
0.0230000000447 0.0109999999404 -0.00800000037998 219.0
4.23299980164 2.13199996948 -1.80400002003 220.0
0.0170000009239 0.00800000037998 -0.00600000005215 214.0
4.26200008392 2.07800006866 -1.80599999428 223.0
4.28299999237 2.05399990082 -1.80999994278 227.0
4.28200006485 2.01999998093 -1.80499994755 211.0
4.3029999733 1.99500000477 -1.80799996853 202.0
4.29899978638 1.96000003815 -1.80200004578 200.0
4.31799983978 1.93599998951 -1.80599999428 199.0
4.32299995422 1.90499997139 -1.8029999733 202.0
4.33300018311 1.87600004673 -1.8029999733 200.0
4.37099981308 1.85899996758 -1.81400001049 191.0
4.37099981308 1.8259999752 -1.80999994278 186.0
0.0170000009239 0.00700000021607 -0.00600000005215 187.0
0.00499999988824 0.00200000009499 -0.0010000000475 183.0
4.40399980545 1.74199998379 -1.81099998951 177.0
4.40899991989 1.7120000124 -1.80900001526 178.0
0.0120000001043 0.00400000018999 -0.00300000002608 168.0
4.44199991226 1.65999996662 -1.81400001049 168.0
0.0299999993294 0.0109999999404 -0.0109999999404 161.0
0.0179999992251 0.00700000021607 -0.00600000005215 161.0
0.0120000001043 0.00400000018999 -0.00400000018999 164.0
4.48600006104 1.5490000248 -1.81799995899 159.0
0.0149999996647 0.00499999988824 -0.00400000018999 156.0
0.0299999993294 0.00999999977648 -0.0109999999404 145.0
0.0320000015199 0.0109999999404 -0.0120000001043 150.0
0.00899999961257 0.00300000002608 -0.00200000009499 148.0
4.50899982452 1.39999997616 -1.80999994278 139.0
0.0370000004768 0.0120000001043 -0.0140000004321 140.0
4.55100011826 1.35099995136 -1.82099997997 135.0
0.00999999977648 0.00300000002608 -0.00300000002608 134.0
4.5560002327 1.29100000858 -1.81700003147 130.0
0.035000000149 0.00999999977648 -0.0130000002682 130.0
0.019999999553 0.00600000005215 -0.00700000021607 123.0
4.57700014114 1.20500004292 -1.81700003147 129.0
0.0149999996647 0.00400000018999 -0.00400000018999 118.0
4.59700012207 1.14900004864 -1.81900000572 126.0
4.61299991608 1.12300002575 -1.82299995422 120.0
0.0340000018477 0.00899999961257 -0.0120000001043 124.0
0.0560000017285 0.0140000004321 -0.0209999997169 116.0
4.62400007248 1.03499996662 -1.82000005245 122.0
0.0299999993294 0.00700000021607 -0.00999999977648 116.0
0.0480000004172 0.0109999999404 -0.0170000009239 115.0
4.64599990845 0.949999988079 -1.8220000267 113.0
0.0329999998212 0.00700000021607 -0.0109999999404 113.0
4.65600013733 0.89200001955 -1.8220000267 105.0
0.0740000009537 0.0149999996647 -0.0280000008643 109.0
0.00899999961257 0.00200000009499 -0.00200000009499 105.0
0.0590000003576 0.0109999999404 -0.0219999998808 101.0
0.0179999992251 0.00400000018999 -0.00600000005215 105.0
0.00600000005215 0.00200000009499 -0.0010000000475 103.0
0.0619999989867 0.0109999999404 -0.0230000000447 98.0
0.0599999986589 0.00999999977648 -0.0219999998808 106.0
0.0509999990463 0.00800000037998 -0.0179999992251 101.0
0.0109999999404 0.00300000002608 -0.00300000002608 104.0
0.0450000017881 0.00700000021607 -0.01600000076 100.0
0.0560000017285 0.00800000037998 -0.019999999553 99.0
0.0329999998212 0.00499999988824 -0.0109999999404 99.0
0.0740000009537 0.00899999961257 -0.0270000007004 99.0
0.0209999997169 0.00300000002608 -0.00700000021607 106.0
0.01600000076 0.00300000002608 -0.00499999988824 102.0
0.126000002027 0.0130000002682 -0.0469999983907 108.0
0.888000011444 0.0769999995828 -0.342000007629 401.0
0.903999984264 0.0729999989271 -0.347999989986 470.0
0.538999974728 0.0410000011325 -0.207000002265 166.0
0.493999987841 0.0340000018477 -0.188999995589 153.0
0.456999987364 0.0289999991655 -0.17499999702 152.0
0.444000005722 0.0260000005364 -0.170000001788 157.0
0.485000014305 0.0250000003725 -0.186000004411 158.0
0.486999988556 0.0219999998808 -0.186000004411 154.0
0.474000006914 0.0189999993891 -0.180999994278 154.0
0.503000020981 0.0170000009239 -0.192000001669 154.0
0.47499999404 0.0130000002682 -0.180999994278 151.0
0.479000002146 0.00999999977648 -0.182999998331 158.0
0.486000001431 0.00700000021607 -0.186000004411 156.0
0.501999974251 0.00499999988824 -0.192000001669 156.0
0.547999978065 0.0010000000475 -0.209000006318 168.0
0.907999992371 -0.00300000002608 -0.347999989986 511.0
0.948000013828 -0.00899999961257 -0.363000005484 705.0
0.948000013828 -0.0149999996647 -0.363000005484 701.0
0.952000021935 -0.0209999997169 -0.365000009537 698.0
0.945999979973 -0.0260000005364 -0.361999988556 681.0
0.957000017166 -0.0329999998212 -0.365999996662 678.0
0.945999979973 -0.0379999987781 -0.363000005484 670.0
0.943000018597 -0.0430000014603 -0.361000001431 670.0
0.938000023365 -0.0489999987185 -0.358999997377 667.0
0.93900001049 -0.054999999702 -0.360000014305 665.0
0.95300000906 -0.0610000006855 -0.365000009537 662.0
0.940999984741 -0.0659999996424 -0.361000001431 660.0
0.938000023365 -0.0719999969006 -0.360000014305 657.0
0.929000020027 -0.0769999995828 -0.356000006199 634.0
0.785000026226 -0.0689999982715 -0.300999999046 280.0
0.439999997616 -0.0399999991059 -0.167999997735 154.0
0.43599998951 -0.0419999994338 -0.166999995708 152.0
0.41400000453 -0.0430000014603 -0.158000007272 147.0
0.437999993563 -0.0480000004172 -0.167999997735 149.0
0.391999989748 -0.0450000017881 -0.15000000596 153.0
0.391000002623 -0.0469999983907 -0.15000000596 156.0
0.400999993086 -0.0509999990463 -0.153999999166 145.0
0.405999988317 -0.0540000014007 -0.156000003219 156.0
0.419999986887 -0.0590000003576 -0.16099999845 152.0
0.428000003099 -0.0619999989867 -0.16400000453 152.0
0.418000012636 -0.0640000030398 -0.16099999845 152.0
0.412000000477 -0.0649999976158 -0.158000007272 147.0
0.51599997282 -0.0860000029206 -0.199000000954 162.0
0.888000011444 -0.156000003219 -0.344000011683 499.0
0.924000024796 -0.167999997735 -0.358000010252 652.0
0.921000003815 -0.172999992967 -0.356999993324 656.0
0.920000016689 -0.179000005126 -0.356999993324 655.0
0.916999995708 -0.184000000358 -0.356999993324 661.0
0.920000016689 -0.190999999642 -0.358000010252 647.0
0.921000003815 -0.196999996901 -0.358999997377 661.0
0.917999982834 -0.202000007033 -0.358000010252 659.0
0.916000008583 -0.208000004292 -0.356999993324 666.0
0.911000013351 -0.211999997497 -0.356000006199 656.0
0.910000026226 -0.217999994755 -0.356000006199 667.0
0.908999979496 -0.224000006914 -0.356000006199 655.0
0.90600001812 -0.229000002146 -0.354999989271 653.0
0.893000006676 -0.231000006199 -0.351000010967 592.0
0.652999997139 -0.172000005841 -0.256000012159 234.0
0.381000012159 -0.101000003517 -0.149000003934 165.0
0.344999998808 -0.0939999967813 -0.135000005364 155.0
0.377000004053 -0.104999996722 -0.148000001907 161.0
0.379000008106 -0.108000002801 -0.149000003934 158.0
0.342999994755 -0.10000000149 -0.135000005364 161.0
0.421000003815 -0.126000002027 -0.165999993682 154.0
0.32800000906 -0.10000000149 -0.128999993205 163.0
0.338999986649 -0.105999998748 -0.134000003338 159.0
0.398999989033 -0.12800000608 -0.158000007272 159.0
0.344999998808 -0.112000003457 -0.136999994516 168.0
0.361000001431 -0.119999997318 -0.143999993801 172.0
0.402999997139 -0.137999996543 -0.16099999845 169.0
0.836000025272 -0.296000003815 -0.335000008345 434.0
0.898000001907 -0.324999988079 -0.361000001431 649.0
0.884999990463 -0.326000005007 -0.356000006199 649.0
0.884999990463 -0.333000004292 -0.356999993324 644.0
0.89099997282 -0.340999990702 -0.360000014305 652.0
0.889999985695 -0.347999989986 -0.361000001431 651.0
0.884000003338 -0.351000010967 -0.358999997377 655.0
0.880999982357 -0.356999993324 -0.358999997377 654.0
0.876999974251 -0.361999988556 -0.358000010252 651.0
0.870000004768 -0.365000009537 -0.356000006199 653.0
0.888000011444 -0.379999995232 -0.363999992609 652.0
0.873000025749 -0.379999995232 -0.358999997377 641.0
0.856999993324 -0.379000008106 -0.352999985218 567.0
0.612999975681 -0.273999989033 -0.252000004053 234.0
0.36700001359 -0.165000006557 -0.150999993086 174.0
0.321000009775 -0.145999997854 -0.131999999285 170.0
0.319999992847 -0.148000001907 -0.131999999285 165.0
0.300999999046 -0.141000002623 -0.123999997973 165.0
0.31400001049 -0.15000000596 -0.129999995232 169.0
0.333999991417 -0.163000002503 -0.138999998569 175.0
0.294999986887 -0.145999997854 -0.123000003397 168.0
0.28900000453 -0.144999995828 -0.120999999344 175.0
0.308999985456 -0.158000007272 -0.129999995232 175.0
0.319000005722 -0.165999993682 -0.134000003338 183.0
0.707000017166 -0.379999995232 -0.300000011921 307.0
0.833000004292 -0.455000013113 -0.354999989271 435.0
0.95300000906 -0.52999997139 -0.407000005245 280.0
1.01499998569 -0.573000013828 -0.435000002384 280.0
1.00199997425 -0.574999988079 -0.430999994278 293.0
1.01499998569 -0.591000020504 -0.437999993563 284.0
1.00300002098 -0.592999994755 -0.435000002384 279.0
1.00699996948 -0.603999972343 -0.437999993563 314.0
4.02299976349 2.48099994659 -1.81900000572 255.0
4.04899978638 2.46000003815 -1.82500004768 254.0
0.0109999999404 0.00600000005215 -0.00300000002608 247.0
0.00899999961257 0.00400000018999 -0.00200000009499 241.0
4.09700012207 2.38000011444 -1.82799994946 258.0
0.0209999997169 0.0109999999404 -0.00800000037998 257.0
4.11999988556 2.32100009918 -1.8259999752 243.0
4.14200019836 2.29800009727 -1.83000004292 248.0
4.15399980545 2.26999998093 -1.83000004292 231.0
4.17199993134 2.24399995804 -1.83200001717 245.0
4.18499994278 2.21600008011 -1.83200001717 234.0
4.19999980927 2.18899989128 -1.83299994469 232.0
4.21400022507 2.16199994087 -1.83399999142 230.0
4.23299980164 2.13599991798 -1.83599996567 232.0
0.00700000021607 0.00300000002608 -0.00200000009499 232.0
4.24499988556 2.07399988174 -1.83200001717 226.0
4.25600004196 2.04600000381 -1.83099997044 221.0
0.0149999996647 0.00600000005215 -0.00499999988824 217.0
4.28000020981 1.98899996281 -1.83200001717 213.0
4.29799985886 1.96399998665 -1.83399999142 216.0
4.3140001297 1.93799996376 -1.83599996567 199.0
4.32899999619 1.91199994087 -1.83800005913 194.0
4.32899999619 1.87800002098 -1.83399999142 195.0
4.35200023651 1.85500001907 -1.83899998665 199.0
4.36999988556 1.83000004292 -1.84200000763 190.0
4.37699985504 1.79999995232 -1.8409999609 192.0
4.38800001144 1.77199995518 -1.8409999609 189.0
0.00600000005215 0.00200000009499 -0.0010000000475 185.0
4.40600013733 1.71399998665 -1.84000003338 178.0
0.0140000004321 0.00499999988824 -0.00499999988824 179.0
0.0280000008643 0.00999999977648 -0.00999999977648 175.0
0.0230000000447 0.00800000037998 -0.00800000037998 165.0
0.019999999553 0.00700000021607 -0.00700000021607 169.0
4.46899986267 1.57799994946 -1.84700000286 165.0
0.00700000021607 0.00200000009499 -0.0010000000475 157.0
0.0109999999404 0.00400000018999 -0.00300000002608 154.0
0.0189999993891 0.00600000005215 -0.00700000021607 149.0
0.0329999998212 0.0109999999404 -0.0120000001043 147.0
0.0140000004321 0.00499999988824 -0.00400000018999 146.0
4.50699996948 1.40199995041 -1.84200000763 146.0
0.0280000008643 0.00899999961257 -0.00999999977648 147.0
0.00800000037998 0.00200000009499 -0.00200000009499 145.0
0.0489999987185 0.0149999996647 -0.0189999993891 136.0
0.0509999990463 0.0149999996647 -0.0189999993891 139.0
0.0610000006855 0.0170000009239 -0.0230000000447 133.0
0.0149999996647 0.00400000018999 -0.00499999988824 125.0
0.0270000007004 0.00700000021607 -0.00899999961257 127.0
0.0340000018477 0.00899999961257 -0.0120000001043 124.0
0.0520000010729 0.0130000002682 -0.0189999993891 119.0
0.0240000002086 0.00600000005215 -0.00800000037998 126.0
4.60699987411 1.09300005436 -1.85099995136 131.0
0.0189999993891 0.00499999988824 -0.00600000005215 124.0
0.0240000002086 0.00600000005215 -0.00800000037998 120.0
0.0289999991655 0.00700000021607 -0.00999999977648 119.0
0.0570000000298 0.0130000002682 -0.0209999997169 115.0
0.0170000009239 0.00400000018999 -0.00499999988824 117.0
0.0109999999404 0.00300000002608 -0.00300000002608 113.0
0.0260000005364 0.00600000005215 -0.00899999961257 115.0
0.00600000005215 0.00200000009499 -0.0010000000475 102.0
0.0710000023246 0.0130000002682 -0.0270000007004 110.0
0.0120000001043 0.00300000002608 -0.00300000002608 107.0
0.0399999991059 0.00800000037998 -0.0149999996647 107.0
0.0480000004172 0.00899999961257 -0.0179999992251 98.0
0.0640000030398 0.0109999999404 -0.0240000002086 100.0
0.00600000005215 0.00200000009499 -0.0010000000475 102.0
0.0140000004321 0.00300000002608 -0.00400000018999 100.0
0.0379999987781 0.00600000005215 -0.0130000002682 102.0
0.0170000009239 0.00300000002608 -0.00499999988824 101.0
0.0170000009239 0.00300000002608 -0.00499999988824 96.0
0.0729999989271 0.00999999977648 -0.0270000007004 99.0
0.0529999993742 0.00700000021607 -0.0189999993891 107.0
0.0430000014603 0.00600000005215 -0.0149999996647 104.0
0.0260000005364 0.00400000018999 -0.00899999961257 107.0
0.126000002027 0.0130000002682 -0.0480000004172 107.0
0.883000016212 0.0769999995828 -0.345999985933 384.0
0.917999982834 0.0740000009537 -0.358999997377 476.0
0.755999982357 0.0570000000298 -0.296000003815 238.0
0.652000010014 0.0450000017881 -0.254999995232 198.0
0.602999985218 0.0379999987781 -0.234999999404 180.0
0.575999975204 0.0329999998212 -0.224000006914 175.0
0.533999979496 0.0270000007004 -0.208000004292 165.0
0.455000013113 0.0209999997169 -0.177000001073 154.0
0.446000009775 0.0179999992251 -0.172999992967 157.0
0.425999999046 0.0140000004321 -0.165000006557 147.0
0.430999994278 0.0120000001043 -0.167999997735 151.0
0.437000006437 0.00899999961257 -0.170000001788 152.0
0.444999992847 0.00700000021607 -0.172999992967 149.0
0.43900001049 0.00400000018999 -0.170000001788 154.0
0.535000026226 0.0010000000475 -0.208000004292 160.0
0.908999979496 -0.00300000002608 -0.354000002146 491.0
0.940999984741 -0.00899999961257 -0.36700001359 665.0
0.941999971867 -0.0149999996647 -0.36700001359 665.0
0.941999971867 -0.0209999997169 -0.36700001359 666.0
0.940999984741 -0.0260000005364 -0.36700001359 656.0
0.944999992847 -0.0320000015199 -0.368000000715 654.0
0.93900001049 -0.0379999987781 -0.365999996662 651.0
0.941999971867 -0.0439999997616 -0.36700001359 644.0
0.944999992847 -0.0489999987185 -0.368999987841 641.0
0.948000013828 -0.054999999702 -0.370000004768 644.0
0.941999971867 -0.0610000006855 -0.368000000715 651.0
0.93599998951 -0.0659999996424 -0.365999996662 646.0
0.941999971867 -0.0719999969006 -0.368000000715 647.0
0.930000007153 -0.0769999995828 -0.363000005484 613.0
0.73299998045 -0.0640000030398 -0.286000013351 251.0
0.409000009298 -0.0370000004768 -0.158999994397 155.0
0.42199999094 -0.0410000011325 -0.16400000453 151.0
0.414999991655 -0.0430000014603 -0.16099999845 154.0
0.405000001192 -0.0439999997616 -0.158000007272 151.0
0.377999991179 -0.0430000014603 -0.146999999881 149.0
0.416999995708 -0.0509999990463 -0.163000002503 151.0
0.391999989748 -0.0500000007451 -0.152999997139 153.0
0.363999992609 -0.0480000004172 -0.142000004649 154.0
0.411000013351 -0.0579999983311 -0.16099999845 146.0
0.416999995708 -0.0610000006855 -0.163000002503 156.0
0.423000007868 -0.0649999976158 -0.165999993682 150.0
0.423999994993 -0.0670000016689 -0.165999993682 153.0
0.52999997139 -0.0879999995232 -0.208000004292 179.0
0.89099997282 -0.157000005245 -0.351000010967 520.0
0.921000003815 -0.167999997735 -0.363000005484 654.0
0.913999974728 -0.172000005841 -0.361000001431 651.0
0.912000000477 -0.178000003099 -0.360000014305 657.0
0.912999987602 -0.184000000358 -0.361000001431 663.0
0.910000026226 -0.188999995589 -0.360000014305 662.0
0.915000021458 -0.195999994874 -0.363000005484 662.0
0.90600001812 -0.20000000298 -0.360000014305 653.0
0.915000021458 -0.208000004292 -0.363999992609 662.0
0.907999992371 -0.211999997497 -0.361000001431 666.0
0.896000027657 -0.215000003576 -0.356999993324 654.0
0.899999976158 -0.222000002861 -0.358999997377 654.0
0.910000026226 -0.230000004172 -0.363000005484 657.0
0.884999990463 -0.230000004172 -0.354000002146 553.0
0.617999970913 -0.163000002503 -0.24699999392 216.0
0.365999996662 -0.097000002861 -0.145999997854 161.0
0.379999995232 -0.104000002146 -0.151999995112 160.0
0.349000006914 -0.097000002861 -0.140000000596 169.0
0.358000010252 -0.101999998093 -0.143000006676 167.0
0.360000014305 -0.104999996722 -0.143999993801 168.0
0.365000009537 -0.108999997377 -0.146999999881 169.0
0.365000009537 -0.112000003457 -0.146999999881 170.0
0.340000003576 -0.105999998748 -0.136999994516 166.0
0.354000002146 -0.112999998033 -0.143000006676 161.0
0.317000001669 -0.103000000119 -0.12800000608 174.0
0.365000009537 -0.122000001371 -0.148000001907 173.0
0.462999999523 -0.158999994397 -0.187999993563 182.0
0.838999986649 -0.298000007868 -0.342999994755 480.0
0.893999993801 -0.324000000954 -0.365999996662 643.0
0.89200001955 -0.330000013113 -0.365999996662 650.0
0.884000003338 -0.333000004292 -0.363000005484 649.0
0.887000024319 -0.340999990702 -0.365000009537 657.0
0.884999990463 -0.345999985933 -0.365000009537 649.0
0.878000020981 -0.34999999404 -0.363000005484 654.0
0.874000012875 -0.354999989271 -0.361999988556 653.0
0.884999990463 -0.365999996662 -0.368000000715 636.0
0.869000017643 -0.365999996662 -0.361999988556 654.0
0.876999974251 -0.375999987125 -0.365999996662 646.0
0.880999982357 -0.384000003338 -0.368000000715 655.0
0.84399998188 -0.374000012875 -0.354000002146 518.0
0.547999978065 -0.245000004768 -0.230000004172 218.0
0.331999987364 -0.149000003934 -0.138999998569 170.0
0.330000013113 -0.150999993086 -0.138999998569 173.0
0.317999988794 -0.146999999881 -0.133000001311 161.0
0.28900000453 -0.136000007391 -0.122000001371 177.0
0.291999995708 -0.140000000596 -0.123000003397 173.0
0.296000003815 -0.143999993801 -0.125 180.0
0.31099998951 -0.153999999166 -0.131999999285 172.0
0.289999991655 -0.145999997854 -0.123000003397 173.0
0.358999997377 -0.185000002384 -0.152999997139 177.0
0.28900000453 -0.15000000596 -0.123999997973 181.0
0.730000019073 -0.393000006676 -0.316000014544 375.0
0.848999977112 -0.465000003576 -0.368000000715 399.0
0.952000021935 -0.52999997139 -0.41400000453 286.0
1.01699995995 -0.575999975204 -0.444000005722 294.0
0.990999996662 -0.569999992847 -0.433999985456 284.0
0.986999988556 -0.575999975204 -0.433999985456 297.0
0.995999991894 -0.589999973774 -0.43900001049 306.0
1.0529999733 -0.634000003338 -0.465999990702 363.0
4.02500009537 2.48799991608 -1.85300004482 269.0
0.0140000004321 0.00700000021607 -0.00499999988824 259.0
0.00499999988824 0.00200000009499 -0.0010000000475 264.0
0.00999999977648 0.00499999988824 -0.00300000002608 254.0
4.07299995422 2.37199997902 -1.85000002384 263.0
4.09000015259 2.34599995613 -1.85099995136 269.0
4.11600017548 2.32500004768 -1.85699999332 252.0
0.0189999993891 0.00999999977648 -0.00700000021607 258.0
4.14499998093 2.26999998093 -1.85800004005 255.0
0.0170000009239 0.00800000037998 -0.00600000005215 244.0
4.15600013733 2.20600008965 -1.85199999809 243.0
4.18300008774 2.18499994278 -1.85800004005 239.0
4.19199991226 2.15499997139 -1.85699999332 247.0
4.20200014114 2.12599992752 -1.85599994659 227.0
0.0140000004321 0.00600000005215 -0.00400000018999 241.0
4.242000103 2.07800006866 -1.86300003529 226.0
4.242000103 2.04399991035 -1.85800004005 226.0
0.00800000037998 0.00300000002608 -0.00200000009499 227.0
4.27400016785 1.99100005627 -1.86199998856 220.0
0.00600000005215 0.00200000009499 -0.0010000000475 217.0
4.3029999733 1.93700003624 -1.86500000954 211.0
4.32000017166 1.91199994087 -1.86699998379 204.0
0.01600000076 0.00600000005215 -0.00499999988824 205.0
4.3220000267 1.84599995613 -1.85899996758 206.0
0.00700000021607 0.00300000002608 -0.00200000009499 196.0
4.36600017548 1.79999995232 -1.86899995804 198.0
4.3639998436 1.76600003242 -1.86399996281 195.0
0.00899999961257 0.00300000002608 -0.00200000009499 188.0
4.382999897 1.70899999142 -1.86399996281 192.0
4.39400005341 1.68099999428 -1.86399996281 187.0
4.41900014877 1.6590000391 -1.8710000515 186.0
0.0109999999404 0.00400000018999 -0.00300000002608 174.0
0.00899999961257 0.00300000002608 -0.00200000009499 163.0
0.0209999997169 0.00700000021607 -0.00700000021607 163.0
0.0230000000447 0.00800000037998 -0.00800000037998 168.0
0.0149999996647 0.00499999988824 -0.00499999988824 158.0
0.00700000021607 0.00200000009499 -0.0010000000475 149.0
0.0230000000447 0.00700000021607 -0.00800000037998 157.0
0.0289999991655 0.00899999961257 -0.0109999999404 152.0
0.00700000021607 0.00200000009499 -0.0010000000475 146.0
0.0260000005364 0.00800000037998 -0.00899999961257 151.0
0.0410000011325 0.0130000002682 -0.01600000076 140.0
4.53800010681 1.3220000267 -1.87800002098 137.0
0.0399999991059 0.0120000001043 -0.0149999996647 144.0
0.00800000037998 0.00300000002608 -0.00200000009499 131.0
0.0390000008047 0.0109999999404 -0.0149999996647 138.0
0.0299999993294 0.00800000037998 -0.0109999999404 138.0
4.5640001297 1.17599999905 -1.87399995327 133.0
0.0280000008643 0.00700000021607 -0.00999999977648 126.0
0.0640000030398 0.01600000076 -0.0250000003725 122.0
0.0329999998212 0.00800000037998 -0.0120000001043 124.0
0.0270000007004 0.00700000021607 -0.00999999977648 116.0
0.0329999998212 0.00800000037998 -0.0120000001043 125.0
4.59100008011 1.00199997425 -1.87000000477 109.0
0.0250000003725 0.00600000005215 -0.00899999961257 116.0
0.0329999998212 0.00700000021607 -0.0120000001043 119.0
0.0509999990463 0.0109999999404 -0.0189999993891 112.0
0.0460000000894 0.00899999961257 -0.0170000009239 122.0
0.054999999702 0.0109999999404 -0.0209999997169 109.0
0.0500000007451 0.00999999977648 -0.0189999993891 115.0
0.0869999974966 0.01600000076 -0.0340000018477 102.0
0.0340000018477 0.00700000021607 -0.0120000001043 109.0
0.0340000018477 0.00600000005215 -0.0120000001043 102.0
0.035000000149 0.00600000005215 -0.0130000002682 106.0
0.0280000008643 0.00499999988824 -0.00999999977648 105.0
4.66400003433 0.661000013351 -1.87600004673 106.0
0.0419999994338 0.00700000021607 -0.0149999996647 108.0
0.0579999983311 0.00899999961257 -0.0219999998808 104.0
0.0649999976158 0.00899999961257 -0.0250000003725 99.0
0.0270000007004 0.00400000018999 -0.00899999961257 108.0
0.0509999990463 0.00700000021607 -0.0189999993891 110.0
0.0430000014603 0.00600000005215 -0.01600000076 104.0
0.00899999961257 0.00200000009499 -0.00200000009499 105.0
0.0860000029206 0.00899999961257 -0.0329999998212 112.0
0.873000025749 0.0759999975562 -0.347999989986 378.0
0.944999992847 0.0759999975562 -0.375999987125 605.0
0.941999971867 0.070000000298 -0.375 606.0
0.941999971867 0.0640000030398 -0.375 604.0
0.940999984741 0.0590000003576 -0.374000012875 583.0
0.934000015259 0.0520000010729 -0.370999991894 547.0
0.916999995708 0.0460000000894 -0.365000009537 520.0
0.908999979496 0.0399999991059 -0.361000001431 476.0
0.898999989033 0.0340000018477 -0.356999993324 444.0
0.876999974251 0.0280000008643 -0.347999989986 385.0
0.861999988556 0.0219999998808 -0.342000007629 346.0
0.82800000906 0.01600000076 -0.328999996185 322.0
0.786000013351 0.0109999999404 -0.312000006437 279.0
0.748000025749 0.00600000005215 -0.29699999094 251.0
0.731000006199 0.0010000000475 -0.289999991655 224.0
0.907000005245 -0.00300000002608 -0.360000014305 465.0
0.930000007153 -0.00899999961257 -0.368999987841 595.0
0.93599998951 -0.0149999996647 -0.370999991894 603.0
0.931999981403 -0.019999999553 -0.370000004768 626.0
0.940999984741 -0.0260000005364 -0.372999995947 627.0
0.935000002384 -0.0320000015199 -0.370999991894 641.0
0.929000020027 -0.0370000004768 -0.368999987841 638.0
0.940999984741 -0.0439999997616 -0.374000012875 631.0
0.940999984741 -0.0489999987185 -0.374000012875 634.0
0.943000018597 -0.054999999702 -0.375 641.0
0.935000002384 -0.0599999986589 -0.370999991894 630.0
0.929000020027 -0.0659999996424 -0.368999987841 636.0
0.943000018597 -0.0729999989271 -0.375 644.0
0.927999973297 -0.0769999995828 -0.368999987841 600.0
0.709999978542 -0.0630000010133 -0.282000005245 235.0
0.409999996424 -0.0370000004768 -0.162000000477 157.0
0.402000010014 -0.0390000008047 -0.158999994397 154.0
0.379999995232 -0.0390000008047 -0.15000000596 151.0
0.428000003099 -0.0469999983907 -0.170000001788 156.0
0.38299998641 -0.0439999997616 -0.151999995112 155.0
0.393000006676 -0.0480000004172 -0.156000003219 160.0
0.388000011444 -0.0489999987185 -0.153999999166 152.0
0.374000012875 -0.0500000007451 -0.149000003934 155.0
0.340999990702 -0.0469999983907 -0.135000005364 149.0
0.40000000596 -0.0590000003576 -0.158999994397 157.0
0.395999997854 -0.0599999986589 -0.158000007272 159.0
0.409000009298 -0.0649999976158 -0.163000002503 155.0
0.552999973297 -0.0930000022054 -0.221000000834 192.0
0.889999985695 -0.157000005245 -0.356999993324 553.0
0.913999974728 -0.166999995708 -0.36700001359 654.0
0.908999979496 -0.172000005841 -0.365000009537 662.0
0.913999974728 -0.179000005126 -0.368000000715 654.0
0.912000000477 -0.184000000358 -0.36700001359 663.0
0.903999984264 -0.187999993563 -0.363999992609 665.0
0.912000000477 -0.195999994874 -0.368000000715 660.0
0.911000013351 -0.202000007033 -0.368000000715 659.0
0.907000005245 -0.206000000238 -0.36700001359 661.0
0.916000008583 -0.21400000155 -0.370999991894 660.0
0.910000026226 -0.218999996781 -0.368999987841 657.0
0.897000014782 -0.222000002861 -0.363999992609 656.0
0.898999989033 -0.228000000119 -0.365000009537 665.0
0.879000008106 -0.229000002146 -0.358000010252 523.0
0.54699999094 -0.143999993801 -0.222000002861 210.0
0.361999988556 -0.097000002861 -0.146999999881 171.0
0.347999989986 -0.0949999988079 -0.141000002623 164.0
0.344999998808 -0.0960000008345 -0.140000000596 163.0
0.38299998641 -0.109999999404 -0.156000003219 173.0
0.360000014305 -0.105999998748 -0.146999999881 169.0
0.352999985218 -0.105999998748 -0.143999993801 168.0
0.391000002623 -0.119999997318 -0.159999996424 167.0
0.337999999523 -0.105999998748 -0.137999996543 166.0
0.347999989986 -0.112000003457 -0.143000006676 170.0
0.340999990702 -0.112000003457 -0.140000000596 165.0
0.333000004292 -0.111000001431 -0.136999994516 174.0
0.501999974251 -0.172999992967 -0.208000004292 207.0
0.860000014305 -0.305999994278 -0.358000010252 527.0
0.880999982357 -0.319999992847 -0.36700001359 650.0
0.880999982357 -0.326000005007 -0.368000000715 648.0
0.882000029087 -0.333000004292 -0.368999987841 653.0
0.883000016212 -0.340000003576 -0.370000004768 657.0
0.885999977589 -0.347000002861 -0.372000008821 655.0
0.883000016212 -0.352999985218 -0.372000008821 643.0
0.873000025749 -0.354999989271 -0.368000000715 650.0
0.870999991894 -0.361000001431 -0.368000000715 642.0
0.875999987125 -0.368999987841 -0.370999991894 660.0
0.871999979019 -0.374000012875 -0.370000004768 647.0
0.867999970913 -0.379000008106 -0.370000004768 641.0
0.813000023365 -0.361000001431 -0.347000002861 457.0
0.488000005484 -0.218999996781 -0.208000004292 203.0
0.370999991894 -0.167999997735 -0.158000007272 175.0
0.398999989033 -0.184000000358 -0.171000003815 187.0
0.446000009775 -0.209999993443 -0.192000001669 191.0
0.441000014544 -0.21099999547 -0.189999997616 201.0
0.501999974251 -0.245000004768 -0.216999992728 204.0
0.500999987125 -0.247999995947 -0.216999992728 213.0
0.574000000954 -0.289999991655 -0.25 238.0
0.625 -0.321000009775 -0.273000001907 254.0
0.639999985695 -0.333999991417 -0.280000001192 273.0
0.691999971867 -0.368000000715 -0.303999990225 323.0
