ply
format ascii 1.0
element vertex 934
property float x
property float y
property float z
property float intensity
end_header
1.11899995804 0.605000019073 0.0390000008047 492.0
1.12999999523 0.601999998093 0.0399999991059 480.0
1.15400004387 0.606000006199 0.0410000011325 426.0
1.47500002384 0.763000011444 0.0520000010729 193.0
1.66199994087 0.847000002861 0.0590000003576 173.0
1.72699999809 0.866999983788 0.0610000006855 164.0
1.7009999752 0.841000020504 0.0599999986589 162.0
1.76400005817 0.85900002718 0.0619999989867 147.0
1.76900005341 0.847999989986 0.0619999989867 155.0
1.91799998283 0.90499997139 0.0680000036955 136.0
2.09100008011 0.971000015736 0.0740000009537 137.0
2.1099998951 0.963999986649 0.0740000009537 161.0
2.11100006104 0.949999988079 0.0740000009537 215.0
2.11800003052 0.936999976635 0.0740000009537 237.0
2.13700008392 0.930000007153 0.0750000029802 230.0
2.12599992752 0.910000026226 0.0740000009537 223.0
2.1099998951 0.888000011444 0.0740000009537 236.0
2.13000011444 0.882000029087 0.0740000009537 225.0
2.10700011253 0.856999993324 0.0729999989271 153.0
2.10500001907 0.842000007629 0.0729999989271 77.0
2.23099994659 0.876999974251 0.0780000016093 98.0
2.24399995804 0.865999996662 0.0780000016093 177.0
2.24499988556 0.851999998093 0.0780000016093 95.0
2.64100003242 0.861000001431 0.0909999981523 84.0
3.10700011253 0.873000025749 0.107000000775 55.0
3.33299994469 0.874000012875 0.115000002086 63.0
4.01300001144 0.952000021935 0.138999998569 62.0
3.77900004387 0.873000025749 0.129999995232 64.0
3.8220000267 0.860000014305 0.131999999285 64.0
4.17299985886 0.837999999523 0.143999993801 76.0
4.1779999733 0.813000023365 0.143999993801 71.0
4.23799991608 0.800000011921 0.145999997854 70.0
4.23799991608 0.773999989033 0.145999997854 67.0
4.26200008392 0.753000020981 0.146999999881 67.0
4.24300003052 0.723999977112 0.145999997854 62.0
4.12400007248 0.679000020027 0.142000004649 65.0
4.18499994278 0.665000021458 0.143999993801 60.0
4.21099996567 0.643999993801 0.144999995828 61.0
4.13500022888 0.60799998045 0.143000006676 58.0
4.19999980927 0.592999994755 0.144999995828 60.0
4.17199993134 0.56400001049 0.143999993801 59.0
4.16599988937 0.538999974728 0.143999993801 60.0
4.07999992371 0.504000008106 0.141000002623 62.0
4.24499988556 0.499000012875 0.145999997854 61.0
4.20100021362 0.469000011683 0.144999995828 65.0
4.24900007248 0.449999988079 0.146999999881 59.0
4.21299982071 0.42199999094 0.144999995828 63.0
4.16900014877 0.393000006676 0.143999993801 60.0
4.1939997673 0.370999991894 0.144999995828 60.0
4.13700008392 0.342000007629 0.143000006676 64.0
4.16200017929 0.319999992847 0.143999993801 66.0
4.25400018692 0.301999986172 0.146999999881 63.0
4.11899995804 0.268999993801 0.143000006676 75.0
4.14400005341 0.24699999392 0.143000006676 61.0
0.875 -0.152999997139 0.0299999993294 1304.0
0.889999985695 -0.16099999845 0.0309999994934 1777.0
0.898000001907 -0.167999997735 0.0309999994934 1837.0
0.885999977589 -0.171000003815 0.0309999994934 1810.0
0.885999977589 -0.175999999046 0.0309999994934 1791.0
0.888999998569 -0.181999996305 0.0309999994934 1834.0
0.884999990463 -0.187000006437 0.0309999994934 1810.0
0.880999982357 -0.190999999642 0.0309999994934 1770.0
0.879999995232 -0.195999994874 0.0309999994934 1788.0
0.883000016212 -0.202000007033 0.0309999994934 1802.0
0.884000003338 -0.208000004292 0.0309999994934 1758.0
0.878000020981 -0.211999997497 0.0309999994934 1766.0
0.875 -0.216999992728 0.0309999994934 1787.0
0.878000020981 -0.223000004888 0.0309999994934 1753.0
0.875 -0.228000000119 0.0309999994934 1747.0
0.871999979019 -0.231999993324 0.0309999994934 1759.0
0.875999987125 -0.238999992609 0.0309999994934 1785.0
0.873000025749 -0.243000000715 0.0309999994934 1786.0
0.875999987125 -0.25 0.0309999994934 1776.0
0.873000025749 -0.254000008106 0.0309999994934 1791.0
0.870000004768 -0.259000003338 0.0309999994934 1831.0
0.871999979019 -0.264999985695 0.0309999994934 1856.0
0.864000022411 -0.268000006676 0.0309999994934 1916.0
0.867999970913 -0.27500000596 0.0309999994934 1901.0
0.870000004768 -0.280999988317 0.0320000015199 1866.0
0.864000022411 -0.284999996424 0.0309999994934 1868.0
0.85799998045 -0.28900000453 0.0309999994934 1900.0
0.861999988556 -0.296000003815 0.0320000015199 1893.0
0.85900002718 -0.300999999046 0.0320000015199 1858.0
0.856999993324 -0.305999994278 0.0320000015199 1872.0
0.860000014305 -0.312000006437 0.0320000015199 1882.0
0.855000019073 -0.316000014544 0.0320000015199 1853.0
0.860000014305 -0.324000000954 0.0320000015199 1849.0
0.856999993324 -0.328999996185 0.0320000015199 1830.0
0.856999993324 -0.335000008345 0.0320000015199 1818.0
0.848999977112 -0.337000012398 0.0320000015199 1838.0
0.84399998188 -0.340999990702 0.0320000015199 1811.0
0.851000010967 -0.34999999404 0.0320000015199 1833.0
0.84500002861 -0.352999985218 0.0320000015199 1860.0
0.84399998188 -0.358999997377 0.0320000015199 1878.0
0.84500002861 -0.365000009537 0.0320000015199 1888.0
0.84399998188 -0.370999991894 0.0320000015199 1893.0
0.839999973774 -0.375 0.0320000015199 1897.0
0.841000020504 -0.381999999285 0.0320000015199 1877.0
0.837999999523 -0.386999994516 0.0320000015199 1861.0
0.838999986649 -0.393000006676 0.0320000015199 1846.0
0.828999996185 -0.395000010729 0.0320000015199 1893.0
0.834999978542 -0.404000014067 0.0320000015199 1884.0
0.834999978542 -0.409999996424 0.0329999998212 1892.0
0.833000004292 -0.414999991655 0.0329999998212 1880.0
0.833000004292 -0.42199999094 0.0329999998212 1871.0
0.828999996185 -0.426999986172 0.0329999998212 1850.0
0.827000021935 -0.432000011206 0.0329999998212 1857.0
0.828999996185 -0.43900001049 0.0329999998212 1855.0
0.825999975204 -0.444000005722 0.0329999998212 1860.0
0.824000000954 -0.449999988079 0.0329999998212 1865.0
0.823000013828 -0.456000000238 0.0329999998212 1883.0
1.06299996376 0.60900002718 0.0309999994934 594.0
1.07899999619 0.610000014305 0.0309999994934 568.0
1.08000004292 0.601000010967 0.0309999994934 545.0
1.10099995136 0.603999972343 0.0320000015199 522.0
1.11199998856 0.601000010967 0.0320000015199 503.0
1.13100004196 0.602999985218 0.0329999998212 489.0
1.17200005054 0.615000009537 0.0340000018477 430.0
1.5720000267 0.813000023365 0.0460000000894 209.0
1.74199998379 0.888000011444 0.0509999990463 196.0
1.75 0.878000020981 0.0509999990463 191.0
1.74800002575 0.864000022411 0.0509999990463 186.0
1.8259999752 0.888999998569 0.0529999993742 173.0
1.82500004768 0.874000012875 0.0529999993742 165.0
1.92100000381 0.90600001812 0.0560000017285 152.0
2.07899999619 0.964999973774 0.0599999986589 164.0
2.08899998665 0.953999996185 0.0599999986589 204.0
2.09299993515 0.940999984741 0.0610000006855 223.0
2.13800001144 0.945999979973 0.0619999989867 257.0
2.14400005341 0.933000028133 0.0619999989867 288.0
2.14499998093 0.917999982834 0.0619999989867 287.0
2.15100002289 0.90499997139 0.0619999989867 284.0
2.12800002098 0.880999982357 0.0610000006855 273.0
2.12299990654 0.864000022411 0.0610000006855 180.0
2.16799998283 0.866999983788 0.0619999989867 86.0
2.22900009155 0.875999987125 0.0640000030398 109.0
2.25699996948 0.870999991894 0.0649999976158 200.0
2.29399991035 0.870000004768 0.0659999996424 116.0
2.76799988747 0.902000010014 0.0790000036359 91.0
2.61899995804 0.836000025272 0.0750000029802 70.0
3.09400010109 0.888999998569 0.0879999995232 62.0
3.14299988747 0.883000016212 0.0900000035763 87.0
3.33500003815 0.874000012875 0.0949999988079 92.0
3.42199993134 0.875 0.097999997437 80.0
3.5569999218 0.888000011444 0.101999998093 60.0
3.77999997139 0.920000016689 0.108000002801 65.0
3.83200001717 0.908999979496 0.109999999404 98.0
3.79600000381 0.876999974251 0.108000002801 96.0
3.92499995232 0.883000016212 0.112000003457 84.0
3.93000006676 0.860000014305 0.112000003457 55.0
4.13800001144 0.855000019073 0.118000000715 60.0
4.11199998856 0.824999988079 0.118000000715 96.0
4.17899990082 0.813000023365 0.119999997318 94.0
4.14799976349 0.782000005245 0.119000002742 95.0
4.14799976349 0.757000029087 0.119000002742 86.0
4.1859998703 0.739000022411 0.119999997318 82.0
4.15199995041 0.708000004292 0.119000002742 86.0
4.21700000763 0.694000005722 0.120999999344 87.0
4.20300006866 0.666999995708 0.119999997318 88.0
4.19199991226 0.64099997282 0.119999997318 87.0
4.17100000381 0.612999975681 0.119000002742 89.0
4.16900014877 0.587999999523 0.119000002742 83.0
4.19099998474 0.565999984741 0.119999997318 85.0
4.19899988174 0.542999982834 0.119999997318 86.0
4.14900016785 0.512000024319 0.119000002742 81.0
4.15500020981 0.488000005484 0.119000002742 81.0
4.16900014877 0.465999990702 0.119999997318 85.0
4.19099998474 0.444000005722 0.119999997318 81.0
4.20300006866 0.421000003815 0.120999999344 81.0
4.20399999619 0.395999997854 0.120999999344 85.0
4.21299982071 0.372999995947 0.120999999344 82.0
4.1890001297 0.345999985933 0.120999999344 88.0
4.09899997711 0.314999997616 0.118000000715 102.0
4.12400007248 0.293000012636 0.119000002742 93.0
4.12900018692 0.270000010729 0.119000002742 106.0
4.19799995422 0.25 0.120999999344 85.0
0.882000029087 -0.153999999166 0.0250000003725 1325.0
0.887000024319 -0.16099999845 0.0260000005364 1824.0
0.89200001955 -0.166999995708 0.0260000005364 1859.0
0.889999985695 -0.172000005841 0.0260000005364 1804.0
0.889999985695 -0.177000001073 0.0260000005364 1758.0
0.884000003338 -0.180999994278 0.0260000005364 1844.0
0.888000011444 -0.187000006437 0.0260000005364 1832.0
0.883000016212 -0.192000001669 0.0260000005364 1779.0
0.879999995232 -0.195999994874 0.0260000005364 1789.0
0.882000029087 -0.202000007033 0.0260000005364 1798.0
0.884999990463 -0.208000004292 0.0260000005364 1792.0
0.879999995232 -0.211999997497 0.0260000005364 1783.0
0.879000008106 -0.217999994755 0.0260000005364 1798.0
0.879000008106 -0.223000004888 0.0260000005364 1771.0
0.876999974251 -0.228000000119 0.0260000005364 1760.0
0.875999987125 -0.232999995351 0.0260000005364 1769.0
0.871999979019 -0.238000005484 0.0260000005364 1774.0
0.874000012875 -0.244000002742 0.0260000005364 1786.0
0.874000012875 -0.248999997973 0.0260000005364 1761.0
0.873000025749 -0.254000008106 0.0260000005364 1775.0
0.869000017643 -0.259000003338 0.0260000005364 1828.0
0.867999970913 -0.263999998569 0.0260000005364 1857.0
0.867999970913 -0.270000010729 0.0260000005364 1879.0
0.864000022411 -0.273999989033 0.0260000005364 1868.0
0.860000014305 -0.277999997139 0.0260000005364 1864.0
0.861000001431 -0.284000009298 0.0260000005364 1848.0
0.865000009537 -0.291000008583 0.0260000005364 1886.0
0.85900002718 -0.294999986887 0.0260000005364 1846.0
0.861000001431 -0.300999999046 0.0260000005364 1839.0
0.85799998045 -0.305999994278 0.0260000005364 1881.0
0.853999972343 -0.310000002384 0.0260000005364 1891.0
0.85799998045 -0.317000001669 0.0270000007004 1856.0
0.856999993324 -0.323000013828 0.0270000007004 1878.0
0.851999998093 -0.326999992132 0.0260000005364 1861.0
0.855000019073 -0.333999991417 0.0270000007004 1847.0
0.847999989986 -0.337000012398 0.0270000007004 1831.0
0.846000015736 -0.342000007629 0.0270000007004 1810.0
0.848999977112 -0.349000006914 0.0270000007004 1853.0
0.842000007629 -0.351999998093 0.0270000007004 1870.0
0.84399998188 -0.358999997377 0.0270000007004 1867.0
0.84500002861 -0.365000009537 0.0270000007004 1880.0
0.84500002861 -0.370999991894 0.0270000007004 1893.0
0.837000012398 -0.374000012875 0.0270000007004 1910.0
0.837000012398 -0.379999995232 0.0270000007004 1875.0
0.837999999523 -0.386999994516 0.0270000007004 1879.0
0.839999973774 -0.393000006676 0.0270000007004 1895.0
0.834999978542 -0.398000001907 0.0270000007004 1896.0
0.833000004292 -0.402999997139 0.0270000007004 1903.0
0.837000012398 -0.411000013351 0.0270000007004 1896.0
0.837000012398 -0.416999995708 0.0270000007004 1884.0
0.82800000906 -0.418999999762 0.0270000007004 1890.0
0.830999970436 -0.428000003099 0.0270000007004 1866.0
0.829999983311 -0.432999998331 0.0280000008643 1856.0
0.824999988079 -0.437000006437 0.0270000007004 1867.0
0.824000000954 -0.442999988794 0.0280000008643 1855.0
0.827000021935 -0.451999992132 0.0280000008643 1858.0
0.823000013828 -0.456000000238 0.0280000008643 1881.0
1.06500005722 0.610000014305 0.0240000002086 597.0
1.08299994469 0.611000001431 0.0240000002086 569.0
1.09700000286 0.611000001431 0.0250000003725 530.0
1.09399998188 0.600000023842 0.0240000002086 518.0
1.1210000515 0.606000006199 0.0250000003725 498.0
1.13300001621 0.603999972343 0.0250000003725 487.0
1.17999994755 0.619000017643 0.0260000005364 425.0
1.61699998379 0.836000025272 0.0370000004768 218.0
1.75 0.89099997282 0.0399999991059 212.0
1.8029999733 0.90499997139 0.0410000011325 211.0
1.78199994564 0.880999982357 0.0399999991059 203.0
1.83099997044 0.89099997282 0.0419999994338 204.0
1.86300003529 0.89200001955 0.0419999994338 176.0
1.86199998856 0.878000020981 0.0419999994338 107.0
2.05900001526 0.940999984741 0.0469999983907 96.0
2.09299993515 0.940999984741 0.0469999983907 142.0
2.15100002289 0.950999975204 0.0489999987185 220.0
2.14199995995 0.931999981403 0.0489999987185 291.0
2.14299988747 0.916999995708 0.0489999987185 293.0
2.12400007248 0.893999993801 0.0480000004172 286.0
2.14899992943 0.888999998569 0.0489999987185 257.0
2.17499995232 0.884999990463 0.0489999987185 164.0
2.23600006104 0.893999993801 0.0500000007451 110.0
2.26399993896 0.888999998569 0.0509999990463 166.0
2.28200006485 0.880999982357 0.0509999990463 214.0
2.29600000381 0.870999991894 0.0520000010729 116.0
3.3259999752 0.870999991894 0.0750000029802 101.0
3.41400003433 0.873000025749 0.0769999995828 81.0
3.54099988937 0.884000003338 0.0799999982119 66.0
3.81399989128 0.927999973297 0.0869999974966 75.0
3.81399989128 0.903999984264 0.0869999974966 100.0
3.79299998283 0.875999987125 0.0860000029206 109.0
3.88899993896 0.875 0.0879999995232 97.0
4.04400014877 0.884999990463 0.0920000001788 61.0
4.1970000267 0.893000006676 0.0949999988079 61.0
4.1139998436 0.850000023842 0.0939999967813 83.0
4.06799983978 0.815999984741 0.0920000001788 134.0
4.17100000381 0.81099998951 0.0949999988079 123.0
4.19999980927 0.791999995708 0.0960000008345 119.0
4.15700006485 0.759000003338 0.0949999988079 110.0
4.13899993896 0.731000006199 0.0939999967813 108.0
4.125 0.703999996185 0.0939999967813 105.0
4.13100004196 0.680000007153 0.0939999967813 113.0
4.20399999619 0.666999995708 0.0960000008345 109.0
4.13999986649 0.633000016212 0.0939999967813 108.0
4.15100002289 0.610000014305 0.0949999988079 107.0
4.15899991989 0.586000025272 0.0949999988079 110.0
4.15000009537 0.56099998951 0.0949999988079 110.0
4.10400009155 0.52999997139 0.0939999967813 108.0
4.15899991989 0.513000011444 0.0949999988079 109.0
4.16699981689 0.490000009537 0.0949999988079 113.0
4.1779999733 0.467000007629 0.0960000008345 108.0
4.15000009537 0.43900001049 0.0949999988079 103.0
4.11499977112 0.412000000477 0.0939999967813 102.0
4.13399982452 0.388999998569 0.0949999988079 107.0
4.15100002289 0.36700001359 0.0949999988079 108.0
4.11899995804 0.340000003576 0.0949999988079 105.0
4.11199998856 0.316000014544 0.0949999988079 117.0
4.12099981308 0.293000012636 0.0949999988079 111.0
4.12200021744 0.268999993801 0.0949999988079 132.0
4.14200019836 0.246000006795 0.0960000008345 112.0
0.875 -0.152999997139 0.019999999553 1355.0
0.889999985695 -0.16099999845 0.019999999553 1861.0
0.888999998569 -0.165999993682 0.019999999553 1869.0
0.893000006676 -0.172000005841 0.0209999997169 1814.0
0.885999977589 -0.175999999046 0.019999999553 1760.0
0.885999977589 -0.181999996305 0.0209999997169 1849.0
0.888000011444 -0.187000006437 0.0209999997169 1853.0
0.884999990463 -0.192000001669 0.0209999997169 1806.0
0.884000003338 -0.196999996901 0.0209999997169 1814.0
0.878000020981 -0.201000005007 0.0209999997169 1780.0
0.883000016212 -0.208000004292 0.0209999997169 1789.0
0.878000020981 -0.211999997497 0.0209999997169 1784.0
0.875 -0.216999992728 0.0209999997169 1827.0
0.876999974251 -0.222000002861 0.0209999997169 1805.0
0.873000025749 -0.226999998093 0.0209999997169 1794.0
0.875 -0.232999995351 0.0209999997169 1819.0
0.879000008106 -0.238999992609 0.0209999997169 1813.0
0.870000004768 -0.243000000715 0.0209999997169 1799.0
0.867999970913 -0.24699999392 0.0209999997169 1803.0
0.866999983788 -0.252999991179 0.0209999997169 1784.0
0.870000004768 -0.259000003338 0.0209999997169 1832.0
0.869000017643 -0.263999998569 0.0209999997169 1890.0
0.867999970913 -0.270000010729 0.0209999997169 1887.0
0.869000017643 -0.275999993086 0.0209999997169 1871.0
0.861000001431 -0.279000014067 0.0209999997169 1869.0
0.861999988556 -0.284000009298 0.0209999997169 1876.0
0.860000014305 -0.28900000453 0.0209999997169 1894.0
0.85799998045 -0.293999999762 0.0209999997169 1855.0
0.85900002718 -0.300000011921 0.0209999997169 1873.0
0.856999993324 -0.305000007153 0.0209999997169 1865.0
0.85900002718 -0.312000006437 0.0209999997169 1883.0
0.856000006199 -0.317000001669 0.0209999997169 1865.0
0.853999972343 -0.321999996901 0.0209999997169 1882.0
0.851999998093 -0.326999992132 0.0209999997169 1878.0
0.851999998093 -0.331999987364 0.0209999997169 1853.0
0.850000023842 -0.337999999523 0.0209999997169 1839.0
0.847000002861 -0.342000007629 0.0209999997169 1833.0
0.847000002861 -0.347999989986 0.0209999997169 1856.0
0.84500002861 -0.352999985218 0.0209999997169 1898.0
0.842000007629 -0.358000010252 0.0209999997169 1888.0
0.842999994755 -0.363999992609 0.0219999998808 1908.0
0.847000002861 -0.372000008821 0.0219999998808 1913.0
0.839999973774 -0.375 0.0219999998808 1943.0
0.839999973774 -0.381000012159 0.0219999998808 1928.0
0.834999978542 -0.384999990463 0.0219999998808 1897.0
0.836000025272 -0.391999989748 0.0219999998808 1904.0
0.836000025272 -0.398000001907 0.0219999998808 1928.0
0.833000004292 -0.402999997139 0.0219999998808 1925.0
0.833999991417 -0.409999996424 0.0219999998808 1915.0
0.833999991417 -0.416000008583 0.0219999998808 1913.0
0.832000017166 -0.421000003815 0.0219999998808 1911.0
0.833999991417 -0.428999990225 0.0219999998808 1888.0
0.827000021935 -0.432000011206 0.0219999998808 1865.0
0.82800000906 -0.43900001049 0.0219999998808 1888.0
0.828999996185 -0.446000009775 0.0219999998808 1879.0
0.823000013828 -0.449000000954 0.0219999998808 1878.0
0.820999979973 -0.455000013113 0.0219999998808 1898.0
1.07299995422 0.615000009537 0.0170000009239 595.0
1.0759999752 0.60799998045 0.0170000009239 564.0
1.09300005436 0.60799998045 0.0170000009239 546.0
1.10300004482 0.605000019073 0.0179999992251 523.0
1.13199996948 0.611999988556 0.0179999992251 498.0
1.13499999046 0.605000019073 0.0179999992251 488.0
1.17599999905 0.616999983788 0.0189999993891 417.0
1.66700005531 0.861999988556 0.0270000007004 229.0
1.74500000477 0.888999998569 0.0289999991655 239.0
1.7840000391 0.894999980927 0.0289999991655 226.0
1.80599999428 0.89200001955 0.0299999993294 224.0
1.83800005913 0.893999993801 0.0299999993294 220.0
1.83599996567 0.879000008106 0.0299999993294 185.0
2.01799988747 0.950999975204 0.0329999998212 94.0
2.08200001717 0.966000020504 0.0340000018477 115.0
2.15300011635 0.98400002718 0.0359999984503 122.0
2.14299988747 0.962999999523 0.035000000149 247.0
2.14299988747 0.947000026703 0.035000000149 312.0
2.14800000191 0.934000015259 0.035000000149 295.0
2.13000011444 0.911000013351 0.035000000149 291.0
2.132999897 0.898000001907 0.035000000149 294.0
2.13899993896 0.884999990463 0.035000000149 202.0
2.19000005722 0.889999985695 0.0359999984503 112.0
2.24499988556 0.897000014782 0.0370000004768 184.0
2.26399993896 0.888999998569 0.0370000004768 317.0
2.27099990845 0.875999987125 0.0370000004768 262.0
2.28600001335 0.866999983788 0.0379999987781 106.0
3.26900005341 0.856000006199 0.054999999702 96.0
3.41300010681 0.871999979019 0.0570000000298 83.0
3.53500008583 0.882000029087 0.0590000003576 71.0
3.86899995804 0.940999984741 0.0649999976158 80.0
3.80999994278 0.902999997139 0.0640000030398 104.0
3.79999995232 0.878000020981 0.0640000030398 105.0
3.89400005341 0.875 0.0649999976158 94.0
4.10300016403 0.897000014782 0.0689999982715 68.0
4.1970000267 0.89200001955 0.0710000023246 67.0
4.14599990845 0.856000006199 0.070000000298 92.0
4.16099977493 0.833999991417 0.070000000298 131.0
4.13800001144 0.805000007153 0.070000000298 129.0
4.22599983215 0.796000003815 0.0710000023246 122.0
4.19999980927 0.76599997282 0.0710000023246 111.0
4.14300012589 0.731000006199 0.070000000298 107.0
4.17199993134 0.711000025272 0.0710000023246 110.0
4.17100000381 0.68599998951 0.0710000023246 103.0
4.14099979401 0.657000005245 0.070000000298 110.0
4.125 0.629999995232 0.070000000298 109.0
4.15299987793 0.610000014305 0.0710000023246 105.0
4.13399982452 0.583000004292 0.070000000298 104.0
4.14400005341 0.560000002384 0.0710000023246 108.0
4.16200017929 0.537999987602 0.0710000023246 108.0
4.15500020981 0.512000024319 0.0710000023246 114.0
4.16800022125 0.490000009537 0.0710000023246 115.0
4.14400005341 0.462999999523 0.0710000023246 108.0
4.14900016785 0.43900001049 0.0710000023246 110.0
4.13100004196 0.412999987602 0.0710000023246 114.0
4.20599985123 0.395999997854 0.0719999969006 108.0
4.125 0.363999992609 0.0710000023246 111.0
4.11999988556 0.340000003576 0.0710000023246 114.0
4.10599994659 0.314999997616 0.0710000023246 124.0
4.07499980927 0.28900000453 0.070000000298 116.0
4.10900020599 0.268000006676 0.0710000023246 137.0
4.11999988556 0.245000004768 0.0710000023246 114.0
0.878000020981 -0.153999999166 0.0149999996647 1377.0
0.89099997282 -0.16099999845 0.0149999996647 1875.0
0.893000006676 -0.166999995708 0.0149999996647 1897.0
0.888999998569 -0.172000005841 0.0149999996647 1868.0
0.887000024319 -0.175999999046 0.0149999996647 1789.0
0.884999990463 -0.180999994278 0.0149999996647 1838.0
0.888000011444 -0.187000006437 0.0149999996647 1886.0
0.888999998569 -0.193000003695 0.01600000076 1841.0
0.884000003338 -0.196999996901 0.0149999996647 1843.0
0.880999982357 -0.202000007033 0.0149999996647 1826.0
0.880999982357 -0.207000002265 0.0149999996647 1828.0
0.879999995232 -0.211999997497 0.01600000076 1819.0
0.875999987125 -0.216999992728 0.0149999996647 1814.0
0.875999987125 -0.222000002861 0.01600000076 1820.0
0.878000020981 -0.228000000119 0.01600000076 1823.0
0.871999979019 -0.231999993324 0.01600000076 1848.0
0.875 -0.238999992609 0.01600000076 1831.0
0.873000025749 -0.243000000715 0.01600000076 1819.0
0.870999991894 -0.247999995947 0.01600000076 1829.0
0.865999996662 -0.252000004053 0.01600000076 1804.0
0.865999996662 -0.25799998641 0.01600000076 1833.0
0.861000001431 -0.261999994516 0.01600000076 1896.0
0.864000022411 -0.268000006676 0.01600000076 1919.0
0.865000009537 -0.273999989033 0.01600000076 1893.0
0.861000001431 -0.279000014067 0.01600000076 1887.0
0.85799998045 -0.282999992371 0.01600000076 1908.0
0.862999975681 -0.289999991655 0.01600000076 1904.0
0.856999993324 -0.293999999762 0.01600000076 1893.0
0.856000006199 -0.298999994993 0.01600000076 1884.0
0.855000019073 -0.305000007153 0.01600000076 1893.0
0.855000019073 -0.310000002384 0.01600000076 1867.0
0.856999993324 -0.317000001669 0.01600000076 1895.0
0.855000019073 -0.321999996901 0.01600000076 1873.0
0.851000010967 -0.326000005007 0.01600000076 1861.0
0.850000023842 -0.331999987364 0.01600000076 1859.0
0.850000023842 -0.337999999523 0.01600000076 1888.0
0.850000023842 -0.344000011683 0.01600000076 1846.0
0.842999994755 -0.347000002861 0.01600000076 1839.0
0.84399998188 -0.352999985218 0.01600000076 1907.0
0.846000015736 -0.360000014305 0.01600000076 1924.0
0.841000020504 -0.363999992609 0.01600000076 1926.0
0.842000007629 -0.370000004768 0.01600000076 1936.0
0.846000015736 -0.377999991179 0.0170000009239 1980.0
0.837000012398 -0.379999995232 0.01600000076 1954.0
0.837000012398 -0.386000007391 0.0170000009239 1940.0
0.832000017166 -0.389999985695 0.01600000076 1933.0
0.836000025272 -0.398000001907 0.0170000009239 1952.0
0.833999991417 -0.402999997139 0.0170000009239 1937.0
0.829999983311 -0.407999992371 0.0170000009239 1949.0
0.832000017166 -0.414999991655 0.0170000009239 1929.0
0.832000017166 -0.42199999094 0.0170000009239 1931.0
0.82800000906 -0.425999999046 0.0170000009239 1927.0
0.827000021935 -0.432000011206 0.0170000009239 1909.0
0.825999975204 -0.437999993563 0.0170000009239 1926.0
0.82800000906 -0.444999992847 0.0170000009239 1905.0
0.819999992847 -0.448000013828 0.0170000009239 1910.0
0.818000018597 -0.45300000906 0.0170000009239 1912.0
1.06599998474 0.610000014305 0.00999999977648 590.0
1.07500004768 0.606999993324 0.00999999977648 557.0
1.08099997044 0.601999998093 0.00999999977648 531.0
1.09800004959 0.601999998093 0.00999999977648 518.0
1.12399995327 0.606999993324 0.0109999999404 508.0
1.14199995995 0.60799998045 0.0109999999404 491.0
1.17900002003 0.619000017643 0.0109999999404 413.0
1.65600001812 0.856000006199 0.0170000009239 221.0
1.74399995804 0.888000011444 0.0179999992251 228.0
1.77300000191 0.888999998569 0.0179999992251 227.0
1.76600003242 0.871999979019 0.0179999992251 219.0
1.83299994469 0.89200001955 0.0189999993891 216.0
1.89300000668 0.907000005245 0.0189999993891 196.0
2.11800003052 0.999000012875 0.0219999998808 202.0
2.11800003052 0.98299998045 0.0219999998808 209.0
2.09899997711 0.958000004292 0.0209999997169 236.0
2.10199999809 0.944999992847 0.0219999998808 280.0
2.13700008392 0.944999992847 0.0219999998808 283.0
2.14400005341 0.931999981403 0.0219999998808 300.0
2.11800003052 0.90600001812 0.0219999998808 288.0
2.14299988747 0.902000010014 0.0219999998808 286.0
2.12700009346 0.879999995232 0.0219999998808 190.0
2.21900010109 0.902000010014 0.0230000000447 109.0
2.26200008392 0.903999984264 0.0230000000447 181.0
2.25900006294 0.887000024319 0.0230000000447 356.0
2.23399996758 0.861999988556 0.0230000000447 259.0
2.30800008774 0.875 0.0240000002086 104.0
3.35700011253 0.879000008106 0.0359999984503 105.0
3.40799999237 0.870999991894 0.0370000004768 88.0
3.47600007057 0.866999983788 0.0379999987781 77.0
3.85700011253 0.938000023365 0.0419999994338 89.0
3.79099988937 0.898000001907 0.0410000011325 110.0
3.81200003624 0.879999995232 0.0419999994338 102.0
3.95799994469 0.889999985695 0.0430000014603 87.0
4.15100002289 0.907999992371 0.0460000000894 89.0
4.14300012589 0.880999982357 0.0460000000894 91.0
4.15299987793 0.85799998045 0.0460000000894 125.0
4.14400005341 0.830999970436 0.0460000000894 175.0
4.11800003052 0.800999999046 0.0450000017881 169.0
4.14599990845 0.78100001812 0.0460000000894 140.0
4.18699979782 0.763999998569 0.0460000000894 122.0
4.15600013733 0.73299998045 0.0460000000894 119.0
4.13000011444 0.703999996185 0.0460000000894 120.0
4.15000009537 0.683000028133 0.0460000000894 118.0
4.16499996185 0.661000013351 0.0460000000894 123.0
4.14400005341 0.633000016212 0.0460000000894 123.0
4.17500019073 0.612999975681 0.0469999983907 125.0
4.13500022888 0.583000004292 0.0460000000894 125.0
4.14400005341 0.559000015259 0.0469999983907 130.0
4.1360001564 0.533999979496 0.0469999983907 129.0
4.14599990845 0.510999977589 0.0469999983907 122.0
4.11899995804 0.483999997377 0.0460000000894 126.0
4.13000011444 0.46099999547 0.0469999983907 127.0
4.18800020218 0.442999988794 0.0469999983907 123.0
4.1139998436 0.411000013351 0.0469999983907 128.0
4.125 0.388000011444 0.0469999983907 124.0
4.14400005341 0.365999996662 0.0469999983907 131.0
4.16400003433 0.344000011683 0.0480000004172 133.0
4.117000103 0.316000014544 0.0469999983907 135.0
4.08699989319 0.289999991655 0.0469999983907 119.0
4.13399982452 0.268999993801 0.0480000004172 140.0
4.11000013351 0.244000002742 0.0469999983907 109.0
4.27699995041 0.229000002146 0.0489999987185 65.0
4.71099996567 0.22499999404 0.054999999702 54.0
4.56699991226 0.192000001669 0.0529999993742 56.0
4.55900001526 0.165999993682 0.0529999993742 55.0
4.75299978256 0.144999995828 0.0560000017285 53.0
4.54300022125 0.112999998033 0.0529999993742 52.0
4.61299991608 0.035000000149 0.0540000014007 49.0
4.76999998093 -0.238000005484 0.0579999983311 46.0
0.866999983788 -0.146999999881 0.00999999977648 221.0
0.875999987125 -0.152999997139 0.00999999977648 1380.0
0.89200001955 -0.16099999845 0.00999999977648 1826.0
0.89099997282 -0.166999995708 0.00999999977648 1895.0
0.888999998569 -0.172000005841 0.00999999977648 1890.0
0.89200001955 -0.178000003099 0.00999999977648 1829.0
0.879999995232 -0.180000007153 0.00999999977648 1882.0
0.888999998569 -0.187999993563 0.00999999977648 1920.0
0.885999977589 -0.192000001669 0.00999999977648 1890.0
0.882000029087 -0.196999996901 0.00999999977648 1862.0
0.882000029087 -0.202000007033 0.00999999977648 1848.0
0.880999982357 -0.207000002265 0.00999999977648 1817.0
0.875 -0.21099999547 0.00999999977648 1841.0
0.879000008106 -0.217999994755 0.00999999977648 1800.0
0.870999991894 -0.221000000834 0.00999999977648 1835.0
0.876999974251 -0.228000000119 0.00999999977648 1846.0
0.875999987125 -0.232999995351 0.00999999977648 1856.0
0.874000012875 -0.238000005484 0.00999999977648 1861.0
0.875999987125 -0.244000002742 0.0109999999404 1853.0
0.871999979019 -0.248999997973 0.0109999999404 1870.0
0.870000004768 -0.252999991179 0.0109999999404 1846.0
0.865000009537 -0.25799998641 0.0109999999404 1880.0
0.871999979019 -0.264999985695 0.0109999999404 1920.0
0.861999988556 -0.268000006676 0.0109999999404 1917.0
0.862999975681 -0.273000001907 0.0109999999404 1924.0
0.864000022411 -0.280000001192 0.0109999999404 1921.0
0.861000001431 -0.284000009298 0.0109999999404 1927.0
0.865000009537 -0.291000008583 0.0109999999404 1920.0
0.861000001431 -0.294999986887 0.0109999999404 1916.0
0.856999993324 -0.300000011921 0.0109999999404 1892.0
0.856999993324 -0.305000007153 0.0109999999404 1919.0
0.856999993324 -0.31099998951 0.0109999999404 1901.0
0.855000019073 -0.316000014544 0.0109999999404 1884.0
0.851000010967 -0.319999992847 0.0109999999404 1892.0
0.851999998093 -0.326999992132 0.0109999999404 1896.0
0.851999998093 -0.331999987364 0.0109999999404 1882.0
0.847999989986 -0.337000012398 0.0109999999404 1876.0
0.848999977112 -0.342999994755 0.0109999999404 1868.0
0.842000007629 -0.345999985933 0.0109999999404 1870.0
0.847999989986 -0.354000002146 0.0109999999404 1920.0
0.847999989986 -0.360000014305 0.0109999999404 1912.0
0.848999977112 -0.36700001359 0.0109999999404 1919.0
0.841000020504 -0.370000004768 0.0109999999404 1919.0
0.836000025272 -0.372999995947 0.0109999999404 1959.0
0.841000020504 -0.381999999285 0.0109999999404 1964.0
0.837000012398 -0.386000007391 0.0109999999404 1962.0
0.836000025272 -0.391999989748 0.0109999999404 1941.0
0.833999991417 -0.397000014782 0.0109999999404 1964.0
0.834999978542 -0.404000014067 0.0109999999404 1967.0
0.833999991417 -0.409000009298 0.0109999999404 1956.0
0.834999978542 -0.416999995708 0.0120000001043 1937.0
0.828999996185 -0.419999986887 0.0120000001043 1945.0
0.828999996185 -0.425999999046 0.0120000001043 1926.0
0.832000017166 -0.433999985456 0.0120000001043 1956.0
0.822000026703 -0.43599998951 0.0120000001043 1944.0
0.827000021935 -0.444999992847 0.0120000001043 1921.0
0.823000013828 -0.449000000954 0.0120000001043 1929.0
0.824999988079 -0.456999987364 0.0120000001043 1898.0
1.06400001049 0.610000014305 0.00300000002608 586.0
1.07099997997 0.603999972343 0.00300000002608 560.0
1.08599996567 0.603999972343 0.00300000002608 526.0
1.10800004005 0.606999993324 0.00300000002608 519.0
1.11600005627 0.602999985218 0.00300000002608 498.0
1.13399994373 0.603999972343 0.00400000018999 490.0
1.19200003147 0.625 0.00400000018999 403.0
1.64199995995 0.848999977112 0.00600000005215 218.0
1.74500000477 0.888000011444 0.00600000005215 227.0
1.79700005054 0.901000022888 0.00700000021607 219.0
1.77300000191 0.875999987125 0.00700000021607 209.0
1.8409999609 0.894999980927 0.00700000021607 212.0
1.83599996567 0.879000008106 0.00700000021607 177.0
2.06599998474 0.973999977112 0.00800000037998 122.0
2.05800008774 0.954999983311 0.00800000037998 88.0
2.06900000572 0.944999992847 0.00800000037998 116.0
2.125 0.954999983311 0.00899999961257 147.0
2.14199995995 0.947000026703 0.00899999961257 211.0
2.15700006485 0.938000023365 0.00899999961257 299.0
2.14499998093 0.916999995708 0.00899999961257 296.0
2.14899992943 0.903999984264 0.00899999961257 290.0
2.14599990845 0.887000024319 0.00899999961257 194.0
2.21900010109 0.902000010014 0.00899999961257 97.0
2.2349998951 0.893000006676 0.00899999961257 189.0
2.26200008392 0.888000011444 0.00999999977648 359.0
2.25500011444 0.870000004768 0.00999999977648 257.0
2.30200004578 0.871999979019 0.00999999977648 107.0
3.37299990654 0.903999984264 0.01600000076 55.0
3.31699991226 0.867999970913 0.01600000076 107.0
3.40599989891 0.870000004768 0.0170000009239 88.0
3.55999994278 0.888000011444 0.0179999992251 68.0
3.75300002098 0.912999987602 0.0189999993891 70.0
3.85400009155 0.912999987602 0.0189999993891 105.0
3.79500007629 0.875999987125 0.0189999993891 106.0
3.95399999619 0.888000011444 0.019999999553 89.0
4.1360001564 0.903999984264 0.0209999997169 94.0
4.0529999733 0.861000001431 0.0209999997169 95.0
4.15500020981 0.85799998045 0.0209999997169 123.0
4.14499998093 0.830999970436 0.0209999997169 169.0
4.10900020599 0.799000024796 0.0209999997169 170.0
4.13999986649 0.77999997139 0.0219999998808 141.0
4.18200016022 0.763000011444 0.0219999998808 126.0
4.21400022507 0.742999970913 0.0219999998808 114.0
4.16499996185 0.709999978542 0.0219999998808 124.0
4.18400001526 0.688000023365 0.0219999998808 124.0
4.15700006485 0.658999979496 0.0219999998808 124.0
4.14499998093 0.633000016212 0.0219999998808 122.0
4.14200019836 0.60799998045 0.0219999998808 126.0
4.15500020981 0.584999978542 0.0219999998808 126.0
4.1139998436 0.555000007153 0.0219999998808 132.0
4.15399980545 0.536000013351 0.0230000000447 136.0
4.1360001564 0.509999990463 0.0230000000447 130.0
4.10799980164 0.481999993324 0.0230000000447 132.0
4.12799978256 0.46099999547 0.0230000000447 131.0
4.15600013733 0.43900001049 0.0230000000447 129.0
4.10500001907 0.409999996424 0.0230000000447 132.0
4.13800001144 0.388999998569 0.0230000000447 139.0
4.13000011444 0.365000009537 0.0230000000447 137.0
4.11000013351 0.338999986649 0.0230000000447 152.0
4.13899993896 0.317000001669 0.0230000000447 133.0
4.10900020599 0.291000008583 0.0230000000447 124.0
4.11800003052 0.268000006676 0.0240000002086 141.0
4.10500001907 0.244000002742 0.0240000002086 114.0
4.35099983215 0.232999995351 0.0250000003725 72.0
4.54600000381 0.216999992728 0.0270000007004 65.0
4.52699995041 0.189999997616 0.0270000007004 69.0
4.58099985123 0.165999993682 0.0270000007004 68.0
4.61999988556 0.141000002623 0.0270000007004 62.0
4.60400009155 0.11400000006 0.0270000007004 62.0
4.67100000381 0.0890000015497 0.0280000008643 62.0
4.55999994278 0.0599999986589 0.0270000007004 58.0
4.65799999237 0.035000000149 0.0280000008643 57.0
4.67700004578 0.00800000037998 0.0280000008643 58.0
4.67199993134 -0.0179999992251 0.0280000008643 58.0
4.67299985886 -0.0450000017881 0.0289999991655 57.0
4.70499992371 -0.0989999994636 0.0289999991655 57.0
4.65399980545 -0.125 0.0289999991655 54.0
4.73199987411 -0.153999999166 0.0289999991655 53.0
4.71600008011 -0.180999994278 0.0299999993294 50.0
4.72599983215 -0.208000004292 0.0299999993294 52.0
4.68400001526 -0.232999995351 0.0299999993294 54.0
4.75400018692 -0.263999998569 0.0299999993294 57.0
4.70900011063 -0.28900000453 0.0299999993294 51.0
4.78900003433 -0.321999996901 0.0309999994934 54.0
4.81199979782 -0.351000010967 0.0309999994934 55.0
4.72100019455 -0.370999991894 0.0309999994934 53.0
4.81300020218 -0.407000005245 0.0309999994934 55.0
4.75400018692 -0.428999990225 0.0309999994934 53.0
4.79500007629 -0.46099999547 0.0309999994934 52.0
4.79699993134 -0.488999992609 0.0320000015199 49.0
4.75199985504 -0.512000024319 0.0309999994934 49.0
0.861000001431 -0.145999997854 0.00499999988824 239.0
0.875999987125 -0.152999997139 0.00499999988824 1389.0
0.89099997282 -0.16099999845 0.00499999988824 1789.0
0.884999990463 -0.165999993682 0.00499999988824 1893.0
0.888000011444 -0.171000003815 0.00499999988824 1928.0
0.889999985695 -0.177000001073 0.00499999988824 1829.0
0.883000016212 -0.180999994278 0.00499999988824 1885.0
0.879999995232 -0.186000004411 0.00499999988824 1981.0
0.883000016212 -0.192000001669 0.00499999988824 1928.0
0.884000003338 -0.196999996901 0.00499999988824 1873.0
0.888000011444 -0.202999994159 0.00499999988824 1856.0
0.878000020981 -0.207000002265 0.00499999988824 1825.0
0.879000008106 -0.211999997497 0.00499999988824 1839.0
0.876999974251 -0.216999992728 0.00499999988824 1838.0
0.876999974251 -0.223000004888 0.00499999988824 1841.0
0.879000008106 -0.228000000119 0.00499999988824 1865.0
0.870999991894 -0.231999993324 0.00499999988824 1899.0
0.873000025749 -0.238000005484 0.00499999988824 1865.0
0.865999996662 -0.240999996662 0.00499999988824 1910.0
0.871999979019 -0.248999997973 0.00499999988824 1885.0
0.870000004768 -0.252999991179 0.00499999988824 1876.0
0.870000004768 -0.259000003338 0.00499999988824 1869.0
0.866999983788 -0.263999998569 0.00499999988824 1943.0
0.865000009537 -0.268999993801 0.00499999988824 1938.0
0.862999975681 -0.273999989033 0.00499999988824 1926.0
0.866999983788 -0.280000001192 0.00600000005215 1952.0
0.861000001431 -0.284000009298 0.00600000005215 1931.0
0.861000001431 -0.289999991655 0.00600000005215 1975.0
0.860000014305 -0.294999986887 0.00600000005215 1939.0
0.860000014305 -0.300999999046 0.00600000005215 1916.0
0.856999993324 -0.305999994278 0.00600000005215 1896.0
0.855000019073 -0.31099998951 0.00600000005215 1902.0
0.856999993324 -0.317000001669 0.00600000005215 1898.0
0.851999998093 -0.321000009775 0.00600000005215 1908.0
0.855000019073 -0.32800000906 0.00600000005215 1912.0
0.851000010967 -0.331999987364 0.00600000005215 1925.0
0.850000023842 -0.337999999523 0.00600000005215 1877.0
0.846000015736 -0.342000007629 0.00600000005215 1863.0
0.850000023842 -0.349000006914 0.00600000005215 1898.0
0.842999994755 -0.351999998093 0.00600000005215 1909.0
0.847999989986 -0.361000001431 0.00600000005215 1899.0
0.842000007629 -0.363999992609 0.00600000005215 1917.0
0.846000015736 -0.372000008821 0.00600000005215 1928.0
0.837000012398 -0.374000012875 0.00600000005215 1949.0
0.838999986649 -0.381000012159 0.00600000005215 1969.0
0.836000025272 -0.384999990463 0.00600000005215 1973.0
0.833000004292 -0.391000002623 0.00600000005215 1974.0
0.834999978542 -0.397000014782 0.00600000005215 1966.0
0.832000017166 -0.402000010014 0.00600000005215 1943.0
0.832000017166 -0.407999992371 0.00600000005215 1969.0
0.833000004292 -0.416000008583 0.00600000005215 1951.0
0.833999991417 -0.42199999094 0.00600000005215 1966.0
0.829999983311 -0.426999986172 0.00600000005215 1956.0
0.82800000906 -0.432000011206 0.00600000005215 1951.0
0.827000021935 -0.437999993563 0.00600000005215 1963.0
0.82800000906 -0.444999992847 0.00600000005215 1959.0
0.820999979973 -0.448000013828 0.00600000005215 1950.0
0.825999975204 -0.456999987364 0.00700000021607 1952.0
1.05999994278 0.606999993324 -0.00300000002608 588.0
1.06400001049 0.600000023842 -0.00300000002608 557.0
1.08500003815 0.603999972343 -0.00300000002608 535.0
1.09700000286 0.601000010967 -0.00300000002608 521.0
1.11099994183 0.600000023842 -0.00300000002608 509.0
1.13999998569 0.606999993324 -0.00300000002608 494.0
1.18400001526 0.620999991894 -0.00300000002608 397.0
1.69000005722 0.873000025749 -0.00400000018999 205.0
1.73300004005 0.882000029087 -0.00400000018999 220.0
1.79999995232 0.902999997139 -0.00400000018999 219.0
1.79600000381 0.887000024319 -0.00400000018999 218.0
1.82700002193 0.888999998569 -0.00400000018999 210.0
1.83399999142 0.878000020981 -0.00400000018999 171.0
2.04099988937 0.947000026703 -0.00400000018999 98.0
2.06699991226 0.943000018597 -0.00400000018999 122.0
2.11999988556 0.952000021935 -0.00400000018999 205.0
2.13800001144 0.944999992847 -0.00400000018999 306.0
2.14499998093 0.933000028133 -0.00400000018999 298.0
2.14899992943 0.919000029564 -0.00400000018999 286.0
2.15100002289 0.903999984264 -0.00300000002608 284.0
2.13800001144 0.884000003338 -0.00300000002608 188.0
2.21499991417 0.899999976158 -0.00300000002608 97.0
2.20700001717 0.882000029087 -0.00300000002608 188.0
2.24799990654 0.883000016212 -0.00300000002608 356.0
2.27200007439 0.875999987125 -0.00300000002608 248.0
2.25900006294 0.856000006199 -0.00300000002608 95.0
3.42899990082 0.919000029564 -0.00300000002608 55.0
3.33800005913 0.874000012875 -0.00300000002608 105.0
3.43400001526 0.876999974251 -0.00300000002608 80.0
3.59800004959 0.897000014782 -0.00300000002608 64.0
3.76699995995 0.916000008583 -0.00300000002608 89.0
3.81200003624 0.902999997139 -0.00200000009499 115.0
3.83500003815 0.884999990463 -0.00200000009499 106.0
3.99300003052 0.897000014782 -0.00200000009499 93.0
4.10799980164 0.898000001907 -0.00200000009499 91.0
4.17899990082 0.888000011444 -0.00200000009499 89.0
4.13199996948 0.852999985218 -0.00200000009499 133.0
4.10400009155 0.822000026703 -0.00200000009499 166.0
4.11499977112 0.800000011921 -0.00200000009499 175.0
4.12599992752 0.777000010014 -0.00200000009499 140.0
4.15600013733 0.758000016212 -0.00200000009499 125.0
4.17500019073 0.736000001431 -0.0010000000475 119.0
4.18400001526 0.712999999523 -0.0010000000475 124.0
4.12300014496 0.677999973297 -0.0010000000475 126.0
4.18300008774 0.662999987602 -0.0010000000475 128.0
4.15399980545 0.634000003338 -0.0010000000475 126.0
4.14099979401 0.60799998045 -0.0010000000475 123.0
4.12099981308 0.579999983311 -0.0010000000475 131.0
4.14900016785 0.560000002384 -0.0010000000475 130.0
4.16599988937 0.537999987602 0.0 132.0
4.15299987793 0.512000024319 0.0 130.0
4.12699985504 0.483999997377 0.0 130.0
4.10799980164 0.458000004292 0.0 131.0
4.14799976349 0.437999993563 0.0 132.0
4.1810002327 0.418000012636 0.0 139.0
4.12599992752 0.388000011444 0.0 133.0
4.13500022888 0.365000009537 0.0 138.0
4.10699987411 0.338999986649 0.0 141.0
4.09999990463 0.31400001049 0.0 133.0
4.10099983215 0.291000008583 0.0 119.0
4.10300016403 0.266999989748 0.0 134.0
4.13500022888 0.245000004768 0.0 110.0
4.36899995804 0.233999997377 0.0 68.0
4.60300016403 0.219999998808 0.0 73.0
4.59200000763 0.193000003695 0.0 71.0
4.59399986267 0.165999993682 0.0010000000475 70.0
4.60500001907 0.140000000596 0.0010000000475 64.0
4.55900001526 0.112999998033 0.0010000000475 65.0
4.57000017166 0.0869999974966 0.0010000000475 67.0
4.63000011444 0.0610000006855 0.0010000000475 70.0
4.64099979401 0.035000000149 0.0010000000475 63.0
4.6360001564 0.00800000037998 0.0010000000475 62.0
4.63199996948 -0.0179999992251 0.0010000000475 69.0
4.6779999733 -0.0450000017881 0.00200000009499 62.0
4.64499998093 -0.0710000023246 0.00200000009499 62.0
4.65299987793 -0.097999997437 0.00200000009499 61.0
4.66599988937 -0.125 0.00200000009499 66.0
4.66099977493 -0.151999995112 0.00200000009499 61.0
4.71999979019 -0.180999994278 0.00200000009499 61.0
4.6859998703 -0.207000002265 0.00200000009499 63.0
4.74700021744 -0.237000003457 0.00300000002608 56.0
4.73500013351 -0.263000011444 0.00300000002608 60.0
4.79400014877 -0.293999999762 0.00300000002608 62.0
4.75699996948 -0.319999992847 0.00300000002608 61.0
4.70100021362 -0.342999994755 0.00300000002608 56.0
4.82399988174 -0.379999995232 0.00300000002608 59.0
4.70499992371 -0.398000001907 0.00300000002608 60.0
4.78100013733 -0.432000011206 0.00400000018999 54.0
4.84999990463 -0.465999990702 0.00400000018999 51.0
4.86499977112 -0.495999991894 0.00400000018999 53.0
4.76200008392 -0.513000011444 0.00400000018999 57.0
4.87799978256 -0.554000020027 0.00400000018999 51.0
0.878000020981 -0.153999999166 0.0 1419.0
0.888999998569 -0.16099999845 0.0 1811.0
0.893000006676 -0.166999995708 0.0 1910.0
0.888999998569 -0.172000005841 0.0 1956.0
0.888000011444 -0.177000001073 0.0 1870.0
0.883000016212 -0.180999994278 0.0 1866.0
0.884000003338 -0.187000006437 0.0 2027.0
0.884999990463 -0.192000001669 0.0 1946.0
0.884999990463 -0.196999996901 0.0 1893.0
0.878000020981 -0.201000005007 0.0 1909.0
0.882000029087 -0.208000004292 0.0 1881.0
0.883000016212 -0.212999999523 0.0 1845.0
0.871999979019 -0.216000005603 0.0 1865.0
0.875999987125 -0.222000002861 0.0 1904.0
0.875 -0.228000000119 0.0 1885.0
0.871999979019 -0.231999993324 0.0 1896.0
0.871999979019 -0.238000005484 0.0 1866.0
0.866999983788 -0.241999998689 0.0 1902.0
0.871999979019 -0.247999995947 0.0 1919.0
0.869000017643 -0.252999991179 0.0 1887.0
0.866999983788 -0.25799998641 0.0 1862.0
0.869000017643 -0.263999998569 0.0 1934.0
0.869000017643 -0.270000010729 0.0 2001.0
0.866999983788 -0.27500000596 0.0 1954.0
0.861999988556 -0.279000014067 0.0 1962.0
0.861000001431 -0.284000009298 0.0 1954.0
0.861999988556 -0.289999991655 0.0 1988.0
0.856999993324 -0.293999999762 0.0 1950.0
0.861999988556 -0.300999999046 0.0 1946.0
0.853999972343 -0.305000007153 0.0 1919.0
0.851999998093 -0.308999985456 0.0 1922.0
0.85799998045 -0.317000001669 0.0010000000475 1941.0
0.855000019073 -0.321999996901 0.0010000000475 1926.0
0.856000006199 -0.32800000906 0.0010000000475 1892.0
0.851000010967 -0.331999987364 0.0010000000475 1934.0
0.851000010967 -0.337999999523 0.0010000000475 1926.0
0.847000002861 -0.342000007629 0.0010000000475 1917.0
0.84399998188 -0.347000002861 0.0010000000475 1921.0
0.842999994755 -0.351999998093 0.0010000000475 1919.0
0.842000007629 -0.358000010252 0.0010000000475 1921.0
0.842000007629 -0.363999992609 0.0010000000475 1931.0
0.84399998188 -0.370999991894 0.0010000000475 1958.0
0.84500002861 -0.377000004053 0.0010000000475 1974.0
0.837999999523 -0.379999995232 0.0010000000475 1958.0
0.836000025272 -0.386000007391 0.0010000000475 1972.0
0.836000025272 -0.391999989748 0.0010000000475 1968.0
0.837000012398 -0.398000001907 0.0010000000475 1988.0
0.834999978542 -0.404000014067 0.0010000000475 1986.0
0.832000017166 -0.409000009298 0.0010000000475 2014.0
0.830999970436 -0.414999991655 0.0010000000475 1982.0
0.825999975204 -0.418000012636 0.0010000000475 2008.0
0.824000000954 -0.423999994993 0.0010000000475 2023.0
0.830999970436 -0.433999985456 0.0010000000475 1980.0
0.82800000906 -0.437999993563 0.0010000000475 1968.0
0.824000000954 -0.442999988794 0.0010000000475 1968.0
0.823000013828 -0.449000000954 0.0010000000475 1969.0
0.824999988079 -0.456999987364 0.0010000000475 1958.0
1.06099998951 0.606999993324 -0.00999999977648 583.0
1.0759999752 0.606999993324 -0.00999999977648 564.0
1.08599996567 0.603999972343 -0.00999999977648 550.0
1.10399997234 0.605000019073 -0.00999999977648 525.0
1.12000000477 0.605000019073 -0.00999999977648 506.0
1.13499999046 0.603999972343 -0.00999999977648 487.0
1.18799996376 0.623000025749 -0.00999999977648 395.0
1.65100002289 0.852999985218 -0.0140000004321 215.0
1.75199997425 0.89200001955 -0.0149999996647 218.0
1.77900004387 0.89200001955 -0.0149999996647 221.0
1.80700004101 0.89200001955 -0.0149999996647 206.0
1.82299995422 0.885999977589 -0.0149999996647 214.0
1.8789999485 0.898999989033 -0.0149999996647 194.0
2.10700011253 0.992999970913 -0.0170000009239 172.0
2.09699988365 0.972999989986 -0.0170000009239 192.0
2.13000011444 0.972000002861 -0.0170000009239 234.0
2.132999897 0.958000004292 -0.0170000009239 295.0
2.12800002098 0.939999997616 -0.0170000009239 302.0
2.16300010681 0.939999997616 -0.0170000009239 295.0
2.15400004387 0.921000003815 -0.0170000009239 291.0
2.13599991798 0.898000001907 -0.0170000009239 287.0
2.13499999046 0.883000016212 -0.0170000009239 189.0
2.21600008011 0.901000022888 -0.0170000009239 99.0
2.24799990654 0.898000001907 -0.0170000009239 192.0
2.25699996948 0.885999977589 -0.0170000009239 349.0
2.257999897 0.870999991894 -0.0170000009239 243.0
2.3180000782 0.878000020981 -0.0170000009239 99.0
3.33100008965 0.871999979019 -0.0219999998808 106.0
3.39899992943 0.867999970913 -0.0230000000447 81.0
3.65199995041 0.910000026226 -0.0240000002086 64.0
3.80500006676 0.925000011921 -0.0250000003725 71.0
3.8220000267 0.90600001812 -0.0250000003725 105.0
3.84299993515 0.887000024319 -0.0250000003725 103.0
4.06300020218 0.912999987602 -0.0260000005364 83.0
4.1859998703 0.915000021458 -0.0270000007004 86.0
4.15999984741 0.884000003338 -0.0270000007004 93.0
4.12200021744 0.851000010967 -0.0260000005364 128.0
4.13000011444 0.82800000906 -0.0260000005364 173.0
