ply
format ascii 1.0
element vertex 913
property float x
property float y
property float z
property float intensity
end_header
0.989000022411 -0.0920000001788 0.0450000017881 1234.0
0.987999975681 -0.097999997437 0.0450000017881 1243.0
0.986999988556 -0.104000002146 0.0450000017881 1240.0
0.976000010967 -0.108000002801 0.0450000017881 1044.0
0.898999989033 -0.104999996722 0.0410000011325 286.0
0.808000028133 -0.097999997437 0.0370000004768 194.0
0.841000020504 -0.107000000775 0.0379999987781 199.0
0.797999978065 -0.105999998748 0.0359999984503 195.0
0.785000026226 -0.108999997377 0.0359999984503 192.0
0.797999978065 -0.115999996662 0.0359999984503 202.0
0.801999986172 -0.120999999344 0.0370000004768 196.0
0.778999984264 -0.122000001371 0.0359999984503 199.0
0.786000013351 -0.12800000608 0.0359999984503 205.0
0.787999987602 -0.133000001311 0.0359999984503 204.0
0.783999979496 -0.136999994516 0.0359999984503 204.0
0.791000008583 -0.143000006676 0.0359999984503 208.0
0.805000007153 -0.15000000596 0.0370000004768 210.0
0.824000000954 -0.158999994397 0.0379999987781 227.0
0.947000026703 -0.188999995589 0.0439999997616 982.0
0.959999978542 -0.196999996901 0.0450000017881 1373.0
0.962999999523 -0.202999994159 0.0450000017881 1390.0
0.962000012398 -0.209000006318 0.0450000017881 1395.0
0.958000004292 -0.21400000155 0.0450000017881 1403.0
0.959999978542 -0.219999998808 0.0450000017881 1408.0
0.952000021935 -0.224000006914 0.0450000017881 1416.0
0.955999970436 -0.231000006199 0.0450000017881 1432.0
0.95300000906 -0.236000001431 0.0450000017881 1436.0
0.953999996185 -0.243000000715 0.0450000017881 1437.0
0.95300000906 -0.247999995947 0.0450000017881 1440.0
0.947000026703 -0.252000004053 0.0450000017881 1443.0
0.945999979973 -0.25799998641 0.0450000017881 1448.0
0.945999979973 -0.263999998569 0.0450000017881 1436.0
0.936999976635 -0.268000006676 0.0450000017881 1011.0
0.834999978542 -0.243000000715 0.0399999991059 288.0
0.788999974728 -0.233999997377 0.0379999987781 226.0
0.763999998569 -0.231999993324 0.0359999984503 223.0
0.75 -0.231999993324 0.0359999984503 223.0
0.768000006676 -0.243000000715 0.0370000004768 225.0
0.776000022888 -0.250999987125 0.0370000004768 230.0
0.758000016212 -0.25 0.0359999984503 231.0
0.759000003338 -0.254999995232 0.0370000004768 228.0
0.744000017643 -0.254999995232 0.0359999984503 233.0
0.768999993801 -0.268999993801 0.0370000004768 234.0
0.749000012875 -0.266000002623 0.0359999984503 229.0
0.763999998569 -0.277000010014 0.0370000004768 236.0
0.730000019073 -0.268999993801 0.0359999984503 233.0
0.861999988556 -0.324999988079 0.0419999994338 526.0
0.916999995708 -0.351999998093 0.0450000017881 1381.0
0.922999978065 -0.361000001431 0.0460000000894 1514.0
0.915000021458 -0.363999992609 0.0460000000894 1505.0
0.913999974728 -0.370000004768 0.0460000000894 1523.0
0.916000008583 -0.377000004053 0.0460000000894 1520.0
0.911000013351 -0.381000012159 0.0460000000894 1517.0
0.910000026226 -0.388000011444 0.0460000000894 1525.0
0.907000005245 -0.391999989748 0.0460000000894 1527.0
0.907000005245 -0.398999989033 0.0460000000894 1517.0
0.90600001812 -0.405000001192 0.0460000000894 1537.0
0.901000022888 -0.409999996424 0.0460000000894 1543.0
0.899999976158 -0.416000008583 0.0460000000894 1524.0
0.896000027657 -0.421000003815 0.0460000000894 1511.0
0.867999970913 -0.41400000453 0.0450000017881 752.0
0.731000006199 -0.352999985218 0.0370000004768 280.0
0.669000029564 -0.326999992132 0.0340000018477 235.0
0.681999981403 -0.340000003576 0.035000000149 241.0
0.674000024796 -0.340999990702 0.035000000149 242.0
0.648999989033 -0.333000004292 0.0329999998212 248.0
0.648999989033 -0.337999999523 0.0340000018477 234.0
0.634000003338 -0.335000008345 0.0329999998212 245.0
0.629000008106 -0.337000012398 0.0329999998212 243.0
0.601000010967 -0.326999992132 0.0309999994934 238.0
0.629999995232 -0.347999989986 0.0329999998212 245.0
0.884000003338 0.507000029087 0.0370000004768 1046.0
0.883000016212 0.499000012875 0.0370000004768 1040.0
0.884999990463 0.493000000715 0.0370000004768 1054.0
0.893999993801 0.490999996662 0.0370000004768 1066.0
0.888999998569 0.481000006199 0.0370000004768 1071.0
0.896000027657 0.476999998093 0.0370000004768 1106.0
0.893000006676 0.469000011683 0.0370000004768 1097.0
0.897000014782 0.463999986649 0.0370000004768 1106.0
0.898999989033 0.458000004292 0.0370000004768 1112.0
0.902999997139 0.45300000906 0.0370000004768 1124.0
0.90499997139 0.446999996901 0.0370000004768 1125.0
0.899999976158 0.437999993563 0.0370000004768 1144.0
0.899999976158 0.430999994278 0.0359999984503 1134.0
0.901000022888 0.425000011921 0.0359999984503 1154.0
0.908999979496 0.42199999094 0.0370000004768 1163.0
0.912000000477 0.416999995708 0.0370000004768 1176.0
0.916000008583 0.412000000477 0.0370000004768 1178.0
0.915000021458 0.405000001192 0.0370000004768 1204.0
0.917999982834 0.40000000596 0.0370000004768 1218.0
0.915000021458 0.391000002623 0.0370000004768 1192.0
0.921000003815 0.386999994516 0.0370000004768 1193.0
0.922999978065 0.381999999285 0.0370000004768 1204.0
0.925999999046 0.377000004053 0.0370000004768 1232.0
0.925999999046 0.370000004768 0.0370000004768 1235.0
0.931999981403 0.365999996662 0.0370000004768 1242.0
0.925000011921 0.356999993324 0.0370000004768 1268.0
0.927999973297 0.351999998093 0.0370000004768 1265.0
0.931999981403 0.347000002861 0.0370000004768 1262.0
0.931999981403 0.340999990702 0.0370000004768 1273.0
0.933000028133 0.335000008345 0.0370000004768 1279.0
0.93599998951 0.330000013113 0.0370000004768 1262.0
0.935000002384 0.323000013828 0.0370000004768 1270.0
0.936999976635 0.317999988794 0.0370000004768 1284.0
0.936999976635 0.312000006437 0.0370000004768 1306.0
0.93900001049 0.305999994278 0.0370000004768 1340.0
0.940999984741 0.300999999046 0.0370000004768 1354.0
0.943000018597 0.294999986887 0.0370000004768 1338.0
0.940999984741 0.28900000453 0.0370000004768 1357.0
0.947000026703 0.284000009298 0.0370000004768 1372.0
0.944999992847 0.277999997139 0.0370000004768 1370.0
0.952000021935 0.273999989033 0.0370000004768 1387.0
0.953999996185 0.268000006676 0.0370000004768 1411.0
0.949000000954 0.261000007391 0.0370000004768 1419.0
0.953999996185 0.256000012159 0.0370000004768 1426.0
0.957000017166 0.250999987125 0.0370000004768 1457.0
0.955999970436 0.245000004768 0.0370000004768 1482.0
0.957000017166 0.238999992609 0.0370000004768 1529.0
0.953999996185 0.232999995351 0.0370000004768 1545.0
0.958000004292 0.228000000119 0.0370000004768 1533.0
0.962000012398 0.223000004888 0.0370000004768 1551.0
0.955999970436 0.216000005603 0.0370000004768 1571.0
0.962999999523 0.21099999547 0.0370000004768 1586.0
0.962000012398 0.204999998212 0.0370000004768 1608.0
0.966000020504 0.20000000298 0.0379999987781 1656.0
0.962999999523 0.194000005722 0.0370000004768 1684.0
0.967000007629 0.188999995589 0.0379999987781 1686.0
0.966000020504 0.182999998331 0.0379999987781 1676.0
0.971000015736 0.178000003099 0.0379999987781 1743.0
0.97000002861 0.172000005841 0.0379999987781 1728.0
0.96899998188 0.165999993682 0.0379999987781 1789.0
0.972999989986 0.16099999845 0.0379999987781 1783.0
0.972000002861 0.155000001192 0.0379999987781 1852.0
0.971000015736 0.149000003934 0.0379999987781 1789.0
0.972000002861 0.143999993801 0.0379999987781 1780.0
0.981000006199 0.138999998569 0.0379999987781 1760.0
0.976000010967 0.133000001311 0.0379999987781 1713.0
0.980000019073 0.12800000608 0.0379999987781 1761.0
0.978999972343 0.122000001371 0.0379999987781 1738.0
0.977999985218 0.115999996662 0.0379999987781 1720.0
0.976999998093 0.109999999404 0.0379999987781 1617.0
0.981000006199 0.104999996722 0.0379999987781 1567.0
0.976000010967 0.0989999994636 0.0379999987781 1515.0
0.978999972343 0.0930000022054 0.0379999987781 1443.0
0.980000019073 0.0879999995232 0.0379999987781 1450.0
0.976999998093 0.082000002265 0.0379999987781 1422.0
0.981999993324 0.0769999995828 0.0379999987781 1388.0
0.976999998093 0.0710000023246 0.0379999987781 1418.0
0.977999985218 0.0649999976158 0.0379999987781 1175.0
0.898999989033 0.054999999702 0.035000000149 185.0
0.289999991655 -0.00200000009499 0.00999999977648 49.0
0.180999994278 -0.0010000000475 0.00600000005215 50.0
0.986000001431 -0.0240000002086 0.0390000008047 625.0
1.00300002098 -0.0299999993294 0.0399999991059 1163.0
1.00800001621 -0.0359999984503 0.0399999991059 1177.0
0.998000025749 -0.0410000011325 0.0390000008047 1178.0
1.00199997425 -0.0469999983907 0.0399999991059 1196.0
0.998000025749 -0.0529999993742 0.0390000008047 1199.0
0.999000012875 -0.0590000003576 0.0399999991059 1210.0
0.995999991894 -0.0640000030398 0.0390000008047 1199.0
0.995000004768 -0.070000000298 0.0390000008047 1212.0
0.987999975681 -0.0750000029802 0.0390000008047 1209.0
0.990999996662 -0.0810000002384 0.0390000008047 1220.0
0.981999993324 -0.0860000029206 0.0390000008047 1224.0
0.987999975681 -0.0920000001788 0.0390000008047 1236.0
0.992999970913 -0.0989999994636 0.0399999991059 1234.0
0.986000001431 -0.103000000119 0.0390000008047 1244.0
0.973999977112 -0.108000002801 0.0390000008047 1039.0
0.893999993801 -0.104000002146 0.0359999984503 281.0
0.800000011921 -0.097000002861 0.0320000015199 196.0
0.806999981403 -0.103000000119 0.0320000015199 196.0
0.801999986172 -0.107000000775 0.0320000015199 190.0
0.802999973297 -0.112000003457 0.0320000015199 195.0
0.823000013828 -0.119000002742 0.0329999998212 202.0
0.776000022888 -0.116999998689 0.0309999994934 200.0
0.782000005245 -0.123000003397 0.0309999994934 207.0
0.802999973297 -0.130999997258 0.0320000015199 200.0
0.815999984741 -0.137999996543 0.0329999998212 203.0
0.804000020027 -0.140000000596 0.0320000015199 211.0
0.786000013351 -0.142000004649 0.0320000015199 205.0
0.768000006676 -0.143000006676 0.0309999994934 212.0
0.805000007153 -0.155000001192 0.0320000015199 233.0
0.954999983311 -0.189999997616 0.0390000008047 989.0
0.962000012398 -0.197999998927 0.0390000008047 1374.0
0.961000025272 -0.202999994159 0.0390000008047 1403.0
0.961000025272 -0.209000006318 0.0390000008047 1407.0
0.962000012398 -0.215000003576 0.0399999991059 1392.0
0.958000004292 -0.219999998808 0.0390000008047 1409.0
0.954999983311 -0.22499999404 0.0390000008047 1410.0
0.954999983311 -0.231000006199 0.0390000008047 1414.0
0.953999996185 -0.237000003457 0.0399999991059 1422.0
0.950999975204 -0.241999998689 0.0390000008047 1431.0
0.947000026703 -0.24699999392 0.0390000008047 1440.0
0.943000018597 -0.250999987125 0.0390000008047 1456.0
0.950999975204 -0.259000003338 0.0399999991059 1446.0
0.944000005722 -0.263999998569 0.0390000008047 1433.0
0.933000028133 -0.266000002623 0.0390000008047 1008.0
0.825999975204 -0.240999996662 0.0340000018477 287.0
0.79699999094 -0.237000003457 0.0329999998212 225.0
0.762000024319 -0.231000006199 0.0320000015199 229.0
0.762000024319 -0.236000001431 0.0320000015199 224.0
0.760999977589 -0.240999996662 0.0320000015199 232.0
0.764999985695 -0.24699999392 0.0320000015199 232.0
0.759999990463 -0.25 0.0320000015199 226.0
0.762000024319 -0.256000012159 0.0320000015199 226.0
0.753000020981 -0.25799998641 0.0320000015199 228.0
0.75 -0.261999994516 0.0320000015199 229.0
0.754999995232 -0.268999993801 0.0320000015199 226.0
0.755999982357 -0.273999989033 0.0320000015199 227.0
0.753000020981 -0.277999997139 0.0320000015199 235.0
0.874000012875 -0.328999996185 0.0379999987781 521.0
0.913999974728 -0.351000010967 0.0399999991059 1397.0
0.916000008583 -0.358000010252 0.0399999991059 1511.0
0.916000008583 -0.363999992609 0.0399999991059 1517.0
0.915000021458 -0.370000004768 0.0399999991059 1504.0
0.913999974728 -0.375999987125 0.0399999991059 1517.0
0.911000013351 -0.381000012159 0.0399999991059 1516.0
0.908999979496 -0.386999994516 0.0399999991059 1521.0
0.907999992371 -0.393000006676 0.0399999991059 1532.0
0.90499997139 -0.398000001907 0.0399999991059 1528.0
0.907000005245 -0.405999988317 0.0399999991059 1532.0
0.902000010014 -0.409999996424 0.0399999991059 1528.0
0.901000022888 -0.416000008583 0.0399999991059 1543.0
0.894999980927 -0.419999986887 0.0399999991059 1530.0
0.860000014305 -0.409999996424 0.0390000008047 764.0
0.725000023842 -0.34999999404 0.0320000015199 276.0
0.683000028133 -0.333999991417 0.0309999994934 246.0
0.680000007153 -0.337999999523 0.0309999994934 238.0
0.661000013351 -0.333999991417 0.0299999993294 247.0
0.669000029564 -0.342999994755 0.0299999993294 240.0
0.657000005245 -0.342000007629 0.0299999993294 243.0
0.60900002718 -0.321999996901 0.0280000008643 245.0
0.648999989033 -0.347999989986 0.0299999993294 241.0
0.623000025749 -0.338999986649 0.0280000008643 245.0
0.634999990463 -0.351000010967 0.0289999991655 245.0
0.885999977589 0.507000029087 0.0309999994934 1029.0
0.883000016212 0.499000012875 0.0309999994934 1015.0
0.884999990463 0.493000000715 0.0309999994934 1024.0
0.884000003338 0.485000014305 0.0309999994934 1037.0
0.887000024319 0.479000002146 0.0309999994934 1032.0
0.89200001955 0.47499999404 0.0309999994934 1060.0
0.89200001955 0.467999994755 0.0309999994934 1067.0
0.894999980927 0.462000012398 0.0309999994934 1055.0
0.898999989033 0.458000004292 0.0309999994934 1079.0
0.893999993801 0.449000000954 0.0309999994934 1079.0
0.899999976158 0.444000005722 0.0309999994934 1093.0
0.907999992371 0.442000001669 0.0309999994934 1099.0
0.90499997139 0.433999985456 0.0309999994934 1078.0
0.90600001812 0.426999986172 0.0309999994934 1097.0
0.908999979496 0.42199999094 0.0309999994934 1106.0
0.90600001812 0.41400000453 0.0309999994934 1109.0
0.912000000477 0.409999996424 0.0309999994934 1120.0
0.915000021458 0.404000014067 0.0309999994934 1140.0
0.916000008583 0.398999989033 0.0309999994934 1143.0
0.916000008583 0.391999989748 0.0309999994934 1137.0
0.919000029564 0.386999994516 0.0309999994934 1128.0
0.925000011921 0.38299998641 0.0309999994934 1123.0
0.916999995708 0.372999995947 0.0309999994934 1152.0
0.92199999094 0.368999987841 0.0309999994934 1143.0
0.920000016689 0.361999988556 0.0309999994934 1149.0
0.924000024796 0.356999993324 0.0309999994934 1186.0
0.925000011921 0.351000010967 0.0309999994934 1202.0
0.925000011921 0.344000011683 0.0309999994934 1181.0
0.925999999046 0.338999986649 0.0309999994934 1194.0
0.934000015259 0.335000008345 0.0309999994934 1192.0
0.927999973297 0.326999992132 0.0309999994934 1167.0
0.930000007153 0.321000009775 0.0309999994934 1180.0
0.93599998951 0.317000001669 0.0309999994934 1187.0
0.934000015259 0.31099998951 0.0309999994934 1217.0
0.939999997616 0.307000011206 0.0309999994934 1240.0
0.93900001049 0.300000011921 0.0309999994934 1250.0
0.941999971867 0.294999986887 0.0309999994934 1252.0
0.938000023365 0.287999987602 0.0309999994934 1266.0
0.944000005722 0.282999992371 0.0309999994934 1273.0
0.948000013828 0.277999997139 0.0309999994934 1270.0
0.947000026703 0.272000014782 0.0309999994934 1267.0
0.944999992847 0.266000002623 0.0309999994934 1304.0
0.952000021935 0.261999994516 0.0320000015199 1297.0
0.950999975204 0.254999995232 0.0320000015199 1318.0
0.949999988079 0.248999997973 0.0309999994934 1339.0
0.958999991417 0.246000006795 0.0320000015199 1341.0
0.955999970436 0.238999992609 0.0320000015199 1370.0
0.958000004292 0.232999995351 0.0320000015199 1359.0
0.955999970436 0.226999998093 0.0320000015199 1378.0
0.95300000906 0.221000000834 0.0320000015199 1408.0
0.962000012398 0.216999992728 0.0320000015199 1417.0
0.964999973774 0.211999997497 0.0320000015199 1449.0
0.961000025272 0.204999998212 0.0320000015199 1465.0
0.962000012398 0.199000000954 0.0320000015199 1484.0
0.96899998188 0.194999992847 0.0320000015199 1539.0
0.959999978542 0.187000006437 0.0320000015199 1516.0
0.964999973774 0.182999998331 0.0320000015199 1522.0
0.962000012398 0.175999999046 0.0320000015199 1565.0
0.96899998188 0.172000005841 0.0320000015199 1556.0
0.96899998188 0.165999993682 0.0320000015199 1572.0
0.96899998188 0.159999996424 0.0320000015199 1596.0
0.971000015736 0.155000001192 0.0320000015199 1622.0
0.971000015736 0.149000003934 0.0320000015199 1620.0
0.975000023842 0.143999993801 0.0320000015199 1642.0
0.980000019073 0.138999998569 0.0320000015199 1633.0
0.977999985218 0.133000001311 0.0320000015199 1632.0
0.975000023842 0.127000004053 0.0320000015199 1644.0
0.975000023842 0.120999999344 0.0320000015199 1591.0
0.978999972343 0.115999996662 0.0320000015199 1543.0
0.975000023842 0.109999999404 0.0320000015199 1431.0
0.977999985218 0.104999996722 0.0320000015199 1478.0
0.977999985218 0.0989999994636 0.0320000015199 1456.0
0.977999985218 0.0930000022054 0.0320000015199 1387.0
0.98299998045 0.0879999995232 0.0329999998212 1396.0
0.985000014305 0.082000002265 0.0329999998212 1382.0
0.980000019073 0.0759999975562 0.0329999998212 1347.0
0.98299998045 0.0710000023246 0.0329999998212 1340.0
0.976000010967 0.0649999976158 0.0320000015199 1123.0
0.922999978065 0.0560000017285 0.0309999994934 245.0
0.261999994516 -0.00300000002608 0.00700000021607 54.0
0.981000006199 -0.0240000002086 0.0329999998212 646.0
1.00699996948 -0.0299999993294 0.0340000018477 1162.0
1.00199997425 -0.0359999984503 0.0340000018477 1165.0
1.00199997425 -0.0419999994338 0.0340000018477 1167.0
1.00100004673 -0.0469999983907 0.0340000018477 1172.0
0.995999991894 -0.0529999993742 0.0340000018477 1184.0
0.995999991894 -0.0590000003576 0.0340000018477 1182.0
0.996999979019 -0.0640000030398 0.0340000018477 1192.0
0.995000004768 -0.070000000298 0.0340000018477 1201.0
0.995999991894 -0.0759999975562 0.0340000018477 1201.0
0.995999991894 -0.082000002265 0.0340000018477 1214.0
0.989000022411 -0.0869999974966 0.0340000018477 1211.0
0.987999975681 -0.0920000001788 0.0340000018477 1228.0
0.986000001431 -0.097999997437 0.0340000018477 1235.0
0.991999983788 -0.104000002146 0.0340000018477 1223.0
0.976000010967 -0.108000002801 0.0329999998212 1018.0
0.883000016212 -0.103000000119 0.0299999993294 283.0
0.791000008583 -0.0960000008345 0.0270000007004 194.0
0.815999984741 -0.104000002146 0.0280000008643 204.0
0.792999982834 -0.105999998748 0.0270000007004 202.0
0.792999982834 -0.109999999404 0.0270000007004 204.0
0.808000028133 -0.116999998689 0.0280000008643 205.0
0.800999999046 -0.120999999344 0.0270000007004 207.0
0.799000024796 -0.125 0.0270000007004 216.0
0.801999986172 -0.129999995232 0.0270000007004 210.0
0.811999976635 -0.136999994516 0.0280000008643 217.0
0.834999978542 -0.145999997854 0.0289999991655 214.0
0.795000016689 -0.143000006676 0.0270000007004 213.0
0.819000005722 -0.152999997139 0.0280000008643 216.0
0.815999984741 -0.157000005245 0.0280000008643 241.0
0.95300000906 -0.189999997616 0.0329999998212 1003.0
0.963999986649 -0.197999998927 0.0340000018477 1374.0
0.959999978542 -0.202999994159 0.0340000018477 1392.0
0.955999970436 -0.208000004292 0.0340000018477 1389.0
0.95300000906 -0.212999999523 0.0340000018477 1392.0
0.953999996185 -0.218999996781 0.0340000018477 1409.0
0.957000017166 -0.22499999404 0.0340000018477 1417.0
0.949999988079 -0.230000004172 0.0340000018477 1411.0
0.95300000906 -0.236000001431 0.0340000018477 1416.0
0.948000013828 -0.240999996662 0.0340000018477 1433.0
0.949999988079 -0.24699999392 0.0340000018477 1442.0
0.949000000954 -0.252999991179 0.0340000018477 1440.0
0.945999979973 -0.25799998641 0.0340000018477 1443.0
0.948000013828 -0.264999985695 0.0340000018477 1435.0
0.930000007153 -0.264999985695 0.0329999998212 1007.0
0.822000026703 -0.238999992609 0.0289999991655 300.0
0.806999981403 -0.239999994636 0.0289999991655 233.0
0.76599997282 -0.232999995351 0.0270000007004 237.0
0.782999992371 -0.243000000715 0.0280000008643 230.0
0.787999987602 -0.248999997973 0.0280000008643 238.0
0.773000001907 -0.25 0.0280000008643 232.0
0.771000027657 -0.254000008106 0.0280000008643 235.0
0.748000025749 -0.250999987125 0.0270000007004 237.0
0.746999979019 -0.256000012159 0.0270000007004 236.0
0.751999974251 -0.261999994516 0.0270000007004 231.0
0.75 -0.266999989748 0.0270000007004 233.0
0.730000019073 -0.264999985695 0.0270000007004 235.0
0.763000011444 -0.282000005245 0.0280000008643 235.0
0.870999991894 -0.32800000906 0.0320000015199 519.0
0.916999995708 -0.351999998093 0.0340000018477 1401.0
0.919000029564 -0.358999997377 0.0340000018477 1520.0
0.916000008583 -0.363999992609 0.0340000018477 1516.0
0.910000026226 -0.368000000715 0.0340000018477 1513.0
0.915000021458 -0.375999987125 0.035000000149 1538.0
0.911000013351 -0.381000012159 0.0340000018477 1539.0
0.907999992371 -0.386999994516 0.0340000018477 1522.0
0.907000005245 -0.393000006676 0.035000000149 1520.0
0.901000022888 -0.397000014782 0.0340000018477 1514.0
0.90600001812 -0.405000001192 0.035000000149 1528.0
0.90499997139 -0.411000013351 0.035000000149 1537.0
0.898999989033 -0.414999991655 0.035000000149 1539.0
0.898999989033 -0.42199999094 0.035000000149 1524.0
0.862999975681 -0.411000013351 0.0329999998212 777.0
0.722000002861 -0.347999989986 0.0280000008643 283.0
0.675000011921 -0.331000000238 0.0260000005364 246.0
0.65600001812 -0.326000005007 0.0250000003725 246.0
0.666999995708 -0.337000012398 0.0260000005364 249.0
0.657999992371 -0.337000012398 0.0260000005364 246.0
0.648999989033 -0.337999999523 0.0250000003725 247.0
0.633000016212 -0.333999991417 0.0250000003725 246.0
0.658999979496 -0.352999985218 0.0260000005364 250.0
0.603999972343 -0.32800000906 0.0240000002086 244.0
0.653999984264 -0.361000001431 0.0260000005364 246.0
0.869000017643 0.497999995947 0.0250000003725 808.0
0.870999991894 0.49200001359 0.0250000003725 807.0
0.866999983788 0.483000010252 0.0250000003725 785.0
0.866999983788 0.476000010967 0.0250000003725 798.0
0.875 0.472999989986 0.0250000003725 797.0
0.876999974251 0.467000007629 0.0250000003725 798.0
0.882000029087 0.462999999523 0.0250000003725 819.0
0.879999995232 0.455000013113 0.0250000003725 813.0
0.888000011444 0.451999992132 0.0250000003725 816.0
0.882000029087 0.442000001669 0.0250000003725 810.0
0.885999977589 0.437999993563 0.0250000003725 814.0
0.887000024319 0.430999994278 0.0250000003725 816.0
0.889999985695 0.425999999046 0.0250000003725 800.0
0.896000027657 0.42199999094 0.0250000003725 807.0
0.894999980927 0.414999991655 0.0250000003725 821.0
0.896000027657 0.409000009298 0.0250000003725 827.0
0.898000001907 0.402999997139 0.0250000003725 806.0
0.896000027657 0.395999997854 0.0250000003725 820.0
0.898999989033 0.391000002623 0.0250000003725 821.0
0.907999992371 0.388000011444 0.0250000003725 809.0
0.897000014782 0.377000004053 0.0250000003725 801.0
0.912000000477 0.377000004053 0.0250000003725 802.0
0.907000005245 0.368999987841 0.0250000003725 807.0
0.907999992371 0.363000005484 0.0250000003725 812.0
0.916000008583 0.360000014305 0.0250000003725 798.0
0.916000008583 0.352999985218 0.0250000003725 819.0
0.916000008583 0.347000002861 0.0250000003725 812.0
0.908999979496 0.337999999523 0.0250000003725 812.0
0.916000008583 0.335000008345 0.0250000003725 808.0
0.916000008583 0.328999996185 0.0250000003725 815.0
0.919000029564 0.324000000954 0.0250000003725 810.0
0.92199999094 0.317999988794 0.0250000003725 810.0
0.920000016689 0.312000006437 0.0250000003725 813.0
0.922999978065 0.307000011206 0.0250000003725 828.0
0.935000002384 0.305000007153 0.0260000005364 825.0
0.930000007153 0.29699999094 0.0250000003725 830.0
0.925999999046 0.289999991655 0.0250000003725 833.0
0.930000007153 0.284999996424 0.0250000003725 854.0
0.927999973297 0.277999997139 0.0250000003725 857.0
0.93599998951 0.27500000596 0.0250000003725 860.0
0.936999976635 0.268999993801 0.0260000005364 850.0
0.941999971867 0.264999985695 0.0260000005364 864.0
0.939999997616 0.25799998641 0.0260000005364 880.0
0.93900001049 0.252000004053 0.0260000005364 884.0
0.940999984741 0.24699999392 0.0260000005364 890.0
0.944000005722 0.241999998689 0.0260000005364 903.0
0.939999997616 0.234999999404 0.0260000005364 916.0
0.953999996185 0.232999995351 0.0260000005364 911.0
0.947000026703 0.22499999404 0.0260000005364 923.0
0.953999996185 0.221000000834 0.0260000005364 928.0
0.948000013828 0.21400000155 0.0260000005364 927.0
0.958000004292 0.209999993443 0.0260000005364 937.0
0.955999970436 0.203999996185 0.0260000005364 957.0
0.955999970436 0.197999998927 0.0260000005364 959.0
0.958999991417 0.193000003695 0.0260000005364 982.0
0.959999978542 0.187000006437 0.0260000005364 993.0
0.95300000906 0.180000007153 0.0260000005364 980.0
0.963999986649 0.177000001073 0.0260000005364 984.0
0.959999978542 0.170000001788 0.0260000005364 1015.0
0.967000007629 0.165999993682 0.0260000005364 1009.0
0.964999973774 0.159999996424 0.0260000005364 1035.0
0.962999999523 0.153999999166 0.0260000005364 1048.0
0.962999999523 0.148000001907 0.0260000005364 1071.0
0.962999999523 0.142000004649 0.0260000005364 1064.0
0.966000020504 0.136999994516 0.0260000005364 1055.0
0.966000020504 0.130999997258 0.0260000005364 1081.0
0.972000002861 0.126000002027 0.0270000007004 1042.0
0.972999989986 0.120999999344 0.0270000007004 1028.0
0.963999986649 0.11400000006 0.0260000005364 1018.0
0.959999978542 0.108000002801 0.0260000005364 986.0
0.967000007629 0.103000000119 0.0260000005364 1010.0
0.972999989986 0.097999997437 0.0270000007004 1010.0
0.976999998093 0.0930000022054 0.0270000007004 961.0
0.981000006199 0.0879999995232 0.0270000007004 969.0
0.973999977112 0.0810000002384 0.0270000007004 947.0
0.976000010967 0.0759999975562 0.0270000007004 931.0
0.976000010967 0.070000000298 0.0270000007004 919.0
0.972000002861 0.0640000030398 0.0270000007004 738.0
0.712999999523 0.0439999997616 0.0189999993891 91.0
4.99499988556 0.00899999961257 0.145999997854 46.0
0.356000006199 -0.00499999988824 0.00899999961257 57.0
0.98299998045 -0.0240000002086 0.0270000007004 672.0
0.998000025749 -0.0299999993294 0.0280000008643 959.0
0.971000015736 -0.035000000149 0.0270000007004 614.0
0.971000015736 -0.0399999991059 0.0270000007004 609.0
0.96899998188 -0.0460000000894 0.0270000007004 613.0
0.975000023842 -0.0520000010729 0.0270000007004 629.0
0.972999989986 -0.0570000000298 0.0270000007004 631.0
0.973999977112 -0.0630000010133 0.0270000007004 658.0
0.963999986649 -0.0680000036955 0.0270000007004 670.0
0.966000020504 -0.0729999989271 0.0270000007004 679.0
0.972000002861 -0.0799999982119 0.0270000007004 685.0
0.962999999523 -0.0839999988675 0.0270000007004 699.0
0.96899998188 -0.0900000035763 0.0270000007004 711.0
0.967000007629 -0.0960000008345 0.0270000007004 727.0
0.964999973774 -0.101000003517 0.0270000007004 731.0
0.961000025272 -0.105999998748 0.0270000007004 716.0
0.964999973774 -0.112000003457 0.0270000007004 649.0
0.953999996185 -0.116999998689 0.0270000007004 643.0
0.944000005722 -0.120999999344 0.0270000007004 636.0
0.943000018597 -0.126000002027 0.0270000007004 623.0
0.941999971867 -0.131999999285 0.0270000007004 620.0
0.941999971867 -0.136999994516 0.0270000007004 611.0
0.934000015259 -0.142000004649 0.0270000007004 606.0
0.940999984741 -0.148000001907 0.0270000007004 599.0
0.940999984741 -0.153999999166 0.0270000007004 592.0
0.935000002384 -0.158000007272 0.0270000007004 576.0
0.933000028133 -0.163000002503 0.0270000007004 571.0
0.926999986172 -0.167999997735 0.0270000007004 558.0
0.930000007153 -0.173999994993 0.0270000007004 549.0
0.926999986172 -0.179000005126 0.0270000007004 552.0
0.943000018597 -0.187999993563 0.0270000007004 856.0
0.95300000906 -0.195999994874 0.0280000008643 1024.0
0.949000000954 -0.20000000298 0.0280000008643 1054.0
0.955999970436 -0.208000004292 0.0280000008643 1056.0
0.945999979973 -0.21099999547 0.0280000008643 1083.0
0.947000026703 -0.216999992728 0.0280000008643 1101.0
0.941999971867 -0.222000002861 0.0280000008643 1120.0
0.944999992847 -0.229000002146 0.0280000008643 1130.0
0.940999984741 -0.232999995351 0.0280000008643 1153.0
0.941999971867 -0.238999992609 0.0280000008643 1165.0
0.943000018597 -0.245000004768 0.0280000008643 1195.0
0.939999997616 -0.25 0.0280000008643 1208.0
0.936999976635 -0.256000012159 0.0280000008643 1216.0
0.940999984741 -0.263000011444 0.0280000008643 1230.0
0.927999973297 -0.264999985695 0.0280000008643 918.0
0.893999993801 -0.261000007391 0.0270000007004 429.0
0.870000004768 -0.259000003338 0.0260000005364 377.0
0.864000022411 -0.263000011444 0.0260000005364 377.0
0.848999977112 -0.263999998569 0.0260000005364 376.0
0.85900002718 -0.272000014782 0.0260000005364 366.0
0.850000023842 -0.27500000596 0.0260000005364 362.0
0.856999993324 -0.282999992371 0.0260000005364 364.0
0.842000007629 -0.282999992371 0.0260000005364 360.0
0.836000025272 -0.287000000477 0.0250000003725 355.0
0.85799998045 -0.300000011921 0.0260000005364 347.0
0.836000025272 -0.298000007868 0.0260000005364 344.0
0.825999975204 -0.300000011921 0.0250000003725 345.0
0.827000021935 -0.305000007153 0.0250000003725 344.0
0.873000025749 -0.328999996185 0.0270000007004 590.0
0.916999995708 -0.351999998093 0.0289999991655 1323.0
0.912000000477 -0.356000006199 0.0289999991655 1401.0
0.911000013351 -0.361999988556 0.0289999991655 1412.0
0.910000026226 -0.368000000715 0.0289999991655 1421.0
0.913999974728 -0.375999987125 0.0289999991655 1425.0
0.90499997139 -0.379000008106 0.0289999991655 1432.0
0.902999997139 -0.384000003338 0.0289999991655 1437.0
0.902000010014 -0.389999985695 0.0289999991655 1429.0
0.902000010014 -0.397000014782 0.0289999991655 1437.0
0.901000022888 -0.402999997139 0.0289999991655 1454.0
0.901000022888 -0.409000009298 0.0289999991655 1470.0
0.893999993801 -0.412999987602 0.0289999991655 1456.0
0.894999980927 -0.419999986887 0.0289999991655 1465.0
0.862999975681 -0.411000013351 0.0280000008643 769.0
0.768000006676 -0.370999991894 0.0250000003725 333.0
0.717999994755 -0.351999998093 0.0230000000447 289.0
0.708000004292 -0.351999998093 0.0230000000447 283.0
0.722000002861 -0.365000009537 0.0240000002086 269.0
0.694999992847 -0.356999993324 0.0230000000447 278.0
0.675999999046 -0.351999998093 0.0219999998808 267.0
0.675999999046 -0.356999993324 0.0219999998808 270.0
0.681999981403 -0.365999996662 0.0219999998808 274.0
0.652999997139 -0.354999989271 0.0219999998808 266.0
0.643000006676 -0.354999989271 0.0209999997169 268.0
0.745999991894 0.426999986172 0.01600000076 334.0
0.751999974251 0.423999994993 0.01600000076 321.0
0.740999996662 0.412000000477 0.01600000076 309.0
0.754999995232 0.41400000453 0.01600000076 319.0
0.73400002718 0.395999997854 0.01600000076 302.0
0.737999975681 0.393000006676 0.01600000076 292.0
0.737999975681 0.386999994516 0.01600000076 296.0
0.749000012875 0.386999994516 0.01600000076 291.0
0.744000017643 0.379000008106 0.01600000076 278.0
0.758000016212 0.379999995232 0.01600000076 269.0
0.73400002718 0.361999988556 0.01600000076 270.0
0.745999991894 0.363000005484 0.01600000076 264.0
0.713999986649 0.342000007629 0.0149999996647 268.0
0.711000025272 0.335000008345 0.0149999996647 257.0
0.702000021935 0.326000005007 0.0149999996647 258.0
0.662000000477 0.301999986172 0.0140000004321 252.0
0.672999978065 0.301999986172 0.0140000004321 245.0
0.685000002384 0.303000003099 0.0140000004321 245.0
0.72000002861 0.312999993563 0.0149999996647 246.0
0.67199999094 0.287000000477 0.0140000004321 240.0
0.670000016689 0.282000005245 0.0140000004321 227.0
0.623000025749 0.256999999285 0.0130000002682 231.0
0.629999995232 0.256000012159 0.0130000002682 221.0
0.648000001907 0.259000003338 0.0130000002682 225.0
0.629999995232 0.24699999392 0.0130000002682 222.0
0.596000015736 0.230000004172 0.0120000001043 214.0
0.601000010967 0.228000000119 0.0120000001043 211.0
0.60799998045 0.225999996066 0.0120000001043 200.0
0.602999985218 0.219999998808 0.0120000001043 210.0
0.605000019073 0.216999992728 0.0120000001043 204.0
0.56400001049 0.197999998927 0.0109999999404 209.0
0.601999998093 0.208000004292 0.0120000001043 199.0
0.591000020504 0.20000000298 0.0120000001043 196.0
0.603999972343 0.201000005007 0.0120000001043 199.0
0.589999973774 0.192000001669 0.0120000001043 202.0
0.573000013828 0.182999998331 0.0120000001043 192.0
0.611999988556 0.190999999642 0.0120000001043 198.0
0.601000010967 0.184000000358 0.0120000001043 195.0
0.637000024319 0.190999999642 0.0130000002682 207.0
0.610000014305 0.179000005126 0.0120000001043 206.0
0.685000002384 0.196999996901 0.0140000004321 209.0
0.629000008106 0.177000001073 0.0130000002682 205.0
0.647000014782 0.178000003099 0.0130000002682 203.0
0.614000022411 0.165000006557 0.0120000001043 196.0
0.658999979496 0.172999992967 0.0130000002682 204.0
0.739000022411 0.188999995589 0.0149999996647 221.0
0.808000028133 0.202000007033 0.0170000009239 224.0
0.846000015736 0.206000000238 0.0179999992251 226.0
0.830999970436 0.196999996901 0.0170000009239 224.0
0.829999983311 0.192000001669 0.0170000009239 230.0
0.847999989986 0.190999999642 0.0179999992251 241.0
0.848999977112 0.186000004411 0.0179999992251 231.0
0.842000007629 0.180000007153 0.0179999992251 244.0
0.84500002861 0.17499999702 0.0179999992251 242.0
0.842999994755 0.170000001788 0.0179999992251 247.0
0.880999982357 0.172000005841 0.0189999993891 241.0
0.884000003338 0.166999995708 0.0189999993891 249.0
0.856000006199 0.157000005245 0.0179999992251 247.0
0.875 0.155000001192 0.0189999993891 253.0
0.878000020981 0.15000000596 0.0189999993891 258.0
0.883000016212 0.145999997854 0.0189999993891 269.0
0.876999974251 0.140000000596 0.0189999993891 276.0
0.884000003338 0.136000007391 0.0189999993891 275.0
0.90600001812 0.134000003338 0.0189999993891 278.0
0.908999979496 0.128999993205 0.0189999993891 275.0
0.884000003338 0.119999997318 0.0189999993891 274.0
0.880999982357 0.115000002086 0.0189999993891 274.0
0.898999989033 0.112000003457 0.0189999993891 275.0
0.893999993801 0.105999998748 0.0189999993891 281.0
0.901000022888 0.101999998093 0.0189999993891 276.0
0.899999976158 0.0960000008345 0.0189999993891 281.0
0.898000001907 0.0909999981523 0.0189999993891 283.0
0.907999992371 0.0860000029206 0.0189999993891 273.0
0.916999995708 0.082000002265 0.019999999553 287.0
0.915000021458 0.0769999995828 0.019999999553 282.0
0.924000024796 0.0719999969006 0.019999999553 284.0
0.907000005245 0.0649999976158 0.019999999553 275.0
0.882000029087 0.0590000003576 0.0189999993891 216.0
0.442999988794 -0.00700000021607 0.00899999961257 62.0
0.98400002718 -0.0240000002086 0.0219999998808 696.0
0.987999975681 -0.0299999993294 0.0219999998808 803.0
0.867999970913 -0.0309999994934 0.0189999993891 208.0
0.82800000906 -0.0340000018477 0.0179999992251 179.0
0.846000015736 -0.0399999991059 0.0189999993891 179.0
0.828999996185 -0.0439999997616 0.0179999992251 186.0
0.839999973774 -0.0489999987185 0.0179999992251 188.0
0.799000024796 -0.0509999990463 0.0179999992251 191.0
0.819999992847 -0.0570000000298 0.0179999992251 187.0
0.838999986649 -0.0630000010133 0.0189999993891 190.0
0.819999992847 -0.0670000016689 0.0179999992251 193.0
0.800000011921 -0.070000000298 0.0179999992251 192.0
0.813000023365 -0.0750000029802 0.0179999992251 199.0
0.813000023365 -0.0799999982119 0.0179999992251 198.0
0.815999984741 -0.0850000008941 0.0179999992251 198.0
0.921000003815 -0.101999998093 0.0209999997169 423.0
0.981000006199 -0.11400000006 0.0219999998808 1178.0
0.981000006199 -0.119999997318 0.0219999998808 1258.0
0.976999998093 -0.125 0.0219999998808 1261.0
0.975000023842 -0.130999997258 0.0219999998808 1263.0
0.978999972343 -0.136999994516 0.0219999998808 1282.0
0.973999977112 -0.142000004649 0.0219999998808 1295.0
0.975000023842 -0.148000001907 0.0219999998808 1289.0
0.976000010967 -0.153999999166 0.0219999998808 1311.0
0.96899998188 -0.158999994397 0.0219999998808 1315.0
0.97000002861 -0.16400000453 0.0219999998808 1315.0
0.966000020504 -0.168999999762 0.0219999998808 1318.0
0.97000002861 -0.175999999046 0.0219999998808 1322.0
0.964999973774 -0.180999994278 0.0219999998808 1327.0
0.961000025272 -0.186000004411 0.0219999998808 1300.0
0.922999978065 -0.184000000358 0.0209999997169 533.0
0.827000021935 -0.168999999762 0.0189999993891 254.0
0.841000020504 -0.177000001073 0.0189999993891 258.0
0.827000021935 -0.179000005126 0.0189999993891 261.0
0.847000002861 -0.188999995589 0.019999999553 272.0
0.847999989986 -0.194000005722 0.019999999553 272.0
0.848999977112 -0.20000000298 0.019999999553 289.0
0.836000025272 -0.202000007033 0.019999999553 289.0
0.85799998045 -0.211999997497 0.019999999553 294.0
0.856000006199 -0.216999992728 0.019999999553 304.0
0.82800000906 -0.215000003576 0.0189999993891 316.0
0.862999975681 -0.230000004172 0.019999999553 327.0
0.85900002718 -0.233999997377 0.019999999553 333.0
0.85900002718 -0.238999992609 0.019999999553 339.0
0.913999974728 -0.261000007391 0.0219999998808 707.0
0.934000015259 -0.272000014782 0.0230000000447 1247.0
0.934000015259 -0.279000014067 0.0230000000447 1286.0
0.933000028133 -0.284000009298 0.0230000000447 1274.0
0.931999981403 -0.289999991655 0.0230000000447 1266.0
0.925999999046 -0.293999999762 0.0230000000447 1246.0
0.925999999046 -0.300000011921 0.0230000000447 1247.0
0.930000007153 -0.307000011206 0.0230000000447 1224.0
0.922999978065 -0.31099998951 0.0230000000447 1207.0
0.92199999094 -0.317000001669 0.0230000000447 1180.0
0.919000029564 -0.321999996901 0.0230000000447 1173.0
0.916999995708 -0.326999992132 0.0230000000447 1151.0
0.916000008583 -0.333000004292 0.0230000000447 1117.0
0.908999979496 -0.33599999547 0.0230000000447 1086.0
0.90499997139 -0.340999990702 0.0230000000447 940.0
0.880999982357 -0.337999999523 0.0219999998808 682.0
0.885999977589 -0.345999985933 0.0219999998808 676.0
0.882000029087 -0.34999999404 0.0219999998808 701.0
0.889999985695 -0.360000014305 0.0230000000447 723.0
0.883000016212 -0.363000005484 0.0219999998808 748.0
0.875999987125 -0.365999996662 0.0219999998808 784.0
0.883000016212 -0.375999987125 0.0230000000447 799.0
0.887000024319 -0.384000003338 0.0230000000447 822.0
0.880999982357 -0.386999994516 0.0230000000447 827.0
0.875 -0.391000002623 0.0230000000447 850.0
0.879000008106 -0.398999989033 0.0230000000447 873.0
0.879999995232 -0.405999988317 0.0230000000447 867.0
0.878000020981 -0.412000000477 0.0230000000447 900.0
0.866999983788 -0.412999987602 0.0230000000447 835.0
0.864000022411 -0.418000012636 0.0230000000447 785.0
0.856000006199 -0.419999986887 0.0230000000447 766.0
0.853999972343 -0.425999999046 0.0230000000447 734.0
0.848999977112 -0.430000007153 0.0230000000447 708.0
0.837999999523 -0.430999994278 0.0219999998808 682.0
0.833000004292 -0.435000002384 0.0219999998808 654.0
0.829999983311 -0.439999997616 0.0219999998808 626.0
0.830999970436 -0.446999996901 0.0219999998808 609.0
0.819000005722 -0.446999996901 0.0219999998808 595.0
0.820999979973 -0.455000013113 0.0219999998808 577.0
0.0370000004768 0.019999999553 0.0 124.0
4.41499996185 2.49699997902 0.0759999975562 99.0
4.43300008774 2.47000002861 0.0759999975562 93.0
4.44899988174 2.4430000782 0.0759999975562 120.0
0.0189999993891 0.00899999961257 0.0 104.0
4.4390001297 2.36599993706 0.0759999975562 103.0
0.0209999997169 0.00999999977648 0.0 116.0
4.40100002289 2.27699995041 0.0750000029802 102.0
4.44600009918 2.26600003242 0.0759999975562 96.0
4.40899991989 2.21300005913 0.0750000029802 95.0
4.51599979401 2.23200011253 0.0769999995828 94.0
4.44299983978 2.16199994087 0.0750000029802 88.0
4.46500015259 2.13899993896 0.0759999975562 99.0
4.47300004959 2.1099998951 0.0759999975562 106.0
4.49399995804 2.08599996567 0.0759999975562 106.0
4.33900022507 1.98199999332 0.0729999989271 123.0
4.3860001564 1.97200000286 0.0740000009537 130.0
4.48099994659 1.98199999332 0.0759999975562 119.0
4.55399990082 1.98199999332 0.0769999995828 116.0
4.52799987793 1.93799996376 0.0759999975562 114.0
4.53299999237 1.90799999237 0.0759999975562 124.0
4.47900009155 1.85300004482 0.0750000029802 137.0
4.47700023651 1.82099997997 0.0750000029802 139.0
4.4889998436 1.79499995708 0.0759999975562 134.0
4.51300001144 1.77300000191 0.0759999975562 130.0
4.52199983597 1.74500000477 0.0759999975562 127.0
4.52199983597 1.71399998665 0.0759999975562 134.0
4.52799987793 1.68599998951 0.0759999975562 128.0
4.58099985123 1.6740000248 0.0769999995828 127.0
4.57299995422 1.64100003242 0.0769999995828 125.0
4.5560002327 1.60399997234 0.0769999995828 127.0
4.58199977875 1.58299994469 0.0769999995828 128.0
4.5689997673 1.54799997807 0.0769999995828 117.0
4.59700012207 1.52699995041 0.0769999995828 120.0
4.58199977875 1.49199998379 0.0769999995828 124.0
4.61800003052 1.47399997711 0.0780000016093 116.0
4.62200021744 1.44500005245 0.0780000016093 114.0
4.61600017548 1.41400003433 0.0780000016093 121.0
4.64499998093 1.39300000668 0.0780000016093 115.0
4.64900016785 1.36399996281 0.0780000016093 111.0
4.62300014496 1.32700002193 0.0780000016093 114.0
4.60699987411 1.29299998283 0.0780000016093 117.0
4.625 1.26900005341 0.0780000016093 115.0
4.57899999619 1.22800004482 0.0769999995828 112.0
4.64499998093 1.2159999609 0.0780000016093 105.0
0.0359999984503 0.00999999977648 0.0 88.0
0.193000003695 0.0489999987185 0.00200000009499 72.0
0.123999997973 0.0309999994934 0.0 67.0
0.120999999344 0.0289999991655 0.0 62.0
0.104000002146 0.0240000002086 0.0 58.0
0.162000000477 0.0370000004768 0.0010000000475 57.0
0.0860000029206 0.0189999993891 0.0 61.0
0.0630000010133 0.0140000004321 0.0 63.0
0.123000003397 0.0260000005364 0.0 56.0
0.0799999982119 0.0170000009239 0.0 59.0
0.135000005364 0.0270000007004 0.0010000000475 55.0
0.175999999046 0.0340000018477 0.0010000000475 58.0
0.0839999988675 0.01600000076 0.0 56.0
0.225999996066 0.0410000011325 0.00200000009499 57.0
0.179000005126 0.0309999994934 0.0010000000475 56.0
0.179000005126 0.0299999993294 0.0010000000475 65.0
0.142000004649 0.0230000000447 0.0010000000475 62.0
0.165000006557 0.0260000005364 0.0010000000475 57.0
0.222000002861 0.0340000018477 0.00200000009499 61.0
0.282000005245 0.0410000011325 0.00300000002608 58.0
0.137999996543 0.019999999553 0.0010000000475 64.0
0.259000003338 0.0340000018477 0.00300000002608 59.0
0.148000001907 0.0189999993891 0.0010000000475 55.0
0.211999997497 0.0260000005364 0.00200000009499 63.0
0.202999994159 0.0240000002086 0.00200000009499 57.0
0.171000003815 0.0189999993891 0.0010000000475 62.0
0.194999992847 0.0209999997169 0.00200000009499 55.0
0.158000007272 0.01600000076 0.0010000000475 57.0
0.158999994397 0.0149999996647 0.0010000000475 55.0
0.17499999702 0.01600000076 0.0010000000475 53.0
0.188999995589 0.01600000076 0.00200000009499 50.0
0.300000011921 0.0230000000447 0.00400000018999 47.0
0.16099999845 0.0120000001043 0.0010000000475 50.0
0.301999986172 -0.00400000018999 0.00400000018999 55.0
0.986000001431 -0.0240000002086 0.01600000076 709.0
0.987999975681 -0.0299999993294 0.01600000076 783.0
0.842000007629 -0.0299999993294 0.0140000004321 204.0
0.800999999046 -0.0329999998212 0.0130000002682 178.0
0.794000029564 -0.0370000004768 0.0130000002682 175.0
0.804000020027 -0.0419999994338 0.0130000002682 181.0
0.800000011921 -0.0469999983907 0.0130000002682 179.0
0.796000003815 -0.0509999990463 0.0130000002682 186.0
0.809000015259 -0.0560000017285 0.0130000002682 192.0
0.832000017166 -0.0630000010133 0.0140000004321 187.0
0.782999992371 -0.0640000030398 0.0130000002682 183.0
0.805999994278 -0.070000000298 0.0130000002682 186.0
0.82800000906 -0.0769999995828 0.0140000004321 186.0
0.79699999094 -0.0780000016093 0.0130000002682 188.0
0.802999973297 -0.0839999988675 0.0130000002682 194.0
0.935000002384 -0.103000000119 0.01600000076 430.0
0.98299998045 -0.115000002086 0.0170000009239 1184.0
0.978999972343 -0.119999997318 0.0170000009239 1270.0
0.98299998045 -0.126000002027 0.0170000009239 1275.0
0.976999998093 -0.130999997258 0.0170000009239 1280.0
0.972000002861 -0.136000007391 0.0170000009239 1295.0
0.973999977112 -0.142000004649 0.0170000009239 1312.0
0.975000023842 -0.148000001907 0.0170000009239 1319.0
0.975000023842 -0.153999999166 0.0170000009239 1328.0
0.972000002861 -0.158999994397 0.0170000009239 1335.0
0.971000015736 -0.165000006557 0.0170000009239 1338.0
0.967000007629 -0.170000001788 0.0170000009239 1351.0
0.971000015736 -0.175999999046 0.0170000009239 1349.0
0.962999999523 -0.180000007153 0.0170000009239 1355.0
0.959999978542 -0.186000004411 0.0170000009239 1332.0
0.907000005245 -0.180000007153 0.01600000076 517.0
0.825999975204 -0.168999999762 0.0140000004321 216.0
0.800000011921 -0.167999997735 0.0140000004321 223.0
0.792999982834 -0.172000005841 0.0140000004321 219.0
0.805000007153 -0.179000005126 0.0140000004321 222.0
0.773000001907 -0.177000001073 0.0130000002682 219.0
0.802999973297 -0.188999995589 0.0140000004321 224.0
0.76599997282 -0.184000000358 0.0130000002682 227.0
0.795000016689 -0.196999996901 0.0140000004321 216.0
0.769999980927 -0.194999992847 0.0130000002682 226.0
0.776000022888 -0.201000005007 0.0140000004321 230.0
0.785000026226 -0.208000004292 0.0140000004321 228.0
0.797999978065 -0.216999992728 0.0140000004321 228.0
0.783999979496 -0.217999994755 0.0140000004321 225.0
0.912000000477 -0.259999990463 0.01600000076 671.0
0.947000026703 -0.275999993086 0.0170000009239 1395.0
0.941999971867 -0.280999988317 0.0170000009239 1452.0
0.940999984741 -0.286000013351 0.0170000009239 1469.0
0.933000028133 -0.289999991655 0.0170000009239 1486.0
0.93900001049 -0.298000007868 0.0170000009239 1483.0
0.935000002384 -0.303000003099 0.0170000009239 1478.0
0.930000007153 -0.307000011206 0.0170000009239 1498.0
0.930999994278 -0.31400001049 0.0170000009239 1498.0
0.929000020027 -0.319000005722 0.0170000009239 1493.0
0.925999999046 -0.324000000954 0.0170000009239 1484.0
0.925999999046 -0.330000013113 0.0170000009239 1489.0
0.922999978065 -0.335000008345 0.0170000009239 1505.0
0.925000011921 -0.342000007629 0.0179999992251 1497.0
0.917999982834 -0.345999985933 0.0170000009239 1170.0
0.823000013828 -0.314999997616 0.0149999996647 337.0
0.745999991894 -0.289999991655 0.0140000004321 240.0
0.736999988556 -0.291999995708 0.0140000004321 246.0
0.713999986649 -0.287999987602 0.0130000002682 242.0
0.730000019073 -0.300000011921 0.0140000004321 246.0
0.71899998188 -0.300000011921 0.0140000004321 248.0
0.742999970913 -0.314999997616 0.0140000004321 256.0
0.731000006199 -0.314999997616 0.0140000004321 260.0
0.73299998045 -0.321000009775 0.0140000004321 271.0
0.716000020504 -0.319000005722 0.0140000004321 271.0
0.712000012398 -0.321999996901 0.0140000004321 275.0
0.746999979019 -0.344000011683 0.0149999996647 281.0
0.73400002718 -0.342999994755 0.0140000004321 297.0
0.871999979019 -0.416000008583 0.0170000009239 952.0
0.89099997282 -0.430999994278 0.0179999992251 1427.0
0.888999998569 -0.437000006437 0.0179999992251 1451.0
0.888000011444 -0.442999988794 0.0179999992251 1445.0
0.889999985695 -0.451000005007 0.0179999992251 1442.0
0.884000003338 -0.455000013113 0.0179999992251 1418.0
0.875999987125 -0.458000004292 0.0179999992251 1414.0
0.879999995232 -0.467000007629 0.0179999992251 1398.0
0.873000025749 -0.469999998808 0.0179999992251 1390.0
0.865000009537 -0.472999989986 0.0179999992251 1367.0
0.865999996662 -0.479999989271 0.0179999992251 1365.0
4.36600017548 2.5039999485 0.0460000000894 120.0
4.35699987411 2.46399998665 0.0460000000894 94.0
4.33699989319 2.41599988937 0.0460000000894 101.0
4.37400007248 2.40199995041 0.0469999983907 102.0
4.36100006104 2.35899996758 0.0460000000894 112.0
4.40100002289 2.34599995613 0.0469999983907 113.0
4.41699981689 2.31999993324 0.0469999983907 113.0
4.34299993515 2.24699997902 0.0460000000894 98.0
4.33900022507 2.21099996567 0.0460000000894 95.0
4.44500017166 2.23099994659 0.0469999983907 108.0
4.47700023651 2.21300005913 0.0480000004172 104.0
4.22900009155 2.05800008774 0.0450000017881 100.0
4.37200021744 2.09400010109 0.0469999983907 96.0
4.4279999733 2.08800005913 0.0469999983907 111.0
4.38100004196 2.03299999237 0.0469999983907 119.0
4.31599998474 1.97099995613 0.0460000000894 136.0
4.3189997673 1.94099998474 0.0460000000894 136.0
4.44899988174 1.96700000763 0.0469999983907 125.0
4.53499984741 1.97300004959 0.0480000004172 123.0
4.54899978638 1.94599997997 0.0489999987185 119.0
4.51000022888 1.89800000191 0.0480000004172 127.0
4.42999982834 1.83299994469 0.0469999983907 149.0
4.4359998703 1.80400002003 0.0469999983907 152.0
4.46000003815 1.78299999237 0.0480000004172 141.0
4.46899986267 1.75499999523 0.0480000004172 141.0
4.45599985123 1.71899998188 0.0480000004172 137.0
4.4889998436 1.7009999752 0.0480000004172 137.0
