ply
format ascii 1.0
element vertex 901
property float x
property float y
property float z
property float intensity
end_header
0.949999988079 -0.241999998689 -0.0489999987185 159.0
0.943000018597 -0.246000006795 -0.0489999987185 164.0
0.95300000906 -0.254999995232 -0.0500000007451 154.0
0.95300000906 -0.261000007391 -0.0500000007451 157.0
0.948000013828 -0.264999985695 -0.0489999987185 152.0
0.976000010967 -0.279000014067 -0.0509999990463 150.0
0.962999999523 -0.282000005245 -0.0500000007451 151.0
0.945999979973 -0.282999992371 -0.0489999987185 146.0
0.93900001049 -0.286000013351 -0.0489999987185 147.0
0.93900001049 -0.293000012636 -0.0489999987185 144.0
0.919000029564 -0.291999995708 -0.0480000004172 142.0
0.930999994278 -0.301999986172 -0.0489999987185 141.0
0.949999988079 -0.314999997616 -0.0500000007451 144.0
0.927999973297 -0.312999993563 -0.0489999987185 141.0
0.926999986172 -0.319000005722 -0.0489999987185 136.0
0.929000020027 -0.326000005007 -0.0489999987185 140.0
0.959999978542 -0.344000011683 -0.0509999990463 137.0
0.953999996185 -0.347999989986 -0.0500000007451 130.0
0.934000015259 -0.345999985933 -0.0489999987185 132.0
0.925999999046 -0.34999999404 -0.0489999987185 127.0
0.93599998951 -0.360000014305 -0.0500000007451 125.0
0.938000023365 -0.36700001359 -0.0500000007451 121.0
0.919000029564 -0.365999996662 -0.0489999987185 134.0
0.941999971867 -0.381999999285 -0.0500000007451 127.0
0.936999976635 -0.386999994516 -0.0500000007451 127.0
0.962000012398 -0.404000014067 -0.0509999990463 129.0
0.922999978065 -0.393999993801 -0.0489999987185 121.0
0.938000023365 -0.407000005245 -0.0500000007451 124.0
0.947000026703 -0.416999995708 -0.0509999990463 115.0
0.915000021458 -0.409999996424 -0.0489999987185 115.0
0.922999978065 -0.421000003815 -0.0500000007451 119.0
0.907000005245 -0.419999986887 -0.0489999987185 117.0
0.93599998951 -0.439999997616 -0.0509999990463 107.0
0.920000016689 -0.43900001049 -0.0500000007451 105.0
0.907000005245 -0.439999997616 -0.0489999987185 110.0
0.929000020027 -0.458000004292 -0.0509999990463 106.0
0.922999978065 -0.462000012398 -0.0500000007451 105.0
0.907000005245 -0.460000008345 -0.0500000007451 112.0
0.954999983311 -0.493000000715 -0.0520000010729 112.0
0.916999995708 -0.479999989271 -0.0500000007451 101.0
0.888000011444 -0.472000002861 -0.0489999987185 102.0
0.902000010014 -0.486000001431 -0.0500000007451 103.0
0.944000005722 -0.51700001955 -0.0520000010729 96.0
0.925000011921 -0.513999998569 -0.0509999990463 94.0
0.934000015259 0.535000026226 -0.0630000010133 1018.0
0.920000016689 0.519999980927 -0.0619999989867 999.0
0.925999999046 0.514999985695 -0.0619999989867 970.0
0.934000015259 0.512000024319 -0.0630000010133 927.0
0.933000028133 0.504999995232 -0.0619999989867 913.0
0.941999971867 0.501999974251 -0.0630000010133 934.0
0.936999976635 0.49200001359 -0.0619999989867 898.0
0.929000020027 0.479999989271 -0.0610000006855 847.0
0.943000018597 0.479999989271 -0.0619999989867 856.0
0.935000002384 0.469000011683 -0.0610000006855 809.0
0.93900001049 0.463999986649 -0.0610000006855 766.0
0.93599998951 0.455000013113 -0.0610000006855 735.0
0.93900001049 0.449000000954 -0.0610000006855 717.0
0.947000026703 0.446999996901 -0.0610000006855 659.0
0.941999971867 0.437000006437 -0.0610000006855 596.0
0.933000028133 0.425999999046 -0.0599999986589 551.0
0.936999976635 0.421000003815 -0.0599999986589 506.0
0.935000002384 0.41400000453 -0.0599999986589 462.0
0.941999971867 0.409999996424 -0.0599999986589 416.0
0.924000024796 0.395000010729 -0.0590000003576 401.0
0.917999982834 0.386000007391 -0.0579999983311 358.0
0.915000021458 0.379000008106 -0.0579999983311 310.0
0.894999980927 0.363999992609 -0.0570000000298 268.0
0.903999984264 0.361000001431 -0.0570000000298 304.0
0.879000008106 0.344999998808 -0.054999999702 266.0
0.92199999094 0.356000006199 -0.0579999983311 324.0
0.893000006676 0.331999987364 -0.0560000017285 238.0
0.583999991417 0.212999999523 -0.0370000004768 91.0
0.684000015259 0.245000004768 -0.0430000014603 103.0
0.266000002623 0.0939999967813 -0.0170000009239 68.0
0.138999998569 0.0480000004172 -0.00899999961257 55.0
0.0170000009239 0.00600000005215 -0.0010000000475 50.0
0.0630000010133 0.0209999997169 -0.00400000018999 51.0
4.46099996567 1.45299994946 -0.273000001907 54.0
4.12099981308 1.31500005722 -0.252000004053 77.0
4.46799993515 1.31099998951 -0.270999997854 56.0
2.40000009537 -0.0500000007451 -0.136999994516 124.0
2.37299990654 -0.0630000010133 -0.136000007391 215.0
2.40300011635 -0.0780000016093 -0.136999994516 99.0
2.30599999428 -0.0879999995232 -0.131999999285 216.0
2.30399990082 -0.101000003517 -0.131999999285 176.0
0.985000014305 -0.0529999993742 -0.0560000017285 108.0
0.980000019073 -0.0579999983311 -0.0560000017285 143.0
0.987999975681 -0.0640000030398 -0.0570000000298 143.0
0.972999989986 -0.0689999982715 -0.0560000017285 147.0
0.978999972343 -0.0750000029802 -0.0560000017285 146.0
0.96899998188 -0.0799999982119 -0.054999999702 148.0
0.967999994755 -0.0850000008941 -0.054999999702 151.0
0.98400002718 -0.0920000001788 -0.0560000017285 151.0
0.986000001431 -0.097999997437 -0.0560000017285 160.0
0.967000007629 -0.101999998093 -0.054999999702 152.0
0.991999983788 -0.111000001431 -0.0570000000298 153.0
0.967000007629 -0.112999998033 -0.054999999702 153.0
0.971000015736 -0.119000002742 -0.0560000017285 162.0
0.972000002861 -0.125 -0.0560000017285 164.0
0.973999977112 -0.130999997258 -0.0560000017285 159.0
0.97000002861 -0.136000007391 -0.0560000017285 157.0
0.987999975681 -0.144999995828 -0.0570000000298 162.0
0.964999973774 -0.146999999881 -0.054999999702 162.0
0.961000025272 -0.151999995112 -0.054999999702 166.0
0.962999999523 -0.158000007272 -0.054999999702 175.0
0.949000000954 -0.16099999845 -0.0540000014007 174.0
0.953999996185 -0.167999997735 -0.054999999702 167.0
0.949000000954 -0.172999992967 -0.0540000014007 166.0
0.944000005722 -0.177000001073 -0.0540000014007 165.0
0.958999991417 -0.186000004411 -0.054999999702 168.0
0.958000004292 -0.190999999642 -0.054999999702 163.0
0.97000002861 -0.20000000298 -0.0560000017285 167.0
0.948000013828 -0.201000005007 -0.054999999702 174.0
0.944000005722 -0.206000000238 -0.0540000014007 170.0
0.944999992847 -0.211999997497 -0.0540000014007 166.0
0.948000013828 -0.217999994755 -0.054999999702 159.0
0.975000023842 -0.231000006199 -0.0560000017285 159.0
0.936999976635 -0.226999998093 -0.0540000014007 158.0
0.967000007629 -0.240999996662 -0.0560000017285 161.0
0.949999988079 -0.241999998689 -0.054999999702 156.0
0.93599998951 -0.244000002742 -0.0540000014007 158.0
0.950999975204 -0.254000008106 -0.054999999702 158.0
0.938000023365 -0.256999999285 -0.0540000014007 153.0
0.952000021935 -0.266999989748 -0.054999999702 155.0
0.926999986172 -0.264999985695 -0.0540000014007 151.0
0.93900001049 -0.27500000596 -0.054999999702 151.0
0.967999994755 -0.28900000453 -0.0560000017285 152.0
0.940999984741 -0.287000000477 -0.054999999702 144.0
0.935000002384 -0.291000008583 -0.0540000014007 147.0
0.927999973297 -0.294999986887 -0.0540000014007 150.0
0.912999987602 -0.296000003815 -0.0529999993742 143.0
0.929000020027 -0.307999998331 -0.0540000014007 145.0
0.939999997616 -0.317999988794 -0.054999999702 146.0
0.944000005722 -0.324999988079 -0.054999999702 139.0
0.93599998951 -0.32800000906 -0.054999999702 137.0
0.925999999046 -0.331000000238 -0.0540000014007 135.0
0.949000000954 -0.345999985933 -0.0560000017285 139.0
0.920000016689 -0.340999990702 -0.0540000014007 136.0
0.912999987602 -0.344999998808 -0.0540000014007 126.0
0.948000013828 -0.365000009537 -0.0560000017285 140.0
0.940999984741 -0.368000000715 -0.0560000017285 130.0
0.953999996185 -0.379999995232 -0.0570000000298 123.0
0.957000017166 -0.388000011444 -0.0570000000298 126.0
0.939999997616 -0.388000011444 -0.0560000017285 123.0
0.924000024796 -0.388000011444 -0.054999999702 123.0
0.962000012398 -0.411000013351 -0.0570000000298 123.0
0.922999978065 -0.40000000596 -0.054999999702 124.0
0.893000006676 -0.393999993801 -0.0529999993742 118.0
0.936999976635 -0.419999986887 -0.0560000017285 123.0
0.916000008583 -0.416999995708 -0.054999999702 116.0
0.90600001812 -0.418999999762 -0.054999999702 115.0
0.873000025749 -0.411000013351 -0.0529999993742 108.0
0.920000016689 -0.43900001049 -0.0560000017285 114.0
0.947000026703 -0.460000008345 -0.0570000000298 107.0
0.93599998951 -0.46099999547 -0.0570000000298 106.0
0.898999989033 -0.449999988079 -0.054999999702 105.0
0.899999976158 -0.456999987364 -0.054999999702 105.0
0.943000018597 -0.486999988556 -0.0579999983311 102.0
0.907000005245 -0.47499999404 -0.0560000017285 105.0
0.930000007153 -0.495000004768 -0.0570000000298 100.0
0.888999998569 -0.479999989271 -0.054999999702 103.0
0.899999976158 -0.493000000715 -0.0560000017285 99.0
0.929000020027 -0.51599997282 -0.0570000000298 88.0
0.920000016689 0.527000010014 -0.0680000036955 1180.0
0.920000016689 0.519999980927 -0.0680000036955 1191.0
0.925999999046 0.51599997282 -0.0680000036955 1209.0
0.926999986172 0.509000003338 -0.0680000036955 1206.0
0.927999973297 0.501999974251 -0.0680000036955 1220.0
0.930000007153 0.495999991894 -0.0680000036955 1257.0
0.924000024796 0.485000014305 -0.0670000016689 1244.0
0.929000020027 0.479999989271 -0.0670000016689 1267.0
0.930999994278 0.474000006914 -0.0670000016689 1270.0
0.931999981403 0.467999994755 -0.0670000016689 1253.0
0.934000015259 0.462000012398 -0.0670000016689 1240.0
0.935000002384 0.455000013113 -0.0670000016689 1238.0
0.941999971867 0.451000005007 -0.0670000016689 1220.0
0.93900001049 0.442999988794 -0.0670000016689 1229.0
0.938000023365 0.435000002384 -0.0670000016689 1183.0
0.948000013828 0.432999998331 -0.0670000016689 1182.0
0.949000000954 0.426999986172 -0.0670000016689 1177.0
0.941999971867 0.416999995708 -0.0659999996424 1158.0
0.959999978542 0.418000012636 -0.0670000016689 1158.0
0.949000000954 0.405999988317 -0.0659999996424 1145.0
0.953999996185 0.400999993086 -0.0670000016689 1120.0
0.957000017166 0.395999997854 -0.0670000016689 1107.0
0.955999970436 0.388999998569 -0.0659999996424 1063.0
0.962000012398 0.384000003338 -0.0670000016689 1055.0
0.958000004292 0.375999987125 -0.0659999996424 1048.0
0.972999989986 0.375999987125 -0.0670000016689 1038.0
0.962000012398 0.365000009537 -0.0659999996424 1004.0
0.958000004292 0.356999993324 -0.0659999996424 963.0
0.967000007629 0.352999985218 -0.0659999996424 921.0
0.97000002861 0.347999989986 -0.0659999996424 907.0
0.976999998093 0.344000011683 -0.0670000016689 880.0
0.972999989986 0.33599999547 -0.0659999996424 845.0
0.963999986649 0.326999992132 -0.0649999976158 786.0
0.973999977112 0.324000000954 -0.0659999996424 752.0
0.973999977112 0.317000001669 -0.0659999996424 718.0
0.972999989986 0.31099998951 -0.0659999996424 661.0
0.978999972343 0.305999994278 -0.0659999996424 623.0
0.981000006199 0.300999999046 -0.0659999996424 576.0
0.977999985218 0.293000012636 -0.0659999996424 522.0
0.976999998093 0.287000000477 -0.0649999976158 488.0
0.976999998093 0.280999988317 -0.0649999976158 446.0
0.964999973774 0.270999997854 -0.0640000030398 410.0
0.97000002861 0.266000002623 -0.0649999976158 370.0
0.967000007629 0.259999990463 -0.0640000030398 333.0
0.959999978542 0.252000004053 -0.0640000030398 304.0
0.944999992847 0.241999998689 -0.0630000010133 275.0
0.941999971867 0.234999999404 -0.0619999989867 236.0
0.944000005722 0.230000004172 -0.0619999989867 212.0
0.939999997616 0.223000004888 -0.0619999989867 230.0
0.972000002861 0.22499999404 -0.0640000030398 277.0
0.952000021935 0.21400000155 -0.0619999989867 241.0
0.955999970436 0.209999993443 -0.0630000010133 207.0
0.916000008583 0.194999992847 -0.0599999986589 176.0
0.875999987125 0.180999994278 -0.0570000000298 154.0
0.887000024319 0.178000003099 -0.0579999983311 128.0
0.833000004292 0.162000000477 -0.0540000014007 117.0
0.838999986649 0.158999994397 -0.054999999702 95.0
0.802999973297 0.146999999881 -0.0520000010729 80.0
0.707000017166 0.125 -0.0460000000894 72.0
0.512000024319 0.0879999995232 -0.0329999998212 52.0
0.503000020981 0.0839999988675 -0.0329999998212 50.0
2.40000009537 -0.0500000007451 -0.150999993086 123.0
2.38499999046 -0.0630000010133 -0.15000000596 210.0
2.41599988937 -0.0780000016093 -0.151999995112 91.0
2.31299996376 -0.0879999995232 -0.145999997854 226.0
2.32100009918 -0.101999998093 -0.145999997854 177.0
0.994000017643 -0.0529999993742 -0.0630000010133 119.0
0.977999985218 -0.0579999983311 -0.0619999989867 142.0
0.996999979019 -0.0649999976158 -0.0630000010133 145.0
0.98400002718 -0.070000000298 -0.0619999989867 140.0
0.992999970913 -0.0759999975562 -0.0630000010133 146.0
0.976999998093 -0.0799999982119 -0.0619999989867 147.0
0.976999998093 -0.0860000029206 -0.0619999989867 151.0
0.980000019073 -0.0920000001788 -0.0619999989867 147.0
0.977999985218 -0.097999997437 -0.0619999989867 152.0
0.96899998188 -0.101999998093 -0.0610000006855 151.0
0.944000005722 -0.104999996722 -0.0590000003576 154.0
0.981999993324 -0.115000002086 -0.0619999989867 157.0
0.977999985218 -0.119999997318 -0.0619999989867 154.0
0.954999983311 -0.123000003397 -0.0599999986589 159.0
0.961000025272 -0.128999993205 -0.0610000006855 160.0
0.949999988079 -0.133000001311 -0.0599999986589 158.0
0.945999979973 -0.138999998569 -0.0599999986589 168.0
0.971000015736 -0.148000001907 -0.0610000006855 158.0
0.945999979973 -0.15000000596 -0.0599999986589 168.0
0.971000015736 -0.158999994397 -0.0610000006855 173.0
0.975000023842 -0.165999993682 -0.0619999989867 176.0
0.963999986649 -0.170000001788 -0.0610000006855 169.0
0.992999970913 -0.180999994278 -0.0630000010133 163.0
0.958999991417 -0.180000007153 -0.0610000006855 163.0
0.964999973774 -0.187000006437 -0.0610000006855 165.0
0.949999988079 -0.189999997616 -0.0599999986589 168.0
0.940999984741 -0.194000005722 -0.0599999986589 170.0
0.964999973774 -0.204999998212 -0.0610000006855 176.0
0.952000021935 -0.208000004292 -0.0599999986589 165.0
0.947000026703 -0.211999997497 -0.0599999986589 167.0
0.952000021935 -0.218999996781 -0.0599999986589 162.0
0.95300000906 -0.22499999404 -0.0610000006855 161.0
0.952000021935 -0.231000006199 -0.0610000006855 160.0
0.947000026703 -0.236000001431 -0.0599999986589 155.0
0.958999991417 -0.244000002742 -0.0610000006855 156.0
0.93900001049 -0.245000004768 -0.0599999986589 162.0
0.945999979973 -0.252999991179 -0.0599999986589 155.0
0.949000000954 -0.259999990463 -0.0610000006855 151.0
0.975000023842 -0.273000001907 -0.0619999989867 151.0
0.953999996185 -0.273000001907 -0.0610000006855 150.0
0.949999988079 -0.277999997139 -0.0610000006855 154.0
0.934000015259 -0.279000014067 -0.0599999986589 154.0
0.949000000954 -0.289999991655 -0.0610000006855 143.0
0.944000005722 -0.293999999762 -0.0610000006855 146.0
0.941999971867 -0.300000011921 -0.0610000006855 142.0
0.961000025272 -0.312000006437 -0.0619999989867 140.0
0.952000021935 -0.314999997616 -0.0610000006855 136.0
0.940999984741 -0.317999988794 -0.0610000006855 135.0
0.922999978065 -0.317999988794 -0.0599999986589 138.0
0.934000015259 -0.32800000906 -0.0599999986589 135.0
0.912999987602 -0.326999992132 -0.0590000003576 137.0
0.921000003815 -0.33599999547 -0.0599999986589 132.0
0.935000002384 -0.347000002861 -0.0610000006855 131.0
0.912000000477 -0.344999998808 -0.0590000003576 134.0
0.902999997139 -0.347999989986 -0.0590000003576 128.0
0.926999986172 -0.363000005484 -0.0610000006855 128.0
0.938000023365 -0.374000012875 -0.0610000006855 126.0
0.917999982834 -0.372999995947 -0.0599999986589 124.0
0.940999984741 -0.388000011444 -0.0619999989867 119.0
0.957000017166 -0.402000010014 -0.0630000010133 122.0
0.927999973297 -0.395999997854 -0.0610000006855 126.0
0.930000007153 -0.404000014067 -0.0610000006855 121.0
0.944000005722 -0.416999995708 -0.0619999989867 115.0
0.911000013351 -0.407999992371 -0.0599999986589 115.0
0.917999982834 -0.418999999762 -0.0610000006855 113.0
0.901000022888 -0.416999995708 -0.0599999986589 111.0
0.916999995708 -0.432000011206 -0.0610000006855 121.0
0.912999987602 -0.43599998951 -0.0610000006855 107.0
0.944999992847 -0.458999991417 -0.0630000010133 113.0
0.916000008583 -0.451999992132 -0.0610000006855 110.0
0.933000028133 -0.467000007629 -0.0630000010133 104.0
0.908999979496 -0.462000012398 -0.0610000006855 103.0
0.922999978065 -0.476000010967 -0.0619999989867 101.0
0.902999997139 -0.472999989986 -0.0610000006855 107.0
0.952000021935 -0.507000029087 -0.0649999976158 103.0
0.898999989033 -0.486000001431 -0.0610000006855 108.0
0.90499997139 -0.495999991894 -0.0619999989867 96.0
0.939999997616 -0.523000001907 -0.0640000030398 104.0
0.931999981403 0.535000026226 -0.0750000029802 935.0
0.924000024796 0.522000014782 -0.0740000009537 970.0
0.924000024796 0.514999985695 -0.0740000009537 1008.0
0.921000003815 0.505999982357 -0.0740000009537 1038.0
0.922999978065 0.499000012875 -0.0729999989271 1074.0
0.935000002384 0.497999995947 -0.0740000009537 1108.0
0.933000028133 0.490000009537 -0.0740000009537 1139.0
0.930999994278 0.481999993324 -0.0729999989271 1186.0
0.926999986172 0.472999989986 -0.0729999989271 1201.0
0.933000028133 0.467999994755 -0.0729999989271 1227.0
0.941999971867 0.465999990702 -0.0740000009537 1237.0
0.943000018597 0.458999991417 -0.0729999989271 1257.0
0.93599998951 0.448000013828 -0.0729999989271 1275.0
0.93900001049 0.442999988794 -0.0729999989271 1304.0
0.941999971867 0.437000006437 -0.0729999989271 1300.0
0.944000005722 0.430999994278 -0.0729999989271 1309.0
0.943000018597 0.423999994993 -0.0719999969006 1335.0
0.948000013828 0.418999999762 -0.0729999989271 1371.0
0.947000026703 0.412000000477 -0.0719999969006 1347.0
0.947000026703 0.405000001192 -0.0719999969006 1350.0
0.947000026703 0.398000001907 -0.0719999969006 1353.0
0.949000000954 0.393000006676 -0.0719999969006 1390.0
0.950999975204 0.386999994516 -0.0719999969006 1382.0
0.95300000906 0.381000012159 -0.0719999969006 1418.0
0.959999978542 0.377000004053 -0.0719999969006 1455.0
0.955999970436 0.368999987841 -0.0719999969006 1468.0
0.959999978542 0.363999992609 -0.0719999969006 1456.0
0.953999996185 0.354999989271 -0.0710000023246 1457.0
0.963999986649 0.352999985218 -0.0719999969006 1445.0
0.967000007629 0.347000002861 -0.0719999969006 1468.0
0.97000002861 0.342000007629 -0.0719999969006 1480.0
0.972000002861 0.33599999547 -0.0719999969006 1481.0
0.96899998188 0.328999996185 -0.0719999969006 1480.0
0.96899998188 0.321999996901 -0.0710000023246 1493.0
0.972000002861 0.317000001669 -0.0710000023246 1465.0
0.976999998093 0.312000006437 -0.0719999969006 1461.0
0.976999998093 0.305999994278 -0.0719999969006 1452.0
0.978999972343 0.300000011921 -0.0719999969006 1445.0
0.980000019073 0.293999999762 -0.0719999969006 1441.0
0.980000019073 0.287999987602 -0.0710000023246 1420.0
0.98299998045 0.282999992371 -0.0710000023246 1412.0
0.987999975681 0.277999997139 -0.0719999969006 1407.0
0.992999970913 0.273000001907 -0.0719999969006 1377.0
0.986999988556 0.264999985695 -0.0710000023246 1314.0
0.992999970913 0.259999990463 -0.0719999969006 1277.0
0.992999970913 0.254000008106 -0.0719999969006 1254.0
0.990000009537 0.24699999392 -0.0710000023246 1199.0
0.994000017643 0.241999998689 -0.0710000023246 1155.0
1.0 0.238000005484 -0.0719999969006 1113.0
0.995000004768 0.230000004172 -0.0710000023246 1060.0
1.0039999485 0.225999996066 -0.0719999969006 1031.0
1.0 0.218999996781 -0.0710000023246 981.0
1.00300002098 0.21400000155 -0.0719999969006 928.0
1.00999999046 0.209000006318 -0.0719999969006 870.0
1.00600004196 0.202000007033 -0.0719999969006 822.0
1.00699996948 0.195999994874 -0.0719999969006 784.0
1.01199996471 0.190999999642 -0.0719999969006 733.0
1.0039999485 0.184000000358 -0.0710000023246 701.0
1.01499998569 0.180000007153 -0.0719999969006 642.0
1.01699995995 0.173999994993 -0.0719999969006 593.0
1.01699995995 0.167999997735 -0.0719999969006 547.0
1.01300001144 0.16099999845 -0.0710000023246 506.0
1.00499999523 0.153999999166 -0.0710000023246 465.0
1.01600003242 0.15000000596 -0.0710000023246 433.0
1.02400004864 0.144999995828 -0.0719999969006 393.0
1.03199994564 0.140000000596 -0.0719999969006 352.0
1.04799997807 0.136000007391 -0.0729999989271 319.0
1.0720000267 0.133000001311 -0.0750000029802 290.0
1.05999994278 0.125 -0.0740000009537 259.0
1.04100000858 0.116999998689 -0.0729999989271 236.0
1.06200003624 0.112999998033 -0.0740000009537 221.0
1.06400001049 0.107000000775 -0.0740000009537 243.0
1.05799996853 0.0939999967813 -0.0740000009537 266.0
1.0720000267 0.0890000015497 -0.0750000029802 245.0
1.23599994183 0.0599999986589 -0.0860000029206 88.0
2.39299988747 -0.0500000007451 -0.165000006557 135.0
2.367000103 -0.0630000010133 -0.163000002503 206.0
2.382999897 -0.0769999995828 -0.16400000453 100.0
2.3220000267 -0.0879999995232 -0.159999996424 221.0
2.32100009918 -0.101999998093 -0.158999994397 167.0
0.995000004768 -0.0529999993742 -0.0689999982715 124.0
0.97000002861 -0.0579999983311 -0.0670000016689 142.0
1.00100004673 -0.0649999976158 -0.0689999982715 142.0
0.972999989986 -0.0689999982715 -0.0670000016689 143.0
0.978999972343 -0.0750000029802 -0.0670000016689 151.0
0.953999996185 -0.0790000036359 -0.0659999996424 150.0
0.972999989986 -0.0860000029206 -0.0670000016689 157.0
0.985000014305 -0.0930000022054 -0.0680000036955 152.0
0.959999978542 -0.0960000008345 -0.0659999996424 148.0
0.966000020504 -0.101999998093 -0.0659999996424 151.0
0.966000020504 -0.108000002801 -0.0659999996424 158.0
0.990999996662 -0.115999996662 -0.0680000036955 162.0
0.97000002861 -0.119000002742 -0.0670000016689 158.0
0.990000009537 -0.12800000608 -0.0680000036955 155.0
0.962999999523 -0.129999995232 -0.0659999996424 153.0
0.991999983788 -0.140000000596 -0.0680000036955 156.0
0.973999977112 -0.143000006676 -0.0670000016689 165.0
0.980000019073 -0.15000000596 -0.0680000036955 152.0
0.971000015736 -0.153999999166 -0.0670000016689 160.0
0.939999997616 -0.153999999166 -0.0649999976158 162.0
0.98299998045 -0.166999995708 -0.0680000036955 166.0
0.962000012398 -0.168999999762 -0.0659999996424 161.0
0.941999971867 -0.171000003815 -0.0649999976158 165.0
0.95300000906 -0.179000005126 -0.0659999996424 167.0
0.958000004292 -0.186000004411 -0.0659999996424 167.0
0.953999996185 -0.190999999642 -0.0659999996424 163.0
0.958999991417 -0.197999998927 -0.0659999996424 163.0
0.971000015736 -0.206000000238 -0.0670000016689 169.0
0.936999976635 -0.203999996185 -0.0649999976158 166.0
0.96899998188 -0.216999992728 -0.0670000016689 167.0
0.971000015736 -0.224000006914 -0.0670000016689 163.0
0.954999983311 -0.225999996066 -0.0659999996424 163.0
0.947000026703 -0.230000004172 -0.0659999996424 157.0
0.941999971867 -0.233999997377 -0.0649999976158 157.0
0.966000020504 -0.246000006795 -0.0670000016689 152.0
0.927999973297 -0.241999998689 -0.0649999976158 151.0
0.959999978542 -0.256999999285 -0.0670000016689 155.0
0.935000002384 -0.256000012159 -0.0649999976158 153.0
0.93900001049 -0.263000011444 -0.0659999996424 156.0
0.930999994278 -0.266999989748 -0.0649999976158 154.0
0.938000023365 -0.273999989033 -0.0659999996424 153.0
0.930000007153 -0.277999997139 -0.0649999976158 152.0
0.949999988079 -0.289999991655 -0.0670000016689 144.0
0.936999976635 -0.291999995708 -0.0659999996424 146.0
0.93900001049 -0.298999994993 -0.0659999996424 144.0
0.93599998951 -0.303999990225 -0.0659999996424 138.0
0.952000021935 -0.316000014544 -0.0670000016689 133.0
0.948000013828 -0.321000009775 -0.0670000016689 140.0
0.930999994278 -0.321000009775 -0.0659999996424 137.0
0.938000023365 -0.328999996185 -0.0659999996424 140.0
0.941999971867 -0.337000012398 -0.0670000016689 134.0
0.954999983311 -0.347999989986 -0.0680000036955 133.0
0.925999999046 -0.344000011683 -0.0659999996424 131.0
0.92199999094 -0.349000006914 -0.0659999996424 132.0
0.963999986649 -0.372000008821 -0.0689999982715 133.0
0.958000004292 -0.375999987125 -0.0680000036955 122.0
0.933000028133 -0.372000008821 -0.0670000016689 124.0
0.913999974728 -0.370999991894 -0.0659999996424 121.0
0.929000020027 -0.38299998641 -0.0670000016689 121.0
0.953999996185 -0.400999993086 -0.0689999982715 120.0
0.943000018597 -0.402999997139 -0.0680000036955 121.0
0.930999994278 -0.404000014067 -0.0670000016689 118.0
0.90600001812 -0.40000000596 -0.0659999996424 115.0
0.925999999046 -0.416000008583 -0.0670000016689 118.0
0.917999982834 -0.418999999762 -0.0670000016689 117.0
0.954999983311 -0.442999988794 -0.0689999982715 124.0
0.884000003338 -0.416000008583 -0.0640000030398 110.0
0.943000018597 -0.451000005007 -0.0689999982715 106.0
0.935000002384 -0.453999996185 -0.0680000036955 106.0
0.912000000477 -0.449999988079 -0.0670000016689 110.0
0.899999976158 -0.451000005007 -0.0659999996424 111.0
0.911000013351 -0.462999999523 -0.0670000016689 109.0
0.921000003815 -0.47499999404 -0.0680000036955 102.0
0.911000013351 -0.476999998093 -0.0670000016689 105.0
0.927999973297 -0.493999987841 -0.0689999982715 100.0
0.910000026226 -0.49200001359 -0.0680000036955 95.0
0.930000007153 -0.509999990463 -0.0689999982715 102.0
0.916000008583 -0.509999990463 -0.0689999982715 96.0
0.952000021935 0.546000003815 -0.082999996841 310.0
0.930999994278 0.527000010014 -0.0810000002384 349.0
0.916000008583 0.509999990463 -0.0790000036359 403.0
0.944000005722 0.518000006676 -0.082000002265 437.0
0.930999994278 0.504000008106 -0.0799999982119 492.0
0.938000023365 0.5 -0.0799999982119 545.0
0.941999971867 0.495000004768 -0.0810000002384 599.0
0.930999994278 0.481999993324 -0.0790000036359 651.0
0.931999981403 0.47499999404 -0.0790000036359 698.0
0.93900001049 0.470999985933 -0.0799999982119 740.0
0.929000020027 0.458999991417 -0.0780000016093 769.0
0.934000015259 0.455000013113 -0.0790000036359 796.0
0.935000002384 0.448000013828 -0.0790000036359 856.0
0.944999992847 0.446000009775 -0.0790000036359 901.0
0.93900001049 0.43599998951 -0.0780000016093 911.0
0.936999976635 0.428000003099 -0.0780000016093 926.0
0.95300000906 0.428999990225 -0.0790000036359 977.0
0.952000021935 0.421000003815 -0.0790000036359 1023.0
0.950999975204 0.41400000453 -0.0790000036359 1047.0
0.945999979973 0.405000001192 -0.0780000016093 1076.0
0.954999983311 0.402000010014 -0.0780000016093 1096.0
0.954999983311 0.395000010729 -0.0780000016093 1140.0
0.957000017166 0.388999998569 -0.0780000016093 1175.0
0.961000025272 0.384000003338 -0.0780000016093 1204.0
0.959999978542 0.377000004053 -0.0780000016093 1245.0
0.959999978542 0.370999991894 -0.0780000016093 1302.0
0.957000017166 0.363000005484 -0.0780000016093 1325.0
0.959999978542 0.358000010252 -0.0780000016093 1371.0
0.958999991417 0.351000010967 -0.0769999995828 1378.0
0.959999978542 0.344999998808 -0.0769999995828 1425.0
0.967000007629 0.340999990702 -0.0780000016093 1480.0
0.967999994755 0.333999991417 -0.0769999995828 1518.0
0.963999986649 0.326999992132 -0.0769999995828 1524.0
0.972000002861 0.323000013828 -0.0780000016093 1556.0
0.972000002861 0.317000001669 -0.0769999995828 1599.0
0.972999989986 0.31099998951 -0.0769999995828 1637.0
0.975000023842 0.305000007153 -0.0769999995828 1679.0
0.981000006199 0.300999999046 -0.0780000016093 1688.0
0.981999993324 0.294999986887 -0.0780000016093 1761.0
0.976000010967 0.287000000477 -0.0769999995828 1788.0
0.976000010967 0.280000001192 -0.0769999995828 1805.0
0.976999998093 0.27500000596 -0.0769999995828 1910.0
0.985000014305 0.270999997854 -0.0769999995828 1935.0
0.981999993324 0.263999998569 -0.0769999995828 1873.0
0.986000001431 0.259000003338 -0.0769999995828 1880.0
0.986999988556 0.252999991179 -0.0769999995828 1886.0
0.989000022411 0.24699999392 -0.0769999995828 1892.0
0.990999996662 0.240999996662 -0.0769999995828 1853.0
0.992999970913 0.236000001431 -0.0769999995828 1736.0
0.989000022411 0.229000002146 -0.0769999995828 1724.0
0.994000017643 0.224000006914 -0.0769999995828 1752.0
0.992999970913 0.217999994755 -0.0769999995828 1737.0
0.994000017643 0.211999997497 -0.0769999995828 1676.0
0.999000012875 0.207000002265 -0.0769999995828 1631.0
1.00600004196 0.202000007033 -0.0769999995828 1591.0
1.00300002098 0.195999994874 -0.0769999995828 1560.0
1.00499999523 0.189999997616 -0.0769999995828 1506.0
1.00600004196 0.184000000358 -0.0769999995828 1471.0
1.00899994373 0.179000005126 -0.0769999995828 1413.0
1.00899994373 0.172999992967 -0.0769999995828 1336.0
1.01600003242 0.167999997735 -0.0780000016093 1274.0
1.01400005817 0.16099999845 -0.0769999995828 1223.0
1.00699996948 0.153999999166 -0.0769999995828 1167.0
1.01699995995 0.15000000596 -0.0769999995828 1142.0
1.01699995995 0.143999993801 -0.0769999995828 1105.0
1.02400004864 0.138999998569 -0.0780000016093 1067.0
1.01600003242 0.131999999285 -0.0769999995828 1030.0
1.02100002766 0.126000002027 -0.0769999995828 1006.0
1.02600002289 0.120999999344 -0.0780000016093 974.0
1.03100001812 0.115999996662 -0.0780000016093 943.0
1.03499996662 0.109999999404 -0.0780000016093 897.0
1.03299999237 0.104000002146 -0.0780000016093 886.0
1.03699994087 0.097999997437 -0.0780000016093 848.0
1.04499995708 0.0930000022054 -0.0790000036359 821.0
1.04200005531 0.0869999974966 -0.0790000036359 781.0
1.03299999237 0.0799999982119 -0.0780000016093 739.0
1.04499995708 0.0750000029802 -0.0790000036359 714.0
1.04499995708 0.0689999982715 -0.0790000036359 686.0
1.03600001335 0.0619999989867 -0.0780000016093 662.0
1.05099999905 0.0570000000298 -0.0790000036359 618.0
1.04999995232 0.0509999990463 -0.0790000036359 542.0
1.08200001717 0.0460000000894 -0.0810000002384 245.0
2.41599988937 -0.0509999990463 -0.180000007153 144.0
2.38899993896 -0.0640000030398 -0.178000003099 201.0
2.36199998856 -0.0769999995828 -0.175999999046 102.0
2.30399990082 -0.0879999995232 -0.172000005841 229.0
2.27500009537 -0.10000000149 -0.170000001788 160.0
0.998000025749 -0.0540000014007 -0.0740000009537 123.0
0.986000001431 -0.0590000003576 -0.0740000009537 148.0
0.981999993324 -0.0640000030398 -0.0729999989271 144.0
0.98299998045 -0.070000000298 -0.0729999989271 149.0
1.00100004673 -0.0769999995828 -0.0750000029802 147.0
0.941999971867 -0.0780000016093 -0.070000000298 150.0
0.95300000906 -0.0839999988675 -0.0710000023246 154.0
0.972999989986 -0.0920000001788 -0.0729999989271 155.0
0.949000000954 -0.0949999988079 -0.0710000023246 153.0
0.973999977112 -0.103000000119 -0.0729999989271 155.0
0.972999989986 -0.108999997377 -0.0729999989271 160.0
0.98299998045 -0.115000002086 -0.0729999989271 166.0
0.958000004292 -0.118000000715 -0.0719999969006 151.0
0.962999999523 -0.123999997973 -0.0719999969006 157.0
0.949000000954 -0.12800000608 -0.0710000023246 161.0
0.978999972343 -0.137999996543 -0.0729999989271 159.0
0.954999983311 -0.140000000596 -0.0710000023246 163.0
0.947000026703 -0.143999993801 -0.0710000023246 161.0
0.98400002718 -0.156000003219 -0.0740000009537 162.0
0.967000007629 -0.158999994397 -0.0719999969006 160.0
0.955999970436 -0.163000002503 -0.0719999969006 163.0
0.935000002384 -0.165000006557 -0.070000000298 175.0
0.959999978542 -0.17499999702 -0.0719999969006 171.0
0.947000026703 -0.178000003099 -0.0710000023246 165.0
0.961000025272 -0.187000006437 -0.0719999969006 174.0
0.949999988079 -0.189999997616 -0.0710000023246 167.0
0.966000020504 -0.199000000954 -0.0729999989271 162.0
0.971000015736 -0.206000000238 -0.0729999989271 163.0
0.93900001049 -0.204999998212 -0.0710000023246 173.0
0.926999986172 -0.208000004292 -0.070000000298 172.0
0.962000012398 -0.222000002861 -0.0719999969006 167.0
0.958999991417 -0.226999998093 -0.0719999969006 168.0
0.953999996185 -0.231999993324 -0.0719999969006 156.0
0.938000023365 -0.233999997377 -0.0710000023246 156.0
0.96899998188 -0.24699999392 -0.0729999989271 159.0
0.955999970436 -0.25 -0.0719999969006 155.0
0.944999992847 -0.252999991179 -0.0719999969006 155.0
0.966000020504 -0.264999985695 -0.0729999989271 156.0
0.953999996185 -0.266999989748 -0.0719999969006 152.0
0.938000023365 -0.268999993801 -0.0710000023246 151.0
0.948000013828 -0.277999997139 -0.0719999969006 153.0
0.908999979496 -0.272000014782 -0.0689999982715 147.0
0.97000002861 -0.29699999094 -0.0740000009537 140.0
0.947000026703 -0.296000003815 -0.0719999969006 149.0
0.930000007153 -0.296000003815 -0.0710000023246 147.0
0.93900001049 -0.305000007153 -0.0719999969006 145.0
0.930999994278 -0.308999985456 -0.0710000023246 141.0
0.935000002384 -0.316000014544 -0.0719999969006 138.0
0.907999992371 -0.312999993563 -0.070000000298 138.0
0.935000002384 -0.328999996185 -0.0719999969006 140.0
0.949999988079 -0.340000003576 -0.0729999989271 138.0
0.963999986649 -0.351999998093 -0.0740000009537 136.0
0.912000000477 -0.338999986649 -0.070000000298 136.0
0.950999975204 -0.360000014305 -0.0740000009537 135.0
0.944000005722 -0.363999992609 -0.0729999989271 129.0
0.961000025272 -0.377000004053 -0.0750000029802 123.0
0.921000003815 -0.368000000715 -0.0719999969006 123.0
0.948000013828 -0.384999990463 -0.0740000009537 119.0
0.92199999094 -0.381000012159 -0.0719999969006 120.0
0.927999973297 -0.389999985695 -0.0729999989271 123.0
0.917999982834 -0.391999989748 -0.0719999969006 125.0
0.924000024796 -0.402000010014 -0.0719999969006 119.0
0.898999989033 -0.397000014782 -0.0710000023246 122.0
0.919000029564 -0.412000000477 -0.0719999969006 120.0
0.916999995708 -0.418000012636 -0.0719999969006 116.0
0.930999994278 -0.432000011206 -0.0740000009537 112.0
0.902000010014 -0.425000011921 -0.0710000023246 111.0
0.916000008583 -0.437999993563 -0.0729999989271 110.0
0.888000011444 -0.432000011206 -0.0710000023246 105.0
0.912999987602 -0.451000005007 -0.0729999989271 102.0
0.949999988079 -0.476000010967 -0.0759999975562 105.0
0.911000013351 -0.463999986649 -0.0729999989271 101.0
0.898000001907 -0.463999986649 -0.0719999969006 103.0
0.930000007153 -0.488000005484 -0.0750000029802 99.0
0.884000003338 -0.470999985933 -0.0710000023246 100.0
0.916999995708 -0.495000004768 -0.0740000009537 104.0
0.922999978065 -0.505999982357 -0.0750000029802 93.0
0.935000002384 -0.521000027657 -0.0759999975562 94.0
3.05800008774 1.68299996853 -0.284000009298 78.0
0.727999985218 0.370999991894 -0.0670000016689 94.0
0.848999977112 0.425999999046 -0.0769999995828 109.0
0.606999993324 0.300000011921 -0.054999999702 85.0
0.871999979019 0.418000012636 -0.0790000036359 249.0
0.907999992371 0.428000003099 -0.082000002265 290.0
0.925000011921 0.423000007868 -0.082999996841 390.0
0.883000016212 0.397000014782 -0.0790000036359 253.0
0.903999984264 0.40000000596 -0.0810000002384 301.0
0.917999982834 0.40000000596 -0.082000002265 339.0
0.934000015259 0.40000000596 -0.082999996841 365.0
0.931999981403 0.393000006676 -0.082000002265 400.0
0.944999992847 0.391000002623 -0.082999996841 444.0
0.950999975204 0.386999994516 -0.0839999988675 494.0
0.941999971867 0.377000004053 -0.082999996841 553.0
0.958999991417 0.377000004053 -0.0839999988675 602.0
0.959999978542 0.370999991894 -0.0839999988675 663.0
0.953999996185 0.361999988556 -0.082999996841 702.0
0.963999986649 0.358999997377 -0.0839999988675 737.0
0.962999999523 0.351999998093 -0.082999996841 781.0
0.963999986649 0.345999985933 -0.082999996841 824.0
0.967000007629 0.340999990702 -0.082999996841 878.0
0.972000002861 0.33599999547 -0.0839999988675 932.0
0.967000007629 0.32800000906 -0.082999996841 948.0
0.971000015736 0.323000013828 -0.082999996841 983.0
0.976000010967 0.317999988794 -0.0839999988675 1044.0
0.976999998093 0.312000006437 -0.0839999988675 1065.0
0.977999985218 0.305999994278 -0.082999996841 1117.0
0.978999972343 0.300000011921 -0.082999996841 1152.0
0.975000023842 0.293000012636 -0.082999996841 1194.0
0.981000006199 0.287999987602 -0.082999996841 1253.0
0.986000001431 0.282999992371 -0.082999996841 1275.0
0.980000019073 0.275999993086 -0.082999996841 1326.0
0.986000001431 0.270999997854 -0.082999996841 1365.0
0.987999975681 0.264999985695 -0.082999996841 1354.0
0.985000014305 0.259000003338 -0.082999996841 1408.0
0.990000009537 0.254000008106 -0.082999996841 1448.0
0.987999975681 0.24699999392 -0.082999996841 1466.0
0.990999996662 0.241999998689 -0.082999996841 1489.0
0.994000017643 0.236000001431 -0.082999996841 1465.0
0.990000009537 0.229000002146 -0.082999996841 1484.0
0.995000004768 0.224000006914 -0.082999996841 1529.0
0.995999991894 0.217999994755 -0.082999996841 1570.0
1.0 0.212999999523 -0.082999996841 1584.0
0.999000012875 0.207000002265 -0.082999996841 1559.0
1.00199997425 0.201000005007 -0.082999996841 1549.0
1.00199997425 0.194999992847 -0.082999996841 1549.0
1.00300002098 0.189999997616 -0.082999996841 1559.0
1.00800001621 0.185000002384 -0.082999996841 1532.0
1.0039999485 0.178000003099 -0.082999996841 1530.0
1.00699996948 0.172000005841 -0.082999996841 1432.0
1.01199996471 0.166999995708 -0.082999996841 1420.0
1.01199996471 0.16099999845 -0.082999996841 1418.0
1.01400005817 0.156000003219 -0.082999996841 1335.0
1.01499998569 0.15000000596 -0.082999996841 1290.0
1.01600003242 0.143999993801 -0.082999996841 1274.0
1.01699995995 0.137999996543 -0.082999996841 1204.0
1.01699995995 0.131999999285 -0.082999996841 1208.0
1.01900005341 0.126000002027 -0.082999996841 1216.0
1.01800000668 0.119999997318 -0.082999996841 1182.0
1.01999998093 0.11400000006 -0.082999996841 1211.0
1.02400004864 0.108999997377 -0.082999996841 1206.0
1.02499997616 0.103000000119 -0.082999996841 1218.0
1.02699995041 0.097000002861 -0.0839999988675 1186.0
1.03100001812 0.0920000001788 -0.0839999988675 1171.0
1.03199994564 0.0860000029206 -0.0839999988675 1117.0
1.03299999237 0.0799999982119 -0.0839999988675 1081.0
1.02999997139 0.0740000009537 -0.0839999988675 1064.0
1.03900003433 0.0680000036955 -0.0839999988675 1041.0
1.03299999237 0.0619999989867 -0.0839999988675 1048.0
1.0379999876 0.0560000017285 -0.0839999988675 1030.0
1.04200005531 0.0509999990463 -0.0839999988675 938.0
1.07500004768 0.0460000000894 -0.0869999974966 269.0
2.38700008392 -0.0500000007451 -0.192000001669 153.0
2.39299988747 -0.0640000030398 -0.192000001669 202.0
2.37599992752 -0.0769999995828 -0.190999999642 102.0
2.3029999733 -0.0879999995232 -0.185000002384 218.0
2.29099988937 -0.101000003517 -0.184000000358 153.0
0.957000017166 -0.0509999990463 -0.0769999995828 129.0
0.971000015736 -0.0579999983311 -0.0780000016093 146.0
0.959999978542 -0.0630000010133 -0.0769999995828 147.0
0.961000025272 -0.0680000036955 -0.0769999995828 147.0
0.977999985218 -0.0750000029802 -0.0790000036359 147.0
0.976000010967 -0.0810000002384 -0.0780000016093 155.0
0.98299998045 -0.0869999974966 -0.0790000036359 151.0
0.981000006199 -0.0920000001788 -0.0790000036359 150.0
0.994000017643 -0.0989999994636 -0.0799999982119 149.0
0.985000014305 -0.104000002146 -0.0790000036359 151.0
0.967000007629 -0.108000002801 -0.0780000016093 156.0
0.966000020504 -0.112999998033 -0.0780000016093 157.0
0.958000004292 -0.118000000715 -0.0769999995828 160.0
0.958000004292 -0.123999997973 -0.0769999995828 159.0
0.97000002861 -0.130999997258 -0.0780000016093 159.0
0.967000007629 -0.136000007391 -0.0780000016093 165.0
0.953999996185 -0.140000000596 -0.0769999995828 168.0
0.973999977112 -0.149000003934 -0.0790000036359 163.0
0.966000020504 -0.152999997139 -0.0780000016093 162.0
0.962000012398 -0.158000007272 -0.0780000016093 160.0
0.961000025272 -0.16400000453 -0.0780000016093 162.0
0.971000015736 -0.171000003815 -0.0780000016093 161.0
0.961000025272 -0.17499999702 -0.0780000016093 169.0
0.944000005722 -0.178000003099 -0.0759999975562 164.0
0.950999975204 -0.185000002384 -0.0769999995828 169.0
0.949999988079 -0.189999997616 -0.0769999995828 168.0
0.962000012398 -0.199000000954 -0.0780000016093 161.0
0.939999997616 -0.20000000298 -0.0759999975562 164.0
0.952000021935 -0.208000004292 -0.0769999995828 163.0
0.948000013828 -0.212999999523 -0.0769999995828 167.0
0.961000025272 -0.222000002861 -0.0780000016093 165.0
0.962000012398 -0.228000000119 -0.0780000016093 162.0
0.961000025272 -0.233999997377 -0.0780000016093 164.0
0.95300000906 -0.237000003457 -0.0780000016093 160.0
0.952000021935 -0.243000000715 -0.0780000016093 150.0
0.972999989986 -0.254999995232 -0.0790000036359 159.0
0.93900001049 -0.250999987125 -0.0769999995828 152.0
0.967000007629 -0.264999985695 -0.0790000036359 154.0
0.944999992847 -0.264999985695 -0.0769999995828 151.0
0.948000013828 -0.272000014782 -0.0780000016093 143.0
0.973999977112 -0.284999996424 -0.0799999982119 151.0
0.930999994278 -0.279000014067 -0.0759999975562 149.0
0.941999971867 -0.287999987602 -0.0769999995828 145.0
0.954999983311 -0.298000007868 -0.0790000036359 138.0
0.950999975204 -0.303000003099 -0.0780000016093 140.0
0.93599998951 -0.303999990225 -0.0769999995828 142.0
0.93900001049 -0.312000006437 -0.0780000016093 136.0
0.925999999046 -0.312999993563 -0.0769999995828 137.0
0.948000013828 -0.326999992132 -0.0790000036359 136.0
0.934000015259 -0.32800000906 -0.0769999995828 137.0
0.920000016689 -0.330000013113 -0.0759999975562 132.0
0.912999987602 -0.333000004292 -0.0759999975562 131.0
0.92199999094 -0.342999994755 -0.0769999995828 137.0
0.95300000906 -0.361000001431 -0.0790000036359 126.0
0.935000002384 -0.361000001431 -0.0780000016093 133.0
0.933000028133 -0.365999996662 -0.0780000016093 126.0
0.93900001049 -0.375 -0.0790000036359 128.0
0.96899998188 -0.393999993801 -0.0810000002384 119.0
0.89099997282 -0.368000000715 -0.0750000029802 118.0
0.95300000906 -0.400999993086 -0.0799999982119 117.0
0.931999981403 -0.398000001907 -0.0790000036359 114.0
0.90499997139 -0.393000006676 -0.0769999995828 121.0
0.949999988079 -0.419999986887 -0.0810000002384 114.0
0.953999996185 -0.428000003099 -0.0810000002384 115.0
0.953999996185 -0.43599998951 -0.0810000002384 118.0
0.916999995708 -0.425000011921 -0.0780000016093 111.0
0.90600001812 -0.426999986172 -0.0769999995828 113.0
0.901000022888 -0.430999994278 -0.0769999995828 109.0
0.931999981403 -0.45300000906 -0.0799999982119 112.0
0.939999997616 -0.463999986649 -0.0810000002384 105.0
0.897000014782 -0.449999988079 -0.0769999995828 105.0
0.924000024796 -0.470999985933 -0.0799999982119 106.0
0.889999985695 -0.460000008345 -0.0769999995828 107.0
0.893999993801 -0.469000011683 -0.0780000016093 100.0
0.90499997139 -0.481999993324 -0.0790000036359 103.0
0.931999981403 -0.504000008106 -0.0810000002384 96.0
0.901000022888 -0.495000004768 -0.0790000036359 100.0
0.934000015259 -0.521000027657 -0.082000002265 107.0
3.03800010681 1.67299997807 -0.301999986172 83.0
2.97799992561 1.61500000954 -0.294999986887 77.0
3.38599991798 1.78299999237 -0.333000004292 73.0
3.57899999619 1.85599994659 -0.351000010967 87.0
3.53999996185 1.78100001812 -0.344999998808 73.0
3.64400005341 1.80499994755 -0.354000002146 89.0
3.78299999237 1.84500002861 -0.365999996662 72.0
3.93600010872 1.88999998569 -0.379999995232 81.0
3.81900000572 1.80499994755 -0.368000000715 86.0
3.875 1.8029999733 -0.372000008821 81.0
3.8710000515 1.77300000191 -0.370999991894 77.0
3.83200001717 1.72599995136 -0.365999996662 71.0
4.007999897 1.77699995041 -0.381999999285 71.0
3.93000006676 1.71300005913 -0.372999995947 69.0
3.90799999237 1.67599999905 -0.370000004768 69.0
3.98200011253 1.67900002003 -0.375999987125 67.0
3.867000103 1.60300004482 -0.363999992609 81.0
3.90199995041 1.59000003338 -0.36700001359 78.0
3.88499999046 1.52900004387 -0.363000005484 66.0
3.93700003624 1.52199995518 -0.36700001359 66.0
4.38399982452 1.66499996185 -0.407999992371 46.0
0.286000013351 0.107000000775 -0.0270000007004 45.0
0.372000008821 0.136000007391 -0.035000000149 65.0
0.340000003576 0.122000001371 -0.0320000015199 67.0
0.592000007629 0.209000006318 -0.054999999702 78.0
0.690999984741 0.238999992609 -0.0640000030398 106.0
0.925000011921 0.31400001049 -0.0850000008941 259.0
0.962000012398 0.319999992847 -0.0879999995232 320.0
0.972000002861 0.317000001669 -0.0890000015497 368.0
0.958000004292 0.305999994278 -0.0879999995232 428.0
0.961000025272 0.300999999046 -0.0879999995232 355.0
0.940999984741 0.28900000453 -0.0860000029206 312.0
0.958999991417 0.287999987602 -0.0869999974966 353.0
0.962000012398 0.282999992371 -0.0869999974966 390.0
0.971000015736 0.279000014067 -0.0879999995232 426.0
0.96899998188 0.273000001907 -0.0879999995232 469.0
0.980000019073 0.268999993801 -0.0890000015497 515.0
0.986000001431 0.264999985695 -0.0890000015497 552.0
0.98400002718 0.25799998641 -0.0890000015497 583.0
0.990999996662 0.254000008106 -0.0890000015497 630.0
0.991999983788 0.247999995947 -0.0890000015497 662.0
0.998000025749 0.243000000715 -0.0890000015497 697.0
0.986000001431 0.233999997377 -0.0879999995232 733.0
0.998000025749 0.231000006199 -0.0890000015497 767.0
1.0 0.22499999404 -0.0890000015497 803.0
1.0 0.218999996781 -0.0890000015497 836.0
1.00499999523 0.21400000155 -0.0890000015497 873.0
1.00699996948 0.209000006318 -0.0900000035763 891.0
1.00300002098 0.202000007033 -0.0890000015497 902.0
1.01100003719 0.196999996901 -0.0900000035763 931.0
1.01400005817 0.192000001669 -0.0900000035763 921.0
1.00899994373 0.185000002384 -0.0890000015497 957.0
1.00199997425 0.178000003099 -0.0890000015497 956.0
1.00999999046 0.172999992967 -0.0890000015497 955.0
1.01499998569 0.167999997735 -0.0890000015497 975.0
1.01100003719 0.16099999845 -0.0890000015497 990.0
1.01800000668 0.156000003219 -0.0890000015497 1000.0
1.01900005341 0.15000000596 -0.0890000015497 906.0
1.02400004864 0.144999995828 -0.0900000035763 883.0
1.01100003719 0.136999994516 -0.0890000015497 842.0
1.01999998093 0.131999999285 -0.0890000015497 701.0
1.01699995995 0.126000002027 -0.0890000015497 730.0
1.02400004864 0.120999999344 -0.0900000035763 665.0
1.02600002289 0.115000002086 -0.0900000035763 888.0
1.02100002766 0.108999997377 -0.0890000015497 1034.0
1.02999997139 0.104000002146 -0.0900000035763 939.0
1.02900004387 0.097999997437 -0.0900000035763 1026.0
1.02900004387 0.0920000001788 -0.0900000035763 1052.0
1.0340000391 0.0860000029206 -0.0900000035763 1022.0
1.0379999876 0.0799999982119 -0.0900000035763 1006.0
1.03299999237 0.0740000009537 -0.0900000035763 979.0
1.03299999237 0.0680000036955 -0.0900000035763 975.0
1.04100000858 0.0630000010133 -0.0900000035763 975.0
1.03999996185 0.0570000000298 -0.0900000035763 986.0
1.04200005531 0.0509999990463 -0.0900000035763 918.0
1.09800004959 0.0469999983907 -0.0949999988079 249.0
2.39400005341 -0.0500000007451 -0.206000000238 155.0
2.36100006104 -0.0630000010133 -0.202999994159 202.0
2.37599992752 -0.0769999995828 -0.204999998212 100.0
2.29800009727 -0.0879999995232 -0.197999998927 221.0
2.27300000191 -0.10000000149 -0.195999994874 142.0
1.0759999752 -0.0520000010729 -0.0930000022054 62.0
1.00699996948 -0.0540000014007 -0.0869999974966 135.0
1.01100003719 -0.0599999986589 -0.0869999974966 142.0
0.959999978542 -0.0630000010133 -0.082999996841 151.0
0.97000002861 -0.0689999982715 -0.0839999988675 145.0
0.97000002861 -0.0750000029802 -0.0839999988675 145.0
0.972999989986 -0.0799999982119 -0.0839999988675 152.0
0.981999993324 -0.0869999974966 -0.0850000008941 150.0
0.963999986649 -0.0909999981523 -0.082999996841 148.0
0.98299998045 -0.097999997437 -0.0850000008941 151.0
0.981999993324 -0.104000002146 -0.0850000008941 154.0
1.00300002098 -0.112000003457 -0.0860000029206 160.0
0.962000012398 -0.112999998033 -0.082999996841 157.0
0.957000017166 -0.118000000715 -0.082999996841 156.0
0.980000019073 -0.127000004053 -0.0850000008941 157.0
0.959999978542 -0.129999995232 -0.082999996841 161.0
0.963999986649 -0.136000007391 -0.082999996841 165.0
0.949999988079 -0.138999998569 -0.082000002265 162.0
0.985000014305 -0.15000000596 -0.0850000008941 169.0
0.963999986649 -0.152999997139 -0.082999996841 160.0
0.958000004292 -0.158000007272 -0.082999996841 166.0
0.962000012398 -0.16400000453 -0.082999996841 160.0
0.976000010967 -0.172000005841 -0.0850000008941 169.0
0.962999999523 -0.175999999046 -0.082999996841 168.0
0.944000005722 -0.178000003099 -0.082000002265 167.0
0.96899998188 -0.187999993563 -0.0839999988675 162.0
0.959999978542 -0.192000001669 -0.082999996841 165.0
0.961000025272 -0.197999998927 -0.082999996841 164.0
0.934000015259 -0.197999998927 -0.0810000002384 168.0
0.940999984741 -0.206000000238 -0.082000002265 165.0
0.941999971867 -0.211999997497 -0.082000002265 165.0
0.944000005722 -0.217999994755 -0.082000002265 165.0
0.944000005722 -0.224000006914 -0.082000002265 162.0
0.949000000954 -0.231000006199 -0.082999996841 162.0
