ply
format ascii 1.0
element vertex 923
property float x
property float y
property float z
property float intensity
end_header
0.902999997139 -0.279000014067 0.180999994278 1386.0
0.898999989033 -0.282999992371 0.180000007153 1394.0
0.896000027657 -0.287999987602 0.180000007153 1364.0
0.902999997139 -0.296000003815 0.181999996305 1374.0
0.897000014782 -0.300000011921 0.180999994278 1374.0
0.89099997282 -0.303999990225 0.180000007153 1374.0
0.893000006676 -0.31099998951 0.180999994278 1358.0
0.89200001955 -0.317000001669 0.180999994278 1375.0
0.894999980927 -0.324000000954 0.181999996305 1385.0
0.893000006676 -0.328999996185 0.181999996305 1411.0
0.893000006676 -0.33599999547 0.181999996305 1392.0
0.893000006676 -0.340999990702 0.182999998331 1397.0
0.888999998569 -0.345999985933 0.181999996305 1412.0
0.893000006676 -0.354000002146 0.184000000358 1426.0
0.887000024319 -0.358000010252 0.182999998331 1393.0
0.882000029087 -0.361999988556 0.181999996305 1366.0
0.887000024319 -0.370999991894 0.184000000358 1346.0
0.888999998569 -0.377999991179 0.184000000358 1343.0
0.884999990463 -0.38299998641 0.184000000358 1338.0
0.885999977589 -0.389999985695 0.185000002384 1336.0
0.876999974251 -0.391999989748 0.182999998331 1341.0
0.882000029087 -0.400999993086 0.185000002384 1333.0
0.882000029087 -0.407000005245 0.185000002384 1317.0
0.888000011444 -0.416999995708 0.187000006437 1322.0
0.875 -0.416999995708 0.185000002384 1336.0
0.875999987125 -0.423999994993 0.186000004411 1356.0
0.880999982357 -0.432999998331 0.187000006437 1345.0
0.875 -0.437000006437 0.187000006437 1367.0
0.873000025749 -0.442999988794 0.187000006437 1338.0
0.874000012875 -0.449999988079 0.187000006437 1359.0
0.870999991894 -0.456000000238 0.187000006437 1378.0
0.875999987125 -0.465999990702 0.188999995589 1354.0
0.874000012875 -0.472000002861 0.188999995589 1359.0
0.875999987125 -0.479999989271 0.189999997616 1377.0
0.869000017643 -0.483000010252 0.188999995589 1366.0
0.867999970913 -0.490000009537 0.189999997616 1375.0
1.75499999523 1.02699995041 0.36700001359 150.0
2.01399993896 1.12800002098 0.418000012636 96.0
2.05500006676 1.13399994373 0.425000011921 202.0
2.06599998474 1.12300002575 0.425999999046 286.0
2.07399988174 1.11000001431 0.425999999046 286.0
2.07399988174 1.09399998188 0.425000011921 277.0
2.09299993515 1.0870000124 0.428000003099 220.0
2.05900001526 1.0529999733 0.419999986887 113.0
2.09800004959 1.05700004101 0.426999986172 128.0
2.19600009918 1.09000003338 0.446000009775 218.0
2.17499995232 1.06200003624 0.439999997616 204.0
2.21000003815 1.06200003624 0.446000009775 109.0
4.34800004959 1.24300003052 0.836000025272 64.0
4.27199983597 1.19400000572 0.819999992847 60.0
0.787000000477 0.180999994278 0.148000001907 85.0
0.925000011921 0.207000002265 0.173999994993 88.0
0.814999997616 0.177000001073 0.152999997139 98.0
0.873000025749 0.179000005126 0.163000002503 129.0
0.873000025749 0.173999994993 0.163000002503 145.0
0.806999981403 0.156000003219 0.150999993086 160.0
0.759999990463 0.142000004649 0.142000004649 169.0
0.773999989033 0.130999997258 0.143999993801 213.0
0.804000020027 0.130999997258 0.15000000596 236.0
0.825999975204 0.129999995232 0.153999999166 268.0
0.689999997616 0.104000002146 0.12800000608 157.0
0.776000022888 0.112000003457 0.143999993801 209.0
0.874000012875 0.120999999344 0.162000000477 227.0
0.898000001907 0.119000002742 0.166999995708 250.0
1.27199995518 0.16099999845 0.237000003457 61.0
0.936999976635 -0.0659999996424 0.173999994993 806.0
0.931999981403 -0.0710000023246 0.172999992967 1268.0
0.925999999046 -0.0759999975562 0.172000005841 1287.0
0.925999999046 -0.0810000002384 0.172000005841 1269.0
0.924000024796 -0.0869999974966 0.172000005841 1284.0
0.925999999046 -0.0920000001788 0.172999992967 1293.0
0.924000024796 -0.097000002861 0.172000005841 1271.0
0.930999994278 -0.104000002146 0.173999994993 1297.0
0.925000011921 -0.108000002801 0.172999992967 1305.0
0.921000003815 -0.112999998033 0.172000005841 1338.0
0.920000016689 -0.119000002742 0.172000005841 1333.0
0.924000024796 -0.125 0.172999992967 1305.0
0.924000024796 -0.129999995232 0.172999992967 1318.0
0.924000024796 -0.136000007391 0.172999992967 1327.0
0.919000029564 -0.141000002623 0.172999992967 1320.0
0.921000003815 -0.145999997854 0.172999992967 1313.0
0.919000029564 -0.151999995112 0.172999992967 1303.0
0.916999995708 -0.157000005245 0.172999992967 1329.0
0.916000008583 -0.162000000477 0.172999992967 1341.0
0.913999974728 -0.166999995708 0.172000005841 1344.0
0.916999995708 -0.172999992967 0.172999992967 1335.0
0.910000026226 -0.178000003099 0.172000005841 1316.0
0.912000000477 -0.182999998331 0.172999992967 1339.0
0.915000021458 -0.189999997616 0.172999992967 1343.0
0.912000000477 -0.194999992847 0.172999992967 1355.0
0.911000013351 -0.20000000298 0.172999992967 1347.0
0.910000026226 -0.204999998212 0.172999992967 1347.0
0.915000021458 -0.211999997497 0.173999994993 1335.0
0.908999979496 -0.216999992728 0.172999992967 1369.0
0.90600001812 -0.221000000834 0.172999992967 1373.0
0.907000005245 -0.226999998093 0.173999994993 1363.0
0.90499997139 -0.232999995351 0.172999992967 1374.0
0.902000010014 -0.238000005484 0.172999992967 1381.0
0.907000005245 -0.245000004768 0.173999994993 1353.0
0.902999997139 -0.248999997973 0.173999994993 1350.0
0.903999984264 -0.254999995232 0.173999994993 1367.0
0.902999997139 -0.261000007391 0.173999994993 1355.0
0.902999997139 -0.266999989748 0.17499999702 1338.0
0.898000001907 -0.270999997854 0.173999994993 1365.0
0.899999976158 -0.277000010014 0.17499999702 1380.0
0.902000010014 -0.284000009298 0.17499999702 1388.0
0.902000010014 -0.289999991655 0.175999999046 1375.0
0.898000001907 -0.293999999762 0.17499999702 1376.0
0.893999993801 -0.298999994993 0.17499999702 1404.0
0.897000014782 -0.305999994278 0.175999999046 1369.0
0.897000014782 -0.312000006437 0.175999999046 1362.0
0.893999993801 -0.317000001669 0.175999999046 1371.0
0.894999980927 -0.324000000954 0.175999999046 1376.0
0.897000014782 -0.330000013113 0.177000001073 1379.0
0.888999998569 -0.333999991417 0.175999999046 1372.0
0.89200001955 -0.340999990702 0.177000001073 1366.0
0.888999998569 -0.345999985933 0.177000001073 1386.0
0.89200001955 -0.352999985218 0.178000003099 1381.0
0.893000006676 -0.360000014305 0.178000003099 1413.0
0.883000016212 -0.361999988556 0.177000001073 1376.0
0.887000024319 -0.370000004768 0.178000003099 1371.0
0.883000016212 -0.375 0.178000003099 1357.0
0.888999998569 -0.384000003338 0.179000005126 1386.0
0.884999990463 -0.388999998569 0.179000005126 1355.0
0.885999977589 -0.395000010729 0.179000005126 1352.0
0.879000008106 -0.398999989033 0.179000005126 1366.0
0.880999982357 -0.405999988317 0.179000005126 1335.0
0.879999995232 -0.412999987602 0.180000007153 1371.0
0.883000016212 -0.421000003815 0.180999994278 1354.0
0.882000029087 -0.426999986172 0.180999994278 1388.0
0.882000029087 -0.432999998331 0.181999996305 1386.0
0.876999974251 -0.437999993563 0.180999994278 1397.0
0.879000008106 -0.446000009775 0.181999996305 1366.0
0.875 -0.449999988079 0.181999996305 1385.0
0.878000020981 -0.458999991417 0.182999998331 1397.0
0.874000012875 -0.463999986649 0.182999998331 1355.0
0.876999974251 -0.472999989986 0.184000000358 1346.0
0.874000012875 -0.477999985218 0.184000000358 1365.0
0.870999991894 -0.483999997377 0.184000000358 1354.0
0.870999991894 -0.490999996662 0.184000000358 1355.0
1.77199995518 1.03600001335 0.358000010252 152.0
1.88999998569 1.07299995422 0.379999995232 79.0
2.03600001335 1.13900005817 0.407999992371 149.0
2.06900000572 1.13999998569 0.41400000453 237.0
2.07999992371 1.12999999523 0.414999991655 236.0
2.09400010109 1.12000000477 0.416000008583 216.0
2.10100007057 1.10699999332 0.416999995708 193.0
2.07899999619 1.07899999619 0.411000013351 156.0
2.09699988365 1.0720000267 0.41400000453 85.0
2.13899993896 1.07700002193 0.421000003815 87.0
2.18899989128 1.08500003815 0.430000007153 152.0
0.879000008106 0.326999992132 0.165000006557 73.0
0.824000000954 0.273000001907 0.152999997139 179.0
0.829999983311 0.270000010729 0.153999999166 227.0
0.837000012398 0.266000002623 0.155000001192 249.0
0.856999993324 0.266999989748 0.158000007272 289.0
0.805999994278 0.240999996662 0.148000001907 209.0
0.782000005245 0.229000002146 0.143999993801 242.0
0.79699999094 0.228000000119 0.145999997854 273.0
0.81099998951 0.226999998093 0.149000003934 296.0
0.829999983311 0.226999998093 0.151999995112 306.0
0.855000019073 0.228000000119 0.156000003219 339.0
0.829999983311 0.216000005603 0.151999995112 360.0
0.865000009537 0.219999998808 0.158000007272 378.0
0.85900002718 0.212999999523 0.157000005245 420.0
0.865000009537 0.209000006318 0.158000007272 444.0
0.856999993324 0.202000007033 0.156000003219 470.0
0.862999975681 0.197999998927 0.157000005245 498.0
0.852999985218 0.189999997616 0.155000001192 508.0
0.862999975681 0.187000006437 0.157000005245 543.0
0.84500002861 0.178000003099 0.152999997139 575.0
0.851999998093 0.17499999702 0.153999999166 595.0
0.860000014305 0.171000003815 0.156000003219 620.0
0.852999985218 0.16400000453 0.153999999166 647.0
0.846000015736 0.158000007272 0.152999997139 669.0
0.856999993324 0.155000001192 0.155000001192 686.0
0.839999973774 0.146999999881 0.150999993086 689.0
0.848999977112 0.143000006676 0.152999997139 711.0
0.842000007629 0.136999994516 0.151999995112 725.0
0.851999998093 0.133000001311 0.152999997139 728.0
0.846000015736 0.127000004053 0.151999995112 741.0
0.851999998093 0.123000003397 0.152999997139 752.0
0.839999973774 0.115999996662 0.150999993086 688.0
0.893999993801 0.119000002742 0.16099999845 467.0
0.973999977112 0.123000003397 0.17499999702 102.0
0.949999988079 -0.0670000016689 0.171000003815 807.0
0.929000020027 -0.0710000023246 0.166999995708 1278.0
0.930999994278 -0.0759999975562 0.167999997735 1297.0
0.929000020027 -0.082000002265 0.166999995708 1259.0
0.925000011921 -0.0869999974966 0.166999995708 1273.0
0.927999973297 -0.0920000001788 0.167999997735 1282.0
0.916000008583 -0.0960000008345 0.165000006557 1273.0
0.924000024796 -0.103000000119 0.166999995708 1286.0
0.926999986172 -0.108999997377 0.167999997735 1308.0
0.924000024796 -0.11400000006 0.166999995708 1324.0
0.927999973297 -0.119999997318 0.167999997735 1341.0
0.919000029564 -0.123999997973 0.166999995708 1319.0
0.922999978065 -0.129999995232 0.166999995708 1330.0
0.916000008583 -0.134000003338 0.165999993682 1323.0
0.916000008583 -0.140000000596 0.165999993682 1318.0
0.919000029564 -0.145999997854 0.166999995708 1314.0
0.916999995708 -0.150999993086 0.166999995708 1301.0
0.912999987602 -0.156000003219 0.165999993682 1321.0
0.912000000477 -0.16099999845 0.165999993682 1353.0
0.917999982834 -0.167999997735 0.167999997735 1345.0
0.917999982834 -0.172999992967 0.167999997735 1353.0
0.915000021458 -0.178000003099 0.166999995708 1328.0
0.917999982834 -0.185000002384 0.167999997735 1341.0
0.910000026226 -0.187999993563 0.166999995708 1353.0
0.911000013351 -0.194000005722 0.166999995708 1354.0
0.907999992371 -0.199000000954 0.166999995708 1349.0
0.912999987602 -0.206000000238 0.167999997735 1346.0
0.907000005245 -0.209999993443 0.166999995708 1338.0
0.907000005245 -0.216000005603 0.166999995708 1362.0
0.908999979496 -0.222000002861 0.167999997735 1368.0
0.90600001812 -0.226999998093 0.167999997735 1379.0
0.90499997139 -0.231999993324 0.167999997735 1371.0
0.90600001812 -0.238000005484 0.167999997735 1355.0
0.907999992371 -0.244000002742 0.168999999762 1354.0
0.912999987602 -0.252000004053 0.170000001788 1364.0
0.907999992371 -0.256000012159 0.168999999762 1367.0
0.90600001812 -0.261000007391 0.168999999762 1371.0
0.901000022888 -0.266000002623 0.168999999762 1350.0
0.902000010014 -0.272000014782 0.168999999762 1359.0
0.901000022888 -0.277999997139 0.168999999762 1412.0
0.902999997139 -0.284000009298 0.170000001788 1401.0
0.898000001907 -0.287999987602 0.168999999762 1398.0
0.894999980927 -0.293000012636 0.168999999762 1392.0
0.897000014782 -0.300000011921 0.170000001788 1387.0
0.894999980927 -0.305000007153 0.170000001788 1391.0
0.894999980927 -0.31099998951 0.170000001788 1383.0
0.90499997139 -0.321000009775 0.172000005841 1389.0
0.888000011444 -0.321000009775 0.168999999762 1376.0
0.89099997282 -0.32800000906 0.170000001788 1413.0
0.89200001955 -0.333999991417 0.171000003815 1384.0
0.893000006676 -0.340999990702 0.171000003815 1370.0
0.893999993801 -0.347999989986 0.172000005841 1372.0
0.884999990463 -0.34999999404 0.171000003815 1381.0
0.883000016212 -0.356000006199 0.171000003815 1389.0
0.889999985695 -0.365000009537 0.172000005841 1415.0
0.885999977589 -0.370000004768 0.172000005841 1411.0
0.887000024319 -0.375999987125 0.172999992967 1400.0
0.879999995232 -0.379999995232 0.172000005841 1385.0
0.89099997282 -0.391000002623 0.173999994993 1376.0
0.887000024319 -0.395000010729 0.173999994993 1374.0
0.884000003338 -0.400999993086 0.173999994993 1378.0
0.880999982357 -0.405999988317 0.173999994993 1362.0
0.878000020981 -0.411000013351 0.173999994993 1383.0
0.878000020981 -0.418000012636 0.173999994993 1400.0
0.884000003338 -0.426999986172 0.175999999046 1423.0
0.873000025749 -0.428999990225 0.173999994993 1427.0
0.882000029087 -0.439999997616 0.175999999046 1424.0
0.873000025749 -0.442000001669 0.17499999702 1403.0
0.870000004768 -0.448000013828 0.17499999702 1438.0
0.871999979019 -0.455000013113 0.175999999046 1415.0
0.869000017643 -0.46099999547 0.175999999046 1364.0
0.870999991894 -0.469000011683 0.177000001073 1383.0
0.867999970913 -0.474000006914 0.177000001073 1400.0
0.869000017643 -0.481999993324 0.178000003099 1351.0
0.867999970913 -0.488000005484 0.178000003099 1375.0
1.97200000286 1.11800003052 0.38299998641 89.0
2.03699994087 1.13800001144 0.395000010729 131.0
2.10400009155 1.15799999237 0.407000005245 155.0
2.05999994278 1.11699998379 0.397000014782 157.0
2.117000103 1.13100004196 0.407000005245 152.0
2.06999993324 1.08899998665 0.397000014782 150.0
2.05800008774 1.06700003147 0.393000006676 111.0
1.99800002575 1.00499999523 0.379999995232 74.0
2.13100004196 1.05499994755 0.404000014067 128.0
2.07699990273 1.01199996471 0.393000006676 89.0
0.936999976635 0.435000002384 0.17499999702 115.0
0.907999992371 0.414999991655 0.168999999762 149.0
0.930000007153 0.418000012636 0.172000005841 174.0
0.902999997139 0.393000006676 0.166999995708 195.0
0.884000003338 0.377999991179 0.163000002503 183.0
0.922999978065 0.388000011444 0.170000001788 210.0
0.880999982357 0.363999992609 0.16099999845 236.0
0.878000020981 0.356000006199 0.16099999845 281.0
0.879000008106 0.351000010967 0.159999996424 300.0
0.874000012875 0.342999994755 0.158999994397 344.0
0.864000022411 0.333000004292 0.157000005245 369.0
0.861999988556 0.326000005007 0.156000003219 408.0
0.851000010967 0.316000014544 0.153999999166 446.0
0.856000006199 0.312000006437 0.155000001192 477.0
0.850000023842 0.303999990225 0.152999997139 509.0
0.85900002718 0.301999986172 0.155000001192 528.0
0.869000017643 0.298999994993 0.156000003219 567.0
0.85799998045 0.289999991655 0.153999999166 607.0
0.865999996662 0.287000000477 0.155000001192 629.0
0.852999985218 0.277000010014 0.152999997139 651.0
0.847999989986 0.270000010729 0.151999995112 677.0
0.856999993324 0.266999989748 0.152999997139 703.0
0.851000010967 0.259999990463 0.151999995112 721.0
0.855000019073 0.254999995232 0.151999995112 761.0
0.853999972343 0.248999997973 0.151999995112 785.0
0.855000019073 0.244000002742 0.151999995112 817.0
0.850000023842 0.237000003457 0.150999993086 829.0
0.856000006199 0.233999997377 0.150999993086 851.0
0.85799998045 0.229000002146 0.151999995112 877.0
0.836000025272 0.217999994755 0.148000001907 901.0
0.853999972343 0.216999992728 0.150999993086 911.0
0.850000023842 0.209999993443 0.15000000596 942.0
0.847000002861 0.203999996185 0.149000003934 970.0
0.84399998188 0.199000000954 0.148000001907 975.0
0.84500002861 0.194000005722 0.148000001907 990.0
0.84399998188 0.187999993563 0.148000001907 1015.0
0.84399998188 0.182999998331 0.148000001907 1023.0
0.846000015736 0.178000003099 0.148000001907 1036.0
0.850000023842 0.173999994993 0.149000003934 1046.0
0.846000015736 0.167999997735 0.148000001907 1062.0
0.838999986649 0.16099999845 0.146999999881 1073.0
0.850000023842 0.158000007272 0.148000001907 1085.0
0.841000020504 0.151999995112 0.146999999881 1086.0
0.84399998188 0.146999999881 0.146999999881 1088.0
0.847999989986 0.143000006676 0.148000001907 1100.0
0.842999994755 0.136999994516 0.146999999881 1120.0
0.848999977112 0.133000001311 0.148000001907 1116.0
0.839999973774 0.126000002027 0.145999997854 1142.0
0.84399998188 0.122000001371 0.146999999881 1125.0
0.838999986649 0.115999996662 0.145999997854 976.0
0.903999984264 0.119999997318 0.157000005245 492.0
0.939999997616 -0.0659999996424 0.16400000453 816.0
0.930999994278 -0.0710000023246 0.162000000477 1278.0
0.922999978065 -0.0759999975562 0.16099999845 1301.0
0.929000020027 -0.082000002265 0.162000000477 1272.0
0.924000024796 -0.0869999974966 0.16099999845 1289.0
0.925999999046 -0.0920000001788 0.162000000477 1290.0
0.927999973297 -0.097999997437 0.162000000477 1281.0
0.922999978065 -0.103000000119 0.16099999845 1285.0
0.92199999094 -0.108000002801 0.16099999845 1305.0
0.929000020027 -0.11400000006 0.162000000477 1331.0
0.917999982834 -0.118000000715 0.16099999845 1344.0
0.922999978065 -0.123999997973 0.162000000477 1343.0
0.921000003815 -0.129999995232 0.16099999845 1358.0
0.925000011921 -0.136000007391 0.162000000477 1335.0
0.92199999094 -0.141000002623 0.162000000477 1334.0
0.916999995708 -0.144999995828 0.16099999845 1334.0
0.913999974728 -0.15000000596 0.16099999845 1326.0
0.917999982834 -0.157000005245 0.162000000477 1335.0
0.917999982834 -0.162000000477 0.162000000477 1361.0
0.916999995708 -0.166999995708 0.162000000477 1356.0
0.916999995708 -0.172999992967 0.162000000477 1378.0
0.912999987602 -0.178000003099 0.162000000477 1339.0
0.917999982834 -0.184000000358 0.163000002503 1335.0
0.917999982834 -0.189999997616 0.163000002503 1349.0
0.910000026226 -0.194000005722 0.162000000477 1359.0
0.90600001812 -0.199000000954 0.16099999845 1347.0
0.916000008583 -0.206000000238 0.163000002503 1361.0
0.911000013351 -0.21099999547 0.162000000477 1367.0
0.90600001812 -0.215000003576 0.162000000477 1375.0
0.912000000477 -0.223000004888 0.163000002503 1377.0
0.907999992371 -0.226999998093 0.162000000477 1390.0
0.90600001812 -0.232999995351 0.163000002503 1384.0
0.911000013351 -0.238999992609 0.16400000453 1382.0
0.907999992371 -0.244000002742 0.163000002503 1385.0
0.902000010014 -0.247999995947 0.162000000477 1374.0
0.902000010014 -0.254000008106 0.163000002503 1368.0
0.899999976158 -0.259000003338 0.163000002503 1406.0
0.902999997139 -0.266000002623 0.163000002503 1373.0
0.902000010014 -0.272000014782 0.16400000453 1351.0
0.898000001907 -0.275999993086 0.163000002503 1388.0
0.902000010014 -0.282999992371 0.16400000453 1426.0
0.902999997139 -0.289999991655 0.165000006557 1382.0
0.901000022888 -0.294999986887 0.16400000453 1408.0
0.902000010014 -0.300999999046 0.165000006557 1399.0
0.89200001955 -0.303999990225 0.16400000453 1435.0
0.894999980927 -0.31099998951 0.16400000453 1423.0
0.893000006676 -0.316000014544 0.16400000453 1383.0
0.898000001907 -0.324000000954 0.165999993682 1400.0
0.89099997282 -0.326999992132 0.165000006557 1405.0
0.885999977589 -0.331999987364 0.16400000453 1420.0
0.889999985695 -0.340000003576 0.165000006557 1417.0
0.889999985695 -0.345999985933 0.165999993682 1389.0
0.884999990463 -0.34999999404 0.165000006557 1383.0
0.889999985695 -0.358000010252 0.165999993682 1393.0
0.884999990463 -0.361999988556 0.165999993682 1422.0
0.884999990463 -0.368999987841 0.165999993682 1442.0
0.884000003338 -0.374000012875 0.165999993682 1439.0
0.888000011444 -0.38299998641 0.167999997735 1409.0
0.879999995232 -0.386000007391 0.166999995708 1414.0
0.884000003338 -0.393999993801 0.167999997735 1413.0
0.888000011444 -0.402000010014 0.168999999762 1416.0
0.887000024319 -0.407999992371 0.168999999762 1367.0
0.883000016212 -0.412999987602 0.168999999762 1429.0
0.884000003338 -0.419999986887 0.168999999762 1461.0
0.878000020981 -0.423999994993 0.168999999762 1460.0
0.883000016212 -0.432999998331 0.170000001788 1443.0
0.876999974251 -0.437000006437 0.170000001788 1442.0
0.882000029087 -0.446999996901 0.171000003815 1448.0
0.875999987125 -0.449999988079 0.170000001788 1459.0
0.874000012875 -0.456000000238 0.170000001788 1440.0
0.865999996662 -0.458999991417 0.168999999762 1409.0
0.873000025749 -0.469000011683 0.171000003815 1399.0
0.864000022411 -0.470999985933 0.170000001788 1397.0
0.870999991894 -0.481999993324 0.172000005841 1378.0
0.867999970913 -0.488000005484 0.172000005841 1373.0
1.05900001526 0.598999977112 0.196999996901 85.0
1.0759999752 0.600000023842 0.20000000298 121.0
1.48899996281 0.818000018597 0.277000010014 113.0
1.52799999714 0.827000021935 0.282999992371 133.0
1.3789999485 0.736000001431 0.254999995232 150.0
1.23599994183 0.648999989033 0.228000000119 173.0
1.11000001431 0.574000000954 0.203999996185 195.0
0.961000025272 0.490000009537 0.175999999046 223.0
0.971000015736 0.486999988556 0.177000001073 260.0
0.962000012398 0.47499999404 0.17499999702 293.0
0.917999982834 0.446000009775 0.165999993682 341.0
0.888000011444 0.425000011921 0.159999996424 395.0
0.879999995232 0.414999991655 0.158000007272 444.0
0.873000025749 0.405000001192 0.157000005245 492.0
0.866999983788 0.395999997854 0.155000001192 548.0
0.875 0.393000006676 0.156000003219 591.0
0.861999988556 0.381000012159 0.153999999166 621.0
0.855000019073 0.370999991894 0.151999995112 642.0
0.85900002718 0.36700001359 0.152999997139 673.0
0.865000009537 0.363000005484 0.152999997139 698.0
0.855000019073 0.352999985218 0.150999993086 723.0
0.850000023842 0.344999998808 0.15000000596 756.0
0.867999970913 0.345999985933 0.152999997139 781.0
0.855000019073 0.335000008345 0.15000000596 815.0
0.846000015736 0.324999988079 0.148000001907 851.0
0.852999985218 0.321999996901 0.149000003934 866.0
0.85799998045 0.317999988794 0.15000000596 879.0
0.850000023842 0.310000002384 0.148000001907 913.0
0.851999998093 0.303999990225 0.148000001907 917.0
0.850000023842 0.298000007868 0.148000001907 926.0
0.847999989986 0.291999995708 0.146999999881 952.0
0.850000023842 0.287000000477 0.146999999881 978.0
0.855000019073 0.282999992371 0.148000001907 1012.0
0.846000015736 0.273999989033 0.145999997854 1027.0
0.850000023842 0.270000010729 0.146999999881 1048.0
0.846000015736 0.263000011444 0.145999997854 1079.0
0.852999985218 0.259999990463 0.146999999881 1087.0
0.842999994755 0.250999987125 0.144999995828 1101.0
0.852999985218 0.248999997973 0.145999997854 1136.0
0.850000023842 0.243000000715 0.145999997854 1151.0
0.847000002861 0.236000001431 0.144999995828 1154.0
0.84500002861 0.230000004172 0.143999993801 1170.0
0.838999986649 0.223000004888 0.143000006676 1182.0
0.84399998188 0.219999998808 0.143999993801 1220.0
0.837999999523 0.212999999523 0.143000006676 1215.0
0.84500002861 0.209000006318 0.143999993801 1209.0
0.839999973774 0.202999994159 0.143000006676 1228.0
0.84399998188 0.197999998927 0.143000006676 1236.0
0.842999994755 0.193000003695 0.143000006676 1252.0
0.847999989986 0.188999995589 0.143999993801 1254.0
0.842000007629 0.181999996305 0.143000006676 1273.0
0.842999994755 0.177000001073 0.142000004649 1289.0
0.848999977112 0.172999992967 0.143000006676 1296.0
0.842999994755 0.166999995708 0.142000004649 1303.0
0.842000007629 0.162000000477 0.142000004649 1297.0
0.839999973774 0.156000003219 0.142000004649 1332.0
0.84500002861 0.151999995112 0.142000004649 1357.0
0.84399998188 0.146999999881 0.142000004649 1361.0
0.837000012398 0.141000002623 0.141000002623 1374.0
0.84500002861 0.136999994516 0.142000004649 1388.0
0.842000007629 0.131999999285 0.141000002623 1397.0
0.842999994755 0.127000004053 0.141000002623 1407.0
0.846000015736 0.122000001371 0.142000004649 1405.0
0.842999994755 0.116999998689 0.141000002623 1138.0
0.903999984264 0.119999997318 0.151999995112 507.0
0.902999997139 0.11400000006 0.150999993086 245.0
0.941999971867 -0.0659999996424 0.158000007272 836.0
0.925000011921 -0.070000000298 0.155000001192 1277.0
0.925999999046 -0.0759999975562 0.156000003219 1306.0
0.927999973297 -0.0810000002384 0.156000003219 1282.0
0.929000020027 -0.0869999974966 0.156000003219 1314.0
0.926999986172 -0.0920000001788 0.156000003219 1316.0
0.929000020027 -0.097999997437 0.157000005245 1308.0
0.921000003815 -0.101999998093 0.155000001192 1276.0
0.926999986172 -0.108000002801 0.156000003219 1305.0
0.921000003815 -0.112999998033 0.156000003219 1326.0
0.919000029564 -0.118000000715 0.155000001192 1346.0
0.917999982834 -0.123999997973 0.155000001192 1358.0
0.919000029564 -0.128999993205 0.156000003219 1357.0
0.919000029564 -0.135000005364 0.156000003219 1346.0
0.919000029564 -0.140000000596 0.156000003219 1348.0
0.917999982834 -0.145999997854 0.156000003219 1364.0
0.912000000477 -0.15000000596 0.155000001192 1353.0
0.915000021458 -0.156000003219 0.156000003219 1336.0
0.911000013351 -0.16099999845 0.155000001192 1368.0
0.912000000477 -0.165999993682 0.156000003219 1363.0
0.912999987602 -0.172000005841 0.156000003219 1384.0
0.916999995708 -0.178000003099 0.157000005245 1338.0
0.910000026226 -0.182999998331 0.156000003219 1352.0
0.915000021458 -0.188999995589 0.157000005245 1358.0
0.907000005245 -0.193000003695 0.156000003219 1393.0
0.911000013351 -0.199000000954 0.156000003219 1374.0
0.910000026226 -0.204999998212 0.157000005245 1368.0
0.913999974728 -0.21099999547 0.157000005245 1387.0
0.908999979496 -0.216000005603 0.157000005245 1382.0
0.907999992371 -0.221000000834 0.157000005245 1387.0
0.907999992371 -0.226999998093 0.157000005245 1387.0
0.907000005245 -0.231999993324 0.157000005245 1393.0
0.90600001812 -0.238000005484 0.157000005245 1406.0
0.902000010014 -0.241999998689 0.157000005245 1400.0
0.899999976158 -0.247999995947 0.157000005245 1401.0
0.907000005245 -0.254999995232 0.158000007272 1381.0
0.898999989033 -0.259000003338 0.157000005245 1395.0
0.898999989033 -0.264999985695 0.157000005245 1403.0
0.898000001907 -0.270000010729 0.157000005245 1349.0
0.896000027657 -0.27500000596 0.157000005245 1362.0
0.898000001907 -0.282000005245 0.158000007272 1422.0
0.898000001907 -0.287999987602 0.158000007272 1409.0
0.893999993801 -0.291999995708 0.158000007272 1431.0
0.899999976158 -0.300000011921 0.158999994397 1447.0
0.896000027657 -0.305000007153 0.158999994397 1457.0
0.89099997282 -0.308999985456 0.158000007272 1454.0
0.894999980927 -0.317000001669 0.158999994397 1433.0
0.894999980927 -0.323000013828 0.158999994397 1468.0
0.89099997282 -0.326999992132 0.158999994397 1445.0
0.893000006676 -0.333999991417 0.159999996424 1448.0
0.893000006676 -0.340000003576 0.159999996424 1465.0
0.888000011444 -0.344000011683 0.158999994397 1444.0
0.893000006676 -0.352999985218 0.16099999845 1443.0
0.889999985695 -0.358000010252 0.16099999845 1476.0
0.888000011444 -0.363000005484 0.16099999845 1469.0
0.882000029087 -0.36700001359 0.159999996424 1465.0
0.888999998569 -0.375999987125 0.162000000477 1480.0
0.89099997282 -0.384000003338 0.162000000477 1464.0
0.884999990463 -0.388000011444 0.162000000477 1477.0
0.878000020981 -0.391000002623 0.16099999845 1471.0
0.879999995232 -0.398000001907 0.162000000477 1463.0
0.879999995232 -0.405000001192 0.162000000477 1412.0
0.879999995232 -0.411000013351 0.163000002503 1456.0
0.880999982357 -0.418000012636 0.163000002503 1474.0
0.880999982357 -0.425000011921 0.16400000453 1465.0
0.875999987125 -0.428999990225 0.163000002503 1479.0
0.883000016212 -0.43900001049 0.165000006557 1452.0
0.871999979019 -0.441000014544 0.163000002503 1470.0
0.871999979019 -0.448000013828 0.16400000453 1475.0
0.874000012875 -0.456000000238 0.165000006557 1463.0
0.871999979019 -0.46099999547 0.165000006557 1429.0
0.871999979019 -0.469000011683 0.165000006557 1412.0
0.875 -0.476999998093 0.165999993682 1394.0
0.870000004768 -0.481999993324 0.165999993682 1400.0
0.869000017643 -0.488000005484 0.165999993682 1400.0
0.926999986172 0.538999974728 0.166999995708 320.0
0.888999998569 0.509999990463 0.159999996424 346.0
0.888999998569 0.501999974251 0.158999994397 390.0
0.887000024319 0.493999987841 0.158000007272 445.0
0.876999974251 0.481000006199 0.156000003219 480.0
0.875999987125 0.474000006914 0.156000003219 531.0
0.889999985695 0.474000006914 0.158000007272 562.0
0.875 0.458999991417 0.155000001192 601.0
0.862999975681 0.446000009775 0.151999995112 634.0
0.862999975681 0.43900001049 0.151999995112 677.0
0.865999996662 0.433999985456 0.151999995112 719.0
0.85799998045 0.423000007868 0.15000000596 740.0
0.85900002718 0.416999995708 0.15000000596 776.0
0.856999993324 0.409999996424 0.149000003934 805.0
0.851999998093 0.400999993086 0.148000001907 829.0
0.850000023842 0.393999993801 0.146999999881 866.0
0.862999975681 0.393000006676 0.149000003934 872.0
0.852999985218 0.381999999285 0.146999999881 901.0
0.848999977112 0.375 0.145999997854 923.0
0.851000010967 0.368999987841 0.145999997854 967.0
0.856000006199 0.365000009537 0.145999997854 985.0
0.850000023842 0.356999993324 0.144999995828 1022.0
0.847999989986 0.34999999404 0.144999995828 1037.0
0.853999972343 0.345999985933 0.144999995828 1060.0
0.842000007629 0.335000008345 0.143000006676 1083.0
0.850000023842 0.333000004292 0.143999993801 1103.0
0.841000020504 0.323000013828 0.142000004649 1114.0
0.851999998093 0.321999996901 0.143999993801 1128.0
0.856999993324 0.317999988794 0.143999993801 1139.0
0.850000023842 0.308999985456 0.143000006676 1163.0
0.851000010967 0.303999990225 0.143000006676 1171.0
0.84500002861 0.296000003815 0.142000004649 1189.0
0.848999977112 0.291999995708 0.142000004649 1205.0
0.848999977112 0.286000013351 0.142000004649 1237.0
0.846000015736 0.280000001192 0.141000002623 1248.0
0.852999985218 0.275999993086 0.142000004649 1274.0
0.848999977112 0.268999993801 0.141000002623 1284.0
0.842000007629 0.261999994516 0.140000000596 1296.0
0.846000015736 0.25799998641 0.140000000596 1293.0
0.850000023842 0.252999991179 0.141000002623 1303.0
0.84500002861 0.246000006795 0.140000000596 1321.0
0.84399998188 0.240999996662 0.138999998569 1315.0
0.846000015736 0.236000001431 0.140000000596 1329.0
0.84399998188 0.230000004172 0.138999998569 1330.0
0.84500002861 0.22499999404 0.138999998569 1347.0
0.848999977112 0.221000000834 0.140000000596 1395.0
0.842999994755 0.21400000155 0.137999996543 1413.0
0.846000015736 0.209000006318 0.138999998569 1424.0
0.84399998188 0.202999994159 0.137999996543 1446.0
0.842999994755 0.197999998927 0.137999996543 1466.0
0.842000007629 0.193000003695 0.137999996543 1485.0
0.841000020504 0.187000006437 0.136999994516 1474.0
0.84500002861 0.182999998331 0.137999996543 1489.0
0.842000007629 0.177000001073 0.136999994516 1504.0
0.842999994755 0.172000005841 0.136999994516 1517.0
0.842999994755 0.166999995708 0.136999994516 1528.0
0.838999986649 0.16099999845 0.136000007391 1535.0
0.84399998188 0.157000005245 0.136999994516 1550.0
0.839999973774 0.150999993086 0.136000007391 1560.0
0.84399998188 0.146999999881 0.136999994516 1576.0
0.837999999523 0.141000002623 0.136000007391 1602.0
0.842999994755 0.136999994516 0.136999994516 1601.0
0.841000020504 0.130999997258 0.136000007391 1631.0
0.842999994755 0.127000004053 0.136999994516 1627.0
0.838999986649 0.120999999344 0.136000007391 1590.0
0.842999994755 0.116999998689 0.136000007391 1241.0
0.913999974728 0.120999999344 0.148000001907 508.0
0.948000013828 -0.0670000016689 0.153999999166 866.0
0.925999999046 -0.070000000298 0.15000000596 1304.0
0.922999978065 -0.0759999975562 0.15000000596 1322.0
0.930999994278 -0.082000002265 0.150999993086 1293.0
0.930000007153 -0.0869999974966 0.150999993086 1318.0
0.924000024796 -0.0920000001788 0.15000000596 1326.0
0.920000016689 -0.097000002861 0.15000000596 1342.0
0.917999982834 -0.101999998093 0.149000003934 1301.0
0.925000011921 -0.108000002801 0.150999993086 1314.0
0.92199999094 -0.112999998033 0.15000000596 1338.0
0.922999978065 -0.119000002742 0.150999993086 1338.0
0.922999978065 -0.123999997973 0.150999993086 1356.0
0.925000011921 -0.129999995232 0.150999993086 1361.0
0.919000029564 -0.135000005364 0.15000000596 1361.0
0.916999995708 -0.140000000596 0.15000000596 1358.0
0.916000008583 -0.144999995828 0.15000000596 1392.0
0.916000008583 -0.150999993086 0.15000000596 1380.0
0.916999995708 -0.156000003219 0.15000000596 1354.0
0.912000000477 -0.16099999845 0.15000000596 1382.0
0.908999979496 -0.165999993682 0.15000000596 1380.0
0.920000016689 -0.172999992967 0.150999993086 1389.0
0.913999974728 -0.178000003099 0.150999993086 1384.0
0.912000000477 -0.182999998331 0.150999993086 1387.0
0.90600001812 -0.187000006437 0.15000000596 1391.0
0.913999974728 -0.194999992847 0.150999993086 1405.0
0.907999992371 -0.199000000954 0.15000000596 1405.0
0.907000005245 -0.203999996185 0.15000000596 1382.0
0.907000005245 -0.209999993443 0.150999993086 1402.0
0.901000022888 -0.21400000155 0.15000000596 1424.0
0.910000026226 -0.222000002861 0.151999995112 1406.0
0.902999997139 -0.225999996066 0.150999993086 1391.0
0.907999992371 -0.232999995351 0.151999995112 1433.0
0.907000005245 -0.238000005484 0.151999995112 1429.0
0.90499997139 -0.243000000715 0.151999995112 1433.0
0.899999976158 -0.247999995947 0.150999993086 1425.0
0.903999984264 -0.254000008106 0.151999995112 1429.0
0.902999997139 -0.259999990463 0.151999995112 1441.0
0.90600001812 -0.266999989748 0.152999997139 1431.0
0.899999976158 -0.270999997854 0.151999995112 1419.0
0.899999976158 -0.277000010014 0.151999995112 1399.0
0.897000014782 -0.282000005245 0.151999995112 1455.0
0.893000006676 -0.286000013351 0.151999995112 1467.0
0.898000001907 -0.293000012636 0.152999997139 1445.0
0.897000014782 -0.298999994993 0.152999997139 1493.0
0.898000001907 -0.305000007153 0.152999997139 1492.0
0.896000027657 -0.31099998951 0.152999997139 1487.0
0.894999980927 -0.316000014544 0.152999997139 1489.0
0.896000027657 -0.323000013828 0.153999999166 1496.0
0.893999993801 -0.32800000906 0.153999999166 1538.0
0.89099997282 -0.333000004292 0.153999999166 1505.0
0.888000011444 -0.337999999523 0.152999997139 1516.0
0.893000006676 -0.345999985933 0.155000001192 1533.0
0.885999977589 -0.34999999404 0.153999999166 1522.0
0.888000011444 -0.356999993324 0.155000001192 1523.0
0.889999985695 -0.363999992609 0.155000001192 1518.0
0.884999990463 -0.368000000715 0.155000001192 1512.0
0.887000024319 -0.375 0.156000003219 1495.0
0.884999990463 -0.379999995232 0.156000003219 1488.0
0.884000003338 -0.386999994516 0.156000003219 1472.0
0.876999974251 -0.389999985695 0.155000001192 1494.0
0.879999995232 -0.398000001907 0.156000003219 1484.0
0.882000029087 -0.405000001192 0.157000005245 1440.0
0.882000029087 -0.412000000477 0.157000005245 1439.0
0.879999995232 -0.418000012636 0.157000005245 1458.0
0.880999982357 -0.423999994993 0.158000007272 1474.0
0.884000003338 -0.432999998331 0.158999994397 1492.0
0.878000020981 -0.437000006437 0.158000007272 1462.0
0.875 -0.442000001669 0.158000007272 1484.0
0.870000004768 -0.446000009775 0.158000007272 1481.0
0.873000025749 -0.455000013113 0.158999994397 1441.0
0.873000025749 -0.462000012398 0.158999994397 1437.0
0.866999983788 -0.465000003576 0.158999994397 1407.0
0.867999970913 -0.472999989986 0.158999994397 1405.0
0.866999983788 -0.479000002146 0.158999994397 1393.0
0.866999983788 -0.486000001431 0.159999996424 1409.0
0.865999996662 0.503000020981 0.15000000596 693.0
0.861999988556 0.493000000715 0.149000003934 718.0
0.864000022411 0.488000005484 0.149000003934 750.0
0.864000022411 0.481000006199 0.149000003934 780.0
0.85900002718 0.470999985933 0.146999999881 822.0
0.85900002718 0.463999986649 0.146999999881 843.0
0.856999993324 0.456000000238 0.145999997854 870.0
0.856999993324 0.449000000954 0.145999997854 884.0
0.861000001431 0.444000005722 0.145999997854 920.0
0.851999998093 0.432999998331 0.143999993801 933.0
0.85799998045 0.428999990225 0.144999995828 968.0
0.847999989986 0.418000012636 0.143000006676 984.0
0.851000010967 0.412999987602 0.143000006676 1005.0
0.851000010967 0.407000005245 0.142000004649 1041.0
0.851000010967 0.40000000596 0.142000004649 1050.0
0.861000001431 0.398999989033 0.143999993801 1069.0
0.853999972343 0.388999998569 0.142000004649 1083.0
0.84399998188 0.377999991179 0.140000000596 1109.0
0.852999985218 0.375999987125 0.141000002623 1133.0
0.850000023842 0.368999987841 0.140000000596 1143.0
0.851000010967 0.363000005484 0.140000000596 1182.0
0.847999989986 0.356000006199 0.138999998569 1198.0
0.84500002861 0.347999989986 0.138999998569 1202.0
0.847999989986 0.342999994755 0.138999998569 1235.0
0.853999972343 0.340000003576 0.140000000596 1245.0
0.847999989986 0.331000000238 0.137999996543 1253.0
0.852999985218 0.32800000906 0.138999998569 1270.0
0.850000023842 0.321000009775 0.137999996543 1284.0
0.850000023842 0.314999997616 0.137999996543 1274.0
0.847999989986 0.307999998331 0.136999994516 1286.0
0.842999994755 0.300999999046 0.136000007391 1304.0
0.847999989986 0.29699999094 0.136999994516 1329.0
0.851000010967 0.291999995708 0.136999994516 1359.0
0.848999977112 0.286000013351 0.136999994516 1370.0
0.84500002861 0.279000014067 0.136000007391 1381.0
0.84399998188 0.273000001907 0.135000005364 1383.0
0.850000023842 0.270000010729 0.136000007391 1385.0
0.84500002861 0.263000011444 0.135000005364 1421.0
0.84399998188 0.256000012159 0.135000005364 1432.0
0.850000023842 0.252999991179 0.135000005364 1450.0
0.848999977112 0.24699999392 0.135000005364 1463.0
0.84399998188 0.239999994636 0.134000003338 1493.0
0.850000023842 0.237000003457 0.135000005364 1480.0
0.84399998188 0.230000004172 0.134000003338 1495.0
0.850000023842 0.225999996066 0.135000005364 1512.0
0.842999994755 0.218999996781 0.133000001311 1541.0
0.842999994755 0.212999999523 0.133000001311 1553.0
0.84399998188 0.208000004292 0.133000001311 1555.0
0.842999994755 0.202999994159 0.133000001311 1566.0
0.846000015736 0.197999998927 0.133000001311 1565.0
0.838999986649 0.192000001669 0.131999999285 1569.0
0.838999986649 0.187000006437 0.131999999285 1584.0
0.842000007629 0.181999996305 0.131999999285 1612.0
0.837000012398 0.175999999046 0.130999997258 1609.0
0.841000020504 0.172000005841 0.131999999285 1614.0
0.841000020504 0.165999993682 0.131999999285 1614.0
0.842000007629 0.16099999845 0.131999999285 1620.0
0.838999986649 0.156000003219 0.130999997258 1631.0
0.837999999523 0.150999993086 0.130999997258 1645.0
0.839999973774 0.145999997854 0.130999997258 1654.0
0.84399998188 0.142000004649 0.131999999285 1692.0
0.837000012398 0.136000007391 0.130999997258 1707.0
0.841000020504 0.130999997258 0.130999997258 1697.0
0.84399998188 0.127000004053 0.131999999285 1708.0
0.839999973774 0.120999999344 0.130999997258 1684.0
0.842000007629 0.115999996662 0.130999997258 1216.0
0.916999995708 0.120999999344 0.143000006676 474.0
0.920000016689 0.115999996662 0.143000006676 173.0
0.93900001049 -0.0659999996424 0.146999999881 880.0
0.924000024796 -0.070000000298 0.143999993801 1317.0
0.925999999046 -0.0759999975562 0.144999995828 1341.0
0.930000007153 -0.0810000002384 0.144999995828 1309.0
0.92199999094 -0.0860000029206 0.143999993801 1345.0
0.922999978065 -0.0920000001788 0.144999995828 1333.0
0.922999978065 -0.097000002861 0.144999995828 1335.0
0.919000029564 -0.101999998093 0.143999993801 1299.0
0.920000016689 -0.108000002801 0.143999993801 1323.0
0.922999978065 -0.112999998033 0.144999995828 1345.0
0.921000003815 -0.118000000715 0.144999995828 1372.0
0.915000021458 -0.123000003397 0.143999993801 1353.0
0.917999982834 -0.128999993205 0.144999995828 1369.0
0.919000029564 -0.135000005364 0.144999995828 1375.0
0.917999982834 -0.140000000596 0.144999995828 1391.0
0.915000021458 -0.144999995828 0.143999993801 1401.0
0.920000016689 -0.150999993086 0.144999995828 1415.0
0.915000021458 -0.156000003219 0.144999995828 1400.0
0.916000008583 -0.162000000477 0.144999995828 1412.0
0.913999974728 -0.166999995708 0.144999995828 1414.0
0.912000000477 -0.172000005841 0.144999995828 1429.0
0.912999987602 -0.177000001073 0.144999995828 1454.0
0.907999992371 -0.181999996305 0.143999993801 1450.0
0.911000013351 -0.187999993563 0.144999995828 1445.0
0.913999974728 -0.194000005722 0.145999997854 1458.0
0.908999979496 -0.199000000954 0.144999995828 1464.0
0.902000010014 -0.202999994159 0.143999993801 1426.0
0.910000026226 -0.209999993443 0.145999997854 1428.0
0.90600001812 -0.215000003576 0.144999995828 1441.0
0.907999992371 -0.221000000834 0.145999997854 1440.0
0.90499997139 -0.225999996066 0.144999995828 1425.0
0.907999992371 -0.231999993324 0.145999997854 1447.0
0.90499997139 -0.237000003457 0.145999997854 1462.0
0.902000010014 -0.241999998689 0.145999997854 1470.0
0.899999976158 -0.24699999392 0.145999997854 1472.0
0.90499997139 -0.254999995232 0.146999999881 1466.0
0.902000010014 -0.259000003338 0.145999997854 1490.0
0.903999984264 -0.266000002623 0.146999999881 1478.0
0.898999989033 -0.270000010729 0.145999997854 1463.0
0.893999993801 -0.273999989033 0.145999997854 1451.0
0.901000022888 -0.282999992371 0.146999999881 1462.0
0.902000010014 -0.287999987602 0.148000001907 1478.0
0.899999976158 -0.293999999762 0.148000001907 1474.0
0.901000022888 -0.300000011921 0.148000001907 1476.0
0.89099997282 -0.303000003099 0.146999999881 1476.0
0.897000014782 -0.31099998951 0.148000001907 1517.0
0.893999993801 -0.316000014544 0.148000001907 1512.0
0.89099997282 -0.321000009775 0.148000001907 1499.0
0.89099997282 -0.326999992132 0.148000001907 1540.0
0.89200001955 -0.333000004292 0.148000001907 1538.0
0.885999977589 -0.337000012398 0.148000001907 1521.0
0.888999998569 -0.344999998808 0.149000003934 1522.0
0.893999993801 -0.351999998093 0.15000000596 1521.0
0.884999990463 -0.354999989271 0.149000003934 1490.0
0.888000011444 -0.361999988556 0.149000003934 1480.0
0.884000003338 -0.36700001359 0.149000003934 1514.0
0.883000016212 -0.372999995947 0.149000003934 1525.0
0.884000003338 -0.379999995232 0.15000000596 1526.0
0.887000024319 -0.388000011444 0.150999993086 1486.0
0.883000016212 -0.391999989748 0.15000000596 1485.0
0.880999982357 -0.398000001907 0.15000000596 1462.0
0.882000029087 -0.405000001192 0.150999993086 1429.0
0.879999995232 -0.411000013351 0.150999993086 1443.0
0.883000016212 -0.418000012636 0.151999995112 1453.0
0.875999987125 -0.42199999094 0.150999993086 1482.0
0.874000012875 -0.428000003099 0.150999993086 1476.0
0.875999987125 -0.435000002384 0.151999995112 1470.0
0.875 -0.442000001669 0.151999995112 1473.0
0.875 -0.448000013828 0.152999997139 1463.0
0.875 -0.455000013113 0.152999997139 1446.0
0.875999987125 -0.462999999523 0.153999999166 1441.0
0.874000012875 -0.469000011683 0.153999999166 1421.0
0.870000004768 -0.474000006914 0.153999999166 1403.0
0.870000004768 -0.481000006199 0.153999999166 1403.0
0.870999991894 -0.488000005484 0.155000001192 1421.0
0.856999993324 0.497000008821 0.143000006676 907.0
0.852999985218 0.488000005484 0.142000004649 924.0
0.865000009537 0.488000005484 0.143000006676 944.0
0.85799998045 0.476999998093 0.142000004649 972.0
0.860000014305 0.470999985933 0.142000004649 992.0
0.851000010967 0.458999991417 0.140000000596 1012.0
0.848999977112 0.451000005007 0.138999998569 1014.0
0.860000014305 0.449999988079 0.141000002623 1045.0
0.851999998093 0.43900001049 0.138999998569 1072.0
0.851000010967 0.432000011206 0.137999996543 1100.0
0.855000019073 0.428000003099 0.138999998569 1111.0
0.852999985218 0.419999986887 0.137999996543 1127.0
0.855000019073 0.414999991655 0.137999996543 1145.0
0.853999972343 0.407999992371 0.136999994516 1167.0
0.847000002861 0.398000001907 0.136000007391 1182.0
0.865000009537 0.40000000596 0.138999998569 1200.0
0.847000002861 0.384999990463 0.135000005364 1212.0
0.848999977112 0.379999995232 0.135000005364 1241.0
0.851000010967 0.375 0.135000005364 1257.0
0.850000023842 0.368000000715 0.135000005364 1258.0
0.848999977112 0.361999988556 0.134000003338 1292.0
0.851000010967 0.356000006199 0.135000005364 1303.0
0.852999985218 0.351000010967 0.135000005364 1291.0
0.853999972343 0.345999985933 0.135000005364 1298.0
0.84399998188 0.33599999547 0.133000001311 1303.0
0.85900002718 0.33599999547 0.135000005364 1316.0
0.847000002861 0.324999988079 0.131999999285 1323.0
0.851000010967 0.321000009775 0.133000001311 1332.0
0.850000023842 0.314999997616 0.133000001311 1346.0
0.847000002861 0.307999998331 0.131999999285 1347.0
0.846000015736 0.301999986172 0.130999997258 1366.0
0.842000007629 0.294999986887 0.130999997258 1387.0
0.848999977112 0.291000008583 0.130999997258 1416.0
0.850000023842 0.286000013351 0.130999997258 1458.0
0.847999989986 0.280000001192 0.130999997258 1448.0
0.846000015736 0.273000001907 0.129999995232 1469.0
0.847999989986 0.268999993801 0.130999997258 1501.0
0.847000002861 0.263000011444 0.129999995232 1527.0
0.84399998188 0.256999999285 0.129999995232 1494.0
0.851000010967 0.252999991179 0.129999995232 1492.0
0.850000023842 0.24699999392 0.129999995232 1519.0
0.842999994755 0.239999994636 0.128999993205 1532.0
0.847000002861 0.236000001431 0.128999993205 1526.0
0.847999989986 0.231000006199 0.128999993205 1541.0
0.847000002861 0.22499999404 0.128999993205 1553.0
0.84399998188 0.218999996781 0.12800000608 1563.0
0.846000015736 0.21400000155 0.128999993205 1581.0
0.84500002861 0.209000006318 0.12800000608 1603.0
0.848999977112 0.203999996185 0.128999993205 1589.0
0.84500002861 0.197999998927 0.12800000608 1610.0
0.847999989986 0.193000003695 0.12800000608 1601.0
0.842000007629 0.187000006437 0.127000004053 1610.0
0.842999994755 0.181999996305 0.127000004053 1625.0
0.84399998188 0.177000001073 0.127000004053 1636.0
0.841000020504 0.171000003815 0.127000004053 1634.0
0.839999973774 0.165999993682 0.127000004053 1643.0
0.842999994755 0.162000000477 0.127000004053 1638.0
0.847000002861 0.157000005245 0.127000004053 1640.0
0.84399998188 0.151999995112 0.127000004053 1661.0
0.846000015736 0.146999999881 0.127000004053 1677.0
0.834999978542 0.140000000596 0.125 1694.0
0.84500002861 0.136999994516 0.127000004053 1703.0
0.847999989986 0.131999999285 0.127000004053 1687.0
0.84399998188 0.126000002027 0.126000002027 1670.0
0.842999994755 0.120999999344 0.126000002027 1671.0
0.842000007629 0.115999996662 0.126000002027 1319.0
0.926999986172 0.122000001371 0.138999998569 452.0
0.925000011921 0.116999998689 0.138999998569 200.0
0.944999992847 -0.0659999996424 0.142000004649 898.0
0.925999999046 -0.070000000298 0.138999998569 1352.0
0.925000011921 -0.0759999975562 0.138999998569 1377.0
0.925000011921 -0.0810000002384 0.138999998569 1346.0
0.925999999046 -0.0869999974966 0.138999998569 1373.0
0.925999999046 -0.0920000001788 0.138999998569 1361.0
0.922999978065 -0.097000002861 0.138999998569 1377.0
0.924000024796 -0.103000000119 0.138999998569 1375.0
0.925000011921 -0.108000002801 0.140000000596 1363.0
0.919000029564 -0.112999998033 0.138999998569 1377.0
0.924000024796 -0.119000002742 0.140000000596 1415.0
0.921000003815 -0.123999997973 0.138999998569 1392.0
0.916999995708 -0.128999993205 0.138999998569 1413.0
0.913999974728 -0.134000003338 0.138999998569 1433.0
0.908999979496 -0.137999996543 0.137999996543 1430.0
0.916999995708 -0.144999995828 0.138999998569 1427.0
0.917999982834 -0.150999993086 0.140000000596 1455.0
0.917999982834 -0.156000003219 0.140000000596 1460.0
0.912000000477 -0.16099999845 0.138999998569 1448.0
0.916999995708 -0.166999995708 0.140000000596 1447.0
0.916000008583 -0.172000005841 0.140000000596 1468.0
0.911000013351 -0.177000001073 0.138999998569 1490.0
0.912999987602 -0.182999998331 0.140000000596 1494.0
0.916000008583 -0.188999995589 0.140000000596 1502.0
0.910000026226 -0.193000003695 0.140000000596 1492.0
0.907000005245 -0.197999998927 0.138999998569 1487.0
0.907000005245 -0.203999996185 0.140000000596 1477.0
0.908999979496 -0.209999993443 0.140000000596 1448.0
0.907000005245 -0.215000003576 0.140000000596 1474.0
0.90600001812 -0.219999998808 0.140000000596 1466.0
0.910000026226 -0.226999998093 0.141000002623 1469.0
0.907999992371 -0.231999993324 0.141000002623 1450.0
0.902999997139 -0.237000003457 0.140000000596 1473.0
