ply
format ascii 1.0
element vertex 926
property float x
property float y
property float z
property float intensity
end_header
0.805999994278 -0.356000006199 0.115999996662 211.0
0.810000002384 -0.363999992609 0.116999998689 211.0
0.787999987602 -0.360000014305 0.11400000006 207.0
0.819000005722 -0.379999995232 0.119000002742 215.0
0.796000003815 -0.375999987125 0.115999996662 214.0
0.785000026226 -0.375999987125 0.115000002086 210.0
0.815999984741 -0.398000001907 0.119999997318 213.0
0.799000024796 -0.395000010729 0.118000000715 213.0
0.776000022888 -0.389999985695 0.115000002086 215.0
0.805999994278 -0.411000013351 0.119000002742 218.0
0.898999989033 -0.465999990702 0.134000003338 559.0
0.882000029087 -0.463999986649 0.131999999285 1435.0
0.880999982357 -0.470999985933 0.131999999285 1577.0
0.883000016212 -0.479000002146 0.133000001311 1604.0
0.878000020981 -0.483000010252 0.131999999285 1578.0
0.876999974251 -0.490000009537 0.133000001311 1580.0
0.908999979496 0.526000022888 0.127000004053 801.0
0.916999995708 0.523000001907 0.12800000608 817.0
0.921000003815 0.51700001955 0.12800000608 826.0
0.913999974728 0.505999982357 0.127000004053 821.0
0.915000021458 0.499000012875 0.127000004053 837.0
0.920000016689 0.495000004768 0.127000004053 857.0
0.930999994278 0.493000000715 0.12800000608 874.0
0.922999978065 0.481000006199 0.127000004053 879.0
0.925000011921 0.47499999404 0.127000004053 881.0
0.917999982834 0.465000003576 0.126000002027 897.0
0.926999986172 0.462000012398 0.126000002027 898.0
0.930000007153 0.456000000238 0.127000004053 909.0
0.929000020027 0.449000000954 0.126000002027 934.0
0.927999973297 0.441000014544 0.126000002027 939.0
0.92199999094 0.432000011206 0.125 943.0
0.930000007153 0.428999990225 0.125 947.0
0.933000028133 0.423000007868 0.125 961.0
0.924000024796 0.412000000477 0.123999997973 976.0
0.933000028133 0.409000009298 0.125 977.0
0.931999981403 0.402000010014 0.125 988.0
0.939999997616 0.398999989033 0.125 1001.0
0.93900001049 0.391999989748 0.125 1016.0
0.933000028133 0.38299998641 0.123999997973 1021.0
0.939999997616 0.379000008106 0.125 1040.0
0.935000002384 0.370999991894 0.123999997973 1044.0
0.936999976635 0.365000009537 0.123999997973 1048.0
0.940999984741 0.360000014305 0.123999997973 1072.0
0.938000023365 0.351999998093 0.123000003397 1085.0
0.940999984741 0.347000002861 0.123999997973 1094.0
0.938000023365 0.340000003576 0.123000003397 1101.0
0.943000018597 0.335000008345 0.123000003397 1105.0
0.940999984741 0.32800000906 0.123000003397 1115.0
0.941999971867 0.321999996901 0.123000003397 1125.0
0.949999988079 0.319000005722 0.123999997973 1161.0
0.944000005722 0.310000002384 0.123000003397 1137.0
0.948000013828 0.305000007153 0.123000003397 1150.0
0.93900001049 0.296000003815 0.122000001371 1168.0
0.948000013828 0.293000012636 0.123000003397 1199.0
0.944000005722 0.286000013351 0.122000001371 1207.0
0.944999992847 0.280000001192 0.122000001371 1214.0
0.947000026703 0.27500000596 0.122000001371 1247.0
0.947000026703 0.268000006676 0.122000001371 1269.0
0.950999975204 0.263999998569 0.122000001371 1255.0
0.944000005722 0.256000012159 0.120999999344 1252.0
0.95300000906 0.252000004053 0.122000001371 1246.0
0.950999975204 0.246000006795 0.122000001371 1252.0
0.949999988079 0.239999994636 0.122000001371 1240.0
0.952000021935 0.233999997377 0.122000001371 1246.0
0.953999996185 0.229000002146 0.122000001371 1251.0
0.953999996185 0.223000004888 0.122000001371 1266.0
0.947000026703 0.215000003576 0.120999999344 1278.0
0.95300000906 0.21099999547 0.122000001371 1262.0
0.958000004292 0.206000000238 0.122000001371 1277.0
0.952000021935 0.199000000954 0.120999999344 1282.0
0.957000017166 0.194000005722 0.122000001371 1286.0
0.955999970436 0.187999993563 0.122000001371 1298.0
0.957000017166 0.182999998331 0.122000001371 1318.0
0.955999970436 0.177000001073 0.120999999344 1348.0
0.952000021935 0.170000001788 0.120999999344 1329.0
0.961000025272 0.165999993682 0.122000001371 1322.0
0.961000025272 0.16099999845 0.122000001371 1341.0
0.959999978542 0.155000001192 0.122000001371 1366.0
0.959999978542 0.149000003934 0.120999999344 1365.0
0.957000017166 0.143000006676 0.120999999344 1397.0
0.962000012398 0.137999996543 0.122000001371 1474.0
0.962999999523 0.131999999285 0.122000001371 1467.0
0.963999986649 0.127000004053 0.122000001371 1470.0
0.961000025272 0.120999999344 0.120999999344 1492.0
0.962999999523 0.115000002086 0.122000001371 1510.0
0.96899998188 0.109999999404 0.122000001371 1517.0
0.961000025272 0.104000002146 0.120999999344 1515.0
0.967999994755 0.0989999994636 0.122000001371 1542.0
0.963999986649 0.0930000022054 0.122000001371 1528.0
0.967000007629 0.0879999995232 0.122000001371 1549.0
0.962000012398 0.0810000002384 0.120999999344 1567.0
0.964999973774 0.0759999975562 0.122000001371 1583.0
0.966000020504 0.0710000023246 0.122000001371 1639.0
0.967999994755 0.0649999976158 0.122000001371 1747.0
0.972000002861 0.0599999986589 0.123000003397 1767.0
0.97000002861 0.0540000014007 0.122000001371 1752.0
0.967000007629 0.0480000004172 0.122000001371 1792.0
0.96899998188 0.0430000014603 0.122000001371 1827.0
0.958000004292 0.0370000004768 0.120999999344 1698.0
0.917999982834 0.0299999993294 0.115999996662 533.0
1.07000005245 -0.0570000000298 0.136000007391 275.0
1.00499999523 -0.0590000003576 0.127000004053 964.0
0.95300000906 -0.0610000006855 0.120999999344 329.0
0.929000020027 -0.0649999976158 0.118000000715 152.0
0.957000017166 -0.0729999989271 0.120999999344 154.0
0.921000003815 -0.0750000029802 0.116999998689 159.0
0.929000020027 -0.0810000002384 0.118000000715 156.0
0.925999999046 -0.0860000029206 0.118000000715 156.0
0.912000000477 -0.0900000035763 0.115999996662 157.0
0.938000023365 -0.0989999994636 0.119000002742 162.0
0.915000021458 -0.101000003517 0.115999996662 165.0
0.926999986172 -0.108000002801 0.118000000715 164.0
0.910000026226 -0.112000003457 0.115999996662 161.0
0.922999978065 -0.118000000715 0.118000000715 164.0
0.922999978065 -0.123999997973 0.118000000715 164.0
0.952000021935 -0.134000003338 0.122000001371 214.0
0.992999970913 -0.144999995828 0.127000004053 954.0
0.98400002718 -0.15000000596 0.126000002027 1275.0
0.985000014305 -0.156000003219 0.126000002027 1300.0
0.98400002718 -0.16099999845 0.126000002027 1312.0
0.977999985218 -0.165999993682 0.126000002027 1316.0
0.977999985218 -0.172000005841 0.126000002027 1325.0
0.976999998093 -0.178000003099 0.126000002027 1322.0
0.973999977112 -0.182999998331 0.126000002027 1348.0
0.975000023842 -0.188999995589 0.126000002027 1349.0
0.97000002861 -0.194000005722 0.125 1350.0
0.971000015736 -0.20000000298 0.126000002027 1367.0
0.967000007629 -0.204999998212 0.125 1386.0
0.962999999523 -0.209999993443 0.125 1381.0
0.96899998188 -0.216999992728 0.126000002027 1384.0
0.939999997616 -0.216999992728 0.122000001371 919.0
0.893000006676 -0.21099999547 0.115999996662 243.0
0.913999974728 -0.222000002861 0.119000002742 196.0
0.89099997282 -0.222000002861 0.115999996662 191.0
0.876999974251 -0.224000006914 0.11400000006 193.0
0.893000006676 -0.232999995351 0.116999998689 199.0
0.888999998569 -0.238000005484 0.115999996662 191.0
0.889999985695 -0.244000002742 0.116999998689 192.0
0.878000020981 -0.246000006795 0.115000002086 194.0
0.870000004768 -0.248999997973 0.115000002086 200.0
0.865000009537 -0.252999991179 0.11400000006 200.0
0.865000009537 -0.259000003338 0.11400000006 194.0
0.888000011444 -0.272000014782 0.118000000715 201.0
0.864000022411 -0.270000010729 0.115000002086 206.0
0.938000023365 -0.298999994993 0.125 302.0
0.940999984741 -0.307000011206 0.125 1230.0
0.939999997616 -0.312000006437 0.125 1476.0
0.931999981403 -0.316000014544 0.125 1495.0
0.930999994278 -0.321999996901 0.125 1519.0
0.934000015259 -0.328999996185 0.125 1507.0
0.929000020027 -0.333000004292 0.125 1518.0
0.927999973297 -0.338999986649 0.125 1525.0
0.924000024796 -0.344000011683 0.125 1508.0
0.916999995708 -0.347999989986 0.123999997973 1518.0
0.92199999094 -0.356000006199 0.125 1527.0
0.917999982834 -0.361000001431 0.125 1532.0
0.917999982834 -0.36700001359 0.125 1542.0
0.913999974728 -0.372000008821 0.125 1536.0
0.910000026226 -0.377000004053 0.125 1500.0
0.861000001431 -0.363000005484 0.118000000715 586.0
0.816999971867 -0.349000006914 0.112000003457 227.0
0.818000018597 -0.356000006199 0.112999998033 215.0
0.806999981403 -0.356999993324 0.111000001431 210.0
0.81099998951 -0.363999992609 0.112000003457 214.0
0.806999981403 -0.368999987841 0.112000003457 214.0
0.809000015259 -0.375 0.112999998033 216.0
0.791000008583 -0.372999995947 0.109999999404 214.0
0.790000021458 -0.379000008106 0.111000001431 214.0
0.788999974728 -0.384000003338 0.111000001431 217.0
0.795000016689 -0.393000006676 0.112000003457 218.0
0.805000007153 -0.404000014067 0.11400000006 215.0
0.804000020027 -0.409999996424 0.11400000006 217.0
0.899999976158 -0.467000007629 0.12800000608 512.0
0.884000003338 -0.465000003576 0.126000002027 1422.0
0.880999982357 -0.470999985933 0.126000002027 1584.0
0.876999974251 -0.476000010967 0.126000002027 1586.0
0.879000008106 -0.483999997377 0.127000004053 1585.0
0.874000012875 -0.488000005484 0.126000002027 1585.0
0.921000003815 0.532000005245 0.123000003397 974.0
0.922999978065 0.524999976158 0.123000003397 980.0
0.919000029564 0.51599997282 0.122000001371 998.0
0.920000016689 0.509000003338 0.122000001371 984.0
0.924000024796 0.504000008106 0.122000001371 999.0
0.920000016689 0.493999987841 0.120999999344 1022.0
0.917999982834 0.486000001431 0.119999997318 1026.0
0.922999978065 0.481000006199 0.120999999344 1033.0
0.933000028133 0.479000002146 0.122000001371 1037.0
0.927999973297 0.469000011683 0.120999999344 1040.0
0.92199999094 0.458999991417 0.119999997318 1054.0
0.929000020027 0.455000013113 0.119999997318 1058.0
0.925999999046 0.446999996901 0.119999997318 1067.0
0.930000007153 0.442000001669 0.119999997318 1078.0
0.930999994278 0.43599998951 0.119999997318 1083.0
0.935000002384 0.430999994278 0.119999997318 1080.0
0.933000028133 0.423000007868 0.119999997318 1100.0
0.926999986172 0.412999987602 0.118000000715 1104.0
0.929000020027 0.407000005245 0.118000000715 1122.0
0.927999973297 0.40000000596 0.118000000715 1109.0
0.938000023365 0.398000001907 0.119000002742 1115.0
0.931999981403 0.388999998569 0.118000000715 1130.0
0.938000023365 0.384000003338 0.119000002742 1145.0
0.93900001049 0.377999991179 0.119000002742 1157.0
0.939999997616 0.372000008821 0.118000000715 1165.0
0.944000005722 0.36700001359 0.119000002742 1161.0
0.943000018597 0.360000014305 0.118000000715 1171.0
0.944999992847 0.354999989271 0.118000000715 1184.0
0.931999981403 0.342999994755 0.116999998689 1182.0
0.939999997616 0.340000003576 0.116999998689 1182.0
0.941999971867 0.333999991417 0.116999998689 1196.0
0.940999984741 0.32800000906 0.116999998689 1196.0
0.941999971867 0.321999996901 0.116999998689 1187.0
0.938000023365 0.31400001049 0.115999996662 1195.0
0.947000026703 0.31099998951 0.116999998689 1184.0
0.947000026703 0.305000007153 0.116999998689 1173.0
0.944000005722 0.298000007868 0.116999998689 1198.0
0.947000026703 0.293000012636 0.116999998689 1201.0
0.944999992847 0.286000013351 0.116999998689 1196.0
0.943000018597 0.279000014067 0.115999996662 1222.0
0.949999988079 0.27500000596 0.116999998689 1241.0
0.945999979973 0.268000006676 0.115999996662 1266.0
0.949999988079 0.263000011444 0.116999998689 1288.0
0.949000000954 0.256999999285 0.115999996662 1283.0
0.953999996185 0.252000004053 0.116999998689 1268.0
0.949000000954 0.245000004768 0.115999996662 1274.0
0.95300000906 0.239999994636 0.115999996662 1283.0
0.95300000906 0.233999997377 0.115999996662 1308.0
0.957000017166 0.229000002146 0.116999998689 1345.0
0.955999970436 0.223000004888 0.115999996662 1342.0
0.958000004292 0.217999994755 0.116999998689 1361.0
0.954999983311 0.21099999547 0.115999996662 1374.0
0.958999991417 0.206000000238 0.116999998689 1416.0
0.954999983311 0.20000000298 0.115999996662 1441.0
0.958999991417 0.194999992847 0.115999996662 1457.0
0.95300000906 0.187999993563 0.115999996662 1454.0
0.955999970436 0.181999996305 0.115999996662 1500.0
0.957000017166 0.177000001073 0.115999996662 1567.0
0.957000017166 0.171000003815 0.115999996662 1503.0
0.958000004292 0.165999993682 0.115999996662 1466.0
0.955999970436 0.159999996424 0.115999996662 1487.0
0.957000017166 0.153999999166 0.115999996662 1492.0
0.963999986649 0.149000003934 0.115999996662 1488.0
0.963999986649 0.143999993801 0.115999996662 1526.0
0.959999978542 0.136999994516 0.115999996662 1582.0
0.962999999523 0.131999999285 0.115999996662 1571.0
0.962000012398 0.126000002027 0.115999996662 1617.0
0.962999999523 0.120999999344 0.115999996662 1621.0
0.962999999523 0.115000002086 0.115999996662 1683.0
0.962000012398 0.108999997377 0.115999996662 1710.0
0.961000025272 0.104000002146 0.115999996662 1707.0
0.966000020504 0.0989999994636 0.115999996662 1757.0
0.963999986649 0.0930000022054 0.115999996662 1746.0
0.962999999523 0.0869999974966 0.115999996662 1730.0
0.967999994755 0.082000002265 0.115999996662 1725.0
0.962000012398 0.0759999975562 0.115999996662 1774.0
0.97000002861 0.0710000023246 0.116999998689 1787.0
0.966000020504 0.0649999976158 0.115999996662 1857.0
0.967000007629 0.0590000003576 0.115999996662 1872.0
0.96899998188 0.0540000014007 0.115999996662 1823.0
0.971000015736 0.0480000004172 0.116999998689 1823.0
0.971000015736 0.0430000014603 0.116999998689 1825.0
0.966000020504 0.0370000004768 0.115999996662 1701.0
0.921000003815 0.0299999993294 0.111000001431 561.0
1.00100004673 -0.0590000003576 0.120999999344 965.0
0.954999983311 -0.0610000006855 0.115000002086 323.0
0.944000005722 -0.0659999996424 0.11400000006 157.0
0.939999997616 -0.0710000023246 0.11400000006 164.0
0.917999982834 -0.0750000029802 0.111000001431 165.0
0.921000003815 -0.0810000002384 0.111000001431 160.0
0.926999986172 -0.0860000029206 0.112000003457 165.0
0.931999981403 -0.0920000001788 0.112999998033 163.0
0.924000024796 -0.097000002861 0.112000003457 163.0
0.920000016689 -0.101999998093 0.112000003457 166.0
0.90499997139 -0.105999998748 0.109999999404 165.0
0.92199999094 -0.112999998033 0.112000003457 167.0
0.919000029564 -0.118000000715 0.112000003457 169.0
0.925000011921 -0.123999997973 0.112999998033 167.0
0.981000006199 -0.137999996543 0.119999997318 212.0
0.995999991894 -0.145999997854 0.122000001371 960.0
0.986999988556 -0.15000000596 0.120999999344 1282.0
0.98299998045 -0.155000001192 0.119999997318 1290.0
0.977999985218 -0.159999996424 0.119999997318 1307.0
0.976000010967 -0.165999993682 0.119999997318 1310.0
0.978999972343 -0.172000005841 0.119999997318 1319.0
0.981000006199 -0.178000003099 0.119999997318 1330.0
0.977999985218 -0.184000000358 0.119999997318 1339.0
0.975000023842 -0.188999995589 0.119999997318 1348.0
0.97000002861 -0.194000005722 0.119999997318 1349.0
0.97000002861 -0.20000000298 0.119999997318 1367.0
0.972000002861 -0.206000000238 0.119999997318 1369.0
0.967000007629 -0.21099999547 0.119999997318 1375.0
0.966000020504 -0.216999992728 0.119999997318 1382.0
0.933000028133 -0.215000003576 0.115999996662 929.0
0.893999993801 -0.21099999547 0.111000001431 250.0
0.884999990463 -0.215000003576 0.109999999404 200.0
0.896000027657 -0.223000004888 0.112000003457 201.0
0.883000016212 -0.22499999404 0.109999999404 199.0
0.878000020981 -0.229000002146 0.109999999404 204.0
0.885999977589 -0.237000003457 0.111000001431 203.0
0.885999977589 -0.243000000715 0.111000001431 203.0
0.90499997139 -0.252999991179 0.112999998033 201.0
0.884000003338 -0.252999991179 0.111000001431 204.0
0.893000006676 -0.261000007391 0.112000003457 197.0
0.880999982357 -0.263000011444 0.111000001431 201.0
0.885999977589 -0.270999997854 0.112000003457 209.0
0.880999982357 -0.27500000596 0.111000001431 205.0
0.924000024796 -0.294999986887 0.116999998689 296.0
0.945999979973 -0.307999998331 0.119999997318 1225.0
0.938000023365 -0.31099998951 0.119000002742 1483.0
0.929000020027 -0.314999997616 0.119000002742 1507.0
0.933000028133 -0.321999996901 0.119000002742 1501.0
0.933000028133 -0.32800000906 0.119999997318 1501.0
0.927999973297 -0.333000004292 0.119000002742 1528.0
0.927999973297 -0.338999986649 0.119000002742 1516.0
0.925000011921 -0.344000011683 0.119000002742 1515.0
0.927999973297 -0.351999998093 0.119999997318 1529.0
0.916000008583 -0.352999985218 0.119000002742 1535.0
0.916999995708 -0.360000014305 0.119000002742 1533.0
0.916999995708 -0.365999996662 0.119000002742 1528.0
0.912000000477 -0.370999991894 0.119000002742 1528.0
0.911000013351 -0.377000004053 0.119000002742 1505.0
0.869000017643 -0.365000009537 0.11400000006 611.0
0.847999989986 -0.363000005484 0.111000001431 247.0
0.827000021935 -0.360000014305 0.108999997377 220.0
0.828999996185 -0.365999996662 0.108999997377 216.0
0.810000002384 -0.363999992609 0.107000000775 222.0
0.815999984741 -0.372000008821 0.108000002801 220.0
0.802999973297 -0.372000008821 0.107000000775 214.0
0.818000018597 -0.386000007391 0.108999997377 216.0
0.827000021935 -0.395999997854 0.111000001431 219.0
0.806999981403 -0.393000006676 0.108000002801 219.0
0.804000020027 -0.397000014782 0.108000002801 216.0
0.76700001955 -0.384000003338 0.103000000119 213.0
0.778999984264 -0.397000014782 0.104999996722 208.0
0.882000029087 -0.456999987364 0.119999997318 488.0
0.883000016212 -0.463999986649 0.119999997318 1424.0
0.884999990463 -0.472999989986 0.120999999344 1587.0
0.883000016212 -0.479000002146 0.120999999344 1595.0
0.879999995232 -0.483999997377 0.120999999344 1592.0
0.873000025749 -0.486999988556 0.120999999344 1585.0
0.925999999046 0.535000026226 0.116999998689 1044.0
0.917999982834 0.522000014782 0.115999996662 1072.0
0.922999978065 0.518000006676 0.115999996662 1079.0
0.925999999046 0.512000024319 0.115999996662 1054.0
0.927999973297 0.504999995232 0.115999996662 1072.0
0.936999976635 0.503000020981 0.116999998689 1095.0
0.927999973297 0.490999996662 0.115999996662 1078.0
0.925999999046 0.481999993324 0.115000002086 1072.0
0.930000007153 0.476999998093 0.115000002086 1075.0
0.92199999094 0.465999990702 0.11400000006 1073.0
0.929000020027 0.462000012398 0.115000002086 1075.0
0.934000015259 0.456999987364 0.115000002086 1080.0
0.926999986172 0.446999996901 0.11400000006 1089.0
0.934000015259 0.442999988794 0.11400000006 1097.0
0.931999981403 0.435000002384 0.11400000006 1091.0
0.93599998951 0.430000007153 0.11400000006 1111.0
0.933000028133 0.42199999094 0.11400000006 1109.0
0.93599998951 0.416999995708 0.11400000006 1112.0
0.935000002384 0.409000009298 0.112999998033 1110.0
0.935000002384 0.402999997139 0.112999998033 1112.0
0.935000002384 0.395999997854 0.112999998033 1119.0
0.935000002384 0.388999998569 0.112999998033 1132.0
0.93599998951 0.38299998641 0.112999998033 1124.0
0.943000018597 0.379999995232 0.112999998033 1128.0
0.939999997616 0.372000008821 0.112999998033 1130.0
0.943000018597 0.36700001359 0.112999998033 1140.0
0.943000018597 0.360000014305 0.112999998033 1137.0
0.943000018597 0.354000002146 0.112000003457 1136.0
0.949000000954 0.349000006914 0.112999998033 1141.0
0.945999979973 0.342000007629 0.112000003457 1153.0
0.947000026703 0.33599999547 0.112000003457 1148.0
0.940999984741 0.32800000906 0.111000001431 1149.0
0.941999971867 0.321999996901 0.111000001431 1145.0
0.948000013828 0.317000001669 0.112000003457 1165.0
0.944999992847 0.310000002384 0.111000001431 1171.0
0.949999988079 0.305000007153 0.112000003457 1166.0
0.947000026703 0.298000007868 0.111000001431 1177.0
0.949000000954 0.293000012636 0.111000001431 1163.0
0.950999975204 0.287999987602 0.112000003457 1165.0
0.952000021935 0.282000005245 0.111000001431 1159.0
0.950999975204 0.27500000596 0.111000001431 1163.0
0.955999970436 0.270999997854 0.112000003457 1188.0
0.952000021935 0.263000011444 0.111000001431 1219.0
0.95300000906 0.25799998641 0.111000001431 1217.0
0.955999970436 0.252999991179 0.111000001431 1231.0
0.955999970436 0.24699999392 0.111000001431 1278.0
0.955999970436 0.240999996662 0.111000001431 1293.0
0.955999970436 0.234999999404 0.111000001431 1308.0
0.955999970436 0.229000002146 0.111000001431 1314.0
0.952000021935 0.222000002861 0.109999999404 1318.0
0.959999978542 0.217999994755 0.111000001431 1339.0
0.953999996185 0.21099999547 0.109999999404 1359.0
0.957000017166 0.206000000238 0.111000001431 1361.0
0.955999970436 0.20000000298 0.109999999404 1372.0
0.961000025272 0.194999992847 0.111000001431 1359.0
0.955999970436 0.187999993563 0.109999999404 1338.0
0.961000025272 0.182999998331 0.111000001431 1376.0
0.957000017166 0.177000001073 0.109999999404 1381.0
0.958000004292 0.171000003815 0.109999999404 1348.0
0.962000012398 0.165999993682 0.111000001431 1341.0
0.958999991417 0.159999996424 0.109999999404 1353.0
0.958999991417 0.153999999166 0.109999999404 1363.0
0.96899998188 0.15000000596 0.111000001431 1387.0
0.964999973774 0.143999993801 0.111000001431 1418.0
0.962000012398 0.137999996543 0.109999999404 1433.0
0.962000012398 0.131999999285 0.109999999404 1481.0
0.958999991417 0.126000002027 0.109999999404 1490.0
0.963999986649 0.120999999344 0.109999999404 1487.0
0.964999973774 0.115000002086 0.111000001431 1499.0
0.967000007629 0.109999999404 0.111000001431 1550.0
0.963999986649 0.104000002146 0.109999999404 1565.0
0.967000007629 0.0989999994636 0.111000001431 1562.0
0.972000002861 0.0930000022054 0.111000001431 1542.0
0.964999973774 0.0869999974966 0.109999999404 1546.0
0.964999973774 0.082000002265 0.109999999404 1563.0
0.967000007629 0.0759999975562 0.111000001431 1588.0
0.975000023842 0.0710000023246 0.111000001431 1639.0
0.971000015736 0.0649999976158 0.111000001431 1676.0
0.97000002861 0.0599999986589 0.111000001431 1686.0
0.967999994755 0.0540000014007 0.111000001431 1691.0
0.967000007629 0.0480000004172 0.111000001431 1706.0
0.97000002861 0.0430000014603 0.111000001431 1696.0
0.967000007629 0.0370000004768 0.111000001431 1606.0
0.927999973297 0.0299999993294 0.105999998748 595.0
1.00300002098 -0.0590000003576 0.115000002086 990.0
0.971000015736 -0.0630000010133 0.112000003457 416.0
0.973999977112 -0.0680000036955 0.112000003457 283.0
0.981000006199 -0.0750000029802 0.112999998033 286.0
0.966000020504 -0.0790000036359 0.111000001431 306.0
0.967000007629 -0.0850000008941 0.111000001431 299.0
0.962999999523 -0.0900000035763 0.111000001431 311.0
0.973999977112 -0.097000002861 0.112000003457 317.0
0.97000002861 -0.101999998093 0.112000003457 320.0
0.962999999523 -0.107000000775 0.111000001431 325.0
0.972999989986 -0.11400000006 0.112999998033 334.0
0.978999972343 -0.119999997318 0.112999998033 340.0
0.97000002861 -0.125 0.112000003457 351.0
0.981999993324 -0.131999999285 0.11400000006 346.0
0.97000002861 -0.136000007391 0.112999998033 384.0
0.996999979019 -0.145999997854 0.115999996662 872.0
0.985000014305 -0.15000000596 0.115000002086 1074.0
0.975000023842 -0.153999999166 0.11400000006 1072.0
0.978999972343 -0.16099999845 0.11400000006 1089.0
0.975000023842 -0.165999993682 0.11400000006 1091.0
0.977999985218 -0.172000005841 0.11400000006 1096.0
0.972999989986 -0.177000001073 0.11400000006 1092.0
0.972999989986 -0.182999998331 0.11400000006 1113.0
0.966000020504 -0.187000006437 0.112999998033 1113.0
0.964999973774 -0.193000003695 0.112999998033 1115.0
0.964999973774 -0.199000000954 0.112999998033 1123.0
0.962999999523 -0.203999996185 0.112999998033 1137.0
0.962999999523 -0.209999993443 0.112999998033 1143.0
0.959999978542 -0.215000003576 0.112999998033 1138.0
0.945999979973 -0.217999994755 0.112000003457 851.0
0.947000026703 -0.224000006914 0.112000003457 437.0
0.93900001049 -0.228000000119 0.111000001431 402.0
0.936999976635 -0.232999995351 0.111000001431 397.0
0.940999984741 -0.239999994636 0.112000003457 410.0
0.93599998951 -0.245000004768 0.111000001431 410.0
0.929000020027 -0.248999997973 0.111000001431 400.0
0.934000015259 -0.256000012159 0.111000001431 395.0
0.922999978065 -0.259000003338 0.109999999404 389.0
0.926999986172 -0.266000002623 0.111000001431 387.0
0.919000029564 -0.268999993801 0.109999999404 392.0
0.92199999094 -0.275999993086 0.111000001431 387.0
0.907999992371 -0.277000010014 0.108999997377 381.0
0.916000008583 -0.286000013351 0.109999999404 382.0
0.926999986172 -0.296000003815 0.112000003457 416.0
0.941999971867 -0.305999994278 0.11400000006 1121.0
0.931999981403 -0.308999985456 0.112999998033 1312.0
0.931999981403 -0.314999997616 0.112999998033 1320.0
0.929000020027 -0.321000009775 0.112999998033 1339.0
0.927999973297 -0.326000005007 0.112999998033 1335.0
0.925000011921 -0.331999987364 0.112999998033 1341.0
0.92199999094 -0.337000012398 0.112999998033 1368.0
0.92199999094 -0.342999994755 0.112999998033 1370.0
0.92199999094 -0.349000006914 0.112999998033 1369.0
0.92199999094 -0.356000006199 0.11400000006 1385.0
0.921000003815 -0.361999988556 0.11400000006 1403.0
0.921000003815 -0.368000000715 0.11400000006 1414.0
0.915000021458 -0.372000008821 0.11400000006 1407.0
0.908999979496 -0.375999987125 0.112999998033 1403.0
0.875999987125 -0.368000000715 0.108999997377 655.0
0.865000009537 -0.370000004768 0.108000002801 327.0
0.866999983788 -0.377000004053 0.108999997377 310.0
0.856000006199 -0.377999991179 0.107000000775 303.0
0.842999994755 -0.377999991179 0.105999998748 289.0
0.84500002861 -0.386000007391 0.107000000775 287.0
0.856999993324 -0.398000001907 0.108999997377 283.0
0.834999978542 -0.393000006676 0.105999998748 279.0
0.827000021935 -0.395999997854 0.104999996722 282.0
0.822000026703 -0.398999989033 0.104999996722 281.0
0.800000011921 -0.395000010729 0.101999998093 260.0
0.805000007153 -0.402999997139 0.103000000119 260.0
0.823000013828 -0.418999999762 0.105999998748 254.0
0.879999995232 -0.455000013113 0.11400000006 461.0
0.883000016212 -0.463999986649 0.115000002086 1391.0
0.883000016212 -0.470999985933 0.115000002086 1555.0
0.875 -0.474000006914 0.11400000006 1580.0
0.874000012875 -0.479999989271 0.115000002086 1577.0
0.879000008106 -0.490000009537 0.115999996662 1576.0
0.92199999094 0.532000005245 0.111000001431 1034.0
0.92199999094 0.523999989033 0.111000001431 1045.0
0.92199999094 0.51700001955 0.109999999404 1043.0
0.930000007153 0.513999998569 0.111000001431 1047.0
0.924000024796 0.503000020981 0.109999999404 1048.0
0.922999978065 0.495000004768 0.108999997377 1049.0
0.927999973297 0.490000009537 0.109999999404 1056.0
0.925000011921 0.481000006199 0.108999997377 1047.0
0.930000007153 0.476999998093 0.108999997377 1020.0
0.935000002384 0.472000002861 0.109999999404 1029.0
0.925999999046 0.460000008345 0.108000002801 1044.0
0.927999973297 0.453999996185 0.108000002801 1031.0
0.925999999046 0.446000009775 0.108000002801 1041.0
0.93599998951 0.444000005722 0.108999997377 1040.0
0.931999981403 0.435000002384 0.108000002801 1042.0
0.931999981403 0.428000003099 0.108000002801 1045.0
0.935000002384 0.423000007868 0.108000002801 1040.0
0.933000028133 0.414999991655 0.107000000775 1037.0
0.933000028133 0.407999992371 0.107000000775 1032.0
0.940999984741 0.405000001192 0.108000002801 1036.0
0.938000023365 0.397000014782 0.107000000775 1043.0
0.93900001049 0.391000002623 0.107000000775 1054.0
0.940999984741 0.384999990463 0.107000000775 1044.0
0.943000018597 0.379000008106 0.107000000775 1028.0
0.938000023365 0.370999991894 0.107000000775 1026.0
0.945999979973 0.36700001359 0.107000000775 1036.0
0.947000026703 0.361000001431 0.107000000775 1032.0
0.947000026703 0.354999989271 0.107000000775 1036.0
0.944000005722 0.347000002861 0.107000000775 1037.0
0.945999979973 0.342000007629 0.107000000775 1038.0
0.948000013828 0.33599999547 0.107000000775 1037.0
0.949999988079 0.330000013113 0.107000000775 1045.0
0.945999979973 0.323000013828 0.105999998748 1039.0
0.948000013828 0.317000001669 0.105999998748 1054.0
0.947000026703 0.31099998951 0.105999998748 1050.0
0.947000026703 0.305000007153 0.105999998748 1048.0
0.949999988079 0.298999994993 0.105999998748 1048.0
0.947000026703 0.291999995708 0.104999996722 1065.0
0.954999983311 0.287999987602 0.105999998748 1051.0
0.952000021935 0.280999988317 0.105999998748 1048.0
0.949999988079 0.27500000596 0.104999996722 1061.0
0.962999999523 0.272000014782 0.107000000775 1095.0
0.957000017166 0.264999985695 0.105999998748 1109.0
0.961000025272 0.259999990463 0.105999998748 1106.0
0.958999991417 0.252999991179 0.105999998748 1120.0
0.959999978542 0.247999995947 0.105999998748 1143.0
0.957000017166 0.240999996662 0.105999998748 1140.0
0.962000012398 0.236000001431 0.105999998748 1149.0
0.959999978542 0.230000004172 0.105999998748 1154.0
0.955999970436 0.223000004888 0.104999996722 1156.0
0.967000007629 0.218999996781 0.105999998748 1165.0
0.961000025272 0.211999997497 0.104999996722 1179.0
0.962999999523 0.207000002265 0.105999998748 1216.0
0.961000025272 0.201000005007 0.104999996722 1219.0
0.962000012398 0.194999992847 0.104999996722 1185.0
0.958000004292 0.187999993563 0.104999996722 1131.0
0.966000020504 0.184000000358 0.105999998748 1150.0
0.962999999523 0.178000003099 0.104999996722 1150.0
0.967000007629 0.172999992967 0.105999998748 1146.0
0.962999999523 0.165999993682 0.104999996722 1159.0
0.972000002861 0.162000000477 0.105999998748 1182.0
0.96899998188 0.156000003219 0.105999998748 1181.0
0.972999989986 0.150999993086 0.105999998748 1192.0
0.966000020504 0.143999993801 0.104999996722 1227.0
0.971000015736 0.138999998569 0.105999998748 1233.0
0.967000007629 0.133000001311 0.104999996722 1260.0
0.971000015736 0.127000004053 0.105999998748 1269.0
0.97000002861 0.122000001371 0.104999996722 1241.0
0.972999989986 0.115999996662 0.105999998748 1247.0
0.972999989986 0.109999999404 0.105999998748 1281.0
0.96899998188 0.104000002146 0.104999996722 1263.0
0.97000002861 0.0989999994636 0.104999996722 1258.0
0.972999989986 0.0930000022054 0.105999998748 1248.0
0.976999998093 0.0879999995232 0.105999998748 1247.0
0.972000002861 0.082000002265 0.104999996722 1225.0
0.971000015736 0.0759999975562 0.104999996722 1219.0
0.973999977112 0.0710000023246 0.105999998748 1267.0
0.976000010967 0.0649999976158 0.105999998748 1279.0
0.972000002861 0.0599999986589 0.104999996722 1290.0
0.976000010967 0.0540000014007 0.105999998748 1308.0
0.976999998093 0.0489999987185 0.105999998748 1297.0
0.972999989986 0.0430000014603 0.105999998748 1271.0
0.971000015736 0.0370000004768 0.104999996722 1235.0
0.931999981403 0.0299999993294 0.101000003517 480.0
1.01100003719 -0.0590000003576 0.109999999404 1075.0
1.00999999046 -0.0649999976158 0.109999999404 1054.0
1.00300002098 -0.070000000298 0.109999999404 1060.0
1.00499999523 -0.0759999975562 0.109999999404 1056.0
0.998000025749 -0.082000002265 0.108999997377 1079.0
1.00199997425 -0.0879999995232 0.109999999404 1076.0
0.995999991894 -0.0930000022054 0.108999997377 1093.0
0.996999979019 -0.0989999994636 0.108999997377 1098.0
0.995999991894 -0.104999996722 0.108999997377 1113.0
0.990999996662 -0.109999999404 0.108999997377 1121.0
0.989000022411 -0.115000002086 0.108999997377 1127.0
0.990000009537 -0.120999999344 0.108999997377 1142.0
0.987999975681 -0.127000004053 0.108999997377 1154.0
0.987999975681 -0.133000001311 0.108999997377 1156.0
0.977999985218 -0.136999994516 0.108000002801 1129.0
0.945999979973 -0.137999996543 0.104000002146 486.0
0.949000000954 -0.143999993801 0.104999996722 258.0
0.939999997616 -0.148000001907 0.104000002146 254.0
0.930999994278 -0.151999995112 0.103000000119 251.0
0.948000013828 -0.16099999845 0.104999996722 257.0
0.921000003815 -0.162000000477 0.101999998093 260.0
0.947000026703 -0.172000005841 0.104999996722 261.0
0.949999988079 -0.178000003099 0.105999998748 269.0
0.941999971867 -0.182999998331 0.104999996722 265.0
0.941999971867 -0.187999993563 0.104999996722 264.0
0.930999994278 -0.192000001669 0.104000002146 267.0
0.93599998951 -0.197999998927 0.104000002146 270.0
0.92199999094 -0.201000005007 0.103000000119 279.0
0.936999976635 -0.209999993443 0.104999996722 280.0
0.973999977112 -0.224000006914 0.108999997377 643.0
0.955999970436 -0.225999996066 0.107000000775 1229.0
0.955999970436 -0.231999993324 0.107000000775 1300.0
0.954999983311 -0.238000005484 0.108000002801 1293.0
0.949000000954 -0.241999998689 0.107000000775 1304.0
0.944000005722 -0.24699999392 0.107000000775 1306.0
0.953999996185 -0.254999995232 0.108000002801 1304.0
0.947000026703 -0.259000003338 0.107000000775 1300.0
0.949999988079 -0.266000002623 0.108000002801 1311.0
0.944999992847 -0.270999997854 0.107000000775 1314.0
0.945999979973 -0.277000010014 0.108000002801 1308.0
0.940999984741 -0.282000005245 0.107000000775 1289.0
0.939999997616 -0.287000000477 0.107000000775 1293.0
0.938000023365 -0.293000012636 0.107000000775 1281.0
0.929000020027 -0.296000003815 0.107000000775 1201.0
0.921000003815 -0.298999994993 0.105999998748 545.0
0.917999982834 -0.303999990225 0.105999998748 416.0
0.916000008583 -0.310000002384 0.105999998748 436.0
0.913999974728 -0.314999997616 0.105999998748 454.0
0.916000008583 -0.321999996901 0.105999998748 477.0
0.908999979496 -0.324999988079 0.104999996722 496.0
0.915000021458 -0.333999991417 0.105999998748 518.0
0.917999982834 -0.340999990702 0.107000000775 543.0
0.910000026226 -0.344000011683 0.105999998748 576.0
0.902999997139 -0.347999989986 0.105999998748 591.0
0.90499997139 -0.354999989271 0.105999998748 624.0
0.903999984264 -0.361000001431 0.105999998748 651.0
0.896000027657 -0.363999992609 0.105999998748 671.0
0.899999976158 -0.372000008821 0.105999998748 708.0
0.899999976158 -0.377999991179 0.107000000775 916.0
0.908999979496 -0.388000011444 0.108000002801 957.0
0.893000006676 -0.388000011444 0.105999998748 956.0
0.896000027657 -0.395999997854 0.107000000775 938.0
0.893999993801 -0.402000010014 0.107000000775 917.0
0.885999977589 -0.404000014067 0.105999998748 899.0
0.885999977589 -0.411000013351 0.107000000775 876.0
0.878000020981 -0.41400000453 0.105999998748 844.0
0.874000012875 -0.418999999762 0.105999998748 825.0
0.875999987125 -0.425999999046 0.105999998748 777.0
0.871999979019 -0.430999994278 0.105999998748 746.0
0.874000012875 -0.43900001049 0.107000000775 714.0
0.85900002718 -0.437000006437 0.104999996722 675.0
0.875 -0.451999992132 0.107000000775 701.0
0.887000024319 -0.465999990702 0.108999997377 1109.0
0.878000020981 -0.467999994755 0.108999997377 1186.0
0.879000008106 -0.476000010967 0.108999997377 1212.0
0.873000025749 -0.479000002146 0.108999997377 1233.0
0.875 -0.486999988556 0.108999997377 1262.0
0.930999994278 0.537000000477 0.105999998748 971.0
0.924000024796 0.524999976158 0.104999996722 972.0
0.922999978065 0.51700001955 0.104000002146 971.0
0.929000020027 0.512000024319 0.104999996722 953.0
0.929000020027 0.504999995232 0.104000002146 937.0
0.927999973297 0.497000008821 0.104000002146 934.0
0.924000024796 0.488000005484 0.103000000119 937.0
0.93599998951 0.486000001431 0.104000002146 939.0
0.927999973297 0.47499999404 0.103000000119 923.0
0.930000007153 0.469000011683 0.103000000119 915.0
0.939999997616 0.467000007629 0.104000002146 916.0
0.938000023365 0.458999991417 0.104000002146 927.0
0.935000002384 0.451000005007 0.103000000119 913.0
0.939999997616 0.446000009775 0.103000000119 923.0
0.93599998951 0.437000006437 0.103000000119 920.0
0.93599998951 0.430000007153 0.101999998093 924.0
0.936999976635 0.423000007868 0.101999998093 921.0
0.940999984741 0.418000012636 0.101999998093 924.0
0.93599998951 0.409999996424 0.101999998093 909.0
0.940999984741 0.405000001192 0.101999998093 919.0
0.943000018597 0.398999989033 0.101999998093 917.0
0.940999984741 0.391000002623 0.101999998093 926.0
0.949999988079 0.388999998569 0.101999998093 909.0
0.940999984741 0.377999991179 0.101000003517 925.0
0.944000005722 0.372999995947 0.101000003517 906.0
0.944999992847 0.36700001359 0.101000003517 900.0
0.941999971867 0.358999997377 0.101000003517 898.0
0.950999975204 0.356000006199 0.101999998093 911.0
0.947000026703 0.347999989986 0.101000003517 893.0
0.952000021935 0.344000011683 0.101000003517 902.0
0.945999979973 0.335000008345 0.101000003517 888.0
0.950999975204 0.330000013113 0.101000003517 883.0
0.958999991417 0.326999992132 0.101999998093 867.0
0.955999970436 0.319999992847 0.101000003517 867.0
0.958999991417 0.31400001049 0.101000003517 862.0
0.958999991417 0.307999998331 0.101000003517 864.0
0.953999996185 0.300000011921 0.101000003517 869.0
0.962999999523 0.29699999094 0.101000003517 857.0
0.958999991417 0.28900000453 0.101000003517 852.0
0.966000020504 0.284999996424 0.101000003517 870.0
0.959999978542 0.277999997139 0.101000003517 856.0
0.961000025272 0.272000014782 0.101000003517 866.0
0.962000012398 0.266000002623 0.101000003517 875.0
0.963999986649 0.259999990463 0.101000003517 857.0
0.964999973774 0.254999995232 0.101000003517 896.0
0.971000015736 0.25 0.101000003517 908.0
0.966000020504 0.243000000715 0.101000003517 921.0
0.966000020504 0.237000003457 0.101000003517 924.0
0.964999973774 0.231000006199 0.10000000149 938.0
0.963999986649 0.22499999404 0.10000000149 953.0
0.96899998188 0.219999998808 0.101000003517 956.0
0.963999986649 0.212999999523 0.10000000149 946.0
0.97000002861 0.208000004292 0.101000003517 939.0
0.971000015736 0.202000007033 0.101000003517 928.0
0.963999986649 0.194999992847 0.10000000149 901.0
0.967000007629 0.189999997616 0.10000000149 884.0
0.967999994755 0.184000000358 0.10000000149 873.0
0.967999994755 0.178000003099 0.10000000149 879.0
0.96899998188 0.172999992967 0.10000000149 892.0
0.96899998188 0.166999995708 0.10000000149 884.0
0.96899998188 0.16099999845 0.10000000149 877.0
0.976999998093 0.157000005245 0.101000003517 877.0
0.973999977112 0.150999993086 0.10000000149 885.0
0.973999977112 0.144999995828 0.10000000149 891.0
0.971000015736 0.138999998569 0.10000000149 886.0
0.972999989986 0.133000001311 0.10000000149 910.0
0.978999972343 0.12800000608 0.101000003517 907.0
0.977999985218 0.122000001371 0.101000003517 904.0
0.978999972343 0.116999998689 0.101000003517 893.0
0.978999972343 0.111000001431 0.101000003517 893.0
0.98400002718 0.105999998748 0.101000003517 901.0
0.981999993324 0.10000000149 0.101000003517 900.0
0.977999985218 0.0939999967813 0.101000003517 898.0
0.981999993324 0.0890000015497 0.101000003517 901.0
0.98400002718 0.082999996841 0.101000003517 888.0
0.98400002718 0.0769999995828 0.101000003517 878.0
0.978999972343 0.0710000023246 0.101000003517 880.0
0.981999993324 0.0659999996424 0.101000003517 900.0
0.981999993324 0.0599999986589 0.101000003517 900.0
0.980000019073 0.0540000014007 0.101000003517 907.0
0.98299998045 0.0489999987185 0.101000003517 909.0
0.981999993324 0.0430000014603 0.101000003517 898.0
0.97000002861 0.0370000004768 0.10000000149 845.0
0.925999999046 0.0299999993294 0.0949999988079 306.0
1.01600003242 -0.0599999986589 0.104999996722 1103.0
1.00999999046 -0.0649999976158 0.104000002146 1177.0
1.01100003719 -0.0710000023246 0.104999996722 1192.0
1.00300002098 -0.0759999975562 0.104000002146 1194.0
1.00100004673 -0.082000002265 0.104000002146 1195.0
1.00100004673 -0.0879999995232 0.104000002146 1207.0
1.00600004196 -0.0939999967813 0.104000002146 1206.0
0.998000025749 -0.0989999994636 0.104000002146 1224.0
0.999000012875 -0.104999996722 0.104000002146 1222.0
0.995999991894 -0.109999999404 0.104000002146 1237.0
0.994000017643 -0.115999996662 0.103000000119 1247.0
0.995999991894 -0.122000001371 0.104000002146 1256.0
0.990999996662 -0.127000004053 0.103000000119 1250.0
0.986999988556 -0.133000001311 0.103000000119 1267.0
0.98400002718 -0.137999996543 0.103000000119 1231.0
0.944000005722 -0.137999996543 0.0989999994636 463.0
0.897000014782 -0.136000007391 0.0939999967813 181.0
0.920000016689 -0.144999995828 0.0960000008345 178.0
0.912999987602 -0.149000003934 0.0960000008345 181.0
0.911000013351 -0.153999999166 0.0949999988079 183.0
0.90600001812 -0.158999994397 0.0949999988079 180.0
0.907999992371 -0.165000006557 0.0949999988079 184.0
0.922999978065 -0.172999992967 0.097000002861 183.0
0.889999985695 -0.172000005841 0.0939999967813 193.0
0.903999984264 -0.180000007153 0.0949999988079 189.0
0.916000008583 -0.187999993563 0.097000002861 189.0
0.896000027657 -0.189999997616 0.0949999988079 193.0
0.90499997139 -0.196999996901 0.0960000008345 181.0
0.912999987602 -0.203999996185 0.097000002861 191.0
0.977999985218 -0.22499999404 0.104000002146 603.0
0.967999994755 -0.229000002146 0.103000000119 1350.0
0.959999978542 -0.232999995351 0.101999998093 1407.0
0.957000017166 -0.238000005484 0.101999998093 1415.0
0.955999970436 -0.244000002742 0.101999998093 1424.0
0.961000025272 -0.250999987125 0.103000000119 1446.0
0.950999975204 -0.254000008106 0.101999998093 1453.0
0.95300000906 -0.261000007391 0.101999998093 1445.0
0.952000021935 -0.266000002623 0.101999998093 1452.0
0.952000021935 -0.273000001907 0.103000000119 1454.0
0.940999984741 -0.27500000596 0.101000003517 1473.0
0.944999992847 -0.282999992371 0.101999998093 1467.0
0.940999984741 -0.287000000477 0.101999998093 1469.0
0.940999984741 -0.293999999762 0.101999998093 1483.0
0.931999981403 -0.29699999094 0.101000003517 1416.0
0.888999998569 -0.28900000453 0.097000002861 471.0
0.865000009537 -0.286000013351 0.0939999967813 216.0
0.875 -0.294999986887 0.0949999988079 209.0
0.850000023842 -0.293000012636 0.0930000022054 215.0
0.851999998093 -0.298999994993 0.0930000022054 209.0
0.885999977589 -0.317000001669 0.097000002861 214.0
0.884000003338 -0.321999996901 0.097000002861 211.0
0.851999998093 -0.316000014544 0.0939999967813 215.0
0.861000001431 -0.324999988079 0.0949999988079 211.0
0.865000009537 -0.333000004292 0.0960000008345 207.0
0.861999988556 -0.337999999523 0.0960000008345 224.0
0.842000007629 -0.33599999547 0.0939999967813 223.0
0.848999977112 -0.344999998808 0.0949999988079 223.0
0.852999985218 -0.351999998093 0.0949999988079 235.0
0.920000016689 -0.386999994516 0.103000000119 1059.0
0.90600001812 -0.386999994516 0.101999998093 1515.0
0.903999984264 -0.393000006676 0.101999998093 1526.0
0.902999997139 -0.398999989033 0.101999998093 1537.0
0.897000014782 -0.402999997139 0.101999998093 1539.0
0.894999980927 -0.407999992371 0.101999998093 1531.0
0.897000014782 -0.416000008583 0.101999998093 1513.0
0.893000006676 -0.421000003815 0.101999998093 1529.0
0.896000027657 -0.428999990225 0.103000000119 1513.0
0.893999993801 -0.435000002384 0.103000000119 1501.0
0.888000011444 -0.437999993563 0.101999998093 1498.0
0.889999985695 -0.446000009775 0.103000000119 1475.0
0.883000016212 -0.449000000954 0.101999998093 1473.0
0.870000004768 -0.449999988079 0.101000003517 1256.0
0.846000015736 -0.444000005722 0.0989999994636 496.0
0.834999978542 -0.444000005722 0.097999997437 380.0
0.837000012398 -0.45300000906 0.097999997437 396.0
0.84500002861 -0.463999986649 0.10000000149 426.0
0.851000010967 -0.474000006914 0.101000003517 450.0
0.924000024796 0.532000005245 0.0989999994636 811.0
0.926999986172 0.527000010014 0.0989999994636 798.0
0.924000024796 0.51700001955 0.097999997437 793.0
0.925999999046 0.510999977589 0.097999997437 773.0
0.931999981403 0.505999982357 0.0989999994636 763.0
0.920000016689 0.49200001359 0.097000002861 763.0
0.92199999094 0.486999988556 0.097000002861 760.0
0.93900001049 0.488000005484 0.0989999994636 757.0
0.93900001049 0.481000006199 0.097999997437 736.0
0.93599998951 0.472000002861 0.097999997437 732.0
0.934000015259 0.463999986649 0.097000002861 736.0
0.935000002384 0.456999987364 0.097000002861 715.0
0.93900001049 0.451999992132 0.097000002861 706.0
0.938000023365 0.444000005722 0.097000002861 699.0
0.938000023365 0.437000006437 0.097000002861 692.0
0.935000002384 0.428999990225 0.0960000008345 690.0
0.93900001049 0.423999994993 0.097000002861 681.0
0.930999994278 0.41400000453 0.0960000008345 667.0
0.944000005722 0.412999987602 0.097000002861 662.0
0.940999984741 0.405000001192 0.0960000008345 650.0
0.940999984741 0.398000001907 0.0960000008345 642.0
0.939999997616 0.391000002623 0.0960000008345 641.0
0.943000018597 0.386000007391 0.0960000008345 616.0
0.943000018597 0.379000008106 0.0960000008345 599.0
0.941999971867 0.372000008821 0.0949999988079 591.0
0.947000026703 0.368000000715 0.0960000008345 585.0
0.943000018597 0.358999997377 0.0949999988079 560.0
0.943000018597 0.352999985218 0.0949999988079 547.0
0.93900001049 0.344999998808 0.0939999967813 543.0
0.944000005722 0.340999990702 0.0949999988079 525.0
0.93900001049 0.333000004292 0.0939999967813 511.0
0.93900001049 0.326000005007 0.0939999967813 497.0
0.930000007153 0.317000001669 0.0930000022054 478.0
0.952000021935 0.317999988794 0.0949999988079 478.0
0.929000020027 0.303999990225 0.0930000022054 461.0
0.934000015259 0.300000011921 0.0930000022054 452.0
0.925999999046 0.291000008583 0.0920000001788 443.0
0.927999973297 0.286000013351 0.0920000001788 444.0
0.927999973297 0.280000001192 0.0920000001788 434.0
0.929000020027 0.273999989033 0.0920000001788 432.0
0.93599998951 0.270999997854 0.0930000022054 412.0
0.930999994278 0.263000011444 0.0920000001788 415.0
0.93900001049 0.259000003338 0.0930000022054 424.0
0.938000023365 0.252999991179 0.0920000001788 415.0
0.93900001049 0.24699999392 0.0920000001788 404.0
0.924000024796 0.238000005484 0.0909999981523 382.0
0.929000020027 0.232999995351 0.0909999981523 374.0
0.930000007153 0.228000000119 0.0909999981523 384.0
0.939999997616 0.224000006914 0.0920000001788 383.0
0.926999986172 0.216000005603 0.0909999981523 371.0
0.931999981403 0.21099999547 0.0909999981523 358.0
0.930999994278 0.204999998212 0.0909999981523 356.0
0.92199999094 0.197999998927 0.0900000035763 354.0
0.958999991417 0.20000000298 0.0939999967813 349.0
0.967999994755 0.195999994874 0.0949999988079 356.0
0.967999994755 0.189999997616 0.0939999967813 346.0
0.963999986649 0.182999998331 0.0939999967813 337.0
0.978999972343 0.180000007153 0.0949999988079 338.0
0.96899998188 0.172999992967 0.0939999967813 333.0
0.963999986649 0.165999993682 0.0939999967813 326.0
0.954999983311 0.158999994397 0.0930000022054 319.0
0.961000025272 0.153999999166 0.0930000022054 314.0
0.971000015736 0.15000000596 0.0939999967813 312.0
0.977999985218 0.144999995828 0.0949999988079 309.0
0.963999986649 0.137999996543 0.0939999967813 310.0
0.972999989986 0.133000001311 0.0939999967813 312.0
0.973999977112 0.12800000608 0.0939999967813 317.0
0.959999978542 0.119999997318 0.0930000022054 311.0
0.976999998093 0.116999998689 0.0949999988079 315.0
0.98299998045 0.111000001431 0.0949999988079 318.0
0.978999972343 0.104999996722 0.0949999988079 322.0
0.980000019073 0.10000000149 0.0949999988079 325.0
0.986000001431 0.0949999988079 0.0960000008345 325.0
0.975000023842 0.0879999995232 0.0939999967813 327.0
0.977999985218 0.082000002265 0.0949999988079 325.0
0.986999988556 0.0769999995828 0.0960000008345 320.0
0.981999993324 0.0710000023246 0.0949999988079 321.0
0.985000014305 0.0659999996424 0.0949999988079 320.0
0.972000002861 0.0590000003576 0.0939999967813 324.0
0.991999983788 0.054999999702 0.0960000008345 314.0
0.967999994755 0.0480000004172 0.0939999967813 321.0
0.981000006199 0.0430000014603 0.0949999988079 321.0
0.977999985218 0.0370000004768 0.0949999988079 291.0
0.954999983311 0.0309999994934 0.0920000001788 162.0
1.01499998569 -0.0599999986589 0.0989999994636 1114.0
1.00800001621 -0.0649999976158 0.097999997437 1182.0
1.00899994373 -0.0710000023246 0.097999997437 1189.0
1.00100004673 -0.0759999975562 0.097999997437 1191.0
1.00999999046 -0.082999996841 0.0989999994636 1214.0
1.00300002098 -0.0879999995232 0.097999997437 1202.0
1.00100004673 -0.0939999967813 0.097999997437 1212.0
0.998000025749 -0.0989999994636 0.097999997437 1220.0
0.998000025749 -0.104999996722 0.097999997437 1225.0
0.995000004768 -0.109999999404 0.097999997437 1231.0
0.994000017643 -0.115999996662 0.097999997437 1248.0
0.995000004768 -0.122000001371 0.097999997437 1253.0
0.987999975681 -0.127000004053 0.097000002861 1262.0
0.986999988556 -0.131999999285 0.097000002861 1268.0
0.985000014305 -0.137999996543 0.097000002861 1222.0
0.940999984741 -0.136999994516 0.0930000022054 447.0
0.893000006676 -0.135000005364 0.0879999995232 174.0
0.92199999094 -0.144999995828 0.0909999981523 169.0
0.922999978065 -0.150999993086 0.0909999981523 181.0
0.90600001812 -0.152999997139 0.0890000015497 178.0
