ply
format ascii 1.0
element vertex 905
property float x
property float y
property float z
property float intensity
end_header
0.85900002718 -0.375999987125 -0.209999993443 1669.0
0.853999972343 -0.379999995232 -0.209000006318 1676.0
0.851000010967 -0.384999990463 -0.209000006318 1660.0
0.860000014305 -0.395000010729 -0.211999997497 1641.0
0.852999985218 -0.398999989033 -0.209999993443 1677.0
0.851999998093 -0.405000001192 -0.21099999547 1682.0
0.852999985218 -0.412000000477 -0.211999997497 1685.0
0.851000010967 -0.416999995708 -0.21099999547 1658.0
0.855000019073 -0.425999999046 -0.212999999523 1657.0
0.847999989986 -0.428999990225 -0.211999997497 1666.0
0.847000002861 -0.435000002384 -0.211999997497 1668.0
0.84500002861 -0.441000014544 -0.211999997497 1692.0
0.842999994755 -0.446999996901 -0.211999997497 1690.0
0.847000002861 -0.455000013113 -0.21400000155 1651.0
0.841000020504 -0.458999991417 -0.212999999523 1634.0
0.84399998188 -0.467999994755 -0.21400000155 1631.0
0.84399998188 -0.47499999404 -0.215000003576 1622.0
0.838999986649 -0.479000002146 -0.21400000155 1629.0
2.05900001526 1.2120000124 -0.555999994278 203.0
2.03600001335 1.18099999428 -0.547999978065 154.0
2.00999999046 1.13199996948 -0.537999987602 108.0
2.02999997139 1.12600004673 -0.541000008583 199.0
2.05100011826 1.1210000515 -0.545000016689 294.0
2.06500005722 1.11199998856 -0.54699999094 288.0
2.08800005913 1.10699999332 -0.551999986172 159.0
2.09800004959 1.09599995613 -0.552999973297 123.0
2.14599990845 1.10399997234 -0.56400001049 231.0
2.19799995422 1.11300003529 -0.575999975204 314.0
2.21799993515 1.10599994659 -0.578999996185 172.0
2.24000000954 1.09899997711 -0.583000004292 78.0
3.22499990463 1.20399999619 -0.808000028133 97.0
3.1970000267 1.17200005054 -0.799000024796 81.0
0.991999983788 -0.054999999702 -0.232999995351 201.0
0.916000008583 -0.0560000017285 -0.215000003576 1225.0
0.902999997139 -0.0610000006855 -0.211999997497 1484.0
0.90600001812 -0.0659999996424 -0.212999999523 1507.0
0.902999997139 -0.0710000023246 -0.211999997497 1513.0
0.899999976158 -0.0759999975562 -0.211999997497 1514.0
0.90499997139 -0.082000002265 -0.212999999523 1520.0
0.901000022888 -0.0869999974966 -0.211999997497 1532.0
0.907000005245 -0.0930000022054 -0.212999999523 1545.0
0.898000001907 -0.097000002861 -0.21099999547 1525.0
0.901000022888 -0.103000000119 -0.211999997497 1534.0
0.899999976158 -0.108000002801 -0.211999997497 1562.0
0.898999989033 -0.11400000006 -0.211999997497 1567.0
0.898000001907 -0.119000002742 -0.211999997497 1546.0
0.898999989033 -0.123999997973 -0.211999997497 1570.0
0.893000006676 -0.128999993205 -0.21099999547 1586.0
0.893999993801 -0.134000003338 -0.21099999547 1589.0
0.896000027657 -0.140000000596 -0.211999997497 1579.0
0.89200001955 -0.144999995828 -0.21099999547 1583.0
0.893000006676 -0.15000000596 -0.21099999547 1605.0
0.89200001955 -0.155000001192 -0.21099999547 1605.0
0.887000024319 -0.159999996424 -0.209999993443 1589.0
0.898000001907 -0.167999997735 -0.212999999523 1576.0
0.887000024319 -0.171000003815 -0.21099999547 1612.0
0.888999998569 -0.177000001073 -0.21099999547 1619.0
0.883000016212 -0.180999994278 -0.209999993443 1619.0
0.884999990463 -0.187000006437 -0.21099999547 1604.0
0.893000006676 -0.194000005722 -0.212999999523 1614.0
0.887000024319 -0.197999998927 -0.211999997497 1605.0
0.885999977589 -0.203999996185 -0.211999997497 1609.0
0.884999990463 -0.209000006318 -0.21099999547 1624.0
0.888999998569 -0.215000003576 -0.212999999523 1643.0
0.882000029087 -0.218999996781 -0.21099999547 1635.0
0.879000008106 -0.224000006914 -0.21099999547 1604.0
0.880999982357 -0.230000004172 -0.21099999547 1655.0
0.875999987125 -0.234999999404 -0.21099999547 1669.0
0.878000020981 -0.240999996662 -0.21099999547 1663.0
0.880999982357 -0.24699999392 -0.211999997497 1663.0
0.879999995232 -0.252999991179 -0.211999997497 1661.0
0.874000012875 -0.256000012159 -0.21099999547 1670.0
0.870999991894 -0.261000007391 -0.21099999547 1662.0
0.879000008106 -0.268999993801 -0.212999999523 1655.0
0.874000012875 -0.273999989033 -0.211999997497 1666.0
0.876999974251 -0.280000001192 -0.212999999523 1672.0
0.873000025749 -0.284999996424 -0.212999999523 1664.0
0.873000025749 -0.291000008583 -0.212999999523 1669.0
0.870000004768 -0.296000003815 -0.212999999523 1665.0
0.866999983788 -0.300000011921 -0.211999997497 1678.0
0.871999979019 -0.307999998331 -0.21400000155 1650.0
0.870000004768 -0.312999993563 -0.21400000155 1657.0
0.864000022411 -0.317000001669 -0.212999999523 1661.0
0.866999983788 -0.324000000954 -0.21400000155 1660.0
0.870000004768 -0.331000000238 -0.215000003576 1674.0
0.85900002718 -0.333000004292 -0.211999997497 1654.0
0.864000022411 -0.340999990702 -0.21400000155 1651.0
0.861000001431 -0.345999985933 -0.21400000155 1649.0
0.861999988556 -0.352999985218 -0.215000003576 1662.0
0.862999975681 -0.358999997377 -0.215000003576 1664.0
0.85799998045 -0.363000005484 -0.21400000155 1650.0
0.856000006199 -0.368999987841 -0.21400000155 1657.0
0.856999993324 -0.375999987125 -0.215000003576 1650.0
0.852999985218 -0.379999995232 -0.215000003576 1671.0
0.85900002718 -0.388999998569 -0.216999992728 1653.0
0.855000019073 -0.393999993801 -0.216000005603 1645.0
0.855000019073 -0.40000000596 -0.216999992728 1687.0
0.855000019073 -0.407000005245 -0.216999992728 1663.0
0.850000023842 -0.411000013351 -0.216999992728 1674.0
0.851999998093 -0.418000012636 -0.216999992728 1663.0
0.847999989986 -0.423000007868 -0.216999992728 1655.0
0.847000002861 -0.428999990225 -0.216999992728 1644.0
0.853999972343 -0.43900001049 -0.219999998808 1668.0
0.851999998093 -0.444999992847 -0.219999998808 1700.0
0.847999989986 -0.449999988079 -0.218999996781 1680.0
0.848999977112 -0.456999987364 -0.219999998808 1646.0
0.847000002861 -0.462999999523 -0.219999998808 1629.0
0.842999994755 -0.467999994755 -0.219999998808 1623.0
0.842000007629 -0.474000006914 -0.219999998808 1627.0
0.838999986649 -0.479999989271 -0.219999998808 1639.0
1.94400000572 1.09599995613 -0.533999979496 98.0
2.03399991989 1.12999999523 -0.556999981403 132.0
2.04099988937 1.11699998379 -0.556999981403 177.0
2.06500005722 1.11300003529 -0.561999976635 184.0
2.06100010872 1.09500002861 -0.559000015259 150.0
2.03999996185 1.06700003147 -0.550999999046 118.0
2.10899996758 1.08599996567 -0.568000018597 150.0
2.1819999218 1.10699999332 -0.587000012398 286.0
2.22600007057 1.11099994183 -0.597000002861 186.0
2.28200006485 1.1210000515 -0.610000014305 84.0
0.976999998093 -0.0540000014007 -0.234999999404 238.0
0.911000013351 -0.0560000017285 -0.219999998808 1263.0
0.90600001812 -0.0610000006855 -0.217999994755 1505.0
0.902000010014 -0.0659999996424 -0.216999992728 1525.0
0.901000022888 -0.0710000023246 -0.216999992728 1517.0
0.902000010014 -0.0769999995828 -0.216999992728 1524.0
0.903999984264 -0.082000002265 -0.217999994755 1517.0
0.902000010014 -0.0869999974966 -0.217999994755 1535.0
0.90600001812 -0.0930000022054 -0.218999996781 1539.0
0.902000010014 -0.097999997437 -0.217999994755 1525.0
0.897000014782 -0.103000000119 -0.216999992728 1531.0
0.898000001907 -0.108000002801 -0.216999992728 1550.0
0.898000001907 -0.11400000006 -0.216999992728 1556.0
0.901000022888 -0.119000002742 -0.217999994755 1565.0
0.894999980927 -0.123999997973 -0.216999992728 1576.0
0.898999989033 -0.129999995232 -0.217999994755 1581.0
0.897000014782 -0.135000005364 -0.216999992728 1601.0
0.893000006676 -0.140000000596 -0.216999992728 1583.0
0.898999989033 -0.145999997854 -0.217999994755 1604.0
0.893999993801 -0.150999993086 -0.216999992728 1603.0
0.887000024319 -0.155000001192 -0.216000005603 1600.0
0.893999993801 -0.162000000477 -0.216999992728 1597.0
0.893000006676 -0.166999995708 -0.216999992728 1577.0
0.89099997282 -0.172000005841 -0.216999992728 1598.0
0.893000006676 -0.178000003099 -0.217999994755 1621.0
0.889999985695 -0.182999998331 -0.216999992728 1611.0
0.887000024319 -0.187999993563 -0.216999992728 1611.0
0.887000024319 -0.193000003695 -0.216999992728 1605.0
0.888000011444 -0.199000000954 -0.216999992728 1616.0
0.888000011444 -0.203999996185 -0.217999994755 1624.0
0.883000016212 -0.209000006318 -0.216999992728 1633.0
0.879999995232 -0.21400000155 -0.216000005603 1639.0
0.884999990463 -0.219999998808 -0.217999994755 1620.0
0.880999982357 -0.22499999404 -0.216999992728 1621.0
0.879999995232 -0.230000004172 -0.216999992728 1635.0
0.879999995232 -0.236000001431 -0.216999992728 1647.0
0.876999974251 -0.240999996662 -0.216999992728 1646.0
0.875999987125 -0.246000006795 -0.216999992728 1646.0
0.878000020981 -0.252000004053 -0.217999994755 1639.0
0.879000008106 -0.25799998641 -0.217999994755 1666.0
0.875999987125 -0.263000011444 -0.217999994755 1656.0
0.875 -0.268999993801 -0.217999994755 1646.0
0.874000012875 -0.273999989033 -0.217999994755 1662.0
0.873000025749 -0.280000001192 -0.217999994755 1666.0
0.867999970913 -0.284000009298 -0.216999992728 1670.0
0.870999991894 -0.289999991655 -0.217999994755 1670.0
0.870999991894 -0.296000003815 -0.217999994755 1663.0
0.867999970913 -0.300999999046 -0.217999994755 1671.0
0.864000022411 -0.305999994278 -0.216999992728 1674.0
0.867999970913 -0.312999993563 -0.218999996781 1651.0
0.861999988556 -0.317000001669 -0.217999994755 1648.0
0.866999983788 -0.324999988079 -0.218999996781 1659.0
0.862999975681 -0.328999996185 -0.218999996781 1653.0
0.866999983788 -0.337000012398 -0.219999998808 1656.0
0.862999975681 -0.340999990702 -0.219999998808 1649.0
0.85900002718 -0.345999985933 -0.218999996781 1669.0
0.860000014305 -0.351999998093 -0.219999998808 1644.0
0.85799998045 -0.358000010252 -0.219999998808 1639.0
0.861999988556 -0.365999996662 -0.221000000834 1633.0
0.85799998045 -0.370000004768 -0.221000000834 1649.0
0.856999993324 -0.375999987125 -0.221000000834 1651.0
0.851999998093 -0.379999995232 -0.219999998808 1659.0
0.852999985218 -0.386999994516 -0.221000000834 1633.0
0.853999972343 -0.393999993801 -0.222000002861 1629.0
0.856000006199 -0.400999993086 -0.223000004888 1656.0
0.851999998093 -0.405999988317 -0.222000002861 1646.0
0.852999985218 -0.412999987602 -0.223000004888 1652.0
0.851999998093 -0.418999999762 -0.223000004888 1642.0
0.846000015736 -0.42199999094 -0.222000002861 1645.0
0.847000002861 -0.430000007153 -0.223000004888 1626.0
0.839999973774 -0.432999998331 -0.222000002861 1631.0
0.84500002861 -0.442000001669 -0.224000006914 1673.0
0.842999994755 -0.448000013828 -0.224000006914 1662.0
0.842000007629 -0.453999996185 -0.224000006914 1632.0
0.847000002861 -0.463999986649 -0.225999996066 1615.0
0.847999989986 -0.470999985933 -0.226999998093 1638.0
0.837999999523 -0.472999989986 -0.22499999404 1631.0
0.839999973774 -0.481000006199 -0.225999996066 1638.0
1.93599998951 1.09300005436 -0.545000016689 84.0
1.98599994183 1.10500001907 -0.556999981403 91.0
1.97500002384 1.08200001717 -0.552999973297 123.0
2.0 1.08000004292 -0.558000028133 138.0
2.01999998093 1.07400000095 -0.561999976635 130.0
2.08699989319 1.09300005436 -0.578999996185 121.0
2.14700007439 1.10699999332 -0.59399998188 182.0
2.18899989128 1.11199998856 -0.602999985218 294.0
2.20300006866 1.10099995136 -0.606000006199 189.0
2.19099998474 1.07799994946 -0.601000010967 98.0
0.995000004768 -0.0560000017285 -0.246000006795 270.0
0.912999987602 -0.0560000017285 -0.225999996066 1253.0
0.902000010014 -0.0610000006855 -0.223000004888 1473.0
0.907000005245 -0.0659999996424 -0.224000006914 1497.0
0.901000022888 -0.0710000023246 -0.223000004888 1519.0
0.903999984264 -0.0769999995828 -0.224000006914 1528.0
0.90499997139 -0.082000002265 -0.224000006914 1521.0
0.902999997139 -0.0869999974966 -0.224000006914 1527.0
0.903999984264 -0.0930000022054 -0.224000006914 1533.0
0.899999976158 -0.097999997437 -0.223000004888 1520.0
0.901000022888 -0.103000000119 -0.223000004888 1522.0
0.898999989033 -0.108999997377 -0.223000004888 1542.0
0.896000027657 -0.11400000006 -0.222000002861 1563.0
0.896000027657 -0.119000002742 -0.222000002861 1571.0
0.898000001907 -0.123999997973 -0.223000004888 1564.0
0.901000022888 -0.129999995232 -0.224000006914 1583.0
0.893999993801 -0.135000005364 -0.222000002861 1574.0
0.894999980927 -0.140000000596 -0.223000004888 1575.0
0.888000011444 -0.144999995828 -0.221000000834 1576.0
0.893999993801 -0.150999993086 -0.223000004888 1594.0
0.893999993801 -0.156000003219 -0.223000004888 1595.0
0.894999980927 -0.162000000477 -0.223000004888 1585.0
0.893999993801 -0.166999995708 -0.223000004888 1590.0
0.889999985695 -0.172000005841 -0.222000002861 1607.0
0.884000003338 -0.175999999046 -0.221000000834 1591.0
0.884000003338 -0.181999996305 -0.221000000834 1599.0
0.880999982357 -0.186000004411 -0.221000000834 1617.0
0.887000024319 -0.193000003695 -0.222000002861 1617.0
0.883000016212 -0.197999998927 -0.222000002861 1609.0
0.888000011444 -0.204999998212 -0.223000004888 1605.0
0.887000024319 -0.209999993443 -0.223000004888 1631.0
0.878000020981 -0.212999999523 -0.221000000834 1638.0
0.875999987125 -0.217999994755 -0.221000000834 1628.0
0.880999982357 -0.22499999404 -0.222000002861 1635.0
0.884000003338 -0.231999993324 -0.223000004888 1643.0
0.880999982357 -0.237000003457 -0.223000004888 1648.0
0.880999982357 -0.241999998689 -0.223000004888 1639.0
0.879000008106 -0.24699999392 -0.223000004888 1620.0
0.875999987125 -0.252000004053 -0.223000004888 1626.0
0.878000020981 -0.25799998641 -0.223000004888 1649.0
0.870000004768 -0.261999994516 -0.222000002861 1652.0
0.874000012875 -0.268999993801 -0.223000004888 1645.0
0.870999991894 -0.273999989033 -0.223000004888 1661.0
0.871999979019 -0.279000014067 -0.223000004888 1665.0
0.869000017643 -0.284000009298 -0.223000004888 1668.0
0.870999991894 -0.291000008583 -0.224000006914 1677.0
0.865000009537 -0.294999986887 -0.223000004888 1665.0
0.871999979019 -0.303000003099 -0.22499999404 1673.0
0.866999983788 -0.307000011206 -0.224000006914 1664.0
0.870000004768 -0.31400001049 -0.22499999404 1660.0
0.865000009537 -0.317999988794 -0.224000006914 1660.0
0.862999975681 -0.324000000954 -0.224000006914 1661.0
0.864000022411 -0.330000013113 -0.22499999404 1655.0
0.855000019073 -0.333000004292 -0.223000004888 1645.0
0.862999975681 -0.342000007629 -0.22499999404 1653.0
0.861000001431 -0.347000002861 -0.22499999404 1655.0
0.85799998045 -0.351999998093 -0.22499999404 1656.0
0.856999993324 -0.358000010252 -0.22499999404 1644.0
0.85799998045 -0.363999992609 -0.225999996066 1648.0
0.856000006199 -0.370000004768 -0.225999996066 1641.0
0.860000014305 -0.377999991179 -0.226999998093 1640.0
0.856999993324 -0.38299998641 -0.226999998093 1634.0
0.852999985218 -0.386999994516 -0.226999998093 1637.0
0.853999972343 -0.393999993801 -0.226999998093 1628.0
0.851999998093 -0.40000000596 -0.228000000119 1647.0
0.851000010967 -0.405999988317 -0.228000000119 1660.0
0.851999998093 -0.412999987602 -0.229000002146 1648.0
0.848999977112 -0.418000012636 -0.228000000119 1657.0
0.851999998093 -0.425999999046 -0.230000004172 1649.0
0.847000002861 -0.430000007153 -0.229000002146 1632.0
0.850000023842 -0.43900001049 -0.230000004172 1636.0
0.842999994755 -0.442000001669 -0.229000002146 1668.0
0.841000020504 -0.446999996901 -0.229000002146 1656.0
0.84500002861 -0.456999987364 -0.231000006199 1634.0
0.842000007629 -0.462000012398 -0.231000006199 1619.0
0.847000002861 -0.472000002861 -0.232999995351 1656.0
0.839999973774 -0.474000006914 -0.231999993324 1626.0
0.84399998188 -0.483999997377 -0.233999997377 1651.0
1.83000004292 1.06599998474 -0.532000005245 84.0
1.88100004196 1.06400001049 -0.542999982834 88.0
1.88699996471 1.05099999905 -0.542999982834 113.0
1.93299996853 1.06099998951 -0.555000007153 143.0
2.01300001144 1.08899998665 -0.575999975204 144.0
1.9960000515 1.06299996376 -0.569000005722 130.0
2.05500006676 1.07799994946 -0.583999991417 144.0
2.18499994278 1.1289999485 -0.619000017643 221.0
2.16799998283 1.10300004482 -0.612999975681 328.0
2.21199989319 1.10699999332 -0.623000025749 202.0
2.22000002861 1.09399998188 -0.624000012875 106.0
0.97000002861 -0.0540000014007 -0.246000006795 307.0
0.908999979496 -0.0560000017285 -0.230000004172 1274.0
0.902000010014 -0.0610000006855 -0.228000000119 1391.0
0.90600001812 -0.0659999996424 -0.230000004172 1461.0
0.899999976158 -0.0710000023246 -0.228000000119 1500.0
0.901000022888 -0.0769999995828 -0.228000000119 1512.0
0.902000010014 -0.082000002265 -0.229000002146 1502.0
0.902000010014 -0.0879999995232 -0.229000002146 1515.0
0.901000022888 -0.0930000022054 -0.229000002146 1516.0
0.896000027657 -0.097999997437 -0.228000000119 1511.0
0.897000014782 -0.103000000119 -0.228000000119 1516.0
0.902999997139 -0.108999997377 -0.229000002146 1552.0
0.896000027657 -0.11400000006 -0.228000000119 1562.0
0.897000014782 -0.119000002742 -0.228000000119 1575.0
0.894999980927 -0.123999997973 -0.228000000119 1551.0
0.893999993801 -0.129999995232 -0.228000000119 1558.0
0.896000027657 -0.135000005364 -0.228000000119 1588.0
0.89200001955 -0.140000000596 -0.228000000119 1567.0
0.894999980927 -0.145999997854 -0.228000000119 1585.0
0.89200001955 -0.150999993086 -0.228000000119 1585.0
0.894999980927 -0.157000005245 -0.229000002146 1594.0
0.89099997282 -0.162000000477 -0.228000000119 1604.0
0.887000024319 -0.165999993682 -0.226999998093 1598.0
0.889999985695 -0.172000005841 -0.228000000119 1590.0
0.884000003338 -0.175999999046 -0.226999998093 1607.0
0.884000003338 -0.181999996305 -0.226999998093 1605.0
0.885999977589 -0.187999993563 -0.228000000119 1593.0
0.884999990463 -0.193000003695 -0.228000000119 1620.0
0.883000016212 -0.197999998927 -0.226999998093 1614.0
0.884000003338 -0.203999996185 -0.228000000119 1619.0
0.879999995232 -0.208000004292 -0.226999998093 1617.0
0.884999990463 -0.215000003576 -0.229000002146 1634.0
0.880999982357 -0.219999998808 -0.228000000119 1629.0
0.879999995232 -0.22499999404 -0.228000000119 1639.0
0.879999995232 -0.231000006199 -0.228000000119 1644.0
0.883000016212 -0.237000003457 -0.229000002146 1642.0
0.875999987125 -0.240999996662 -0.228000000119 1638.0
0.875999987125 -0.24699999392 -0.228000000119 1644.0
0.878000020981 -0.252999991179 -0.229000002146 1640.0
0.875 -0.25799998641 -0.228000000119 1646.0
0.870000004768 -0.261999994516 -0.226999998093 1642.0
0.873000025749 -0.268999993801 -0.228000000119 1639.0
0.865000009537 -0.272000014782 -0.226999998093 1660.0
0.871999979019 -0.280000001192 -0.229000002146 1677.0
0.866999983788 -0.284000009298 -0.228000000119 1673.0
0.867999970913 -0.289999991655 -0.229000002146 1673.0
0.870000004768 -0.29699999094 -0.230000004172 1664.0
0.866999983788 -0.301999986172 -0.229000002146 1668.0
0.861999988556 -0.305999994278 -0.228000000119 1676.0
0.865999996662 -0.312999993563 -0.230000004172 1651.0
0.862999975681 -0.317999988794 -0.229000002146 1643.0
0.864000022411 -0.324000000954 -0.230000004172 1660.0
0.865999996662 -0.331000000238 -0.231000006199 1652.0
0.861999988556 -0.33599999547 -0.230000004172 1663.0
0.860000014305 -0.340999990702 -0.230000004172 1658.0
0.861000001431 -0.347000002861 -0.231000006199 1651.0
0.85900002718 -0.352999985218 -0.231000006199 1665.0
0.85799998045 -0.358999997377 -0.231000006199 1655.0
0.856999993324 -0.365000009537 -0.231000006199 1649.0
0.856999993324 -0.370999991894 -0.231999993324 1670.0
0.85799998045 -0.377000004053 -0.232999995351 1650.0
0.856999993324 -0.384000003338 -0.232999995351 1660.0
0.852999985218 -0.388000011444 -0.231999993324 1655.0
0.85799998045 -0.397000014782 -0.233999997377 1640.0
0.853999972343 -0.402000010014 -0.233999997377 1655.0
0.848999977112 -0.405999988317 -0.232999995351 1657.0
0.847999989986 -0.412000000477 -0.232999995351 1661.0
0.850000023842 -0.418999999762 -0.234999999404 1685.0
0.850000023842 -0.425999999046 -0.234999999404 1655.0
0.848999977112 -0.432000011206 -0.236000001431 1622.0
0.847999989986 -0.437999993563 -0.236000001431 1647.0
0.847999989986 -0.444999992847 -0.236000001431 1672.0
0.850000023842 -0.45300000906 -0.238000005484 1647.0
0.842999994755 -0.456000000238 -0.236000001431 1635.0
0.842000007629 -0.462999999523 -0.237000003457 1634.0
0.84399998188 -0.469999998808 -0.238000005484 1643.0
0.841000020504 -0.476000010967 -0.238000005484 1643.0
0.837999999523 -0.481000006199 -0.238000005484 1653.0
1.83599996567 1.07099997997 -0.54699999094 97.0
1.82299995422 1.04799997807 -0.541000008583 113.0
1.85399997234 1.04999995232 -0.549000024796 141.0
1.89800000191 1.05900001526 -0.560000002384 151.0
1.93700003624 1.06500005722 -0.569999992847 148.0
1.97200000286 1.06799995899 -0.57800000906 130.0
2.05100011826 1.09399998188 -0.598999977112 130.0
2.0720000267 1.08800005913 -0.603999972343 130.0
2.14599990845 1.11000001431 -0.623000025749 203.0
2.19899988174 1.12000000477 -0.637000024319 342.0
2.22099995613 1.11300003529 -0.64099997282 210.0
2.25999999046 1.11500000954 -0.651000022888 102.0
0.962000012398 -0.0540000014007 -0.25 345.0
0.910000026226 -0.0560000017285 -0.236000001431 1306.0
0.902000010014 -0.0610000006855 -0.233999997377 1434.0
0.90600001812 -0.0670000016689 -0.234999999404 1481.0
0.898000001907 -0.0710000023246 -0.232999995351 1509.0
0.90600001812 -0.0769999995828 -0.234999999404 1503.0
0.902999997139 -0.082000002265 -0.234999999404 1513.0
0.899999976158 -0.0869999974966 -0.233999997377 1515.0
0.901000022888 -0.0930000022054 -0.233999997377 1512.0
0.902999997139 -0.097999997437 -0.234999999404 1508.0
0.898999989033 -0.103000000119 -0.233999997377 1508.0
0.898000001907 -0.108999997377 -0.233999997377 1555.0
0.898999989033 -0.11400000006 -0.233999997377 1560.0
0.897000014782 -0.119000002742 -0.233999997377 1551.0
0.893999993801 -0.123999997973 -0.232999995351 1566.0
0.893999993801 -0.129999995232 -0.232999995351 1581.0
0.897000014782 -0.135000005364 -0.233999997377 1580.0
0.89099997282 -0.140000000596 -0.232999995351 1568.0
0.893000006676 -0.145999997854 -0.232999995351 1568.0
0.885999977589 -0.15000000596 -0.231999993324 1589.0
0.893000006676 -0.157000005245 -0.233999997377 1590.0
0.888000011444 -0.16099999845 -0.232999995351 1591.0
0.893999993801 -0.167999997735 -0.233999997377 1587.0
0.888000011444 -0.172000005841 -0.232999995351 1590.0
0.885999977589 -0.177000001073 -0.232999995351 1576.0
0.882000029087 -0.181999996305 -0.231999993324 1587.0
0.885999977589 -0.187999993563 -0.232999995351 1604.0
0.883000016212 -0.193000003695 -0.232999995351 1617.0
0.883000016212 -0.199000000954 -0.232999995351 1613.0
0.882000029087 -0.203999996185 -0.232999995351 1606.0
0.879000008106 -0.209000006318 -0.231999993324 1610.0
0.880999982357 -0.215000003576 -0.232999995351 1616.0
0.880999982357 -0.219999998808 -0.233999997377 1599.0
0.879999995232 -0.225999996066 -0.232999995351 1600.0
0.879000008106 -0.231000006199 -0.233999997377 1635.0
0.882000029087 -0.237000003457 -0.234999999404 1625.0
0.879000008106 -0.241999998689 -0.233999997377 1640.0
0.873000025749 -0.246000006795 -0.232999995351 1624.0
0.876999974251 -0.252999991179 -0.233999997377 1616.0
0.875999987125 -0.259000003338 -0.233999997377 1652.0
0.875 -0.263999998569 -0.233999997377 1653.0
0.870999991894 -0.268000006676 -0.232999995351 1651.0
0.873000025749 -0.27500000596 -0.234999999404 1659.0
0.875 -0.280999988317 -0.234999999404 1661.0
0.867999970913 -0.284999996424 -0.233999997377 1685.0
0.870000004768 -0.291000008583 -0.234999999404 1671.0
0.867999970913 -0.29699999094 -0.234999999404 1648.0
0.870000004768 -0.303000003099 -0.236000001431 1666.0
0.865000009537 -0.307999998331 -0.234999999404 1674.0
0.866999983788 -0.31400001049 -0.236000001431 1666.0
0.864000022411 -0.319000005722 -0.234999999404 1657.0
0.861999988556 -0.324000000954 -0.234999999404 1648.0
0.861000001431 -0.330000013113 -0.234999999404 1662.0
0.856000006199 -0.333999991417 -0.233999997377 1674.0
0.861000001431 -0.342000007629 -0.236000001431 1655.0
0.865000009537 -0.34999999404 -0.238000005484 1659.0
0.861999988556 -0.354999989271 -0.238000005484 1642.0
0.856999993324 -0.358999997377 -0.237000003457 1658.0
0.856999993324 -0.365000009537 -0.237000003457 1655.0
0.851999998093 -0.368999987841 -0.236000001431 1655.0
0.852999985218 -0.375999987125 -0.237000003457 1663.0
0.853999972343 -0.38299998641 -0.238000005484 1648.0
0.852999985218 -0.388999998569 -0.238000005484 1642.0
0.856999993324 -0.397000014782 -0.239999994636 1625.0
0.847999989986 -0.398999989033 -0.238000005484 1647.0
0.847000002861 -0.405000001192 -0.238000005484 1635.0
0.850000023842 -0.412999987602 -0.239999994636 1662.0
0.851000010967 -0.419999986887 -0.240999996662 1669.0
0.851000010967 -0.426999986172 -0.240999996662 1655.0
0.847000002861 -0.432000011206 -0.240999996662 1659.0
0.838999986649 -0.433999985456 -0.238999992609 1638.0
0.84399998188 -0.444000005722 -0.240999996662 1650.0
0.838999986649 -0.448000013828 -0.239999994636 1644.0
0.841000020504 -0.456000000238 -0.241999998689 1638.0
0.842000007629 -0.462999999523 -0.243000000715 1652.0
0.84500002861 -0.472000002861 -0.244000002742 1659.0
0.842999994755 -0.477999985218 -0.245000004768 1649.0
0.842999994755 -0.485000014305 -0.245000004768 1646.0
1.77400004864 1.05200004578 -0.542999982834 136.0
1.80200004578 1.0529999733 -0.550000011921 137.0
1.84000003338 1.05999994278 -0.559000015259 153.0
1.86399996281 1.05799996853 -0.564999997616 157.0
1.90299999714 1.06400001049 -0.574999988079 145.0
1.97200000286 1.08599996567 -0.59399998188 139.0
2.00900006294 1.09000003338 -0.602999985218 130.0
2.07800006866 1.11000001431 -0.621999979019 124.0
2.10299992561 1.10599994659 -0.626999974251 130.0
2.16100001335 1.12000000477 -0.643000006676 187.0
2.17899990082 1.11199998856 -0.646000027657 347.0
2.2009999752 1.10500001907 -0.651000022888 227.0
2.22199988365 1.09800004959 -0.65499997139 120.0
0.961000025272 -0.0540000014007 -0.254999995232 392.0
0.912999987602 -0.0560000017285 -0.243000000715 1315.0
0.903999984264 -0.0610000006855 -0.239999994636 1447.0
0.90499997139 -0.0670000016689 -0.240999996662 1492.0
0.90600001812 -0.0719999969006 -0.240999996662 1513.0
0.907999992371 -0.0780000016093 -0.241999998689 1515.0
0.90600001812 -0.082999996841 -0.240999996662 1531.0
0.901000022888 -0.0879999995232 -0.239999994636 1533.0
0.901000022888 -0.0930000022054 -0.239999994636 1539.0
0.901000022888 -0.097999997437 -0.239999994636 1523.0
0.898999989033 -0.104000002146 -0.239999994636 1519.0
0.896000027657 -0.108999997377 -0.238999992609 1549.0
0.894999980927 -0.11400000006 -0.238999992609 1545.0
0.896000027657 -0.119000002742 -0.238999992609 1563.0
0.893000006676 -0.123999997973 -0.238999992609 1571.0
0.893000006676 -0.129999995232 -0.238999992609 1590.0
0.893000006676 -0.135000005364 -0.238999992609 1589.0
0.888000011444 -0.140000000596 -0.238000005484 1580.0
0.89200001955 -0.145999997854 -0.238999992609 1591.0
0.888000011444 -0.150999993086 -0.238000005484 1593.0
0.884999990463 -0.155000001192 -0.237000003457 1609.0
0.888000011444 -0.16099999845 -0.238000005484 1587.0
0.889999985695 -0.166999995708 -0.238999992609 1581.0
0.880999982357 -0.171000003815 -0.237000003457 1600.0
0.885999977589 -0.177000001073 -0.238999992609 1588.0
0.885999977589 -0.182999998331 -0.238999992609 1588.0
0.887000024319 -0.188999995589 -0.238999992609 1588.0
0.885999977589 -0.194000005722 -0.238999992609 1601.0
0.882000029087 -0.199000000954 -0.238000005484 1596.0
0.883000016212 -0.203999996185 -0.238999992609 1613.0
0.883000016212 -0.209999993443 -0.238999992609 1615.0
0.89099997282 -0.216999992728 -0.241999998689 1634.0
0.878000020981 -0.219999998808 -0.238000005484 1615.0
0.879000008106 -0.225999996066 -0.238999992609 1588.0
0.875 -0.230000004172 -0.238000005484 1624.0
0.879000008106 -0.237000003457 -0.238999992609 1627.0
0.875999987125 -0.241999998689 -0.238999992609 1632.0
0.882000029087 -0.248999997973 -0.240999996662 1641.0
0.876999974251 -0.252999991179 -0.239999994636 1618.0
0.875 -0.259000003338 -0.239999994636 1642.0
0.876999974251 -0.264999985695 -0.240999996662 1647.0
0.870999991894 -0.268999993801 -0.238999992609 1648.0
0.874000012875 -0.275999993086 -0.239999994636 1653.0
0.869000017643 -0.280000001192 -0.238999992609 1660.0
0.869000017643 -0.286000013351 -0.239999994636 1661.0
0.874000012875 -0.293000012636 -0.241999998689 1641.0
0.869000017643 -0.29699999094 -0.240999996662 1640.0
0.870000004768 -0.303999990225 -0.240999996662 1658.0
0.867999970913 -0.308999985456 -0.240999996662 1644.0
0.864000022411 -0.31400001049 -0.240999996662 1643.0
0.864000022411 -0.319999992847 -0.240999996662 1655.0
0.864000022411 -0.324999988079 -0.240999996662 1655.0
0.861999988556 -0.331000000238 -0.240999996662 1658.0
0.861000001431 -0.33599999547 -0.240999996662 1657.0
0.865000009537 -0.344000011683 -0.243000000715 1641.0
0.85900002718 -0.347999989986 -0.241999998689 1640.0
0.862999975681 -0.356000006199 -0.244000002742 1640.0
0.860000014305 -0.361000001431 -0.243000000715 1632.0
0.860000014305 -0.36700001359 -0.244000002742 1651.0
0.856999993324 -0.372000008821 -0.243000000715 1660.0
0.855000019073 -0.377000004053 -0.243000000715 1641.0
0.855000019073 -0.384000003338 -0.244000002742 1646.0
0.851999998093 -0.388999998569 -0.244000002742 1623.0
0.851999998093 -0.395000010729 -0.244000002742 1618.0
0.851000010967 -0.400999993086 -0.245000004768 1658.0
0.848999977112 -0.407000005245 -0.245000004768 1644.0
0.847999989986 -0.412999987602 -0.245000004768 1649.0
0.847999989986 -0.419999986887 -0.246000006795 1663.0
0.852999985218 -0.428999990225 -0.247999995947 1662.0
0.847999989986 -0.432999998331 -0.24699999392 1640.0
0.851000010967 -0.441000014544 -0.247999995947 1625.0
0.84399998188 -0.444999992847 -0.24699999392 1630.0
0.841000020504 -0.449999988079 -0.24699999392 1642.0
0.84500002861 -0.458999991417 -0.248999997973 1637.0
0.838999986649 -0.462000012398 -0.247999995947 1652.0
0.84399998188 -0.472000002861 -0.25 1631.0
0.84399998188 -0.479999989271 -0.250999987125 1634.0
0.838999986649 -0.483000010252 -0.25 1637.0
1.77999997139 1.05700004101 -0.558000028133 280.0
1.79999995232 1.05400002003 -0.561999976635 183.0
1.83000004292 1.05599999428 -0.569999992847 174.0
1.88900005817 1.07400000095 -0.586000025272 163.0
1.94000005722 1.08599996567 -0.600000023842 140.0
1.98000001907 1.09200000763 -0.610000014305 134.0
2.01300001144 1.09399998188 -0.619000017643 132.0
2.01300001144 1.07700002193 -0.616999983788 144.0
2.09699988365 1.10500001907 -0.639999985695 133.0
2.15199995041 1.11699998379 -0.65499997139 181.0
2.1740000248 1.11099994183 -0.660000026226 345.0
2.1779999733 1.09599995613 -0.660000026226 243.0
2.1970000267 1.08800005913 -0.662999987602 117.0
0.967000007629 -0.0540000014007 -0.263000011444 403.0
0.912000000477 -0.0560000017285 -0.247999995947 1325.0
0.903999984264 -0.0610000006855 -0.246000006795 1444.0
0.907000005245 -0.0670000016689 -0.24699999392 1498.0
0.899999976158 -0.0719999969006 -0.245000004768 1526.0
0.899999976158 -0.0769999995828 -0.245000004768 1522.0
0.902000010014 -0.082999996841 -0.246000006795 1511.0
0.901000022888 -0.0879999995232 -0.246000006795 1538.0
0.901000022888 -0.0930000022054 -0.246000006795 1543.0
0.899999976158 -0.0989999994636 -0.246000006795 1536.0
0.899999976158 -0.104000002146 -0.246000006795 1528.0
0.894999980927 -0.108999997377 -0.244000002742 1553.0
0.896000027657 -0.11400000006 -0.245000004768 1558.0
0.899999976158 -0.119999997318 -0.246000006795 1562.0
0.893000006676 -0.123999997973 -0.244000002742 1560.0
0.898000001907 -0.130999997258 -0.246000006795 1583.0
0.899999976158 -0.136000007391 -0.24699999392 1577.0
0.889999985695 -0.140000000596 -0.244000002742 1572.0
0.888000011444 -0.144999995828 -0.244000002742 1584.0
0.89099997282 -0.150999993086 -0.245000004768 1603.0
0.889999985695 -0.157000005245 -0.244000002742 1593.0
0.887000024319 -0.162000000477 -0.244000002742 1575.0
0.887000024319 -0.166999995708 -0.244000002742 1588.0
0.888999998569 -0.172999992967 -0.245000004768 1600.0
0.89200001955 -0.179000005126 -0.246000006795 1590.0
0.882000029087 -0.181999996305 -0.243000000715 1588.0
0.883000016212 -0.187999993563 -0.244000002742 1585.0
0.884999990463 -0.194000005722 -0.244000002742 1605.0
0.885999977589 -0.20000000298 -0.245000004768 1610.0
0.887000024319 -0.206000000238 -0.245000004768 1599.0
0.879999995232 -0.209999993443 -0.244000002742 1598.0
0.880999982357 -0.215000003576 -0.245000004768 1625.0
0.879999995232 -0.221000000834 -0.244000002742 1625.0
0.879999995232 -0.225999996066 -0.245000004768 1592.0
0.879999995232 -0.231999993324 -0.245000004768 1609.0
0.879999995232 -0.238000005484 -0.246000006795 1634.0
0.880999982357 -0.244000002742 -0.246000006795 1638.0
0.878000020981 -0.248999997973 -0.246000006795 1618.0
0.871999979019 -0.252000004053 -0.244000002742 1618.0
0.874000012875 -0.259000003338 -0.245000004768 1633.0
0.876999974251 -0.264999985695 -0.246000006795 1649.0
0.874000012875 -0.270000010729 -0.246000006795 1637.0
0.873000025749 -0.275999993086 -0.246000006795 1636.0
0.869000017643 -0.280000001192 -0.245000004768 1652.0
0.873000025749 -0.287000000477 -0.24699999392 1652.0
0.867999970913 -0.291999995708 -0.246000006795 1641.0
0.85900002718 -0.293999999762 -0.243000000715 1628.0
0.867999970913 -0.303000003099 -0.246000006795 1654.0
0.865000009537 -0.307999998331 -0.246000006795 1638.0
0.865000009537 -0.31400001049 -0.24699999392 1636.0
0.866999983788 -0.321000009775 -0.247999995947 1637.0
0.865000009537 -0.326000005007 -0.247999995947 1654.0
0.865000009537 -0.331999987364 -0.247999995947 1648.0
0.861000001431 -0.337000012398 -0.24699999392 1647.0
0.865000009537 -0.344999998808 -0.248999997973 1630.0
0.856999993324 -0.347999989986 -0.24699999392 1635.0
0.85900002718 -0.354000002146 -0.247999995947 1654.0
0.85799998045 -0.360000014305 -0.247999995947 1637.0
0.860000014305 -0.368000000715 -0.25 1634.0
0.853999972343 -0.370999991894 -0.247999995947 1633.0
0.85799998045 -0.379000008106 -0.25 1630.0
0.85799998045 -0.386000007391 -0.250999987125 1628.0
0.853999972343 -0.389999985695 -0.25 1590.0
0.852999985218 -0.397000014782 -0.250999987125 1606.0
0.853999972343 -0.402999997139 -0.250999987125 1632.0
0.848999977112 -0.407999992371 -0.250999987125 1636.0
0.847999989986 -0.41400000453 -0.250999987125 1653.0
0.847000002861 -0.419999986887 -0.250999987125 1647.0
0.848999977112 -0.428000003099 -0.252999991179 1635.0
0.84500002861 -0.432000011206 -0.252000004053 1629.0
0.848999977112 -0.441000014544 -0.254000008106 1612.0
0.84500002861 -0.446000009775 -0.252999991179 1623.0
0.841000020504 -0.449999988079 -0.252999991179 1638.0
0.84399998188 -0.458999991417 -0.254999995232 1605.0
0.837000012398 -0.462000012398 -0.252999991179 1626.0
0.834999978542 -0.467999994755 -0.252999991179 1638.0
0.838999986649 -0.477999985218 -0.254999995232 1615.0
0.836000025272 -0.483000010252 -0.254999995232 1629.0
1.78600001335 1.06200003624 -0.573000013828 345.0
1.78499996662 1.04600000381 -0.569999992847 181.0
1.87199997902 1.08200001717 -0.596000015736 167.0
1.89900004864 1.08099997044 -0.602999985218 143.0
1.9470000267 1.09200000763 -0.615999996662 147.0
1.92700004578 1.06400001049 -0.60799998045 142.0
2.03600001335 1.10800004005 -0.639999985695 143.0
2.04800009727 1.09800004959 -0.64200001955 136.0
2.09100008011 1.10399997234 -0.653999984264 130.0
2.13499999046 1.10899996758 -0.665000021458 165.0
2.16000008583 1.10500001907 -0.671000003815 323.0
2.19400000572 1.10500001907 -0.680000007153 262.0
2.242000103 1.11199998856 -0.693000018597 126.0
0.899999976158 -0.0560000017285 -0.25 1320.0
0.907999992371 -0.0619999989867 -0.252999991179 1460.0
0.907000005245 -0.0670000016689 -0.252999991179 1504.0
0.901000022888 -0.0719999969006 -0.250999987125 1521.0
0.898000001907 -0.0769999995828 -0.25 1518.0
0.901000022888 -0.082999996841 -0.250999987125 1516.0
0.899999976158 -0.0879999995232 -0.250999987125 1530.0
0.897000014782 -0.0930000022054 -0.25 1522.0
0.899999976158 -0.0989999994636 -0.250999987125 1525.0
0.898000001907 -0.104000002146 -0.250999987125 1534.0
0.897000014782 -0.108999997377 -0.25 1531.0
0.896000027657 -0.11400000006 -0.25 1525.0
0.893000006676 -0.119000002742 -0.25 1534.0
0.893999993801 -0.125 -0.25 1534.0
0.894999980927 -0.130999997258 -0.250999987125 1576.0
0.888000011444 -0.135000005364 -0.248999997973 1566.0
0.889999985695 -0.141000002623 -0.25 1549.0
0.885999977589 -0.144999995828 -0.248999997973 1553.0
0.894999980927 -0.151999995112 -0.250999987125 1580.0
0.887000024319 -0.156000003219 -0.248999997973 1587.0
0.888000011444 -0.162000000477 -0.25 1600.0
0.888999998569 -0.167999997735 -0.25 1581.0
0.885999977589 -0.172999992967 -0.25 1589.0
0.887000024319 -0.178000003099 -0.25 1579.0
0.889999985695 -0.184000000358 -0.250999987125 1579.0
0.878000020981 -0.187000006437 -0.247999995947 1588.0
0.883000016212 -0.194000005722 -0.25 1601.0
0.879000008106 -0.199000000954 -0.248999997973 1606.0
0.883000016212 -0.204999998212 -0.25 1610.0
0.884000003338 -0.21099999547 -0.250999987125 1602.0
0.875999987125 -0.21400000155 -0.248999997973 1619.0
0.879999995232 -0.221000000834 -0.25 1631.0
0.880999982357 -0.226999998093 -0.250999987125 1599.0
0.876999974251 -0.231999993324 -0.25 1595.0
0.874000012875 -0.236000001431 -0.248999997973 1607.0
0.875999987125 -0.243000000715 -0.25 1633.0
0.873000025749 -0.24699999392 -0.25 1626.0
0.875 -0.254000008106 -0.250999987125 1609.0
0.870999991894 -0.25799998641 -0.25 1634.0
0.867999970913 -0.263000011444 -0.248999997973 1642.0
0.866999983788 -0.268999993801 -0.25 1631.0
0.875999987125 -0.277000010014 -0.252000004053 1625.0
0.870000004768 -0.280999988317 -0.250999987125 1648.0
0.871999979019 -0.287999987602 -0.252000004053 1633.0
0.869000017643 -0.291999995708 -0.252000004053 1614.0
0.867999970913 -0.298000007868 -0.252000004053 1619.0
0.865000009537 -0.303000003099 -0.250999987125 1643.0
0.865999996662 -0.308999985456 -0.252000004053 1634.0
0.862999975681 -0.31400001049 -0.252000004053 1622.0
0.862999975681 -0.319999992847 -0.252000004053 1636.0
0.861999988556 -0.326000005007 -0.252000004053 1655.0
0.864000022411 -0.333000004292 -0.252999991179 1625.0
0.85799998045 -0.337000012398 -0.252000004053 1637.0
0.856999993324 -0.342000007629 -0.252000004053 1627.0
0.85900002718 -0.349000006914 -0.254000008106 1624.0
0.85900002718 -0.354999989271 -0.254000008106 1653.0
0.860000014305 -0.361999988556 -0.254999995232 1614.0
0.855000019073 -0.365999996662 -0.254000008106 1594.0
0.847999989986 -0.368999987841 -0.252999991179 1613.0
0.856000006199 -0.379000008106 -0.256000012159 1607.0
0.853999972343 -0.384999990463 -0.254999995232 1608.0
0.851999998093 -0.389999985695 -0.256000012159 1579.0
0.856000006199 -0.398000001907 -0.256999999285 1615.0
0.851000010967 -0.402999997139 -0.256000012159 1623.0
0.855000019073 -0.411000013351 -0.25799998641 1645.0
0.847999989986 -0.41400000453 -0.256999999285 1649.0
0.847000002861 -0.421000003815 -0.256999999285 1656.0
0.848999977112 -0.428000003099 -0.25799998641 1647.0
0.84500002861 -0.432999998331 -0.25799998641 1622.0
0.846000015736 -0.439999997616 -0.259000003338 1606.0
0.84399998188 -0.446000009775 -0.259000003338 1604.0
0.837999999523 -0.449999988079 -0.25799998641 1632.0
0.847000002861 -0.46099999547 -0.261000007391 1607.0
0.84500002861 -0.467000007629 -0.261999994516 1615.0
0.842999994755 -0.472999989986 -0.261999994516 1604.0
0.838999986649 -0.477999985218 -0.261000007391 1605.0
0.833999991417 -0.481999993324 -0.261000007391 1606.0
1.79700005054 1.07099997997 -0.588999986649 282.0
1.85500001907 1.09000003338 -0.606000006199 178.0
1.84599995613 1.06799995899 -0.601000010967 150.0
1.90499997139 1.08599996567 -0.619000017643 156.0
1.92999994755 1.08399999142 -0.625 158.0
1.99699997902 1.10500001907 -0.643999993801 149.0
2.01200008392 1.09700000286 -0.647000014782 141.0
2.05800008774 1.10500001907 -0.660000026226 129.0
2.12400007248 1.12300002575 -0.679000020027 137.0
2.12599992752 1.10699999332 -0.677999973297 148.0
2.17700004578 1.11600005627 -0.691999971867 245.0
2.19199991226 1.10599994659 -0.694999992847 274.0
2.23099994659 1.10800004005 -0.704999983311 122.0
0.912999987602 -0.0570000000298 -0.259999990463 1340.0
0.903999984264 -0.0619999989867 -0.25799998641 1413.0
0.902000010014 -0.0670000016689 -0.256999999285 1475.0
0.899999976158 -0.0719999969006 -0.256000012159 1484.0
0.903999984264 -0.0780000016093 -0.25799998641 1498.0
0.899999976158 -0.082999996841 -0.256000012159 1496.0
0.898000001907 -0.0879999995232 -0.256000012159 1509.0
0.896000027657 -0.0930000022054 -0.256000012159 1498.0
0.897000014782 -0.097999997437 -0.256000012159 1492.0
0.897000014782 -0.104000002146 -0.256000012159 1501.0
0.893999993801 -0.108999997377 -0.254999995232 1506.0
0.896000027657 -0.115000002086 -0.256000012159 1504.0
0.898999989033 -0.119999997318 -0.256999999285 1497.0
0.901000022888 -0.126000002027 -0.25799998641 1514.0
0.89200001955 -0.129999995232 -0.256000012159 1547.0
0.893999993801 -0.136000007391 -0.256000012159 1537.0
0.889999985695 -0.141000002623 -0.254999995232 1528.0
0.888999998569 -0.145999997854 -0.254999995232 1540.0
0.887000024319 -0.150999993086 -0.254999995232 1556.0
0.887000024319 -0.156000003219 -0.254999995232 1572.0
0.887000024319 -0.162000000477 -0.254999995232 1567.0
0.887000024319 -0.167999997735 -0.254999995232 1580.0
0.888999998569 -0.172999992967 -0.256000012159 1565.0
0.888000011444 -0.179000005126 -0.256000012159 1568.0
0.884999990463 -0.184000000358 -0.254999995232 1572.0
0.884999990463 -0.188999995589 -0.256000012159 1570.0
0.883000016212 -0.194000005722 -0.254999995232 1596.0
0.883000016212 -0.20000000298 -0.256000012159 1604.0
0.884999990463 -0.206000000238 -0.256000012159 1603.0
0.880999982357 -0.209999993443 -0.256000012159 1606.0
0.883000016212 -0.216999992728 -0.256999999285 1615.0
0.875 -0.219999998808 -0.254000008106 1604.0
0.876999974251 -0.225999996066 -0.254999995232 1592.0
0.876999974251 -0.231999993324 -0.256000012159 1592.0
0.875999987125 -0.237000003457 -0.256000012159 1614.0
0.874000012875 -0.241999998689 -0.254999995232 1621.0
0.874000012875 -0.247999995947 -0.256000012159 1620.0
0.876999974251 -0.254999995232 -0.256999999285 1617.0
0.874000012875 -0.259999990463 -0.256000012159 1630.0
0.870000004768 -0.263999998569 -0.256000012159 1626.0
0.867999970913 -0.268999993801 -0.256000012159 1627.0
0.870000004768 -0.275999993086 -0.256999999285 1619.0
0.870999991894 -0.282000005245 -0.256999999285 1628.0
0.865999996662 -0.286000013351 -0.256000012159 1628.0
0.870999991894 -0.293999999762 -0.25799998641 1622.0
0.865000009537 -0.29699999094 -0.256999999285 1633.0
0.862999975681 -0.303000003099 -0.256999999285 1641.0
0.865999996662 -0.310000002384 -0.25799998641 1640.0
0.867999970913 -0.316000014544 -0.259000003338 1638.0
0.862999975681 -0.321000009775 -0.25799998641 1623.0
0.862999975681 -0.326999992132 -0.259000003338 1632.0
0.85799998045 -0.331000000238 -0.25799998641 1622.0
0.861999988556 -0.338999986649 -0.259000003338 1619.0
0.855000019073 -0.342000007629 -0.25799998641 1620.0
0.85799998045 -0.349000006914 -0.259000003338 1627.0
0.853999972343 -0.354000002146 -0.25799998641 1635.0
0.85799998045 -0.361999988556 -0.259999990463 1598.0
0.856000006199 -0.36700001359 -0.259999990463 1595.0
0.851999998093 -0.372000008821 -0.259999990463 1608.0
0.85900002718 -0.381000012159 -0.261999994516 1587.0
0.851000010967 -0.384000003338 -0.259999990463 1604.0
0.848999977112 -0.388999998569 -0.259999990463 1567.0
0.851999998093 -0.397000014782 -0.261999994516 1597.0
0.855000019073 -0.405000001192 -0.263999998569 1628.0
0.846000015736 -0.407999992371 -0.261999994516 1614.0
0.850000023842 -0.416000008583 -0.263000011444 1626.0
0.847999989986 -0.42199999094 -0.263000011444 1635.0
0.850000023842 -0.430000007153 -0.264999985695 1613.0
0.838999986649 -0.430999994278 -0.261999994516 1608.0
0.847000002861 -0.441000014544 -0.264999985695 1610.0
0.841000020504 -0.444999992847 -0.263999998569 1626.0
0.842999994755 -0.45300000906 -0.264999985695 1620.0
0.837999999523 -0.456999987364 -0.264999985695 1585.0
0.842999994755 -0.467000007629 -0.266999989748 1585.0
0.841000020504 -0.472999989986 -0.266999989748 1595.0
0.841000020504 -0.479999989271 -0.268000006676 1601.0
0.838999986649 -0.486000001431 -0.268000006676 1606.0
1.80599999428 1.07799994946 -0.606000006199 275.0
1.83099997044 1.07700002193 -0.611999988556 175.0
1.85099995136 1.07299995422 -0.616999983788 168.0
1.90999996662 1.0909999609 -0.634000003338 167.0
1.94500005245 1.09500002861 -0.643999993801 145.0
2.00699996948 1.11199998856 -0.662000000477 149.0
2.02999997139 1.10800004005 -0.667999982834 144.0
2.0490000248 1.10199999809 -0.67199999094 143.0
2.02900004387 1.07500004768 -0.662999987602 146.0
2.10199999809 1.09599995613 -0.685000002384 144.0
2.15000009537 1.10399997234 -0.699000000954 180.0
2.20000004768 1.11199998856 -0.712999999523 257.0
2.24300003052 1.11600005627 -0.725000023842 145.0
0.944999992847 -0.0529999993742 -0.27500000596 592.0
0.907999992371 -0.0570000000298 -0.263999998569 1344.0
0.903999984264 -0.0619999989867 -0.263000011444 1418.0
0.898999989033 -0.0670000016689 -0.261999994516 1455.0
0.901000022888 -0.0719999969006 -0.261999994516 1475.0
0.898999989033 -0.0769999995828 -0.261999994516 1479.0
0.898999989033 -0.082999996841 -0.261999994516 1472.0
0.897000014782 -0.0879999995232 -0.261999994516 1488.0
0.897000014782 -0.0930000022054 -0.261999994516 1473.0
0.898000001907 -0.0989999994636 -0.261999994516 1496.0
0.89200001955 -0.103000000119 -0.259999990463 1496.0
0.898999989033 -0.109999999404 -0.261999994516 1502.0
0.893999993801 -0.115000002086 -0.261000007391 1497.0
0.896000027657 -0.119999997318 -0.261999994516 1512.0
0.893000006676 -0.125 -0.261000007391 1528.0
0.89099997282 -0.129999995232 -0.261000007391 1524.0
0.893999993801 -0.136000007391 -0.261999994516 1534.0
0.885999977589 -0.140000000596 -0.259999990463 1507.0
0.887000024319 -0.145999997854 -0.259999990463 1539.0
0.888999998569 -0.151999995112 -0.261000007391 1558.0
0.889999985695 -0.157000005245 -0.261999994516 1551.0
0.884000003338 -0.162000000477 -0.259999990463 1547.0
0.884999990463 -0.166999995708 -0.261000007391 1553.0
0.884999990463 -0.172999992967 -0.261000007391 1575.0
0.879999995232 -0.177000001073 -0.259000003338 1569.0
0.880999982357 -0.182999998331 -0.259999990463 1568.0
0.883000016212 -0.188999995589 -0.261000007391 1566.0
0.882000029087 -0.194000005722 -0.261000007391 1572.0
0.879000008106 -0.199000000954 -0.259999990463 1589.0
0.882000029087 -0.204999998212 -0.261000007391 1608.0
0.879999995232 -0.209999993443 -0.261000007391 1604.0
0.878000020981 -0.216000005603 -0.261000007391 1612.0
0.884999990463 -0.223000004888 -0.263000011444 1595.0
0.875999987125 -0.225999996066 -0.261000007391 1579.0
0.875999987125 -0.231999993324 -0.261000007391 1598.0
0.875999987125 -0.238000005484 -0.261000007391 1621.0
0.875999987125 -0.244000002742 -0.261999994516 1617.0
0.875999987125 -0.248999997973 -0.261999994516 1621.0
0.879000008106 -0.256000012159 -0.263000011444 1594.0
0.875 -0.259999990463 -0.263000011444 1605.0
0.876999974251 -0.266999989748 -0.263000011444 1613.0
0.865999996662 -0.268999993801 -0.261000007391 1612.0
0.865999996662 -0.27500000596 -0.261000007391 1623.0
0.870999991894 -0.282000005245 -0.263000011444 1622.0
0.869000017643 -0.287999987602 -0.263000011444 1606.0
0.867999970913 -0.293000012636 -0.263000011444 1619.0
0.865999996662 -0.298000007868 -0.263000011444 1635.0
0.866999983788 -0.305000007153 -0.263999998569 1656.0
0.865999996662 -0.310000002384 -0.263999998569 1647.0
0.860000014305 -0.31400001049 -0.263000011444 1621.0
0.862999975681 -0.321000009775 -0.263999998569 1628.0
0.85900002718 -0.326000005007 -0.263000011444 1621.0
0.856999993324 -0.331000000238 -0.263000011444 1605.0
0.856999993324 -0.337000012398 -0.263999998569 1618.0
0.861000001431 -0.344999998808 -0.264999985695 1616.0
0.85799998045 -0.34999999404 -0.264999985695 1605.0
0.853999972343 -0.354000002146 -0.263999998569 1604.0
0.856000006199 -0.361999988556 -0.266000002623 1600.0
0.853999972343 -0.36700001359 -0.264999985695 1599.0
0.851999998093 -0.372000008821 -0.264999985695 1578.0
0.848999977112 -0.377999991179 -0.264999985695 1585.0
0.852999985218 -0.384999990463 -0.266999989748 1591.0
0.853999972343 -0.391999989748 -0.268000006676 1559.0
0.847999989986 -0.395999997854 -0.266999989748 1584.0
0.853999972343 -0.405000001192 -0.268999993801 1587.0
