ply
format ascii 1.0
element vertex 932
property float x
property float y
property float z
property float intensity
end_header
0.952000021935 -0.212999999523 0.0340000018477 162.0
0.957000017166 -0.219999998808 0.0340000018477 170.0
0.95300000906 -0.224000006914 0.0340000018477 168.0
0.967000007629 -0.233999997377 0.0340000018477 170.0
0.944999992847 -0.233999997377 0.0340000018477 166.0
0.938000023365 -0.238000005484 0.0329999998212 170.0
0.935000002384 -0.243000000715 0.0329999998212 168.0
0.955999970436 -0.254999995232 0.0340000018477 158.0
0.944999992847 -0.25799998641 0.0340000018477 165.0
0.962000012398 -0.268999993801 0.035000000149 163.0
0.912000000477 -0.259999990463 0.0329999998212 166.0
0.952000021935 -0.277999997139 0.0340000018477 165.0
0.933000028133 -0.277999997139 0.0340000018477 159.0
0.931999981403 -0.284000009298 0.0340000018477 157.0
0.958000004292 -0.298000007868 0.035000000149 149.0
0.941999971867 -0.298999994993 0.0340000018477 158.0
0.926999986172 -0.300000011921 0.0340000018477 156.0
0.93900001049 -0.310000002384 0.0340000018477 144.0
0.962999999523 -0.324999988079 0.035000000149 153.0
0.940999984741 -0.323000013828 0.035000000149 153.0
0.919000029564 -0.321999996901 0.0340000018477 153.0
0.925999999046 -0.330000013113 0.0340000018477 152.0
0.920000016689 -0.335000008345 0.0340000018477 153.0
0.907000005245 -0.33599999547 0.0340000018477 151.0
0.954999983311 -0.360000014305 0.0359999984503 139.0
0.930999994278 -0.356999993324 0.035000000149 149.0
0.93599998951 -0.365999996662 0.035000000149 146.0
0.92199999094 -0.365999996662 0.035000000149 146.0
0.919000029564 -0.372000008821 0.035000000149 134.0
0.924000024796 -0.379999995232 0.035000000149 142.0
0.921000003815 -0.386000007391 0.035000000149 140.0
0.911000013351 -0.388000011444 0.035000000149 138.0
0.93900001049 -0.405999988317 0.0359999984503 144.0
0.92199999094 -0.405999988317 0.035000000149 139.0
0.902000010014 -0.404000014067 0.035000000149 139.0
0.898000001907 -0.407999992371 0.035000000149 128.0
0.916999995708 -0.423999994993 0.035000000149 133.0
0.879000008106 -0.412000000477 0.0340000018477 129.0
0.879000008106 -0.418999999762 0.0340000018477 136.0
0.97000002861 -0.469999998808 0.0379999987781 128.0
0.913999974728 -0.449999988079 0.0359999984503 131.0
0.921000003815 -0.460000008345 0.0359999984503 128.0
0.893999993801 -0.45300000906 0.035000000149 126.0
0.933000028133 -0.479999989271 0.0370000004768 120.0
0.908999979496 -0.47499999404 0.0359999984503 117.0
0.865000009537 -0.458999991417 0.0340000018477 118.0
0.901000022888 -0.485000014305 0.0359999984503 119.0
0.899999976158 -0.49200001359 0.0359999984503 104.0
0.917999982834 -0.509000003338 0.0370000004768 107.0
3.63400006294 1.66100001335 0.107000000775 70.0
3.51399993896 1.58000004292 0.103000000119 70.0
4.03900003433 1.70000004768 0.118000000715 85.0
3.99499988556 1.65400004387 0.115999996662 75.0
4.04099988937 1.64400005341 0.118000000715 69.0
4.0560002327 1.62199997902 0.118000000715 70.0
3.97300004959 1.56099998951 0.115000002086 68.0
4.05000019073 1.56400001049 0.116999998689 66.0
4.03200006485 1.52900004387 0.116999998689 71.0
3.94199991226 1.46800005436 0.11400000006 60.0
4.05100011826 1.45399999619 0.116999998689 74.0
4.0 1.4090000391 0.115000002086 64.0
4.07399988174 1.40799999237 0.118000000715 66.0
4.132999897 1.40100002289 0.119000002742 63.0
3.93799996376 1.30900001526 0.112999998033 63.0
4.04400014877 1.31700003147 0.115999996662 66.0
4.07499980927 1.30099999905 0.116999998689 65.0
4.08400011063 1.27799999714 0.116999998689 65.0
4.17000007629 1.27799999714 0.119999997318 60.0
3.98300004005 1.19500005245 0.11400000006 64.0
4.08699989319 1.20000004768 0.116999998689 60.0
4.10599994659 1.17900002003 0.118000000715 63.0
4.05999994278 1.13999998569 0.115999996662 67.0
4.03800010681 1.10899996758 0.115999996662 66.0
4.09399986267 1.09800004959 0.116999998689 72.0
3.93799996376 1.03199994564 0.112999998033 56.0
1.21399998665 0.122000001371 0.0340000018477 62.0
1.16100001335 0.0900000035763 0.0320000015199 75.0
1.14800000191 0.0500000007451 0.0320000015199 110.0
1.10500001907 0.0410000011325 0.0309999994934 113.0
1.09899997711 0.0289999991655 0.0309999994934 139.0
2.40700006485 -0.173999994993 0.070000000298 154.0
2.39100003242 -0.186000004411 0.070000000298 133.0
2.37800002098 -0.199000000954 0.070000000298 88.0
2.31500005722 -0.207000002265 0.0680000036955 186.0
2.34800004959 -0.224000006914 0.0689999982715 95.0
0.978999972343 -0.097000002861 0.0280000008643 119.0
0.963999986649 -0.101000003517 0.0270000007004 132.0
1.0039999485 -0.111000001431 0.0289999991655 140.0
0.981000006199 -0.11400000006 0.0280000008643 140.0
0.96899998188 -0.119000002742 0.0280000008643 137.0
0.962000012398 -0.123000003397 0.0270000007004 137.0
0.972999989986 -0.130999997258 0.0280000008643 150.0
0.96899998188 -0.136000007391 0.0280000008643 152.0
0.966000020504 -0.141000002623 0.0280000008643 155.0
0.958000004292 -0.144999995828 0.0270000007004 156.0
0.96899998188 -0.152999997139 0.0280000008643 155.0
0.976000010967 -0.159999996424 0.0280000008643 157.0
0.940999984741 -0.158999994397 0.0270000007004 157.0
0.967999994755 -0.170000001788 0.0280000008643 162.0
0.97000002861 -0.175999999046 0.0280000008643 168.0
0.958000004292 -0.179000005126 0.0280000008643 163.0
0.972999989986 -0.187999993563 0.0280000008643 165.0
0.957000017166 -0.190999999642 0.0280000008643 163.0
0.948000013828 -0.194000005722 0.0280000008643 161.0
0.957000017166 -0.202000007033 0.0280000008643 178.0
0.955999970436 -0.208000004292 0.0280000008643 166.0
0.958999991417 -0.21400000155 0.0280000008643 172.0
0.93900001049 -0.215000003576 0.0280000008643 164.0
0.949000000954 -0.224000006914 0.0280000008643 169.0
0.947000026703 -0.229000002146 0.0280000008643 167.0
0.925000011921 -0.229000002146 0.0270000007004 165.0
0.953999996185 -0.243000000715 0.0280000008643 163.0
0.959999978542 -0.25 0.0289999991655 169.0
0.957000017166 -0.254999995232 0.0289999991655 163.0
0.944999992847 -0.25799998641 0.0280000008643 161.0
0.929000020027 -0.259000003338 0.0280000008643 164.0
0.93599998951 -0.266999989748 0.0280000008643 168.0
0.944999992847 -0.275999993086 0.0280000008643 158.0
0.933000028133 -0.277999997139 0.0280000008643 162.0
0.926999986172 -0.282000005245 0.0280000008643 157.0
0.944000005722 -0.293000012636 0.0289999991655 158.0
0.925999999046 -0.293999999762 0.0280000008643 162.0
0.967000007629 -0.312999993563 0.0299999993294 161.0
0.925999999046 -0.305999994278 0.0280000008643 150.0
0.941999971867 -0.317999988794 0.0289999991655 150.0
0.922999978065 -0.317000001669 0.0280000008643 153.0
0.925999999046 -0.324000000954 0.0280000008643 155.0
0.950999975204 -0.338999986649 0.0289999991655 145.0
0.935000002384 -0.340000003576 0.0289999991655 152.0
0.925000011921 -0.342999994755 0.0289999991655 148.0
0.938000023365 -0.354000002146 0.0289999991655 144.0
0.911000013351 -0.34999999404 0.0280000008643 141.0
0.902000010014 -0.351999998093 0.0280000008643 139.0
0.936999976635 -0.372000008821 0.0289999991655 146.0
0.899999976158 -0.363999992609 0.0280000008643 137.0
0.917999982834 -0.377999991179 0.0289999991655 137.0
0.888000011444 -0.372000008821 0.0280000008643 140.0
0.931999981403 -0.397000014782 0.0299999993294 143.0
0.936999976635 -0.405000001192 0.0299999993294 139.0
0.933000028133 -0.409999996424 0.0299999993294 133.0
0.922999978065 -0.412999987602 0.0299999993294 130.0
0.898000001907 -0.407999992371 0.0289999991655 136.0
0.916999995708 -0.423000007868 0.0299999993294 130.0
0.898000001907 -0.421000003815 0.0289999991655 125.0
0.901000022888 -0.428999990225 0.0289999991655 135.0
0.921000003815 -0.446000009775 0.0299999993294 125.0
0.917999982834 -0.451999992132 0.0299999993294 124.0
0.898000001907 -0.448000013828 0.0299999993294 125.0
0.869000017643 -0.441000014544 0.0289999991655 122.0
0.915000021458 -0.470999985933 0.0299999993294 126.0
0.931999981403 -0.486999988556 0.0309999994934 117.0
0.907999992371 -0.481999993324 0.0299999993294 121.0
0.883000016212 -0.47499999404 0.0299999993294 116.0
0.893999993801 -0.488000005484 0.0299999993294 121.0
0.901000022888 -0.499000012875 0.0309999994934 112.0
2.48099994659 1.40299999714 0.0579999983311 99.0
2.99300003052 1.54799997807 0.0689999982715 76.0
3.0490000248 1.48399996758 0.070000000298 80.0
3.45900011063 1.60599994659 0.0799999982119 74.0
3.62800002098 1.65799999237 0.0839999988675 81.0
3.60700011253 1.62199997902 0.082999996841 77.0
3.6099998951 1.59700000286 0.082999996841 66.0
3.91300010681 1.64699995518 0.0900000035763 89.0
3.87700009346 1.60399997234 0.0890000015497 88.0
3.90000009537 1.5870000124 0.0890000015497 79.0
3.93899989128 1.57500004768 0.0900000035763 86.0
3.97600007057 1.56200003624 0.0909999981523 80.0
3.94199991226 1.52100002766 0.0900000035763 73.0
3.9849998951 1.51100003719 0.0909999981523 70.0
3.98699998856 1.48399996758 0.0909999981523 73.0
3.90799999237 1.42900002003 0.0890000015497 73.0
3.94799995422 1.41700005531 0.0900000035763 70.0
3.97099995613 1.39900004864 0.0909999981523 72.0
3.97900009155 1.375 0.0909999981523 74.0
3.9960000515 1.32799994946 0.0909999981523 71.0
3.99000000954 1.29999995232 0.0909999981523 68.0
3.96499991417 1.26600003242 0.0900000035763 72.0
4.07899999619 1.27600002289 0.0930000022054 72.0
4.02400016785 1.23199999332 0.0920000001788 73.0
3.98600006104 1.19500005245 0.0909999981523 71.0
4.04300022125 1.18700003624 0.0920000001788 71.0
4.02600002289 1.15600001812 0.0909999981523 69.0
3.99799990654 1.12199997902 0.0909999981523 73.0
4.03599977493 1.10800004005 0.0920000001788 69.0
4.00600004196 1.07400000095 0.0909999981523 76.0
4.01499986649 1.05200004578 0.0909999981523 63.0
2.36899995804 -0.171000003815 0.054999999702 148.0
2.40400004387 -0.187000006437 0.0560000017285 138.0
2.39400005341 -0.201000005007 0.0560000017285 83.0
2.30599999428 -0.206000000238 0.0540000014007 187.0
1.97899997234 -0.187999993563 0.0460000000894 56.0
0.999000012875 -0.0989999994636 0.0230000000447 123.0
0.98299998045 -0.103000000119 0.0219999998808 138.0
0.990000009537 -0.109999999404 0.0219999998808 143.0
0.977999985218 -0.11400000006 0.0219999998808 142.0
0.987999975681 -0.120999999344 0.0219999998808 143.0
0.952000021935 -0.122000001371 0.0219999998808 146.0
0.999000012875 -0.134000003338 0.0230000000447 148.0
0.953999996185 -0.133000001311 0.0219999998808 149.0
0.978999972343 -0.143000006676 0.0219999998808 154.0
0.96899998188 -0.146999999881 0.0219999998808 162.0
0.976999998093 -0.153999999166 0.0219999998808 158.0
0.93900001049 -0.152999997139 0.0219999998808 161.0
0.971000015736 -0.165000006557 0.0219999998808 162.0
0.978999972343 -0.172000005841 0.0230000000447 159.0
0.961000025272 -0.173999994993 0.0219999998808 159.0
0.958999991417 -0.180000007153 0.0219999998808 157.0
0.955999970436 -0.185000002384 0.0219999998808 168.0
0.958000004292 -0.190999999642 0.0219999998808 161.0
0.963999986649 -0.197999998927 0.0230000000447 168.0
0.958000004292 -0.202999994159 0.0219999998808 180.0
0.95300000906 -0.207000002265 0.0219999998808 176.0
0.959999978542 -0.215000003576 0.0230000000447 169.0
0.959999978542 -0.219999998808 0.0230000000447 165.0
0.958000004292 -0.225999996066 0.0230000000447 171.0
0.954999983311 -0.231000006199 0.0230000000447 166.0
0.949000000954 -0.234999999404 0.0219999998808 167.0
0.952000021935 -0.241999998689 0.0230000000447 166.0
0.957000017166 -0.248999997973 0.0230000000447 172.0
0.961000025272 -0.256000012159 0.0230000000447 163.0
0.93599998951 -0.254999995232 0.0219999998808 162.0
0.944999992847 -0.263999998569 0.0230000000447 165.0
0.945999979973 -0.270000010729 0.0230000000447 166.0
0.950999975204 -0.277999997139 0.0230000000447 162.0
0.916000008583 -0.273000001907 0.0219999998808 162.0
0.953999996185 -0.291000008583 0.0230000000447 158.0
0.949999988079 -0.294999986887 0.0230000000447 162.0
0.941999971867 -0.298999994993 0.0230000000447 160.0
0.940999984741 -0.305000007153 0.0230000000447 159.0
0.933000028133 -0.307999998331 0.0230000000447 151.0
0.944999992847 -0.317999988794 0.0230000000447 156.0
0.939999997616 -0.323000013828 0.0230000000447 155.0
0.915000021458 -0.319999992847 0.0230000000447 152.0
0.95300000906 -0.340000003576 0.0240000002086 150.0
0.908999979496 -0.330000013113 0.0230000000447 150.0
0.912999987602 -0.337999999523 0.0230000000447 145.0
0.93900001049 -0.354000002146 0.0240000002086 147.0
0.921000003815 -0.352999985218 0.0230000000447 149.0
0.911000013351 -0.356000006199 0.0230000000447 143.0
0.920000016689 -0.365999996662 0.0230000000447 142.0
0.930000007153 -0.375999987125 0.0240000002086 148.0
0.943000018597 -0.388000011444 0.0240000002086 147.0
0.93599998951 -0.391999989748 0.0240000002086 138.0
0.919000029564 -0.391000002623 0.0240000002086 138.0
0.907999992371 -0.393000006676 0.0230000000447 139.0
0.93599998951 -0.412000000477 0.0240000002086 131.0
0.936999976635 -0.418999999762 0.0240000002086 130.0
0.879999995232 -0.40000000596 0.0230000000447 130.0
0.870000004768 -0.402000010014 0.0230000000447 128.0
0.911000013351 -0.428000003099 0.0240000002086 131.0
0.912999987602 -0.435000002384 0.0240000002086 126.0
0.902999997139 -0.437000006437 0.0240000002086 129.0
0.93900001049 -0.462000012398 0.0250000003725 123.0
0.898999989033 -0.449000000954 0.0240000002086 124.0
0.917999982834 -0.465999990702 0.0250000003725 124.0
0.916999995708 -0.472000002861 0.0250000003725 121.0
0.902999997139 -0.472000002861 0.0240000002086 130.0
0.902999997139 -0.479000002146 0.0240000002086 119.0
0.884000003338 -0.476000010967 0.0240000002086 115.0
0.888000011444 -0.485000014305 0.0240000002086 111.0
0.887000024319 -0.49200001359 0.0240000002086 108.0
2.58400011063 1.46099996567 0.0439999997616 98.0
2.68400001526 1.49500000477 0.0450000017881 100.0
2.87800002098 1.48899996281 0.0480000004172 91.0
2.89499998093 1.47500002384 0.0489999987185 74.0
3.20700001717 1.58500003815 0.0540000014007 82.0
3.18799996376 1.55099999905 0.0540000014007 104.0
3.19000005722 1.52799999714 0.0540000014007 88.0
3.54500007629 1.64600002766 0.0599999986589 95.0
3.54999995232 1.62199997902 0.0599999986589 120.0
3.58500003815 1.61099994183 0.0599999986589 104.0
3.64899992943 1.61399996281 0.0610000006855 80.0
3.86299991608 1.62600004673 0.0649999976158 97.0
3.91199994087 1.61899995804 0.0659999996424 119.0
3.9279999733 1.59800004959 0.0659999996424 101.0
3.96900010109 1.58599996567 0.0670000016689 102.0
3.91400003433 1.53699994087 0.0659999996424 98.0
3.96900010109 1.53199994564 0.0670000016689 105.0
3.9319999218 1.49100005627 0.0659999996424 100.0
3.88499999046 1.44599997997 0.0649999976158 95.0
3.90899991989 1.42900002003 0.0649999976158 104.0
3.99000000954 1.43200004101 0.0670000016689 97.0
3.94199991226 1.38800001144 0.0659999996424 99.0
3.96399998665 1.36899995804 0.0659999996424 100.0
3.99399995804 1.35300004482 0.0670000016689 101.0
4.01800012589 1.33500003815 0.0670000016689 101.0
3.94199991226 1.2840000391 0.0659999996424 95.0
3.96399998665 1.26499998569 0.0659999996424 100.0
3.96099996567 1.23899996281 0.0659999996424 92.0
4.03200006485 1.23500001431 0.0680000036955 98.0
3.97000002861 1.19000005722 0.0670000016689 95.0
4.02199983597 1.17999994755 0.0670000016689 95.0
3.98300004005 1.14300000668 0.0670000016689 109.0
4.01900005341 1.12800002098 0.0670000016689 116.0
3.97799992561 1.0909999609 0.0670000016689 105.0
3.99799990654 1.0720000267 0.0670000016689 112.0
4.04300022125 1.05900001526 0.0680000036955 87.0
2.39800000191 -0.172999992967 0.0419999994338 165.0
2.38700008392 -0.186000004411 0.0419999994338 142.0
2.37299990654 -0.199000000954 0.0419999994338 85.0
2.31699991226 -0.207000002265 0.0410000011325 191.0
1.99399995804 -0.189999997616 0.035000000149 60.0
1.00499999523 -0.10000000149 0.0170000009239 117.0
0.990999996662 -0.104000002146 0.0170000009239 135.0
0.978999972343 -0.108999997377 0.0170000009239 137.0
1.00100004673 -0.116999998689 0.0170000009239 140.0
1.00100004673 -0.123000003397 0.0170000009239 142.0
0.976999998093 -0.125 0.0170000009239 141.0
0.966000020504 -0.129999995232 0.01600000076 144.0
0.98299998045 -0.137999996543 0.0170000009239 151.0
0.975000023842 -0.142000004649 0.0170000009239 148.0
0.945999979973 -0.143999993801 0.01600000076 151.0
0.972999989986 -0.152999997139 0.0170000009239 151.0
0.977999985218 -0.159999996424 0.0170000009239 156.0
0.994000017643 -0.168999999762 0.0170000009239 158.0
0.98299998045 -0.172000005841 0.0170000009239 159.0
0.962999999523 -0.17499999702 0.0170000009239 164.0
0.947000026703 -0.177000001073 0.01600000076 158.0
0.954999983311 -0.185000002384 0.0170000009239 169.0
0.954999983311 -0.189999997616 0.0170000009239 164.0
0.947000026703 -0.194000005722 0.0170000009239 172.0
0.967000007629 -0.203999996185 0.0170000009239 181.0
0.949000000954 -0.206000000238 0.0170000009239 167.0
0.957000017166 -0.21400000155 0.0170000009239 164.0
0.950999975204 -0.217999994755 0.0170000009239 161.0
0.940999984741 -0.222000002861 0.0170000009239 170.0
0.959999978542 -0.231999993324 0.0170000009239 177.0
0.93900001049 -0.232999995351 0.0170000009239 171.0
0.952000021935 -0.241999998689 0.0170000009239 169.0
0.949999988079 -0.24699999392 0.0170000009239 164.0
0.938000023365 -0.25 0.0170000009239 166.0
0.922999978065 -0.252000004053 0.0170000009239 157.0
0.948000013828 -0.264999985695 0.0170000009239 166.0
0.959999978542 -0.273999989033 0.0170000009239 167.0
0.952000021935 -0.277999997139 0.0170000009239 164.0
0.938000023365 -0.280000001192 0.0170000009239 162.0
0.93599998951 -0.284999996424 0.0170000009239 158.0
0.924000024796 -0.287000000477 0.0170000009239 159.0
0.945999979973 -0.300000011921 0.0170000009239 157.0
0.936999976635 -0.303000003099 0.0170000009239 154.0
0.913999974728 -0.301999986172 0.0170000009239 158.0
0.941999971867 -0.317000001669 0.0179999992251 159.0
0.930999994278 -0.319999992847 0.0170000009239 158.0
0.925000011921 -0.324000000954 0.0170000009239 152.0
0.931999981403 -0.333000004292 0.0179999992251 151.0
0.938000023365 -0.340999990702 0.0179999992251 146.0
0.922999978065 -0.342000007629 0.0170000009239 147.0
0.930000007153 -0.351000010967 0.0179999992251 146.0
0.925000011921 -0.354999989271 0.0179999992251 147.0
0.944000005722 -0.368999987841 0.0179999992251 144.0
0.933000028133 -0.370999991894 0.0179999992251 148.0
0.922999978065 -0.372999995947 0.0179999992251 146.0
0.912999987602 -0.375 0.0179999992251 144.0
0.926999986172 -0.388000011444 0.0179999992251 135.0
0.933000028133 -0.397000014782 0.0179999992251 144.0
0.948000013828 -0.411000013351 0.0189999993891 137.0
0.912999987602 -0.402000010014 0.0179999992251 134.0
0.93599998951 -0.418999999762 0.0179999992251 139.0
0.926999986172 -0.421000003815 0.0179999992251 128.0
0.907000005245 -0.418999999762 0.0179999992251 128.0
0.917999982834 -0.430000007153 0.0179999992251 133.0
0.898999989033 -0.428999990225 0.0179999992251 124.0
0.882000029087 -0.426999986172 0.0179999992251 121.0
0.931999981403 -0.458000004292 0.0189999993891 124.0
0.916999995708 -0.458000004292 0.0189999993891 116.0
0.933000028133 -0.472999989986 0.0189999993891 116.0
0.883000016212 -0.455000013113 0.0179999992251 122.0
0.926999986172 -0.485000014305 0.0189999993891 122.0
0.93900001049 -0.497999995947 0.0189999993891 118.0
0.893999993801 -0.481000006199 0.0189999993891 113.0
0.878000020981 -0.479999989271 0.0179999992251 114.0
0.903999984264 -0.500999987125 0.0189999993891 117.0
3.24799990654 1.60500001907 0.0340000018477 83.0
3.1400001049 1.52699995041 0.0329999998212 113.0
3.18099999428 1.52400004864 0.0329999998212 101.0
3.4240000248 1.61500000954 0.0359999984503 69.0
3.59100008011 1.66700005531 0.0379999987781 102.0
3.58599996567 1.63800001144 0.0379999987781 123.0
3.61400008202 1.62399995327 0.0379999987781 120.0
3.70499992371 1.63800001144 0.0390000008047 88.0
3.85100007057 1.67499995232 0.0410000011325 79.0
3.89400005341 1.66600000858 0.0410000011325 74.0
3.93700003624 1.65600001812 0.0419999994338 123.0
3.86800003052 1.60000002384 0.0410000011325 149.0
3.93099999428 1.59899997711 0.0419999994338 140.0
3.97600007057 1.58899998665 0.0419999994338 126.0
3.93499994278 1.54499995708 0.0419999994338 122.0
3.95199990273 1.52499997616 0.0419999994338 125.0
3.87599992752 1.46899998188 0.0410000011325 119.0
3.88899993896 1.44799995422 0.0410000011325 121.0
3.96000003815 1.4470000267 0.0419999994338 124.0
3.94899988174 1.41600000858 0.0419999994338 120.0
3.98799991608 1.40400004387 0.0430000014603 115.0
3.9319999218 1.35800004005 0.0419999994338 123.0
3.96399998665 1.34300005436 0.0419999994338 117.0
3.93400001526 1.30700004101 0.0419999994338 121.0
3.96799993515 1.29200005531 0.0430000014603 122.0
3.88400006294 1.23899996281 0.0419999994338 116.0
3.98200011253 1.24500000477 0.0430000014603 124.0
3.97699999809 1.21800005436 0.0430000014603 115.0
3.96799993515 1.18900001049 0.0430000014603 113.0
3.98200011253 1.16799998283 0.0430000014603 117.0
4.02299976349 1.15499997139 0.0430000014603 117.0
3.92000007629 1.10000002384 0.0419999994338 125.0
3.99699997902 1.09700000286 0.0430000014603 139.0
3.96900010109 1.06400001049 0.0430000014603 137.0
3.97799992561 1.04100000858 0.0430000014603 103.0
2.36500000954 -0.171000003815 0.0280000008643 179.0
2.39299988747 -0.187000006437 0.0280000008643 135.0
2.35500001907 -0.196999996901 0.0280000008643 90.0
2.30900001526 -0.207000002265 0.0280000008643 193.0
1.94500005245 -0.185000002384 0.0230000000447 54.0
1.00100004673 -0.0989999994636 0.0109999999404 122.0
0.963999986649 -0.101000003517 0.0109999999404 138.0
0.98400002718 -0.108999997377 0.0109999999404 136.0
0.96899998188 -0.112999998033 0.0109999999404 138.0
0.963999986649 -0.118000000715 0.0109999999404 139.0
0.967000007629 -0.123999997973 0.0109999999404 143.0
0.940999984741 -0.126000002027 0.00999999977648 149.0
0.975000023842 -0.136000007391 0.0109999999404 155.0
0.972999989986 -0.142000004649 0.0109999999404 152.0
0.964999973774 -0.145999997854 0.0109999999404 153.0
0.948000013828 -0.149000003934 0.0109999999404 156.0
0.980000019073 -0.159999996424 0.0109999999404 157.0
0.958000004292 -0.162000000477 0.0109999999404 162.0
0.948000013828 -0.165999993682 0.0109999999404 162.0
0.943000018597 -0.171000003815 0.0109999999404 160.0
0.945999979973 -0.177000001073 0.0109999999404 167.0
0.950999975204 -0.184000000358 0.0109999999404 160.0
0.961000025272 -0.190999999642 0.0109999999404 165.0
0.972000002861 -0.20000000298 0.0109999999404 163.0
0.957000017166 -0.202000007033 0.0109999999404 176.0
0.950999975204 -0.207000002265 0.0109999999404 168.0
0.97000002861 -0.216999992728 0.0109999999404 163.0
0.98400002718 -0.225999996066 0.0120000001043 160.0
0.955999970436 -0.22499999404 0.0109999999404 166.0
0.945999979973 -0.229000002146 0.0109999999404 173.0
0.962999999523 -0.238999992609 0.0120000001043 165.0
0.961000025272 -0.244000002742 0.0120000001043 168.0
0.950999975204 -0.247999995947 0.0109999999404 163.0
0.944999992847 -0.252000004053 0.0109999999404 161.0
0.921000003815 -0.250999987125 0.0109999999404 167.0
0.926999986172 -0.259000003338 0.0109999999404 162.0
0.941999971867 -0.268999993801 0.0109999999404 163.0
0.93599998951 -0.273000001907 0.0109999999404 160.0
0.949000000954 -0.282999992371 0.0120000001043 157.0
0.925000011921 -0.282000005245 0.0109999999404 163.0
0.927999973297 -0.28900000453 0.0109999999404 161.0
0.955999970436 -0.303999990225 0.0120000001043 160.0
0.93599998951 -0.303000003099 0.0120000001043 160.0
0.912999987602 -0.301999986172 0.0109999999404 160.0
0.957000017166 -0.323000013828 0.0120000001043 158.0
0.92199999094 -0.317000001669 0.0120000001043 156.0
0.931999981403 -0.326000005007 0.0120000001043 151.0
0.927999973297 -0.331000000238 0.0120000001043 153.0
0.935000002384 -0.340000003576 0.0120000001043 152.0
0.925000011921 -0.342999994755 0.0120000001043 145.0
0.949999988079 -0.358000010252 0.0120000001043 150.0
0.947000026703 -0.363999992609 0.0120000001043 144.0
0.931999981403 -0.363999992609 0.0120000001043 149.0
0.93599998951 -0.372000008821 0.0120000001043 139.0
0.902999997139 -0.365000009537 0.0120000001043 139.0
0.924000024796 -0.379999995232 0.0120000001043 138.0
0.897000014782 -0.375 0.0120000001043 138.0
0.915000021458 -0.388999998569 0.0120000001043 142.0
0.902999997139 -0.391000002623 0.0120000001043 132.0
0.930999994278 -0.409999996424 0.0130000002682 136.0
0.943000018597 -0.42199999094 0.0130000002682 138.0
0.926999986172 -0.421000003815 0.0130000002682 134.0
0.889999985695 -0.411000013351 0.0120000001043 132.0
0.931999981403 -0.437999993563 0.0130000002682 127.0
0.916000008583 -0.437000006437 0.0130000002682 128.0
0.90600001812 -0.43900001049 0.0130000002682 121.0
0.925000011921 -0.455000013113 0.0130000002682 122.0
0.933000028133 -0.465999990702 0.0130000002682 122.0
0.945999979973 -0.479999989271 0.0130000002682 129.0
0.882000029087 -0.453999996185 0.0120000001043 126.0
0.898999989033 -0.469999998808 0.0130000002682 120.0
0.902000010014 -0.479000002146 0.0130000002682 122.0
0.89200001955 -0.479999989271 0.0130000002682 110.0
0.897000014782 -0.490000009537 0.0130000002682 120.0
0.885999977589 -0.490999996662 0.0130000002682 112.0
3.08800005913 1.52499997616 0.0130000002682 93.0
3.17300009727 1.54299998283 0.0130000002682 114.0
3.22300004959 1.54299998283 0.0140000004321 99.0
3.51900005341 1.6590000391 0.0149999996647 67.0
3.60400009155 1.67299997807 0.0149999996647 106.0
3.56999993324 1.62999999523 0.0149999996647 126.0
3.58200001717 1.61000001431 0.01600000076 119.0
3.69000005722 1.63100004196 0.01600000076 96.0
3.90899991989 1.70000004768 0.0170000009239 81.0
3.92199993134 1.6779999733 0.0170000009239 90.0
3.89100003242 1.63699996471 0.0170000009239 138.0
3.89700007439 1.61199998856 0.0170000009239 158.0
3.94799995422 1.60500001907 0.0179999992251 142.0
3.92199993134 1.56700003147 0.0179999992251 132.0
3.96300005913 1.55599999428 0.0179999992251 121.0
3.95399999619 1.52600002289 0.0179999992251 127.0
3.94899988174 1.4960000515 0.0179999992251 119.0
3.992000103 1.48500001431 0.0179999992251 122.0
3.9509999752 1.44400000572 0.0179999992251 116.0
3.96099996567 1.41999995708 0.0179999992251 130.0
3.96700000763 1.39600002766 0.0179999992251 125.0
3.96000003815 1.36699998379 0.0179999992251 124.0
3.92100000381 1.32799994946 0.0179999992251 126.0
3.97600007057 1.32099997997 0.0189999993891 129.0
3.94199991226 1.28299999237 0.0189999993891 125.0
3.9509999752 1.25999999046 0.0189999993891 122.0
4.007999897 1.25300002098 0.0189999993891 126.0
3.96199989319 1.21300005913 0.0189999993891 130.0
3.97000002861 1.19000005722 0.0189999993891 126.0
3.98000001907 1.16700005531 0.0189999993891 121.0
4.02299976349 1.15400004387 0.019999999553 121.0
3.98900008202 1.11899995804 0.0189999993891 130.0
3.98900008202 1.09399998188 0.0189999993891 136.0
3.96000003815 1.06099998951 0.0189999993891 135.0
3.97499990463 1.04100000858 0.019999999553 104.0
2.37700009346 -0.172000005841 0.0140000004321 192.0
2.40100002289 -0.187000006437 0.0149999996647 143.0
2.35400009155 -0.196999996901 0.0140000004321 98.0
2.29800009727 -0.206000000238 0.0140000004321 191.0
1.94299995899 -0.185000002384 0.0120000001043 62.0
0.999000012875 -0.0989999994636 0.00499999988824 127.0
0.980000019073 -0.103000000119 0.00499999988824 137.0
0.975000023842 -0.108000002801 0.00499999988824 136.0
0.972999989986 -0.11400000006 0.00499999988824 135.0
0.95300000906 -0.116999998689 0.00499999988824 140.0
0.978999972343 -0.126000002027 0.00499999988824 144.0
0.976000010967 -0.130999997258 0.00499999988824 150.0
0.96899998188 -0.136000007391 0.00499999988824 150.0
0.967999994755 -0.141000002623 0.00499999988824 155.0
0.961000025272 -0.145999997854 0.00499999988824 152.0
0.973999977112 -0.153999999166 0.00499999988824 160.0
0.959999978542 -0.157000005245 0.00499999988824 154.0
0.948000013828 -0.16099999845 0.00499999988824 161.0
0.962000012398 -0.168999999762 0.00499999988824 161.0
0.958999991417 -0.173999994993 0.00499999988824 161.0
0.964999973774 -0.180999994278 0.00600000005215 162.0
0.963999986649 -0.186000004411 0.00600000005215 160.0
0.967999994755 -0.193000003695 0.00600000005215 165.0
0.954999983311 -0.195999994874 0.00600000005215 165.0
0.962999999523 -0.203999996185 0.00600000005215 167.0
0.954999983311 -0.208000004292 0.00600000005215 172.0
0.949000000954 -0.211999997497 0.00600000005215 167.0
0.944000005722 -0.216999992728 0.00600000005215 170.0
0.959999978542 -0.225999996066 0.00600000005215 172.0
0.958999991417 -0.231999993324 0.00600000005215 167.0
0.949999988079 -0.236000001431 0.00600000005215 167.0
0.954999983311 -0.243000000715 0.00600000005215 164.0
0.935000002384 -0.243000000715 0.00600000005215 167.0
0.939999997616 -0.250999987125 0.00600000005215 171.0
0.936999976635 -0.254999995232 0.00600000005215 165.0
0.966000020504 -0.270000010729 0.00600000005215 168.0
0.943000018597 -0.268999993801 0.00600000005215 172.0
0.930000007153 -0.270999997854 0.00600000005215 158.0
0.939999997616 -0.280000001192 0.00600000005215 158.0
0.939999997616 -0.286000013351 0.00600000005215 160.0
0.93599998951 -0.291000008583 0.00600000005215 152.0
0.921000003815 -0.291999995708 0.00600000005215 166.0
0.944000005722 -0.305999994278 0.00600000005215 160.0
0.943000018597 -0.312000006437 0.00600000005215 157.0
0.947000026703 -0.319000005722 0.00600000005215 158.0
0.953999996185 -0.32800000906 0.00600000005215 148.0
0.927999973297 -0.324999988079 0.00600000005215 153.0
0.911000013351 -0.324999988079 0.00600000005215 151.0
0.95300000906 -0.345999985933 0.00600000005215 154.0
0.934000015259 -0.345999985933 0.00600000005215 147.0
0.913999974728 -0.344000011683 0.00600000005215 149.0
0.925999999046 -0.354999989271 0.00600000005215 151.0
0.929000020027 -0.363000005484 0.00600000005215 145.0
0.934000015259 -0.372000008821 0.00700000021607 145.0
0.916999995708 -0.370999991894 0.00600000005215 151.0
0.902999997139 -0.372000008821 0.00600000005215 150.0
0.90499997139 -0.379000008106 0.00600000005215 137.0
0.917999982834 -0.391000002623 0.00700000021607 134.0
0.917999982834 -0.397000014782 0.00700000021607 133.0
0.888000011444 -0.391000002623 0.00600000005215 142.0
0.89200001955 -0.398999989033 0.00600000005215 128.0
0.90600001812 -0.412000000477 0.00700000021607 132.0
0.921000003815 -0.425000011921 0.00700000021607 125.0
0.930000007153 -0.43599998951 0.00700000021607 131.0
0.885999977589 -0.42199999094 0.00700000021607 129.0
0.875999987125 -0.423999994993 0.00700000021607 135.0
0.93599998951 -0.460000008345 0.00700000021607 128.0
0.902000010014 -0.451000005007 0.00700000021607 120.0
0.893999993801 -0.45300000906 0.00700000021607 122.0
0.893000006676 -0.460000008345 0.00700000021607 119.0
0.902000010014 -0.470999985933 0.00700000021607 117.0
0.90600001812 -0.479999989271 0.00700000021607 117.0
0.903999984264 -0.486999988556 0.00700000021607 116.0
0.884999990463 -0.483000010252 0.00700000021607 113.0
0.896000027657 -0.497000008821 0.00700000021607 116.0
3.132999897 1.54799997807 -0.00600000005215 97.0
3.14499998093 1.52999997139 -0.00600000005215 115.0
3.22000002861 1.54200005531 -0.00600000005215 105.0
3.43400001526 1.61899995804 -0.00600000005215 72.0
3.59999990463 1.66999995708 -0.00600000005215 119.0
3.5680000782 1.6289999485 -0.00600000005215 125.0
3.58500003815 1.61099994183 -0.00600000005215 120.0
3.80399990082 1.68200004101 -0.00600000005215 95.0
3.91400003433 1.70200002193 -0.00600000005215 95.0
3.89100003242 1.66400003433 -0.00600000005215 105.0
3.88000011444 1.63199996948 -0.00600000005215 178.0
3.86899995804 1.60000002384 -0.00600000005215 192.0
3.93300008774 1.59899997711 -0.00600000005215 184.0
3.91199994087 1.56299996376 -0.00499999988824 146.0
3.90599989891 1.5340000391 -0.00499999988824 136.0
3.93600010872 1.51800000668 -0.00499999988824 135.0
3.99900007248 1.51499998569 -0.00499999988824 135.0
3.96399998665 1.47500002384 -0.00499999988824 138.0
3.91199994087 1.42900002003 -0.00499999988824 125.0
3.95399999619 1.41799998283 -0.00499999988824 141.0
3.9430000782 1.38800001144 -0.00499999988824 136.0
3.92100000381 1.35399997234 -0.00400000018999 126.0
3.94400000572 1.33599996567 -0.00400000018999 138.0
3.99300003052 1.3259999752 -0.00400000018999 130.0
3.98600006104 1.29799997807 -0.00400000018999 134.0
3.95399999619 1.26100003719 -0.00400000018999 131.0
3.93899989128 1.23099994659 -0.00400000018999 138.0
3.992000103 1.22200000286 -0.00400000018999 137.0
4.02199983597 1.20500004292 -0.00400000018999 135.0
3.97699999809 1.16600000858 -0.00400000018999 128.0
3.97900009155 1.14199995995 -0.00300000002608 139.0
3.9849998951 1.11800003052 -0.00300000002608 139.0
4.01499986649 1.10099995136 -0.00300000002608 137.0
3.97399997711 1.06500005722 -0.00300000002608 146.0
3.99799990654 1.04600000381 -0.00300000002608 109.0
4.48299980164 1.11699998379 -0.00300000002608 54.0
4.4310002327 1.07700002193 -0.00300000002608 64.0
4.44199991226 1.0529999733 -0.00300000002608 60.0
4.59399986267 1.03199994564 -0.00300000002608 60.0
4.54699993134 0.966000020504 -0.00200000009499 51.0
2.37599992752 -0.158000007272 0.0010000000475 48.0
2.38100004196 -0.172000005841 0.0010000000475 198.0
2.3710000515 -0.185000002384 0.0010000000475 144.0
2.35500001907 -0.196999996901 0.0010000000475 102.0
2.29299998283 -0.204999998212 0.0010000000475 198.0
1.78299999237 -0.168999999762 0.0 58.0
0.98400002718 -0.097999997437 0.0 126.0
0.967000007629 -0.101999998093 0.0 138.0
0.957000017166 -0.105999998748 0.0 139.0
0.981000006199 -0.115000002086 0.0 139.0
0.973999977112 -0.119000002742 0.0 138.0
0.971000015736 -0.125 0.0 145.0
0.971000015736 -0.129999995232 0.0 147.0
0.98299998045 -0.137999996543 0.0 153.0
0.95300000906 -0.138999998569 0.0 151.0
0.95300000906 -0.144999995828 0.0 153.0
0.952000021935 -0.15000000596 0.0 151.0
0.975000023842 -0.158999994397 0.0 157.0
0.957000017166 -0.162000000477 0.0 160.0
0.986999988556 -0.172999992967 0.0 157.0
0.964999973774 -0.17499999702 0.0 161.0
0.958999991417 -0.180000007153 0.0 163.0
0.938000023365 -0.180999994278 0.0 161.0
0.963999986649 -0.192000001669 0.0 163.0
0.971000015736 -0.20000000298 0.0 164.0
0.966000020504 -0.203999996185 0.0 162.0
0.964999973774 -0.209999993443 0.0 165.0
0.954999983311 -0.21400000155 0.0 163.0
0.966000020504 -0.222000002861 0.0 164.0
0.952000021935 -0.224000006914 0.0 172.0
0.962999999523 -0.232999995351 0.0 161.0
0.945999979973 -0.234999999404 0.0 162.0
0.922999978065 -0.233999997377 0.0 169.0
0.943000018597 -0.246000006795 0.0 172.0
0.938000023365 -0.25 0.0 162.0
0.926999986172 -0.252999991179 0.0 167.0
0.963999986649 -0.268999993801 0.0 166.0
0.949000000954 -0.270999997854 0.0 167.0
0.944000005722 -0.27500000596 0.0 160.0
0.936999976635 -0.279000014067 0.0 154.0
0.935000002384 -0.284999996424 0.0 163.0
0.948000013828 -0.294999986887 0.0 159.0
0.949999988079 -0.301999986172 0.0 157.0
0.920000016689 -0.298000007868 0.0 157.0
0.939999997616 -0.31099998951 0.0010000000475 156.0
0.943000018597 -0.317999988794 0.0010000000475 157.0
0.925000011921 -0.317999988794 0.0010000000475 161.0
0.949000000954 -0.331999987364 0.0010000000475 152.0
0.976999998093 -0.349000006914 0.0010000000475 152.0
0.908999979496 -0.330000013113 0.0010000000475 156.0
0.930000007153 -0.344000011683 0.0010000000475 154.0
0.911000013351 -0.344000011683 0.0010000000475 145.0
0.916999995708 -0.351999998093 0.0010000000475 146.0
0.917999982834 -0.358999997377 0.0010000000475 145.0
0.930999994278 -0.370000004768 0.0010000000475 144.0
0.933000028133 -0.377000004053 0.0010000000475 147.0
0.915000021458 -0.377000004053 0.0010000000475 144.0
0.912999987602 -0.381999999285 0.0010000000475 142.0
0.887000024319 -0.377000004053 0.0010000000475 140.0
0.899999976158 -0.388999998569 0.0010000000475 136.0
0.888999998569 -0.391000002623 0.0010000000475 129.0
0.908999979496 -0.405999988317 0.0010000000475 126.0
0.90600001812 -0.412000000477 0.0010000000475 128.0
0.919000029564 -0.423999994993 0.0010000000475 135.0
0.902999997139 -0.423000007868 0.0010000000475 134.0
0.907000005245 -0.432000011206 0.0010000000475 126.0
0.876999974251 -0.423999994993 0.0010000000475 123.0
0.92199999094 -0.45300000906 0.0010000000475 120.0
0.925000011921 -0.462000012398 0.0010000000475 123.0
0.902999997139 -0.458000004292 0.0010000000475 116.0
0.907999992371 -0.467999994755 0.0010000000475 122.0
0.912000000477 -0.476999998093 0.0010000000475 111.0
0.912999987602 -0.483999997377 0.0010000000475 116.0
0.888999998569 -0.479000002146 0.0010000000475 119.0
0.908999979496 -0.497000008821 0.0010000000475 115.0
0.893999993801 -0.495999991894 0.0010000000475 103.0
3.0759999752 1.51900005341 -0.0250000003725 99.0
3.15499997139 1.5340000391 -0.0260000005364 114.0
3.17899990082 1.52199995518 -0.0260000005364 97.0
3.56900000572 1.68200004101 -0.0289999991655 70.0
3.51699995995 1.63199996948 -0.0280000008643 99.0
3.63599991798 1.65999996662 -0.0289999991655 127.0
3.62700009346 1.62999999523 -0.0280000008643 123.0
3.80399990082 1.68200004101 -0.0299999993294 96.0
3.84100008011 1.66999995708 -0.0299999993294 103.0
3.9240000248 1.67900002003 -0.0299999993294 106.0
3.85599994659 1.62199997902 -0.0299999993294 177.0
3.87700009346 1.60300004482 -0.0289999991655 189.0
3.87199997902 1.57400000095 -0.0289999991655 180.0
3.93300008774 1.57099997997 -0.0299999993294 140.0
3.92499995232 1.54100000858 -0.0289999991655 137.0
3.94899988174 1.52300000191 -0.0289999991655 133.0
3.91300010681 1.48300004005 -0.0289999991655 135.0
3.95300006866 1.47099995613 -0.0289999991655 139.0
3.93300008774 1.43700003624 -0.0289999991655 141.0
3.92899990082 1.4090000391 -0.0289999991655 145.0
3.93300008774 1.38399994373 -0.0280000008643 143.0
3.92499995232 1.35500001907 -0.0280000008643 143.0
3.9509999752 1.33800005913 -0.0280000008643 141.0
3.96900010109 1.31799995899 -0.0280000008643 145.0
3.98099994659 1.29600000381 -0.0280000008643 146.0
3.9849998951 1.27100002766 -0.0280000008643 144.0
3.9430000782 1.23199999332 -0.0280000008643 142.0
3.99900007248 1.22399997711 -0.0280000008643 142.0
3.99099993706 1.19599997997 -0.0280000008643 151.0
3.98799991608 1.16900002956 -0.0270000007004 153.0
3.97699999809 1.14100003242 -0.0270000007004 147.0
3.9849998951 1.11800003052 -0.0270000007004 138.0
3.98699998856 1.09300005436 -0.0270000007004 147.0
3.97199988365 1.06400001049 -0.0270000007004 147.0
4.02400016785 1.0529999733 -0.0270000007004 111.0
4.3220000267 1.10399997234 -0.0289999991655 63.0
4.42299985886 1.10199999809 -0.0289999991655 70.0
4.47599983215 1.08800005913 -0.0289999991655 77.0
4.41699981689 1.04600000381 -0.0289999991655 68.0
4.4470000267 1.02600002289 -0.0289999991655 59.0
4.4310002327 0.995000004768 -0.0289999991655 61.0
4.53599977493 0.990999996662 -0.0289999991655 66.0
4.54099988937 0.964999973774 -0.0289999991655 58.0
4.53800010681 0.936999976635 -0.0289999991655 57.0
4.50899982452 0.902999997139 -0.0280000008643 56.0
4.5689997673 0.888000011444 -0.0289999991655 62.0
4.59200000763 0.865000009537 -0.0289999991655 56.0
4.53800010681 0.827000021935 -0.0280000008643 63.0
4.63700008392 0.818000018597 -0.0289999991655 56.0
4.58199977875 0.78100001812 -0.0280000008643 60.0
4.625 0.760999977589 -0.0280000008643 55.0
4.55499982834 0.722000002861 -0.0280000008643 53.0
4.64699983597 0.708999991417 -0.0280000008643 53.0
4.65500020981 0.683000028133 -0.0280000008643 53.0
4.65000009537 0.65499997139 -0.0280000008643 59.0
4.71199989319 0.635999977589 -0.0280000008643 50.0
4.78399991989 0.588999986649 -0.0280000008643 54.0
4.74700021744 0.556999981403 -0.0280000008643 54.0
4.72300004959 0.526000022888 -0.0270000007004 50.0
4.80399990082 0.507000029087 -0.0280000008643 58.0
4.76499986649 0.448000013828 -0.0270000007004 50.0
2.44499993324 -0.163000002503 -0.0120000001043 54.0
2.37299990654 -0.172000005841 -0.0120000001043 219.0
2.3789999485 -0.186000004411 -0.0120000001043 147.0
2.34299993515 -0.196999996901 -0.0120000001043 110.0
2.30100011826 -0.206000000238 -0.0109999999404 212.0
1.72300004959 -0.16400000453 -0.00899999961257 62.0
0.996999979019 -0.0989999994636 -0.00499999988824 128.0
0.980000019073 -0.103000000119 -0.00499999988824 132.0
0.978999972343 -0.108999997377 -0.00499999988824 143.0
0.972999989986 -0.11400000006 -0.00499999988824 138.0
0.985000014305 -0.120999999344 -0.00499999988824 145.0
0.980000019073 -0.126000002027 -0.00499999988824 146.0
0.96899998188 -0.129999995232 -0.00499999988824 148.0
0.981999993324 -0.137999996543 -0.00499999988824 154.0
0.96899998188 -0.141000002623 -0.00499999988824 155.0
0.966000020504 -0.146999999881 -0.00499999988824 153.0
0.98400002718 -0.155000001192 -0.00499999988824 152.0
0.95300000906 -0.156000003219 -0.00499999988824 165.0
0.975000023842 -0.165000006557 -0.00499999988824 156.0
0.963999986649 -0.168999999762 -0.00499999988824 163.0
0.953999996185 -0.172999992967 -0.00499999988824 160.0
0.953999996185 -0.179000005126 -0.00499999988824 168.0
0.977999985218 -0.188999995589 -0.00499999988824 162.0
0.962000012398 -0.192000001669 -0.00499999988824 163.0
0.947000026703 -0.194000005722 -0.00499999988824 171.0
0.955999970436 -0.202000007033 -0.00499999988824 169.0
0.947000026703 -0.206000000238 -0.00499999988824 168.0
0.941999971867 -0.21099999547 -0.00400000018999 172.0
0.958000004292 -0.219999998808 -0.00499999988824 175.0
0.966000020504 -0.228000000119 -0.00499999988824 163.0
0.943000018597 -0.228000000119 -0.00400000018999 169.0
0.962000012398 -0.238999992609 -0.00400000018999 172.0
0.955999970436 -0.243000000715 -0.00400000018999 177.0
0.952000021935 -0.247999995947 -0.00400000018999 168.0
0.939999997616 -0.250999987125 -0.00400000018999 166.0
0.950999975204 -0.259000003338 -0.00400000018999 170.0
0.936999976635 -0.261999994516 -0.00400000018999 171.0
0.964999973774 -0.275999993086 -0.00400000018999 161.0
0.949000000954 -0.277000010014 -0.00400000018999 166.0
0.926999986172 -0.275999993086 -0.00400000018999 162.0
0.924000024796 -0.280999988317 -0.00400000018999 162.0
0.958999991417 -0.298000007868 -0.00400000018999 163.0
0.947000026703 -0.300999999046 -0.00400000018999 162.0
0.935000002384 -0.303000003099 -0.00400000018999 154.0
0.934000015259 -0.308999985456 -0.00400000018999 159.0
0.931999981403 -0.31400001049 -0.00400000018999 155.0
0.92199999094 -0.317000001669 -0.00400000018999 153.0
0.915000021458 -0.319999992847 -0.00400000018999 150.0
0.961000025272 -0.342999994755 -0.00400000018999 156.0
0.925999999046 -0.337000012398 -0.00400000018999 153.0
0.939999997616 -0.347999989986 -0.00400000018999 149.0
0.93599998951 -0.352999985218 -0.00400000018999 152.0
0.910000026226 -0.349000006914 -0.00400000018999 153.0
0.899999976158 -0.351000010967 -0.00400000018999 147.0
0.922999978065 -0.36700001359 -0.00400000018999 150.0
0.949000000954 -0.384000003338 -0.00400000018999 144.0
0.929000020027 -0.381999999285 -0.00400000018999 140.0
0.925000011921 -0.386999994516 -0.00400000018999 138.0
0.901000022888 -0.38299998641 -0.00400000018999 141.0
0.93900001049 -0.405999988317 -0.00400000018999 138.0
0.933000028133 -0.411000013351 -0.00400000018999 130.0
0.911000013351 -0.407000005245 -0.00400000018999 127.0
0.907999992371 -0.412000000477 -0.00400000018999 137.0
0.917999982834 -0.423999994993 -0.00400000018999 128.0
0.919000029564 -0.430999994278 -0.00400000018999 133.0
0.888999998569 -0.423000007868 -0.00400000018999 130.0
0.907999992371 -0.43900001049 -0.00400000018999 117.0
0.887000024319 -0.43599998951 -0.00300000002608 128.0
0.907000005245 -0.45300000906 -0.00400000018999 114.0
0.915000021458 -0.463999986649 -0.00400000018999 121.0
0.934000015259 -0.481000006199 -0.00400000018999 126.0
0.939999997616 -0.490999996662 -0.00400000018999 115.0
0.89099997282 -0.472000002861 -0.00300000002608 118.0
0.898000001907 -0.483999997377 -0.00300000002608 120.0
0.884000003338 -0.483000010252 -0.00300000002608 118.0
0.908999979496 -0.504000008106 -0.00300000002608 109.0
3.08599996567 1.52499997616 -0.0450000017881 105.0
3.21199989319 1.56200003624 -0.0460000000894 114.0
3.21900010109 1.54200005531 -0.0460000000894 97.0
3.63700008392 1.71500003338 -0.0520000010729 78.0
3.64599990845 1.69200003147 -0.0520000010729 118.0
3.60500001907 1.64600002766 -0.0509999990463 130.0
3.59200000763 1.61399996281 -0.0509999990463 119.0
3.83800005913 1.6970000267 -0.0540000014007 96.0
3.81399989128 1.6590000391 -0.0529999993742 98.0
3.89800000191 1.66700005531 -0.0540000014007 108.0
3.88499999046 1.63399994373 -0.0540000014007 178.0
3.90199995041 1.61300003529 -0.0540000014007 191.0
3.92600011826 1.59599995613 -0.0540000014007 170.0
3.89700007439 1.55700004101 -0.0529999993742 141.0
3.9430000782 1.54799997807 -0.0540000014007 133.0
3.92600011826 1.51400005817 -0.0529999993742 134.0
3.94799995422 1.4960000515 -0.0529999993742 136.0
3.9470000267 1.46899998188 -0.0529999993742 129.0
3.94400000572 1.44099998474 -0.0529999993742 141.0
3.95900011063 1.41999995708 -0.0529999993742 138.0
3.97600007057 1.39900004864 -0.0529999993742 140.0
3.9470000267 1.36300003529 -0.0520000010729 146.0
3.94499993324 1.33599996567 -0.0520000010729 136.0
3.9509999752 1.31200003624 -0.0520000010729 143.0
3.98600006104 1.29700005054 -0.0520000010729 135.0
3.98600006104 1.27100002766 -0.0520000010729 147.0
3.9960000515 1.24899995327 -0.0520000010729 148.0
3.97099995613 1.21500003338 -0.0509999990463 144.0
3.992000103 1.19599997997 -0.0509999990463 145.0
3.99799990654 1.17200005054 -0.0509999990463 153.0
3.93300008774 1.12800002098 -0.0500000007451 150.0
3.99000000954 1.11899995804 -0.0509999990463 139.0
3.96700000763 1.08800005913 -0.0500000007451 139.0
3.96199989319 1.06200003624 -0.0500000007451 141.0
4.01300001144 1.04999995232 -0.0509999990463 111.0
4.41200017929 1.12699997425 -0.054999999702 65.0
4.38700008392 1.09300005436 -0.054999999702 77.0
4.42000007629 1.07400000095 -0.054999999702 83.0
4.42399978638 1.04799997807 -0.054999999702 74.0
4.40500020981 1.01600003242 -0.0540000014007 71.0
4.48999977112 1.00800001621 -0.054999999702 73.0
4.53599977493 0.990999996662 -0.0560000017285 69.0
4.51800012589 0.959999978542 -0.054999999702 66.0
4.51200008392 0.930999994278 -0.054999999702 66.0
4.50500011444 0.902999997139 -0.054999999702 68.0
4.5609998703 0.885999977589 -0.054999999702 69.0
4.53599977493 0.853999972343 -0.054999999702 67.0
4.62300014496 0.842999994755 -0.0560000017285 64.0
4.61000013351 0.813000023365 -0.054999999702 63.0
4.625 0.787999987602 -0.054999999702 57.0
4.59700012207 0.755999982357 -0.054999999702 63.0
4.60799980164 0.730000019073 -0.054999999702 61.0
4.65700006485 0.709999978542 -0.054999999702 59.0
4.67899990082 0.68599998951 -0.054999999702 63.0
4.67199993134 0.657999992371 -0.054999999702 60.0
4.65299987793 0.628000020981 -0.054999999702 55.0
4.72300004959 0.60900002718 -0.054999999702 56.0
4.70900011063 0.579999983311 -0.054999999702 53.0
4.71899986267 0.552999973297 -0.054999999702 56.0
4.70100021362 0.523999989033 -0.054999999702 57.0
4.71299982071 0.497999995947 -0.054999999702 54.0
4.73500013351 0.472999989986 -0.054999999702 52.0
4.78000020981 0.449000000954 -0.054999999702 53.0
4.73699998856 0.418000012636 -0.0540000014007 50.0
4.78800010681 0.393999993801 -0.054999999702 48.0
2.5 -0.166999995708 -0.0270000007004 64.0
2.37800002098 -0.172000005841 -0.0260000005364 224.0
2.36100006104 -0.184000000358 -0.0250000003725 149.0
2.35700011253 -0.197999998927 -0.0250000003725 118.0
2.3069999218 -0.207000002265 -0.0250000003725 218.0
1.70000004768 -0.16099999845 -0.0179999992251 61.0
1.00800001621 -0.10000000149 -0.0109999999404 129.0
0.992999970913 -0.104999996722 -0.0109999999404 137.0
0.989000022411 -0.109999999404 -0.0109999999404 143.0
0.98400002718 -0.115000002086 -0.0109999999404 145.0
0.975000023842 -0.119999997318 -0.0109999999404 152.0
0.953999996185 -0.122000001371 -0.00999999977648 152.0
0.959999978542 -0.128999993205 -0.00999999977648 149.0
0.971000015736 -0.136000007391 -0.0109999999404 157.0
0.964999973774 -0.141000002623 -0.00999999977648 154.0
0.958000004292 -0.144999995828 -0.00999999977648 156.0
0.97000002861 -0.152999997139 -0.00999999977648 156.0
0.962000012398 -0.157000005245 -0.00999999977648 163.0
0.958000004292 -0.162000000477 -0.00999999977648 161.0
0.98400002718 -0.172999992967 -0.0109999999404 167.0
0.952000021935 -0.172999992967 -0.00999999977648 164.0
0.958999991417 -0.180000007153 -0.00999999977648 169.0
