ply
format ascii 1.0
element vertex 941
property float x
property float y
property float z
property float intensity
end_header
0.916999995708 -0.391000002623 0.202000007033 94.0
0.964999973774 -0.418000012636 0.21400000155 96.0
0.915000021458 -0.402999997139 0.202999994159 97.0
0.907999992371 -0.407000005245 0.202000007033 100.0
0.929000020027 -0.423000007868 0.207000002265 100.0
0.962000012398 -0.446000009775 0.215000003576 93.0
0.947000026703 -0.446000009775 0.211999997497 88.0
0.938000023365 -0.449000000954 0.21099999547 96.0
0.921000003815 -0.446999996901 0.208000004292 97.0
0.952000021935 -0.469999998808 0.215000003576 96.0
0.954999983311 -0.479000002146 0.216999992728 89.0
0.924000024796 -0.469999998808 0.209999993443 94.0
0.879000008106 -0.453999996185 0.20000000298 95.0
0.924000024796 -0.485000014305 0.21099999547 97.0
0.92199999094 -0.49200001359 0.211999997497 85.0
0.935000002384 -0.505999982357 0.215000003576 90.0
0.925000011921 -0.508000016212 0.21400000155 89.0
0.920000016689 -0.513000011444 0.212999999523 90.0
0.953999996185 -0.540000021458 0.222000002861 89.0
3.04200005531 1.65799999237 0.670000016689 104.0
3.11299991608 1.67200005054 0.684000015259 91.0
3.40000009537 1.7990000248 0.745000004768 83.0
3.43099999428 1.7879999876 0.75 114.0
3.492000103 1.79200005531 0.760999977589 120.0
3.47199988365 1.7539999485 0.754999995232 122.0
3.49099993706 1.73699998856 0.757000029087 78.0
3.85400009155 1.82899999619 0.829999983311 112.0
3.81599998474 1.78199994564 0.819000005722 135.0
3.86500000954 1.77600002289 0.82800000906 125.0
3.79099988937 1.71300005913 0.810000002384 126.0
3.882999897 1.72599995136 0.82800000906 91.0
3.86599993706 1.38999998569 0.805000007153 93.0
3.91700005531 1.38199996948 0.81400001049 113.0
3.85500001907 1.33399999142 0.800000011921 118.0
3.91100001335 1.32700002193 0.810000002384 124.0
3.91599988937 1.30200004578 0.810000002384 119.0
3.87400007248 1.26300001144 0.800000011921 107.0
3.89199995995 1.24300003052 0.801999986172 119.0
3.99799990654 1.25 0.823000013828 106.0
0.986000001431 -0.0579999983311 0.194999992847 77.0
1.01100003719 -0.0649999976158 0.20000000298 105.0
1.00199997425 -0.0710000023246 0.199000000954 112.0
1.00100004673 -0.0769999995828 0.197999998927 106.0
0.990999996662 -0.082000002265 0.196999996901 103.0
1.01199996471 -0.0890000015497 0.201000005007 105.0
1.01400005817 -0.0949999988079 0.201000005007 113.0
1.0039999485 -0.10000000149 0.20000000298 113.0
0.986999988556 -0.104000002146 0.195999994874 112.0
0.998000025749 -0.112000003457 0.199000000954 110.0
0.996999979019 -0.116999998689 0.199000000954 110.0
0.996999979019 -0.123000003397 0.199000000954 115.0
0.999000012875 -0.128999993205 0.199000000954 109.0
0.962000012398 -0.129999995232 0.192000001669 116.0
0.985000014305 -0.138999998569 0.196999996901 119.0
0.995999991894 -0.146999999881 0.199000000954 115.0
0.963999986649 -0.148000001907 0.193000003695 116.0
0.976999998093 -0.156000003219 0.195999994874 121.0
0.958000004292 -0.158000007272 0.192000001669 120.0
0.961000025272 -0.165000006557 0.193000003695 120.0
0.975000023842 -0.172999992967 0.195999994874 126.0
0.975000023842 -0.179000005126 0.195999994874 120.0
0.972999989986 -0.184000000358 0.195999994874 122.0
0.976000010967 -0.190999999642 0.196999996901 125.0
0.98400002718 -0.199000000954 0.199000000954 120.0
0.945999979973 -0.196999996901 0.190999999642 125.0
0.949000000954 -0.202999994159 0.192000001669 121.0
0.926999986172 -0.203999996185 0.187999993563 121.0
0.998000025749 -0.225999996066 0.202000007033 117.0
0.999000012875 -0.232999995351 0.202999994159 121.0
0.967000007629 -0.231000006199 0.196999996901 118.0
0.97000002861 -0.238000005484 0.196999996901 123.0
0.964999973774 -0.243000000715 0.196999996901 116.0
0.967999994755 -0.25 0.197999998927 121.0
0.952000021935 -0.250999987125 0.194999992847 112.0
0.971000015736 -0.263000011444 0.199000000954 122.0
0.962999999523 -0.266999989748 0.197999998927 115.0
0.996999979019 -0.282000005245 0.204999998212 117.0
0.939999997616 -0.272000014782 0.193000003695 115.0
0.967000007629 -0.286000013351 0.199000000954 118.0
0.938000023365 -0.284000009298 0.194000005722 116.0
0.955999970436 -0.294999986887 0.197999998927 119.0
0.930999994278 -0.293999999762 0.193000003695 115.0
0.977999985218 -0.314999997616 0.202999994159 109.0
0.95300000906 -0.31400001049 0.197999998927 118.0
0.949000000954 -0.317999988794 0.197999998927 111.0
0.961000025272 -0.328999996185 0.201000005007 112.0
0.95300000906 -0.331999987364 0.199000000954 102.0
0.953999996185 -0.338999986649 0.20000000298 98.0
0.944000005722 -0.342000007629 0.197999998927 110.0
0.975000023842 -0.360000014305 0.204999998212 109.0
0.950999975204 -0.358000010252 0.20000000298 107.0
0.936999976635 -0.358999997377 0.197999998927 108.0
0.925000011921 -0.361000001431 0.195999994874 103.0
0.916000008583 -0.363999992609 0.194000005722 104.0
0.944999992847 -0.381999999285 0.201000005007 110.0
0.958999991417 -0.395000010729 0.204999998212 101.0
0.936999976635 -0.391999989748 0.20000000298 104.0
0.921000003815 -0.391999989748 0.196999996901 108.0
0.944999992847 -0.409000009298 0.202999994159 101.0
0.916999995708 -0.402999997139 0.196999996901 102.0
0.912000000477 -0.407999992371 0.196999996901 93.0
0.930999994278 -0.423000007868 0.201000005007 97.0
0.903999984264 -0.418000012636 0.195999994874 96.0
0.971000015736 -0.456999987364 0.21099999547 95.0
0.912000000477 -0.435000002384 0.199000000954 94.0
0.925999999046 -0.449000000954 0.202999994159 95.0
0.927999973297 -0.458000004292 0.203999996185 95.0
0.986000001431 -0.493999987841 0.216999992728 93.0
0.919000029564 -0.467000007629 0.202999994159 90.0
0.936999976635 -0.483999997377 0.208000004292 93.0
0.899999976158 -0.472000002861 0.20000000298 99.0
0.920000016689 -0.490000009537 0.204999998212 85.0
0.85799998045 -0.462999999523 0.192000001669 84.0
0.919000029564 -0.504000008106 0.206000000238 95.0
0.964999973774 -0.537999987602 0.216999992728 87.0
0.919000029564 -0.518999993801 0.207000002265 90.0
3.05599999428 1.66400003433 0.652000010014 100.0
3.08800005913 1.65600001812 0.657000005245 95.0
3.50900006294 1.8259999752 0.742999970913 109.0
3.48600006104 1.78600001335 0.736000001431 118.0
3.47499990463 1.75300002098 0.731999993324 114.0
3.86299991608 1.86000001431 0.808000028133 76.0
3.79200005531 1.79700005054 0.791000008583 121.0
3.81100010872 1.77699995041 0.792999982834 125.0
3.83999991417 1.76199996471 0.79699999094 127.0
3.80399990082 1.71700000763 0.787999987602 119.0
3.85800004005 1.38600003719 0.778999984264 69.0
3.89100003242 1.3710000515 0.783999979496 107.0
3.87299990654 1.33899998665 0.778999984264 121.0
3.93400001526 1.33299994469 0.790000021458 121.0
3.91499996185 1.30099999905 0.785000026226 112.0
3.9319999218 1.27999997139 0.787000000477 111.0
3.94000005722 1.25699996948 0.787999987602 115.0
3.91199994087 1.22200000286 0.78100001812 100.0
0.991999983788 -0.0579999983311 0.190999999642 87.0
0.978999972343 -0.0630000010133 0.187999993563 104.0
0.97000002861 -0.0680000036955 0.186000004411 109.0
1.00899994373 -0.0769999995828 0.194000005722 108.0
0.981999993324 -0.0810000002384 0.188999995589 107.0
0.949000000954 -0.0839999988675 0.182999998331 114.0
1.00100004673 -0.0939999967813 0.193000003695 106.0
0.985000014305 -0.097999997437 0.189999997616 110.0
0.98299998045 -0.104000002146 0.189999997616 107.0
0.966000020504 -0.108000002801 0.186000004411 110.0
0.985000014305 -0.115999996662 0.189999997616 113.0
0.971000015736 -0.119999997318 0.187999993563 115.0
0.96899998188 -0.125 0.187000006437 114.0
0.996999979019 -0.135000005364 0.193000003695 117.0
0.987999975681 -0.140000000596 0.190999999642 117.0
0.989000022411 -0.145999997854 0.192000001669 113.0
0.992999970913 -0.151999995112 0.193000003695 117.0
0.944999992847 -0.15000000596 0.182999998331 122.0
0.986999988556 -0.163000002503 0.192000001669 122.0
0.975000023842 -0.166999995708 0.189999997616 125.0
0.948000013828 -0.167999997735 0.185000002384 128.0
0.987999975681 -0.180999994278 0.193000003695 117.0
0.989000022411 -0.187000006437 0.193000003695 118.0
0.98299998045 -0.192000001669 0.192000001669 119.0
0.971000015736 -0.195999994874 0.189999997616 120.0
0.990999996662 -0.206000000238 0.194000005722 123.0
0.98299998045 -0.209999993443 0.193000003695 128.0
0.975000023842 -0.215000003576 0.192000001669 121.0
0.962999999523 -0.217999994755 0.188999995589 123.0
0.966000020504 -0.224000006914 0.189999997616 118.0
0.976999998093 -0.232999995351 0.193000003695 124.0
0.961000025272 -0.234999999404 0.189999997616 119.0
0.989000022411 -0.247999995947 0.195999994874 121.0
0.994000017643 -0.256000012159 0.196999996901 117.0
0.97000002861 -0.256000012159 0.192000001669 124.0
0.940999984741 -0.254000008106 0.187000006437 118.0
0.976000010967 -0.270000010729 0.194000005722 121.0
0.957000017166 -0.270999997854 0.190999999642 120.0
0.962000012398 -0.277999997139 0.192000001669 123.0
0.964999973774 -0.286000013351 0.193000003695 116.0
0.943000018597 -0.284999996424 0.188999995589 115.0
0.945999979973 -0.291999995708 0.189999997616 119.0
0.941999971867 -0.29699999094 0.188999995589 120.0
0.967000007629 -0.31099998951 0.194999992847 113.0
0.92199999094 -0.303000003099 0.186000004411 117.0
0.936999976635 -0.31400001049 0.188999995589 111.0
0.967999994755 -0.331000000238 0.195999994874 119.0
0.967000007629 -0.337000012398 0.195999994874 107.0
0.943000018597 -0.335000008345 0.192000001669 113.0
0.936999976635 -0.338999986649 0.190999999642 110.0
0.97000002861 -0.358000010252 0.197999998927 109.0
0.930000007153 -0.34999999404 0.189999997616 103.0
0.935000002384 -0.358000010252 0.192000001669 99.0
0.980000019073 -0.381999999285 0.201000005007 106.0
0.972999989986 -0.386000007391 0.20000000298 108.0
0.916999995708 -0.370000004768 0.188999995589 112.0
0.920000016689 -0.377999991179 0.189999997616 98.0
0.936999976635 -0.391999989748 0.194000005722 101.0
0.944999992847 -0.402000010014 0.195999994874 104.0
0.95300000906 -0.412000000477 0.199000000954 99.0
0.925999999046 -0.407000005245 0.193000003695 93.0
0.917999982834 -0.411000013351 0.192000001669 101.0
0.96899998188 -0.439999997616 0.202999994159 99.0
0.93900001049 -0.433999985456 0.197999998927 88.0
0.908999979496 -0.426999986172 0.192000001669 95.0
0.963999986649 -0.460000008345 0.203999996185 92.0
0.92199999094 -0.446999996901 0.195999994874 93.0
0.935000002384 -0.46099999547 0.199000000954 95.0
0.90499997139 -0.451999992132 0.193000003695 94.0
0.939999997616 -0.477999985218 0.201000005007 92.0
0.916999995708 -0.472999989986 0.196999996901 92.0
0.913999974728 -0.477999985218 0.196999996901 91.0
0.917999982834 -0.488000005484 0.197999998927 84.0
0.989000022411 -0.533999979496 0.21400000155 83.0
0.92199999094 -0.504999995232 0.20000000298 86.0
0.876999974251 -0.488000005484 0.190999999642 93.0
0.920000016689 -0.518999993801 0.201000005007 95.0
2.99799990654 1.62999999523 0.619000017643 111.0
3.14100003242 1.68299996853 0.647000014782 85.0
3.48900008202 1.81299996376 0.714999973774 112.0
3.4279999733 1.7539999485 0.700999975204 122.0
3.51200008392 1.76999998093 0.716000020504 112.0
3.71199989319 1.78499996662 0.751999974251 77.0
3.77699995041 1.7879999876 0.763000011444 120.0
3.87400007248 1.80400002003 0.78100001812 123.0
3.83800005913 1.75899994373 0.772000014782 119.0
3.91400003433 1.76499998569 0.785000026226 107.0
3.76900005341 1.35199999809 0.736999988556 76.0
3.96600008011 1.39600002766 0.773999989033 109.0
3.90300011635 1.34700000286 0.759999990463 116.0
3.94899988174 1.3370000124 0.768000006676 120.0
3.90100002289 1.29499995708 0.758000016212 115.0
3.91599988937 1.27400004864 0.759000003338 118.0
3.9319999218 1.25300002098 0.760999977589 117.0
3.90100002289 1.21700000763 0.754000008106 100.0
1.03100001812 -0.0610000006855 0.192000001669 86.0
0.992999970913 -0.0640000030398 0.185000002384 110.0
1.00300002098 -0.0710000023246 0.187000006437 107.0
0.972999989986 -0.0740000009537 0.180999994278 112.0
0.980000019073 -0.0810000002384 0.182999998331 110.0
1.00499999523 -0.0890000015497 0.187000006437 113.0
0.987999975681 -0.0930000022054 0.184000000358 117.0
0.97000002861 -0.097000002861 0.180999994278 112.0
0.981000006199 -0.104000002146 0.182999998331 115.0
0.98400002718 -0.109999999404 0.184000000358 112.0
0.986999988556 -0.115999996662 0.185000002384 109.0
0.972000002861 -0.119999997318 0.181999996305 116.0
1.00999999046 -0.130999997258 0.188999995589 119.0
0.971000015736 -0.130999997258 0.181999996305 115.0
0.977999985218 -0.137999996543 0.184000000358 122.0
0.990999996662 -0.145999997854 0.186000004411 119.0
0.96899998188 -0.148000001907 0.181999996305 122.0
1.02199995518 -0.163000002503 0.192000001669 118.0
1.00800001621 -0.166999995708 0.189999997616 126.0
0.972000002861 -0.165999993682 0.182999998331 119.0
0.959999978542 -0.170000001788 0.180999994278 128.0
0.990999996662 -0.181999996305 0.187000006437 123.0
0.961000025272 -0.181999996305 0.181999996305 126.0
0.976999998093 -0.190999999642 0.185000002384 125.0
0.97000002861 -0.194999992847 0.184000000358 127.0
0.945999979973 -0.195999994874 0.179000005126 120.0
0.986999988556 -0.21099999547 0.187000006437 123.0
0.977999985218 -0.215000003576 0.186000004411 117.0
0.971000015736 -0.218999996781 0.185000002384 124.0
0.963999986649 -0.224000006914 0.184000000358 121.0
0.986000001431 -0.234999999404 0.187999993563 123.0
0.959999978542 -0.234999999404 0.184000000358 120.0
0.978999972343 -0.246000006795 0.187000006437 121.0
0.950999975204 -0.245000004768 0.181999996305 122.0
0.950999975204 -0.25 0.182999998331 125.0
0.963999986649 -0.259999990463 0.186000004411 118.0
0.962999999523 -0.266000002623 0.185000002384 120.0
0.964999973774 -0.273000001907 0.186000004411 115.0
0.95300000906 -0.27500000596 0.184000000358 114.0
0.949000000954 -0.280999988317 0.184000000358 121.0
0.975000023842 -0.294999986887 0.188999995589 118.0
0.952000021935 -0.293999999762 0.185000002384 115.0
0.938000023365 -0.294999986887 0.181999996305 117.0
0.952000021935 -0.305999994278 0.186000004411 117.0
0.934000015259 -0.305999994278 0.181999996305 111.0
0.949000000954 -0.317999988794 0.186000004411 117.0
0.953999996185 -0.326000005007 0.187000006437 108.0
0.962000012398 -0.335000008345 0.188999995589 108.0
0.927999973297 -0.328999996185 0.182999998331 113.0
0.964999973774 -0.349000006914 0.189999997616 108.0
0.948000013828 -0.349000006914 0.187000006437 106.0
0.929000020027 -0.349000006914 0.184000000358 103.0
0.907999992371 -0.347000002861 0.180000007153 103.0
0.944000005722 -0.368000000715 0.187999993563 100.0
0.907000005245 -0.358999997377 0.180999994278 101.0
0.921000003815 -0.370999991894 0.184000000358 108.0
0.944000005722 -0.388000011444 0.188999995589 98.0
0.922999978065 -0.384999990463 0.185000002384 103.0
0.935000002384 -0.397000014782 0.187999993563 104.0
0.944000005722 -0.407999992371 0.190999999642 97.0
0.985000014305 -0.432999998331 0.199000000954 96.0
0.929000020027 -0.414999991655 0.187999993563 99.0
0.912999987602 -0.41400000453 0.185000002384 99.0
0.936999976635 -0.432000011206 0.190999999642 101.0
0.935000002384 -0.437999993563 0.190999999642 96.0
0.929000020027 -0.442999988794 0.190999999642 100.0
0.963999986649 -0.467000007629 0.197999998927 94.0
0.922999978065 -0.453999996185 0.189999997616 94.0
0.907000005245 -0.45300000906 0.187000006437 93.0
0.933000028133 -0.474000006914 0.194000005722 86.0
0.927999973297 -0.477999985218 0.193000003695 93.0
0.97000002861 -0.508000016212 0.202000007033 89.0
0.954999983311 -0.507000029087 0.20000000298 88.0
0.873000025749 -0.469999998808 0.182999998331 88.0
0.908999979496 -0.497000008821 0.190999999642 91.0
0.945999979973 -0.526000022888 0.20000000298 85.0
0.897000014782 -0.505999982357 0.189999997616 83.0
3.10100007057 1.6590000391 0.617999970913 85.0
3.507999897 1.82099997997 0.695999979973 132.0
3.47399997711 1.77600002289 0.686999976635 108.0
3.50600004196 1.76499998569 0.691999971867 96.0
3.82699990273 1.83800005913 0.75 85.0
3.79200005531 1.79299998283 0.740999996662 113.0
3.85700011253 1.79400002956 0.751999974251 120.0
3.83200001717 1.7539999485 0.745000004768 111.0
3.83400011063 1.72699999809 0.744000017643 95.0
3.91300010681 1.37600004673 0.739000022411 108.0
3.95000004768 1.36199998856 0.745000004768 104.0
3.88700008392 1.31400001049 0.731999993324 113.0
3.9279999733 1.30200004578 0.737999975681 107.0
3.92300009727 1.27400004864 0.736000001431 108.0
3.9319999218 1.25100004673 0.736000001431 112.0
3.95499992371 1.23300004005 0.740000009537 91.0
0.975000023842 -0.0630000010133 0.17499999702 108.0
0.975000023842 -0.0689999982715 0.175999999046 104.0
0.985000014305 -0.0750000029802 0.177000001073 109.0
0.995000004768 -0.082000002265 0.179000005126 112.0
0.963999986649 -0.0850000008941 0.173999994993 114.0
1.01100003719 -0.0949999988079 0.182999998331 118.0
0.959999978542 -0.0960000008345 0.172999992967 113.0
1.0039999485 -0.105999998748 0.181999996305 116.0
0.972000002861 -0.108000002801 0.175999999046 115.0
0.962000012398 -0.112999998033 0.173999994993 117.0
0.977999985218 -0.120999999344 0.177000001073 117.0
0.992999970913 -0.12800000608 0.180000007153 122.0
0.976000010967 -0.131999999285 0.177000001073 117.0
0.972999989986 -0.136999994516 0.177000001073 121.0
0.978999972343 -0.143999993801 0.178000003099 124.0
0.987999975681 -0.150999993086 0.180000007153 117.0
1.00199997425 -0.158999994397 0.181999996305 125.0
0.981000006199 -0.162000000477 0.179000005126 126.0
0.990000009537 -0.168999999762 0.180999994278 132.0
0.967999994755 -0.171000003815 0.177000001073 129.0
0.964999973774 -0.177000001073 0.175999999046 127.0
0.985000014305 -0.186000004411 0.180000007153 124.0
0.95300000906 -0.186000004411 0.17499999702 126.0
0.952000021935 -0.190999999642 0.173999994993 121.0
0.930999994278 -0.193000003695 0.171000003815 123.0
0.957000017166 -0.203999996185 0.175999999046 125.0
0.992999970913 -0.217999994755 0.182999998331 120.0
0.961000025272 -0.216999992728 0.177000001073 126.0
0.981000006199 -0.228000000119 0.180999994278 125.0
0.952000021935 -0.226999998093 0.175999999046 122.0
0.916000008583 -0.224000006914 0.168999999762 118.0
0.976999998093 -0.245000004768 0.180999994278 121.0
0.961000025272 -0.24699999392 0.178000003099 119.0
0.930999994278 -0.245000004768 0.172999992967 122.0
0.959999978542 -0.259000003338 0.179000005126 122.0
0.985000014305 -0.272000014782 0.184000000358 123.0
0.967999994755 -0.273000001907 0.180999994278 123.0
0.981999993324 -0.284000009298 0.184000000358 111.0
0.930999994278 -0.27500000596 0.173999994993 121.0
0.952000021935 -0.287000000477 0.179000005126 121.0
0.944000005722 -0.291000008583 0.178000003099 119.0
0.93900001049 -0.294999986887 0.177000001073 107.0
0.954999983311 -0.307000011206 0.180000007153 113.0
0.961000025272 -0.314999997616 0.181999996305 121.0
0.980000019073 -0.32800000906 0.186000004411 107.0
0.976000010967 -0.333000004292 0.185000002384 118.0
0.945999979973 -0.328999996185 0.180000007153 108.0
0.966000020504 -0.342999994755 0.184000000358 110.0
0.949000000954 -0.342999994755 0.180999994278 114.0
0.980000019073 -0.361000001431 0.187999993563 104.0
0.943000018597 -0.354000002146 0.180999994278 110.0
0.933000028133 -0.356000006199 0.179000005126 114.0
0.957000017166 -0.372999995947 0.184000000358 102.0
0.975000023842 -0.386000007391 0.187999993563 102.0
0.954999983311 -0.384999990463 0.185000002384 110.0
0.93900001049 -0.384999990463 0.181999996305 103.0
0.994000017643 -0.414999991655 0.193000003695 97.0
0.916999995708 -0.388999998569 0.179000005126 102.0
0.958999991417 -0.41400000453 0.187000006437 105.0
0.961000025272 -0.42199999094 0.187999993563 96.0
0.944000005722 -0.421000003815 0.185000002384 100.0
0.947000026703 -0.428999990225 0.186000004411 99.0
0.925999999046 -0.426999986172 0.182999998331 90.0
0.936999976635 -0.43900001049 0.185000002384 97.0
0.912000000477 -0.433999985456 0.180999994278 95.0
0.919000029564 -0.444000005722 0.182999998331 98.0
0.950999975204 -0.467000007629 0.189999997616 93.0
0.953999996185 -0.476000010967 0.190999999642 95.0
0.933000028133 -0.472999989986 0.187000006437 88.0
0.922999978065 -0.47499999404 0.186000004411 87.0
0.949000000954 -0.495999991894 0.192000001669 93.0
0.89200001955 -0.472999989986 0.180999994278 87.0
0.957000017166 -0.51599997282 0.194999992847 86.0
0.887000024319 -0.485000014305 0.180999994278 87.0
0.977999985218 -0.542999982834 0.20000000298 87.0
0.915000021458 -0.514999985695 0.187999993563 83.0
3.11100006104 1.68799996376 0.601000010967 94.0
3.49000000954 1.80999994278 0.669000029564 101.0
3.56200003624 1.81900000572 0.680999994278 102.0
3.88499999046 1.86399996281 0.736000001431 82.0
3.85199999809 1.81900000572 0.726999998093 94.0
3.882999897 1.80400002003 0.731999993324 98.0
3.82500004768 1.74899995327 0.71899998188 91.0
3.91000008583 1.75899994373 0.73299998045 85.0
3.94499993324 1.41199994087 0.721000015736 74.0
3.9509999752 1.38800001144 0.721000015736 81.0
3.98099994659 1.3710000515 0.725000023842 83.0
4.01700019836 1.35699999332 0.731000006199 87.0
3.96799993515 1.31400001049 0.721000015736 83.0
3.95799994469 1.2840000391 0.717999994755 80.0
4.0110001564 1.27499997616 0.726000010967 81.0
3.9319999218 1.22399997711 0.711000025272 76.0
0.963999986649 -0.0570000000298 0.167999997735 87.0
0.999000012875 -0.0649999976158 0.173999994993 112.0
1.0 -0.070000000298 0.173999994993 114.0
0.963999986649 -0.0729999989271 0.167999997735 113.0
0.990000009537 -0.0810000002384 0.172999992967 117.0
0.981999993324 -0.0860000029206 0.171000003815 120.0
0.962000012398 -0.0900000035763 0.167999997735 117.0
0.977999985218 -0.097999997437 0.171000003815 109.0
0.985000014305 -0.104000002146 0.172000005841 113.0
0.945999979973 -0.104999996722 0.165000006557 117.0
0.989000022411 -0.115999996662 0.172999992967 116.0
0.994000017643 -0.123000003397 0.173999994993 119.0
0.953999996185 -0.123000003397 0.166999995708 116.0
0.96899998188 -0.130999997258 0.170000001788 118.0
0.994000017643 -0.140000000596 0.17499999702 123.0
0.998000025749 -0.146999999881 0.17499999702 122.0
0.981999993324 -0.15000000596 0.172999992967 125.0
0.998000025749 -0.158999994397 0.175999999046 125.0
0.958999991417 -0.158000007272 0.168999999762 128.0
0.967000007629 -0.165000006557 0.171000003815 126.0
0.987999975681 -0.17499999702 0.17499999702 123.0
0.962999999523 -0.175999999046 0.170000001788 131.0
0.961000025272 -0.181999996305 0.170000001788 132.0
0.981000006199 -0.190999999642 0.173999994993 126.0
0.941999971867 -0.188999995589 0.166999995708 120.0
0.972999989986 -0.202000007033 0.172999992967 122.0
0.978999972343 -0.209000006318 0.173999994993 127.0
0.958999991417 -0.209999993443 0.171000003815 126.0
0.95300000906 -0.215000003576 0.170000001788 127.0
0.976999998093 -0.226999998093 0.173999994993 123.0
0.985000014305 -0.234999999404 0.175999999046 122.0
0.944999992847 -0.231000006199 0.168999999762 127.0
0.949000000954 -0.238000005484 0.170000001788 124.0
0.949999988079 -0.244000002742 0.170000001788 124.0
0.958000004292 -0.252000004053 0.172000005841 124.0
0.967000007629 -0.261000007391 0.173999994993 123.0
0.967999994755 -0.266999989748 0.173999994993 128.0
0.967000007629 -0.273000001907 0.17499999702 129.0
0.973999977112 -0.280999988317 0.175999999046 118.0
0.953999996185 -0.280999988317 0.172999992967 120.0
0.954999983311 -0.287999987602 0.172999992967 123.0
0.926999986172 -0.284999996424 0.167999997735 120.0
0.971000015736 -0.305000007153 0.177000001073 115.0
0.95300000906 -0.305999994278 0.173999994993 118.0
0.957000017166 -0.31400001049 0.17499999702 117.0
0.97000002861 -0.324000000954 0.178000003099 114.0
0.954999983311 -0.326000005007 0.17499999702 110.0
0.93900001049 -0.326000005007 0.172999992967 114.0
0.96899998188 -0.342999994755 0.178000003099 113.0
0.936999976635 -0.337999999523 0.172999992967 105.0
1.00699996948 -0.370999991894 0.186000004411 106.0
0.93599998951 -0.351000010967 0.172999992967 108.0
0.964999973774 -0.368999987841 0.179000005126 105.0
0.948000013828 -0.368000000715 0.175999999046 113.0
0.93900001049 -0.372000008821 0.17499999702 105.0
0.952000021935 -0.38299998641 0.178000003099 111.0
0.962999999523 -0.395000010729 0.180999994278 111.0
0.97000002861 -0.405000001192 0.181999996305 104.0
0.93599998951 -0.397000014782 0.175999999046 106.0
0.978999972343 -0.42199999094 0.185000002384 108.0
0.962000012398 -0.42199999094 0.181999996305 98.0
0.962999999523 -0.430000007153 0.182999998331 96.0
0.90600001812 -0.411000013351 0.172000005841 92.0
0.936999976635 -0.432000011206 0.179000005126 94.0
0.944000005722 -0.442000001669 0.180999994278 92.0
0.916999995708 -0.43599998951 0.175999999046 96.0
0.92199999094 -0.444999992847 0.177000001073 93.0
0.931999981403 -0.456999987364 0.180000007153 92.0
0.917999982834 -0.458000004292 0.178000003099 93.0
0.882000029087 -0.446000009775 0.171000003815 85.0
0.930999994278 -0.479000002146 0.180999994278 90.0
0.919000029564 -0.479999989271 0.179000005126 90.0
0.927999973297 -0.49200001359 0.181999996305 88.0
0.929000020027 -0.5 0.181999996305 86.0
0.927999973297 -0.507000029087 0.182999998331 88.0
0.998000025749 -0.554000020027 0.196999996901 92.0
0.93599998951 -0.527000010014 0.186000004411 89.0
3.61100006104 1.84200000763 0.666000008583 82.0
4.05999994278 1.91499996185 0.740000009537 77.0
3.92899990082 1.82400000095 0.714999973774 75.0
3.9430000782 1.80099999905 0.714999973774 74.0
3.98699998856 1.37199997902 0.700999975204 68.0
4.06699991226 1.37199997902 0.713999986649 69.0
4.03800010681 1.33599996567 0.708000004292 65.0
3.95799994469 1.28299999237 0.693000018597 62.0
4.06599998474 1.29100000858 0.711000025272 59.0
4.00400018692 1.24500000477 0.699000000954 61.0
1.02600002289 -0.0599999986589 0.172999992967 101.0
1.00800001621 -0.0649999976158 0.168999999762 115.0
0.972000002861 -0.0680000036955 0.163000002503 114.0
1.00800001621 -0.0769999995828 0.170000001788 119.0
0.986000001431 -0.0810000002384 0.165999993682 120.0
0.998000025749 -0.0879999995232 0.167999997735 119.0
0.963999986649 -0.0900000035763 0.162000000477 115.0
0.972000002861 -0.097000002861 0.16400000453 118.0
0.97000002861 -0.101999998093 0.16400000453 118.0
1.02699995041 -0.115000002086 0.173999994993 123.0
0.944999992847 -0.111000001431 0.159999996424 118.0
0.976999998093 -0.119999997318 0.165000006557 118.0
0.975000023842 -0.126000002027 0.165000006557 126.0
0.959999978542 -0.128999993205 0.163000002503 125.0
0.972999989986 -0.136999994516 0.165000006557 128.0
0.981999993324 -0.143999993801 0.166999995708 124.0
0.995000004768 -0.151999995112 0.168999999762 130.0
0.959999978542 -0.151999995112 0.163000002503 122.0
0.994000017643 -0.16400000453 0.168999999762 123.0
0.978999972343 -0.166999995708 0.166999995708 126.0
0.977999985218 -0.172999992967 0.166999995708 124.0
0.981999993324 -0.180000007153 0.167999997735 126.0
0.963999986649 -0.181999996305 0.165000006557 128.0
0.973999977112 -0.189999997616 0.166999995708 129.0
0.93900001049 -0.188999995589 0.16099999845 131.0
0.97000002861 -0.201000005007 0.165999993682 126.0
0.999000012875 -0.212999999523 0.172000005841 126.0
0.996999979019 -0.218999996781 0.171000003815 130.0
0.976000010967 -0.219999998808 0.167999997735 132.0
0.964999973774 -0.224000006914 0.165999993682 126.0
0.954999983311 -0.226999998093 0.165000006557 122.0
0.921000003815 -0.22499999404 0.158999994397 128.0
0.963999986649 -0.240999996662 0.166999995708 128.0
0.97000002861 -0.248999997973 0.167999997735 126.0
0.954999983311 -0.250999987125 0.165999993682 128.0
0.95300000906 -0.256000012159 0.165999993682 124.0
0.96899998188 -0.266999989748 0.168999999762 126.0
0.952000021935 -0.268000006676 0.165999993682 118.0
0.958999991417 -0.275999993086 0.166999995708 126.0
0.972000002861 -0.286000013351 0.170000001788 127.0
0.964999973774 -0.291000008583 0.168999999762 117.0
0.95300000906 -0.293000012636 0.166999995708 121.0
0.958999991417 -0.300999999046 0.168999999762 118.0
0.961000025272 -0.307999998331 0.168999999762 115.0
0.972000002861 -0.317999988794 0.172000005841 112.0
0.95300000906 -0.317999988794 0.168999999762 122.0
0.939999997616 -0.319999992847 0.165999993682 112.0
0.949000000954 -0.330000013113 0.168999999762 108.0
0.949999988079 -0.337000012398 0.168999999762 105.0
0.977999985218 -0.352999985218 0.173999994993 111.0
0.944000005722 -0.347000002861 0.168999999762 111.0
0.927999973297 -0.347000002861 0.165999993682 113.0
0.930999994278 -0.354999989271 0.166999995708 116.0
0.962999999523 -0.374000012875 0.172999992967 112.0
0.95300000906 -0.377000004053 0.172000005841 112.0
0.96899998188 -0.389999985695 0.17499999702 106.0
0.940999984741 -0.384999990463 0.170000001788 102.0
0.972000002861 -0.405000001192 0.177000001073 109.0
0.953999996185 -0.404000014067 0.173999994993 99.0
0.962999999523 -0.414999991655 0.175999999046 92.0
0.963999986649 -0.42199999094 0.175999999046 98.0
0.952000021935 -0.423999994993 0.173999994993 101.0
0.966000020504 -0.437999993563 0.178000003099 96.0
0.939999997616 -0.432000011206 0.172999992967 93.0
0.927999973297 -0.433999985456 0.172000005841 98.0
0.961000025272 -0.456999987364 0.178000003099 92.0
0.862999975681 -0.416000008583 0.159999996424 92.0
0.894999980927 -0.43900001049 0.166999995708 94.0
0.947000026703 -0.472000002861 0.177000001073 95.0
0.921000003815 -0.465999990702 0.172999992967 91.0
0.943000018597 -0.485000014305 0.177000001073 89.0
0.887000024319 -0.462999999523 0.166999995708 92.0
0.917999982834 -0.486000001431 0.173999994993 91.0
0.948000013828 -0.509999990463 0.180000007153 92.0
0.925000011921 -0.504999995232 0.175999999046 90.0
0.927999973297 -0.513999998569 0.177000001073 87.0
0.943000018597 -0.52999997139 0.180999994278 89.0
3.7349998951 1.87399995327 0.662999987602 72.0
0.333999991417 0.151999995112 0.0560000017285 70.0
0.481000006199 0.211999997497 0.082000002265 71.0
0.862999975681 0.34999999404 0.146999999881 74.0
0.876999974251 0.349000006914 0.149000003934 73.0
0.907000005245 0.354999989271 0.153999999166 76.0
0.347999989986 0.123999997973 0.0570000000298 66.0
0.56099998951 0.196999996901 0.0930000022054 63.0
4.31799983978 1.42700004578 0.730000019073 63.0
4.28599977493 1.38800001144 0.723999977112 61.0
4.69000005722 1.48800003529 0.791000008583 52.0
1.02499997616 -0.0599999986589 0.165999993682 74.0
0.989000022411 -0.0640000030398 0.159999996424 115.0
1.01199996471 -0.0710000023246 0.16400000453 116.0
0.990000009537 -0.0750000029802 0.16099999845 117.0
1.0 -0.082000002265 0.162000000477 121.0
0.999000012875 -0.0879999995232 0.162000000477 117.0
0.986000001431 -0.0920000001788 0.159999996424 121.0
0.972999989986 -0.097000002861 0.158000007272 116.0
0.95300000906 -0.10000000149 0.155000001192 120.0
0.981000006199 -0.108999997377 0.159999996424 117.0
0.972999989986 -0.11400000006 0.158999994397 121.0
0.980000019073 -0.120999999344 0.159999996424 121.0
0.994000017643 -0.12800000608 0.162000000477 120.0
0.973999977112 -0.130999997258 0.158999994397 121.0
0.981000006199 -0.137999996543 0.159999996424 126.0
0.966000020504 -0.142000004649 0.158000007272 126.0
0.976999998093 -0.149000003934 0.159999996424 125.0
0.975000023842 -0.155000001192 0.159999996424 128.0
0.96899998188 -0.158999994397 0.158999994397 130.0
0.986000001431 -0.167999997735 0.162000000477 126.0
0.967999994755 -0.171000003815 0.158999994397 130.0
0.998000025749 -0.181999996305 0.16400000453 124.0
1.00199997425 -0.188999995589 0.165000006557 125.0
0.96899998188 -0.188999995589 0.159999996424 130.0
0.981999993324 -0.196999996901 0.162000000477 127.0
0.976999998093 -0.202000007033 0.162000000477 132.0
0.95300000906 -0.202999994159 0.158000007272 135.0
0.980000019073 -0.215000003576 0.162000000477 136.0
0.945999979973 -0.212999999523 0.157000005245 126.0
0.96899998188 -0.224000006914 0.16099999845 122.0
0.933000028133 -0.222000002861 0.155000001192 127.0
0.949999988079 -0.231999993324 0.158000007272 128.0
0.930000007153 -0.231999993324 0.155000001192 123.0
0.955999970436 -0.245000004768 0.159999996424 124.0
0.949000000954 -0.248999997973 0.158999994397 133.0
0.967000007629 -0.259999990463 0.162000000477 124.0
0.93900001049 -0.259000003338 0.158000007272 126.0
0.989000022411 -0.279000014067 0.166999995708 126.0
0.963999986649 -0.277999997139 0.162000000477 125.0
0.939999997616 -0.277000010014 0.158999994397 125.0
0.98299998045 -0.296000003815 0.165999993682 128.0
0.947000026703 -0.291000008583 0.159999996424 124.0
0.987999975681 -0.310000002384 0.167999997735 121.0
0.925999999046 -0.29699999094 0.157000005245 119.0
0.954999983311 -0.312000006437 0.163000002503 125.0
0.95300000906 -0.317999988794 0.163000002503 120.0
0.940999984741 -0.319999992847 0.16099999845 109.0
0.927999973297 -0.321999996901 0.158999994397 119.0
0.975000023842 -0.344999998808 0.166999995708 111.0
0.947000026703 -0.342000007629 0.163000002503 114.0
0.939999997616 -0.344999998808 0.162000000477 112.0
0.941999971867 -0.351999998093 0.163000002503 111.0
0.96899998188 -0.368999987841 0.167999997735 113.0
0.935000002384 -0.363000005484 0.162000000477 113.0
0.940999984741 -0.372000008821 0.16400000453 106.0
0.941999971867 -0.379000008106 0.16400000453 107.0
0.952000021935 -0.388999998569 0.165999993682 104.0
0.947000026703 -0.393999993801 0.165999993682 106.0
0.97000002861 -0.411000013351 0.170000001788 107.0
0.917999982834 -0.395000010729 0.16099999845 104.0
0.935000002384 -0.409000009298 0.165000006557 97.0
0.959999978542 -0.426999986172 0.170000001788 109.0
0.922999978065 -0.418000012636 0.16400000453 100.0
0.922999978065 -0.423999994993 0.16400000453 98.0
0.944999992847 -0.442000001669 0.168999999762 98.0
0.934000015259 -0.442999988794 0.166999995708 98.0
0.912000000477 -0.439999997616 0.163000002503 99.0
0.943000018597 -0.462000012398 0.170000001788 95.0
0.935000002384 -0.465000003576 0.168999999762 95.0
0.927999973297 -0.469000011683 0.167999997735 89.0
0.90600001812 -0.465000003576 0.16400000453 90.0
0.929000020027 -0.483999997377 0.168999999762 86.0
0.89200001955 -0.472000002861 0.163000002503 89.0
0.896000027657 -0.481000006199 0.16400000453 93.0
0.92199999094 -0.503000020981 0.168999999762 100.0
0.882000029087 -0.488000005484 0.162000000477 92.0
0.908999979496 -0.510999977589 0.167999997735 84.0
0.917999982834 0.533999979496 0.158999994397 224.0
0.949999988079 0.544000029564 0.165000006557 246.0
0.915000021458 0.51700001955 0.158000007272 263.0
0.935000002384 0.519999980927 0.16099999845 273.0
0.921000003815 0.504999995232 0.158000007272 278.0
0.929000020027 0.501999974251 0.158999994397 279.0
0.933000028133 0.495999991894 0.158999994397 293.0
0.924000024796 0.483999997377 0.157000005245 308.0
0.887000024319 0.458000004292 0.150999993086 298.0
0.924000024796 0.469999998808 0.156000003219 312.0
0.908999979496 0.455000013113 0.153999999166 347.0
0.921000003815 0.453999996185 0.155000001192 355.0
0.912999987602 0.442999988794 0.152999997139 351.0
0.912000000477 0.43599998951 0.152999997139 361.0
0.911000013351 0.428000003099 0.151999995112 374.0
0.901000022888 0.416999995708 0.15000000596 390.0
0.902999997139 0.411000013351 0.15000000596 392.0
0.925000011921 0.41400000453 0.153999999166 396.0
0.917999982834 0.405000001192 0.151999995112 403.0
0.945999979973 0.409999996424 0.157000005245 412.0
0.943000018597 0.402000010014 0.156000003219 421.0
0.934000015259 0.391000002623 0.153999999166 434.0
0.935000002384 0.384999990463 0.153999999166 419.0
0.943000018597 0.381999999285 0.155000001192 424.0
0.953999996185 0.379999995232 0.156000003219 429.0
0.938000023365 0.36700001359 0.152999997139 431.0
0.945999979973 0.363000005484 0.153999999166 438.0
0.95300000906 0.360000014305 0.155000001192 434.0
0.949000000954 0.351000010967 0.153999999166 436.0
0.949000000954 0.344999998808 0.153999999166 444.0
0.955999970436 0.340999990702 0.155000001192 443.0
0.947000026703 0.331999987364 0.152999997139 437.0
0.949000000954 0.326000005007 0.152999997139 438.0
0.934000015259 0.314999997616 0.15000000596 446.0
0.948000013828 0.312999993563 0.151999995112 434.0
0.95300000906 0.307999998331 0.152999997139 430.0
0.949000000954 0.300999999046 0.151999995112 435.0
0.950999975204 0.294999986887 0.151999995112 428.0
0.967000007629 0.293999999762 0.155000001192 427.0
0.972999989986 0.289999991655 0.156000003219 425.0
0.986000001431 0.287000000477 0.157000005245 416.0
0.980000019073 0.279000014067 0.156000003219 426.0
0.97000002861 0.270000010729 0.153999999166 426.0
0.981000006199 0.266999989748 0.156000003219 407.0
0.981999993324 0.261000007391 0.156000003219 384.0
0.976999998093 0.254000008106 0.155000001192 373.0
0.999000012875 0.252999991179 0.158000007272 357.0
0.98400002718 0.243000000715 0.156000003219 357.0
1.0039999485 0.241999998689 0.158999994397 349.0
0.995999991894 0.233999997377 0.157000005245 325.0
0.994000017643 0.226999998093 0.157000005245 321.0
0.991999983788 0.219999998808 0.156000003219 305.0
1.00300002098 0.216999992728 0.158000007272 291.0
1.00199997425 0.209999993443 0.158000007272 279.0
1.01400005817 0.207000002265 0.158999994397 260.0
0.995999991894 0.196999996901 0.157000005245 247.0
1.00999999046 0.194000005722 0.158999994397 231.0
1.02499997616 0.189999997616 0.16099999845 207.0
1.04299998283 0.187000006437 0.16400000453 193.0
1.03499996662 0.180000007153 0.162000000477 181.0
1.07299995422 0.180000007153 0.167999997735 170.0
1.01199996471 0.16400000453 0.158000007272 189.0
1.03600001335 0.16099999845 0.162000000477 232.0
1.04600000381 0.143999993801 0.16400000453 168.0
1.0529999733 0.138999998569 0.165000006557 160.0
1.0529999733 0.127000004053 0.16400000453 123.0
1.01699995995 -0.0599999986589 0.158999994397 88.0
0.995000004768 -0.0640000030398 0.155000001192 116.0
0.985000014305 -0.0689999982715 0.153999999166 117.0
1.0 -0.0759999975562 0.156000003219 116.0
1.01100003719 -0.082999996841 0.158000007272 115.0
0.994000017643 -0.0869999974966 0.156000003219 122.0
0.967000007629 -0.0909999981523 0.150999993086 122.0
0.986000001431 -0.097999997437 0.155000001192 120.0
0.98400002718 -0.104000002146 0.153999999166 117.0
0.994000017643 -0.111000001431 0.156000003219 120.0
0.994000017643 -0.116999998689 0.156000003219 122.0
0.981000006199 -0.120999999344 0.153999999166 122.0
0.964999973774 -0.123999997973 0.151999995112 123.0
1.0039999485 -0.136000007391 0.158000007272 123.0
0.972999989986 -0.136999994516 0.152999997139 125.0
0.954999983311 -0.140000000596 0.150999993086 135.0
0.986999988556 -0.150999993086 0.156000003219 126.0
1.01800000668 -0.162000000477 0.16099999845 125.0
0.967999994755 -0.158999994397 0.152999997139 127.0
0.976000010967 -0.166999995708 0.155000001192 126.0
0.962999999523 -0.170000001788 0.152999997139 130.0
0.949000000954 -0.172999992967 0.15000000596 131.0
0.958000004292 -0.180999994278 0.151999995112 127.0
0.962000012398 -0.187000006437 0.152999997139 125.0
0.986999988556 -0.197999998927 0.157000005245 127.0
0.958999991417 -0.197999998927 0.152999997139 136.0
0.985000014305 -0.209999993443 0.157000005245 132.0
0.949999988079 -0.208000004292 0.151999995112 131.0
0.990000009537 -0.223000004888 0.158000007272 135.0
0.992999970913 -0.230000004172 0.158999994397 126.0
0.959999978542 -0.228000000119 0.153999999166 129.0
0.962999999523 -0.234999999404 0.155000001192 128.0
0.958999991417 -0.239999994636 0.153999999166 125.0
0.953999996185 -0.244000002742 0.153999999166 130.0
0.963999986649 -0.252999991179 0.156000003219 134.0
0.977999985218 -0.263000011444 0.158000007272 128.0
0.929000020027 -0.254999995232 0.15000000596 134.0
0.990999996662 -0.279000014067 0.16099999845 126.0
0.989000022411 -0.284999996424 0.16099999845 122.0
0.955999970436 -0.280999988317 0.155000001192 123.0
0.962000012398 -0.28900000453 0.157000005245 131.0
0.952000021935 -0.291999995708 0.155000001192 126.0
0.97000002861 -0.303999990225 0.158999994397 128.0
0.944999992847 -0.303000003099 0.155000001192 121.0
0.917999982834 -0.300000011921 0.15000000596 118.0
0.966000020504 -0.321999996901 0.158999994397 116.0
0.916000008583 -0.31099998951 0.150999993086 119.0
0.938000023365 -0.324999988079 0.155000001192 111.0
0.916999995708 -0.324000000954 0.151999995112 114.0
0.95300000906 -0.342999994755 0.158000007272 118.0
0.963999986649 -0.354000002146 0.159999996424 118.0
0.93900001049 -0.351000010967 0.156000003219 110.0
0.917999982834 -0.349000006914 0.152999997139 108.0
0.950999975204 -0.368999987841 0.158999994397 109.0
0.925000011921 -0.365000009537 0.155000001192 113.0
0.912999987602 -0.36700001359 0.152999997139 109.0
0.950999975204 -0.388999998569 0.159999996424 104.0
0.955999970436 -0.398000001907 0.16099999845 105.0
0.936999976635 -0.395999997854 0.158999994397 113.0
0.93599998951 -0.402000010014 0.158999994397 110.0
0.915000021458 -0.40000000596 0.156000003219 100.0
0.948000013828 -0.42199999094 0.162000000477 107.0
0.922999978065 -0.416999995708 0.158000007272 98.0
0.940999984741 -0.432999998331 0.16099999845 95.0
0.939999997616 -0.43900001049 0.162000000477 98.0
0.93900001049 -0.444999992847 0.162000000477 102.0
0.92199999094 -0.444000005722 0.158999994397 98.0
0.926999986172 -0.453999996185 0.16099999845 98.0
0.913999974728 -0.453999996185 0.158999994397 98.0
0.893999993801 -0.451000005007 0.156000003219 96.0
0.839999973774 -0.430000007153 0.146999999881 95.0
0.915000021458 -0.476000010967 0.159999996424 93.0
0.943000018597 -0.499000012875 0.165999993682 87.0
0.888000011444 -0.476000010967 0.157000005245 92.0
0.944000005722 -0.513999998569 0.166999995708 95.0
0.889999985695 -0.49200001359 0.158000007272 96.0
0.916000008583 -0.513999998569 0.163000002503 93.0
0.907999992371 0.527000010014 0.151999995112 692.0
0.917999982834 0.524999976158 0.152999997139 698.0
0.902000010014 0.509000003338 0.15000000596 722.0
0.916999995708 0.509999990463 0.151999995112 721.0
0.912999987602 0.5 0.150999993086 729.0
0.911000013351 0.490999996662 0.15000000596 744.0
0.912999987602 0.485000014305 0.15000000596 750.0
0.916999995708 0.479999989271 0.15000000596 755.0
0.922999978065 0.476000010967 0.150999993086 763.0
0.920000016689 0.467000007629 0.15000000596 770.0
0.925000011921 0.462999999523 0.15000000596 771.0
0.916999995708 0.451999992132 0.149000003934 789.0
0.926999986172 0.449000000954 0.15000000596 795.0
0.926999986172 0.442999988794 0.149000003934 794.0
0.924000024796 0.433999985456 0.149000003934 806.0
0.925999999046 0.428000003099 0.148000001907 807.0
0.925000011921 0.421000003815 0.148000001907 814.0
0.929000020027 0.416000008583 0.148000001907 837.0
0.931999981403 0.409999996424 0.148000001907 838.0
0.930999994278 0.402999997139 0.148000001907 841.0
0.930999994278 0.397000014782 0.148000001907 854.0
0.938000023365 0.393000006676 0.148000001907 850.0
0.938000023365 0.386000007391 0.148000001907 862.0
0.930999994278 0.377000004053 0.146999999881 868.0
0.935000002384 0.372000008821 0.146999999881 884.0
0.944999992847 0.368999987841 0.148000001907 879.0
0.944999992847 0.363000005484 0.148000001907 888.0
0.949000000954 0.358000010252 0.149000003934 907.0
0.950999975204 0.351999998093 0.149000003934 934.0
0.944000005722 0.342999994755 0.146999999881 940.0
0.95300000906 0.340000003576 0.148000001907 920.0
0.950999975204 0.333000004292 0.148000001907 929.0
0.950999975204 0.326000005007 0.148000001907 916.0
0.955999970436 0.321999996901 0.148000001907 920.0
0.948000013828 0.312999993563 0.146999999881 915.0
0.959999978542 0.310000002384 0.148000001907 905.0
0.953999996185 0.301999986172 0.146999999881 906.0
0.958999991417 0.29699999094 0.148000001907 915.0
0.964999973774 0.293000012636 0.149000003934 937.0
0.964999973774 0.287000000477 0.148000001907 942.0
0.959999978542 0.279000014067 0.146999999881 957.0
0.967000007629 0.27500000596 0.148000001907 968.0
0.972000002861 0.270000010729 0.149000003934 970.0
0.966000020504 0.261999994516 0.148000001907 972.0
0.97000002861 0.25799998641 0.148000001907 935.0
0.976999998093 0.252999991179 0.149000003934 938.0
0.977999985218 0.24699999392 0.149000003934 912.0
0.977999985218 0.240999996662 0.149000003934 908.0
0.975000023842 0.233999997377 0.148000001907 909.0
0.985000014305 0.231000006199 0.15000000596 924.0
0.976000010967 0.223000004888 0.148000001907 902.0
0.981999993324 0.217999994755 0.149000003934 894.0
0.980000019073 0.211999997497 0.148000001907 865.0
0.98299998045 0.206000000238 0.149000003934 821.0
0.98400002718 0.20000000298 0.149000003934 815.0
0.985000014305 0.194999992847 0.149000003934 811.0
0.992999970913 0.189999997616 0.15000000596 800.0
0.990999996662 0.184000000358 0.15000000596 782.0
0.989000022411 0.178000003099 0.149000003934 742.0
0.992999970913 0.172000005841 0.15000000596 739.0
0.992999970913 0.165999993682 0.15000000596 734.0
0.999000012875 0.16099999845 0.15000000596 712.0
1.0039999485 0.156000003219 0.150999993086 689.0
1.00499999523 0.15000000596 0.150999993086 681.0
1.00199997425 0.143999993801 0.150999993086 671.0
1.00199997425 0.137999996543 0.150999993086 654.0
1.00199997425 0.131999999285 0.15000000596 647.0
1.01300001144 0.12800000608 0.151999995112 607.0
1.01999998093 0.123000003397 0.152999997139 592.0
1.00499999523 0.115000002086 0.150999993086 554.0
1.01800000668 0.109999999404 0.152999997139 531.0
1.00699996948 0.103000000119 0.150999993086 507.0
1.01699995995 0.097999997437 0.151999995112 474.0
1.02900004387 0.0930000022054 0.153999999166 448.0
1.02799999714 0.0869999974966 0.153999999166 427.0
1.02600002289 0.0810000002384 0.153999999166 401.0
1.03499996662 0.0759999975562 0.155000001192 379.0
1.03100001812 0.070000000298 0.153999999166 345.0
1.02600002289 0.0630000010133 0.153999999166 316.0
1.03900003433 0.0579999983311 0.156000003219 242.0
1.18400001526 0.0590000003576 0.178000003099 118.0
1.03100001812 -0.0610000006855 0.155000001192 82.0
1.00699996948 -0.0649999976158 0.150999993086 119.0
0.999000012875 -0.070000000298 0.15000000596 123.0
0.975000023842 -0.0740000009537 0.146999999881 114.0
1.00800001621 -0.082999996841 0.151999995112 114.0
0.986000001431 -0.0869999974966 0.148000001907 115.0
1.00199997425 -0.0939999967813 0.150999993086 119.0
0.98400002718 -0.097999997437 0.148000001907 122.0
0.987999975681 -0.104000002146 0.149000003934 120.0
0.986999988556 -0.109999999404 0.149000003934 125.0
0.991999983788 -0.115999996662 0.15000000596 124.0
0.989000022411 -0.122000001371 0.15000000596 122.0
0.987999975681 -0.127000004053 0.15000000596 123.0
0.957000017166 -0.128999993205 0.144999995828 126.0
0.950999975204 -0.134000003338 0.143999993801 134.0
0.953999996185 -0.140000000596 0.144999995828 137.0
0.977999985218 -0.149000003934 0.149000003934 130.0
0.986000001431 -0.156000003219 0.15000000596 133.0
0.967999994755 -0.158999994397 0.146999999881 135.0
0.961000025272 -0.16400000453 0.145999997854 130.0
0.941999971867 -0.165999993682 0.143999993801 125.0
0.991999983788 -0.180999994278 0.150999993086 126.0
0.977999985218 -0.184000000358 0.149000003934 133.0
0.952000021935 -0.185000002384 0.145999997854 135.0
0.947000026703 -0.189999997616 0.144999995828 132.0
0.966000020504 -0.20000000298 0.148000001907 125.0
0.955999970436 -0.202999994159 0.146999999881 135.0
0.972999989986 -0.212999999523 0.15000000596 128.0
0.987999975681 -0.222000002861 0.151999995112 133.0
0.957000017166 -0.221000000834 0.146999999881 126.0
0.995999991894 -0.237000003457 0.153999999166 126.0
0.941999971867 -0.229000002146 0.145999997854 125.0
0.958000004292 -0.238999992609 0.148000001907 130.0
0.975000023842 -0.25 0.150999993086 126.0
0.938000023365 -0.246000006795 0.144999995828 128.0
0.980000019073 -0.263000011444 0.151999995112 127.0
0.935000002384 -0.256999999285 0.144999995828 131.0
0.936999976635 -0.263999998569 0.145999997854 124.0
0.961000025272 -0.275999993086 0.15000000596 131.0
0.957000017166 -0.280999988317 0.15000000596 126.0
0.949000000954 -0.284999996424 0.149000003934 120.0
0.939999997616 -0.28900000453 0.148000001907 125.0
0.954999983311 -0.300000011921 0.15000000596 124.0
0.958000004292 -0.307000011206 0.150999993086 120.0
0.945999979973 -0.308999985456 0.149000003934 122.0
0.939999997616 -0.312999993563 0.149000003934 111.0
0.950999975204 -0.323000013828 0.150999993086 118.0
0.958999991417 -0.331999987364 0.151999995112 113.0
0.967999994755 -0.342000007629 0.153999999166 112.0
0.985000014305 -0.354999989271 0.157000005245 115.0
0.958999991417 -0.351999998093 0.152999997139 110.0
