ply
format ascii 1.0
element vertex 921
property float x
property float y
property float z
property float intensity
end_header
0.919000029564 -0.442999988794 -0.136999994516 108.0
0.949999988079 -0.465000003576 -0.142000004649 100.0
0.925999999046 -0.46099999547 -0.138999998569 99.0
0.921000003815 -0.465000003576 -0.138999998569 102.0
0.936999976635 -0.481000006199 -0.142000004649 89.0
0.889999985695 -0.462999999523 -0.135000005364 95.0
0.898000001907 -0.47499999404 -0.136000007391 102.0
0.973999977112 -0.523000001907 -0.148000001907 88.0
0.879000008106 -0.477999985218 -0.134000003338 94.0
0.882000029087 -0.486999988556 -0.135000005364 92.0
0.927999973297 -0.521000027657 -0.142000004649 95.0
3.15799999237 1.69799995422 -0.518000006676 75.0
3.52399992943 1.75600004196 -0.569999992847 77.0
3.72000002861 1.79700005054 -0.597999989986 92.0
3.86800003052 1.83899998665 -0.620000004768 84.0
3.99900007248 1.31099998951 -0.611000001431 78.0
3.97900009155 1.27900004387 -0.606999993324 90.0
3.9470000267 1.24199998379 -0.601000010967 97.0
3.97499990463 1.22500002384 -0.603999972343 83.0
4.4390001297 1.28199994564 -0.671000003815 64.0
4.48799991608 1.26699995995 -0.676999986172 64.0
4.48400020599 1.23800003529 -0.675999999046 64.0
4.54699993134 1.22599995136 -0.684000015259 66.0
4.55499982834 1.17100000381 -0.683000028133 65.0
4.58300018311 1.14900004864 -0.68599998951 59.0
4.56799983978 1.11699998379 -0.683000028133 69.0
4.65600013733 1.11000001431 -0.694999992847 65.0
4.632999897 1.07500004768 -0.690999984741 59.0
4.66699981689 1.05400002003 -0.694999992847 64.0
4.66499996185 1.02499997616 -0.694000005722 55.0
4.57800006866 0.977999985218 -0.680000007153 54.0
4.73299980164 0.981999993324 -0.702000021935 54.0
4.74100017548 0.954999983311 -0.70300000906 59.0
4.68499994278 0.915000021458 -0.694000005722 61.0
4.70800018311 0.89099997282 -0.695999979973 57.0
4.64200019836 0.850000023842 -0.68599998951 59.0
4.71099996567 0.834999978542 -0.694999992847 56.0
4.67899990082 0.800999999046 -0.689999997616 59.0
4.77299976349 0.787999987602 -0.70300000906 61.0
4.76700019836 0.759000003338 -0.700999975204 63.0
4.6859998703 0.717999994755 -0.68900001049 57.0
4.79400014877 0.705999970436 -0.703999996185 53.0
4.83799982071 0.683000028133 -0.709999978542 56.0
4.86199998856 0.657999992371 -0.712999999523 55.0
2.34899997711 -0.0909999981523 -0.340000003576 115.0
2.38599991798 -0.105999998748 -0.344999998808 201.0
2.41700005531 -0.122000001371 -0.34999999404 117.0
2.31999993324 -0.129999995232 -0.33599999547 195.0
2.32899999619 -0.143999993801 -0.337000012398 178.0
2.29500007629 -0.195999994874 -0.331999987364 93.0
2.28999996185 -0.209000006318 -0.331999987364 170.0
1.71800005436 -0.165999993682 -0.248999997973 94.0
1.01900005341 -0.103000000119 -0.148000001907 139.0
0.981000006199 -0.104999996722 -0.142000004649 147.0
0.971000015736 -0.108999997377 -0.141000002623 150.0
0.976000010967 -0.115999996662 -0.142000004649 148.0
0.980000019073 -0.122000001371 -0.142000004649 149.0
0.995999991894 -0.129999995232 -0.144999995828 145.0
0.986999988556 -0.134000003338 -0.143000006676 153.0
0.990999996662 -0.141000002623 -0.143999993801 154.0
0.958000004292 -0.142000004649 -0.138999998569 151.0
0.967000007629 -0.149000003934 -0.141000002623 146.0
0.98400002718 -0.157000005245 -0.143000006676 154.0
0.966000020504 -0.159999996424 -0.141000002623 149.0
0.967999994755 -0.165999993682 -0.141000002623 144.0
0.986000001431 -0.17499999702 -0.143999993801 142.0
0.973999977112 -0.179000005126 -0.142000004649 149.0
0.962999999523 -0.182999998331 -0.141000002623 149.0
0.958999991417 -0.187999993563 -0.140000000596 147.0
0.972999989986 -0.196999996901 -0.142000004649 149.0
0.980000019073 -0.203999996185 -0.143000006676 145.0
0.971000015736 -0.208000004292 -0.142000004649 144.0
0.962000012398 -0.211999997497 -0.141000002623 146.0
0.958000004292 -0.216999992728 -0.140000000596 146.0
0.961000025272 -0.223000004888 -0.141000002623 150.0
0.95300000906 -0.226999998093 -0.140000000596 140.0
0.972000002861 -0.238000005484 -0.143000006676 143.0
0.986999988556 -0.247999995947 -0.144999995828 144.0
0.95300000906 -0.245000004768 -0.141000002623 149.0
0.950999975204 -0.250999987125 -0.140000000596 141.0
0.930000007153 -0.250999987125 -0.136999994516 140.0
0.95300000906 -0.263000011444 -0.141000002623 141.0
0.93900001049 -0.264999985695 -0.138999998569 136.0
0.943000018597 -0.272000014782 -0.140000000596 139.0
0.941999971867 -0.277999997139 -0.140000000596 131.0
0.936999976635 -0.282999992371 -0.138999998569 132.0
0.952000021935 -0.293999999762 -0.142000004649 135.0
0.949000000954 -0.298999994993 -0.142000004649 132.0
0.925999999046 -0.29699999094 -0.137999996543 140.0
0.981000006199 -0.321999996901 -0.146999999881 126.0
0.949000000954 -0.317000001669 -0.142000004649 127.0
0.943000018597 -0.321999996901 -0.141000002623 130.0
0.954999983311 -0.331999987364 -0.143000006676 129.0
0.959999978542 -0.340000003576 -0.143999993801 124.0
0.922999978065 -0.333000004292 -0.138999998569 125.0
0.944999992847 -0.347999989986 -0.143000006676 126.0
0.957000017166 -0.358999997377 -0.144999995828 122.0
0.955999970436 -0.365000009537 -0.144999995828 123.0
0.964999973774 -0.375 -0.145999997854 123.0
0.938000023365 -0.370999991894 -0.143000006676 117.0
0.916000008583 -0.368999987841 -0.140000000596 116.0
0.917999982834 -0.375999987125 -0.140000000596 110.0
0.93900001049 -0.391000002623 -0.143999993801 114.0
0.952000021935 -0.402999997139 -0.145999997854 111.0
0.936999976635 -0.404000014067 -0.143999993801 116.0
0.949999988079 -0.416000008583 -0.145999997854 109.0
0.911000013351 -0.405999988317 -0.140000000596 103.0
0.957000017166 -0.433999985456 -0.148000001907 113.0
0.901000022888 -0.41400000453 -0.140000000596 106.0
0.908999979496 -0.425000011921 -0.141000002623 106.0
0.944999992847 -0.449000000954 -0.146999999881 102.0
0.927999973297 -0.448000013828 -0.144999995828 101.0
0.949000000954 -0.465000003576 -0.148000001907 100.0
0.888999998569 -0.442999988794 -0.138999998569 102.0
0.930000007153 -0.469999998808 -0.145999997854 95.0
0.925000011921 -0.47499999404 -0.145999997854 95.0
0.901000022888 -0.469000011683 -0.142000004649 94.0
0.898000001907 -0.47499999404 -0.142000004649 98.0
0.948000013828 -0.509000003338 -0.150999993086 94.0
0.903999984264 -0.493000000715 -0.143999993801 89.0
0.885999977589 -0.490000009537 -0.141000002623 87.0
0.910000026226 -0.510999977589 -0.145999997854 90.0
0.949999988079 0.549000024796 -0.165000006557 427.0
0.931999981403 0.532000005245 -0.16099999845 390.0
0.940999984741 0.528999984264 -0.162000000477 348.0
0.929000020027 0.513999998569 -0.158999994397 310.0
0.919000029564 0.500999987125 -0.157000005245 279.0
0.941999971867 0.505999982357 -0.16099999845 391.0
0.957000017166 0.507000029087 -0.163000002503 333.0
0.933000028133 0.486999988556 -0.158000007272 297.0
0.940999984741 0.483000010252 -0.158999994397 278.0
0.856000006199 0.425999999046 -0.143999993801 175.0
0.751999974251 0.363000005484 -0.126000002027 120.0
0.681999981403 0.324000000954 -0.11400000006 110.0
0.836000025272 0.384999990463 -0.138999998569 102.0
0.893000006676 0.405000001192 -0.148000001907 79.0
3.91400003433 1.2840000391 -0.621999979019 73.0
4.03100013733 1.29600000381 -0.639999985695 70.0
4.03299999237 1.26999998093 -0.638999998569 77.0
4.08199977875 1.25899994373 -0.644999980927 68.0
4.11499977112 1.24300003052 -0.649999976158 58.0
4.53000020981 1.30900001526 -0.712999999523 59.0
4.48799991608 1.26800000668 -0.704999983311 58.0
4.52899980545 1.16499996185 -0.707000017166 57.0
4.56599998474 1.11699998379 -0.711000025272 67.0
4.81300020218 0.795000016689 -0.737999975681 54.0
4.89300012589 0.75 -0.748000025749 53.0
2.36500000954 -0.0920000001788 -0.356000006199 119.0
2.39899992943 -0.107000000775 -0.361000001431 202.0
2.37700009346 -0.119999997318 -0.358000010252 118.0
2.31900000572 -0.129999995232 -0.349000006914 196.0
2.30500006676 -0.143000006676 -0.347000002861 173.0
2.31999993324 -0.197999998927 -0.34999999404 104.0
2.28699994087 -0.209000006318 -0.344999998808 168.0
1.59800004959 -0.153999999166 -0.240999996662 89.0
0.976999998093 -0.0989999994636 -0.146999999881 143.0
0.978999972343 -0.104999996722 -0.148000001907 147.0
0.975000023842 -0.109999999404 -0.146999999881 145.0
0.975000023842 -0.115999996662 -0.146999999881 142.0
0.978999972343 -0.122000001371 -0.148000001907 146.0
0.996999979019 -0.129999995232 -0.150999993086 144.0
0.975000023842 -0.133000001311 -0.146999999881 148.0
0.967000007629 -0.136999994516 -0.145999997854 151.0
0.967999994755 -0.143000006676 -0.145999997854 142.0
0.986999988556 -0.151999995112 -0.149000003934 152.0
0.999000012875 -0.159999996424 -0.150999993086 147.0
0.959999978542 -0.158999994397 -0.144999995828 147.0
0.972000002861 -0.166999995708 -0.146999999881 148.0
0.957000017166 -0.170000001788 -0.144999995828 144.0
0.962000012398 -0.177000001073 -0.145999997854 146.0
0.999000012875 -0.189999997616 -0.151999995112 145.0
0.976000010967 -0.190999999642 -0.148000001907 155.0
0.958999991417 -0.194000005722 -0.145999997854 146.0
0.964999973774 -0.201000005007 -0.146999999881 148.0
0.990000009537 -0.211999997497 -0.150999993086 149.0
0.955999970436 -0.21099999547 -0.145999997854 147.0
0.962999999523 -0.217999994755 -0.146999999881 143.0
0.954999983311 -0.222000002861 -0.145999997854 145.0
0.972999989986 -0.232999995351 -0.149000003934 143.0
0.971000015736 -0.238000005484 -0.149000003934 152.0
0.966000020504 -0.243000000715 -0.148000001907 141.0
0.957000017166 -0.246000006795 -0.146999999881 139.0
0.967999994755 -0.254999995232 -0.149000003934 152.0
0.929000020027 -0.250999987125 -0.143000006676 139.0
0.963999986649 -0.266999989748 -0.148000001907 134.0
0.940999984741 -0.266000002623 -0.144999995828 137.0
0.950999975204 -0.27500000596 -0.146999999881 128.0
0.924000024796 -0.273000001907 -0.143000006676 140.0
0.966000020504 -0.291999995708 -0.149000003934 128.0
0.931999981403 -0.287999987602 -0.143999993801 138.0
0.95300000906 -0.300000011921 -0.148000001907 130.0
0.953999996185 -0.307000011206 -0.148000001907 128.0
0.944000005722 -0.310000002384 -0.146999999881 126.0
0.950999975204 -0.317999988794 -0.148000001907 125.0
0.939999997616 -0.321000009775 -0.146999999881 131.0
0.93900001049 -0.326999992132 -0.146999999881 127.0
0.940999984741 -0.333999991417 -0.146999999881 125.0
0.972999989986 -0.351999998093 -0.152999997139 125.0
0.944000005722 -0.347999989986 -0.148000001907 127.0
0.959999978542 -0.360000014305 -0.150999993086 124.0
0.938000023365 -0.358000010252 -0.148000001907 117.0
0.927999973297 -0.361000001431 -0.146999999881 122.0
0.93599998951 -0.370000004768 -0.148000001907 120.0
0.933000028133 -0.375999987125 -0.148000001907 115.0
0.940999984741 -0.386000007391 -0.15000000596 113.0
0.948000013828 -0.395000010729 -0.150999993086 109.0
0.940999984741 -0.398999989033 -0.15000000596 119.0
0.95300000906 -0.411000013351 -0.151999995112 108.0
0.948000013828 -0.416000008583 -0.151999995112 104.0
0.943000018597 -0.421000003815 -0.151999995112 103.0
0.973999977112 -0.442000001669 -0.157000005245 111.0
0.912999987602 -0.421000003815 -0.146999999881 111.0
0.908999979496 -0.425000011921 -0.146999999881 99.0
0.944000005722 -0.449000000954 -0.152999997139 107.0
0.883000016212 -0.425999999046 -0.143999993801 105.0
0.894999980927 -0.43900001049 -0.145999997854 99.0
0.93900001049 -0.467999994755 -0.152999997139 107.0
0.952000021935 -0.481999993324 -0.156000003219 98.0
0.893999993801 -0.458999991417 -0.146999999881 88.0
0.903999984264 -0.470999985933 -0.149000003934 92.0
0.898000001907 -0.476000010967 -0.148000001907 99.0
0.915000021458 -0.49200001359 -0.150999993086 100.0
0.920000016689 -0.501999974251 -0.152999997139 96.0
0.929000020027 -0.514999985695 -0.155000001192 89.0
0.89099997282 -0.500999987125 -0.149000003934 90.0
0.922999978065 0.535000026226 -0.165999993682 1097.0
0.930000007153 0.53100001812 -0.166999995708 1108.0
0.931999981403 0.523999989033 -0.166999995708 1086.0
0.929000020027 0.514999985695 -0.165999993682 1053.0
0.934000015259 0.509999990463 -0.165999993682 1029.0
0.930999994278 0.500999987125 -0.165000006557 1023.0
0.934000015259 0.495000004768 -0.165000006557 996.0
0.93599998951 0.488999992609 -0.165000006557 967.0
0.940999984741 0.483999997377 -0.165000006557 928.0
0.941999971867 0.476999998093 -0.165000006557 913.0
0.940999984741 0.469000011683 -0.16400000453 885.0
0.947000026703 0.465000003576 -0.165000006557 849.0
0.940999984741 0.455000013113 -0.163000002503 818.0
0.944999992847 0.449000000954 -0.16400000453 795.0
0.948000013828 0.444000005722 -0.16400000453 769.0
0.947000026703 0.43599998951 -0.163000002503 724.0
0.962000012398 0.43599998951 -0.165000006557 673.0
0.958999991417 0.428000003099 -0.16400000453 631.0
0.954999983311 0.418999999762 -0.163000002503 608.0
0.949999988079 0.409999996424 -0.162000000477 567.0
0.955999970436 0.405999988317 -0.163000002503 530.0
0.961000025272 0.400999993086 -0.163000002503 492.0
0.959999978542 0.393999993801 -0.162000000477 453.0
0.957000017166 0.386000007391 -0.162000000477 416.0
0.972999989986 0.384999990463 -0.16400000453 376.0
0.963999986649 0.375 -0.162000000477 349.0
0.954999983311 0.365000009537 -0.159999996424 322.0
0.95300000906 0.358000010252 -0.159999996424 286.0
0.964999973774 0.356000006199 -0.16099999845 265.0
0.971000015736 0.351000010967 -0.162000000477 446.0
0.962999999523 0.342000007629 -0.159999996424 416.0
0.963999986649 0.33599999547 -0.159999996424 370.0
0.986000001431 0.330000013113 -0.163000002503 307.0
0.952000021935 0.312999993563 -0.157000005245 267.0
0.820999979973 0.263999998569 -0.135000005364 157.0
0.617999970913 0.194999992847 -0.101999998093 93.0
0.745000004768 0.230000004172 -0.122000001371 118.0
0.922999978065 0.273000001907 -0.150999993086 163.0
0.616999983788 0.17499999702 -0.10000000149 91.0
0.786000013351 0.216999992728 -0.12800000608 120.0
0.748000025749 0.202000007033 -0.122000001371 105.0
0.740999996662 0.195999994874 -0.119999997318 102.0
0.750999987125 0.194000005722 -0.122000001371 76.0
0.596000015736 0.15000000596 -0.0960000008345 79.0
0.388999998569 0.0960000008345 -0.0630000010133 64.0
0.430999994278 0.103000000119 -0.0689999982715 59.0
0.462999999523 0.104999996722 -0.0740000009537 58.0
0.0750000029802 0.0149999996647 -0.0120000001043 53.0
2.38000011444 -0.0930000022054 -0.372999995947 129.0
2.38800001144 -0.107000000775 -0.374000012875 208.0
2.38199996948 -0.119999997318 -0.372999995947 115.0
2.32399988174 -0.130999997258 -0.363999992609 199.0
2.31399989128 -0.143999993801 -0.361999988556 169.0
2.35400009155 -0.201000005007 -0.368999987841 86.0
2.28399991989 -0.209000006318 -0.358000010252 175.0
1.61399996281 -0.156000003219 -0.252999991179 89.0
0.996999979019 -0.101000003517 -0.156000003219 140.0
0.991999983788 -0.105999998748 -0.156000003219 145.0
0.986000001431 -0.111000001431 -0.155000001192 145.0
0.966000020504 -0.115000002086 -0.150999993086 149.0
0.976000010967 -0.122000001371 -0.152999997139 151.0
0.975000023842 -0.127000004053 -0.152999997139 146.0
0.973999977112 -0.133000001311 -0.152999997139 146.0
0.958999991417 -0.136000007391 -0.150999993086 148.0
0.95300000906 -0.141000002623 -0.15000000596 147.0
0.959999978542 -0.148000001907 -0.150999993086 143.0
0.985000014305 -0.158000007272 -0.155000001192 148.0
0.986999988556 -0.16400000453 -0.155000001192 148.0
0.972000002861 -0.166999995708 -0.152999997139 149.0
0.975000023842 -0.173999994993 -0.153999999166 150.0
0.980000019073 -0.180000007153 -0.155000001192 147.0
0.97000002861 -0.184000000358 -0.152999997139 148.0
0.989000022411 -0.194000005722 -0.156000003219 153.0
0.978999972343 -0.197999998927 -0.155000001192 149.0
0.985000014305 -0.204999998212 -0.156000003219 150.0
0.980000019073 -0.209999993443 -0.155000001192 148.0
0.97000002861 -0.21400000155 -0.153999999166 148.0
0.972000002861 -0.219999998808 -0.153999999166 141.0
0.957000017166 -0.223000004888 -0.151999995112 138.0
0.957000017166 -0.229000002146 -0.151999995112 144.0
0.949000000954 -0.232999995351 -0.150999993086 145.0
0.944999992847 -0.238000005484 -0.150999993086 139.0
0.981999993324 -0.252999991179 -0.157000005245 133.0
0.966000020504 -0.254999995232 -0.153999999166 142.0
0.967000007629 -0.261999994516 -0.155000001192 142.0
0.966000020504 -0.266999989748 -0.155000001192 137.0
0.958000004292 -0.270999997854 -0.153999999166 133.0
0.955999970436 -0.277000010014 -0.152999997139 135.0
0.975000023842 -0.28900000453 -0.157000005245 132.0
0.981000006199 -0.29699999094 -0.158000007272 129.0
0.980000019073 -0.303000003099 -0.158000007272 128.0
0.957000017166 -0.301999986172 -0.153999999166 132.0
0.93900001049 -0.301999986172 -0.151999995112 131.0
0.92199999094 -0.303000003099 -0.149000003934 124.0
0.935000002384 -0.312999993563 -0.151999995112 134.0
0.95300000906 -0.326000005007 -0.155000001192 131.0
0.936999976635 -0.326000005007 -0.151999995112 130.0
0.941999971867 -0.335000008345 -0.153999999166 124.0
0.920000016689 -0.333000004292 -0.15000000596 126.0
0.945999979973 -0.349000006914 -0.155000001192 124.0
0.931999981403 -0.34999999404 -0.152999997139 123.0
0.948000013828 -0.361999988556 -0.155000001192 123.0
0.967000007629 -0.377000004053 -0.158999994397 114.0
0.952000021935 -0.377000004053 -0.157000005245 112.0
0.959999978542 -0.386999994516 -0.158000007272 115.0
0.92199999094 -0.377999991179 -0.151999995112 118.0
0.958000004292 -0.40000000596 -0.158999994397 113.0
0.943000018597 -0.400999993086 -0.157000005245 110.0
0.967999994755 -0.418000012636 -0.16099999845 110.0
0.944000005722 -0.41400000453 -0.157000005245 109.0
0.92199999094 -0.411000013351 -0.153999999166 108.0
0.897000014782 -0.407000005245 -0.15000000596 110.0
0.926999986172 -0.426999986172 -0.156000003219 99.0
0.907999992371 -0.425000011921 -0.152999997139 107.0
0.90499997139 -0.430999994278 -0.152999997139 103.0
0.927999973297 -0.449000000954 -0.157000005245 111.0
0.90499997139 -0.444000005722 -0.152999997139 99.0
0.898999989033 -0.449000000954 -0.152999997139 96.0
0.888000011444 -0.449999988079 -0.150999993086 95.0
0.947000026703 -0.486999988556 -0.162000000477 99.0
0.910000026226 -0.47499999404 -0.156000003219 94.0
0.929000020027 -0.49200001359 -0.158999994397 95.0
0.878000020981 -0.472000002861 -0.150999993086 92.0
0.919000029564 -0.501999974251 -0.158999994397 95.0
0.916999995708 -0.509000003338 -0.158999994397 99.0
0.90600001812 -0.509999990463 -0.157000005245 87.0
0.921000003815 0.533999979496 -0.172000005841 1026.0
0.915000021458 0.523000001907 -0.170000001788 1065.0
0.925999999046 0.521000027657 -0.172000005841 1099.0
0.925999999046 0.513999998569 -0.171000003815 1143.0
0.926999986172 0.505999982357 -0.171000003815 1153.0
0.930000007153 0.500999987125 -0.171000003815 1171.0
0.938000023365 0.497000008821 -0.172000005841 1194.0
0.929000020027 0.485000014305 -0.170000001788 1206.0
0.933000028133 0.479999989271 -0.170000001788 1198.0
0.935000002384 0.474000006914 -0.170000001788 1220.0
0.936999976635 0.467999994755 -0.170000001788 1235.0
0.940999984741 0.462999999523 -0.170000001788 1238.0
0.938000023365 0.453999996185 -0.168999999762 1246.0
0.941999971867 0.449000000954 -0.168999999762 1278.0
0.940999984741 0.441000014544 -0.168999999762 1280.0
0.944000005722 0.435000002384 -0.168999999762 1273.0
0.950999975204 0.432000011206 -0.168999999762 1267.0
0.952000021935 0.425000011921 -0.168999999762 1272.0
0.945999979973 0.414999991655 -0.167999997735 1280.0
0.944999992847 0.407999992371 -0.166999995708 1256.0
0.958999991417 0.407000005245 -0.168999999762 1261.0
0.958000004292 0.40000000596 -0.168999999762 1244.0
0.952000021935 0.391000002623 -0.166999995708 1233.0
0.958999991417 0.386999994516 -0.167999997735 1224.0
0.962999999523 0.381999999285 -0.167999997735 1207.0
0.963999986649 0.375 -0.167999997735 1217.0
0.964999973774 0.368999987841 -0.167999997735 1178.0
0.967000007629 0.363000005484 -0.167999997735 1192.0
0.964999973774 0.356000006199 -0.166999995708 1190.0
0.971000015736 0.351000010967 -0.167999997735 1191.0
0.971000015736 0.344999998808 -0.167999997735 1166.0
0.972999989986 0.338999986649 -0.167999997735 1165.0
0.975000023842 0.333000004292 -0.167999997735 1141.0
0.976000010967 0.326999992132 -0.166999995708 1127.0
0.977999985218 0.321000009775 -0.166999995708 1072.0
0.973999977112 0.31400001049 -0.165999993682 1064.0
0.986000001431 0.31099998951 -0.167999997735 1044.0
0.981000006199 0.303000003099 -0.166999995708 1066.0
0.98400002718 0.298000007868 -0.166999995708 1030.0
0.98299998045 0.291000008583 -0.166999995708 1011.0
0.981000006199 0.284000009298 -0.165999993682 990.0
0.981999993324 0.277999997139 -0.165999993682 968.0
0.986999988556 0.273000001907 -0.166999995708 939.0
0.98400002718 0.266000002623 -0.165999993682 912.0
0.991999983788 0.261999994516 -0.166999995708 861.0
0.989000022411 0.254999995232 -0.165999993682 847.0
0.994000017643 0.25 -0.166999995708 828.0
0.992999970913 0.244000002742 -0.165999993682 801.0
0.991999983788 0.237000003457 -0.165999993682 769.0
0.98299998045 0.229000002146 -0.16400000453 745.0
0.990999996662 0.22499999404 -0.165000006557 712.0
0.996999979019 0.219999998808 -0.165999993682 690.0
1.00300002098 0.215000003576 -0.166999995708 662.0
0.995999991894 0.208000004292 -0.165999993682 647.0
1.0 0.202000007033 -0.165999993682 619.0
1.00199997425 0.196999996901 -0.165999993682 592.0
1.00300002098 0.190999999642 -0.165999993682 575.0
1.00699996948 0.185000002384 -0.166999995708 557.0
1.0 0.178000003099 -0.165000006557 532.0
1.00499999523 0.172999992967 -0.165999993682 519.0
1.01300001144 0.167999997735 -0.166999995708 495.0
1.00999999046 0.162000000477 -0.166999995708 470.0
1.01800000668 0.157000005245 -0.167999997735 460.0
1.00499999523 0.149000003934 -0.165999993682 442.0
1.0 0.142000004649 -0.165000006557 432.0
1.00600004196 0.136999994516 -0.165000006557 425.0
1.02100002766 0.133000001311 -0.167999997735 481.0
1.02900004387 0.12800000608 -0.168999999762 446.0
1.0340000391 0.123000003397 -0.170000001788 459.0
1.03600001335 0.116999998689 -0.170000001788 420.0
1.02799999714 0.109999999404 -0.167999997735 344.0
1.03600001335 0.104999996722 -0.170000001788 268.0
1.03999996185 0.0989999994636 -0.170000001788 293.0
1.03299999237 0.0920000001788 -0.168999999762 295.0
1.0340000391 0.0860000029206 -0.168999999762 293.0
1.04400002956 0.0810000002384 -0.170000001788 316.0
1.04600000381 0.0750000029802 -0.171000003815 321.0
1.06099998951 0.070000000298 -0.172999992967 271.0
1.04400002956 0.0630000010133 -0.170000001788 266.0
1.04499995708 0.0570000000298 -0.170000001788 251.0
1.04499995708 0.0509999990463 -0.170000001788 252.0
1.06599998474 0.0460000000894 -0.173999994993 250.0
1.04700005054 0.0390000008047 -0.170000001788 248.0
1.06400001049 0.0329999998212 -0.172999992967 240.0
1.05999994278 0.0270000007004 -0.172000005841 249.0
1.05999994278 0.0209999997169 -0.172000005841 257.0
1.07799994946 0.0149999996647 -0.17499999702 245.0
2.39299988747 -0.0930000022054 -0.388999998569 120.0
2.39199995995 -0.107000000775 -0.388999998569 189.0
2.41700005531 -0.122000001371 -0.393000006676 95.0
2.31299996376 -0.129999995232 -0.375999987125 202.0
2.30800008774 -0.143999993801 -0.375 165.0
2.31100010872 -0.197999998927 -0.375999987125 129.0
2.27800011635 -0.208000004292 -0.370999991894 176.0
1.55499994755 -0.15000000596 -0.252999991179 96.0
0.978999972343 -0.0989999994636 -0.158999994397 140.0
0.962000012398 -0.103000000119 -0.156000003219 146.0
1.00499999523 -0.11400000006 -0.16400000453 136.0
0.977999985218 -0.115999996662 -0.158999994397 146.0
0.967000007629 -0.120999999344 -0.157000005245 147.0
0.98299998045 -0.12800000608 -0.159999996424 147.0
0.93900001049 -0.12800000608 -0.152999997139 152.0
0.958999991417 -0.136999994516 -0.156000003219 145.0
0.989000022411 -0.146999999881 -0.16099999845 149.0
0.972999989986 -0.15000000596 -0.158999994397 151.0
0.98400002718 -0.158000007272 -0.16099999845 147.0
0.954999983311 -0.158999994397 -0.156000003219 142.0
0.980000019073 -0.168999999762 -0.159999996424 148.0
0.989000022411 -0.175999999046 -0.162000000477 148.0
0.977999985218 -0.180000007153 -0.159999996424 148.0
0.976000010967 -0.186000004411 -0.159999996424 148.0
0.972000002861 -0.190999999642 -0.158999994397 147.0
0.959999978542 -0.194000005722 -0.158000007272 150.0
0.971000015736 -0.202999994159 -0.159999996424 144.0
0.967000007629 -0.208000004292 -0.158999994397 144.0
0.96899998188 -0.21400000155 -0.159999996424 147.0
0.957000017166 -0.216999992728 -0.158000007272 142.0
0.962000012398 -0.224000006914 -0.158999994397 140.0
0.957000017166 -0.229000002146 -0.158000007272 149.0
0.948000013828 -0.232999995351 -0.157000005245 142.0
0.967000007629 -0.244000002742 -0.159999996424 151.0
0.962000012398 -0.247999995947 -0.158999994397 138.0
0.957000017166 -0.252999991179 -0.158999994397 135.0
0.947000026703 -0.256000012159 -0.157000005245 139.0
0.958000004292 -0.264999985695 -0.158999994397 137.0
0.961000025272 -0.272000014782 -0.159999996424 134.0
0.967000007629 -0.280000001192 -0.16099999845 131.0
0.938000023365 -0.277999997139 -0.156000003219 135.0
0.980000019073 -0.29699999094 -0.16400000453 135.0
0.961000025272 -0.29699999094 -0.16099999845 128.0
0.962000012398 -0.303999990225 -0.16099999845 140.0
0.912000000477 -0.293000012636 -0.152999997139 130.0
0.936999976635 -0.307999998331 -0.157000005245 130.0
0.940999984741 -0.314999997616 -0.158000007272 129.0
0.958000004292 -0.32800000906 -0.162000000477 127.0
0.934000015259 -0.324999988079 -0.158000007272 124.0
0.93900001049 -0.333999991417 -0.158999994397 125.0
0.977999985218 -0.354000002146 -0.165999993682 118.0
0.933000028133 -0.344000011683 -0.158000007272 120.0
0.930999994278 -0.34999999404 -0.158000007272 119.0
0.949000000954 -0.363000005484 -0.162000000477 117.0
0.935000002384 -0.363999992609 -0.159999996424 110.0
0.920000016689 -0.365000009537 -0.157000005245 118.0
0.945999979973 -0.381999999285 -0.162000000477 115.0
0.919000029564 -0.377000004053 -0.158000007272 114.0
0.915000021458 -0.381999999285 -0.157000005245 110.0
0.950999975204 -0.404000014067 -0.16400000453 111.0
0.913999974728 -0.395000010729 -0.158000007272 115.0
0.967999994755 -0.425000011921 -0.167999997735 113.0
0.925999999046 -0.41400000453 -0.16099999845 103.0
0.925000011921 -0.419999986887 -0.16099999845 109.0
0.930000007153 -0.428999990225 -0.162000000477 103.0
0.947000026703 -0.444000005722 -0.165000006557 100.0
0.915000021458 -0.43599998951 -0.159999996424 103.0
0.875999987125 -0.423999994993 -0.153999999166 103.0
0.919000029564 -0.451999992132 -0.162000000477 109.0
0.930999994278 -0.465000003576 -0.16400000453 95.0
0.966000020504 -0.490000009537 -0.171000003815 102.0
0.949999988079 -0.488999992609 -0.167999997735 104.0
0.887000024319 -0.463999986649 -0.158000007272 95.0
0.916999995708 -0.486999988556 -0.163000002503 88.0
0.925000011921 -0.497999995947 -0.165000006557 93.0
0.916000008583 -0.500999987125 -0.16400000453 91.0
0.947000026703 -0.526000022888 -0.170000001788 90.0
0.916999995708 -0.51700001955 -0.165000006557 91.0
0.938000023365 0.544000029564 -0.181999996305 310.0
0.943000018597 0.538999974728 -0.181999996305 358.0
0.935000002384 0.527000010014 -0.180000007153 391.0
0.925000011921 0.513000011444 -0.177000001073 448.0
0.934000015259 0.510999977589 -0.178000003099 503.0
0.93599998951 0.504000008106 -0.178000003099 520.0
0.931999981403 0.495000004768 -0.177000001073 578.0
0.93900001049 0.490999996662 -0.178000003099 619.0
0.93900001049 0.483999997377 -0.177000001073 671.0
0.933000028133 0.474000006914 -0.175999999046 740.0
0.93599998951 0.467000007629 -0.175999999046 784.0
0.93900001049 0.462000012398 -0.175999999046 830.0
0.93900001049 0.455000013113 -0.17499999702 875.0
0.945999979973 0.451000005007 -0.175999999046 922.0
0.944000005722 0.442999988794 -0.17499999702 968.0
0.944999992847 0.43599998951 -0.17499999702 1003.0
0.947000026703 0.430000007153 -0.17499999702 1029.0
0.944999992847 0.423000007868 -0.173999994993 1063.0
0.950999975204 0.418000012636 -0.17499999702 1094.0
0.948000013828 0.409999996424 -0.173999994993 1121.0
0.954999983311 0.405999988317 -0.17499999702 1153.0
0.952000021935 0.398000001907 -0.173999994993 1181.0
0.954999983311 0.393000006676 -0.173999994993 1202.0
0.958999991417 0.386999994516 -0.173999994993 1218.0
0.955999970436 0.379000008106 -0.172999992967 1233.0
0.958000004292 0.374000012875 -0.172999992967 1270.0
0.958000004292 0.36700001359 -0.172999992967 1300.0
0.958000004292 0.360000014305 -0.172000005841 1330.0
0.963999986649 0.356000006199 -0.172999992967 1333.0
0.964999973774 0.34999999404 -0.172999992967 1373.0
0.964999973774 0.342999994755 -0.172999992967 1402.0
0.971000015736 0.338999986649 -0.172999992967 1398.0
0.967000007629 0.331000000238 -0.172000005841 1449.0
0.972000002861 0.326000005007 -0.172999992967 1444.0
0.976000010967 0.321000009775 -0.172999992967 1429.0
0.973999977112 0.31400001049 -0.172999992967 1485.0
0.975000023842 0.307999998331 -0.172000005841 1539.0
0.977999985218 0.301999986172 -0.172999992967 1521.0
0.973999977112 0.294999986887 -0.172000005841 1525.0
0.981999993324 0.291000008583 -0.172999992967 1549.0
0.978999972343 0.284000009298 -0.172000005841 1568.0
0.985000014305 0.279000014067 -0.172999992967 1578.0
0.98400002718 0.273000001907 -0.172000005841 1569.0
0.98299998045 0.266000002623 -0.172000005841 1560.0
0.986999988556 0.261000007391 -0.172000005841 1569.0
0.989000022411 0.254999995232 -0.172000005841 1585.0
0.990999996662 0.25 -0.172000005841 1579.0
0.991999983788 0.244000002742 -0.172000005841 1579.0
0.995000004768 0.238000005484 -0.172999992967 1551.0
0.991999983788 0.231000006199 -0.172000005841 1578.0
0.995999991894 0.225999996066 -0.172000005841 1537.0
0.996999979019 0.219999998808 -0.172000005841 1545.0
1.00100004673 0.215000003576 -0.172999992967 1525.0
1.0 0.208000004292 -0.172000005841 1535.0
1.00499999523 0.202999994159 -0.172999992967 1490.0
1.0039999485 0.196999996901 -0.172999992967 1485.0
1.00499999523 0.190999999642 -0.172999992967 1472.0
1.00300002098 0.185000002384 -0.172000005841 1448.0
1.00600004196 0.179000005126 -0.172999992967 1459.0
1.01100003719 0.173999994993 -0.172999992967 1434.0
1.01400005817 0.168999999762 -0.173999994993 1396.0
1.01199996471 0.162000000477 -0.172999992967 1347.0
1.01499998569 0.157000005245 -0.172999992967 1300.0
1.01600003242 0.150999993086 -0.172999992967 1282.0
1.01699995995 0.144999995828 -0.172999992967 1314.0
1.01800000668 0.138999998569 -0.172999992967 1302.0
1.02400004864 0.134000003338 -0.173999994993 1312.0
1.01900005341 0.127000004053 -0.172999992967 1257.0
1.02600002289 0.122000001371 -0.173999994993 1210.0
1.02600002289 0.115999996662 -0.173999994993 1162.0
1.01800000668 0.108999997377 -0.172999992967 1126.0
1.02600002289 0.104000002146 -0.173999994993 1066.0
1.02300000191 0.097000002861 -0.172999992967 1024.0
1.02300000191 0.0909999981523 -0.172999992967 1014.0
1.02699995041 0.0860000029206 -0.173999994993 1011.0
1.02900004387 0.0799999982119 -0.173999994993 991.0
1.0379999876 0.0750000029802 -0.175999999046 995.0
1.03999996185 0.0689999982715 -0.175999999046 963.0
1.03199994564 0.0619999989867 -0.173999994993 934.0
1.03499996662 0.0560000017285 -0.17499999702 914.0
1.04400002956 0.0509999990463 -0.175999999046 889.0
1.03699994087 0.0439999997616 -0.17499999702 900.0
1.03900003433 0.0379999987781 -0.17499999702 908.0
1.04700005054 0.0329999998212 -0.175999999046 886.0
1.04400002956 0.0260000005364 -0.175999999046 868.0
1.04299998283 0.019999999553 -0.175999999046 882.0
1.04600000381 0.0140000004321 -0.175999999046 823.0
1.05099999905 0.00800000037998 -0.177000001073 395.0
2.40599989891 -0.0939999967813 -0.405000001192 114.0
2.40000009537 -0.108000002801 -0.404000014067 168.0
2.41000008583 -0.122000001371 -0.405999988317 84.0
2.31399989128 -0.130999997258 -0.389999985695 187.0
2.29500007629 -0.143000006676 -0.386999994516 140.0
2.32699990273 -0.199000000954 -0.391999989748 125.0
2.29699993134 -0.209999993443 -0.386999994516 170.0
1.46899998188 -0.142000004649 -0.247999995947 86.0
0.978999972343 -0.0989999994636 -0.165000006557 138.0
0.996999979019 -0.107000000775 -0.167999997735 143.0
0.957000017166 -0.108000002801 -0.16099999845 147.0
0.972999989986 -0.115999996662 -0.16400000453 148.0
0.967999994755 -0.120999999344 -0.163000002503 134.0
0.972999989986 -0.127000004053 -0.16400000453 144.0
0.963999986649 -0.131999999285 -0.163000002503 146.0
0.958000004292 -0.136999994516 -0.162000000477 143.0
0.963999986649 -0.143000006676 -0.163000002503 144.0
0.981000006199 -0.151999995112 -0.165999993682 139.0
0.957000017166 -0.153999999166 -0.162000000477 149.0
0.981999993324 -0.16400000453 -0.165999993682 144.0
0.964999973774 -0.165999993682 -0.16400000453 145.0
0.96899998188 -0.172999992967 -0.16400000453 139.0
0.967999994755 -0.179000005126 -0.16400000453 151.0
0.962999999523 -0.182999998331 -0.16400000453 152.0
0.949000000954 -0.186000004411 -0.16099999845 140.0
0.981000006199 -0.199000000954 -0.166999995708 140.0
0.975000023842 -0.203999996185 -0.165999993682 144.0
0.981999993324 -0.21099999547 -0.166999995708 145.0
0.959999978542 -0.211999997497 -0.16400000453 146.0
0.972000002861 -0.221000000834 -0.165999993682 138.0
0.939999997616 -0.218999996781 -0.16099999845 141.0
0.944999992847 -0.225999996066 -0.162000000477 141.0
0.962000012398 -0.236000001431 -0.165000006557 142.0
0.971000015736 -0.245000004768 -0.166999995708 143.0
0.96899998188 -0.25 -0.165999993682 142.0
0.953999996185 -0.252999991179 -0.16400000453 143.0
0.952000021935 -0.25799998641 -0.16400000453 132.0
0.931999981403 -0.25799998641 -0.16099999845 132.0
0.981000006199 -0.277999997139 -0.168999999762 137.0
0.93900001049 -0.272000014782 -0.162000000477 130.0
0.936999976635 -0.277999997139 -0.162000000477 137.0
0.939999997616 -0.284999996424 -0.163000002503 136.0
0.940999984741 -0.291000008583 -0.163000002503 133.0
0.971000015736 -0.307000011206 -0.168999999762 133.0
0.939999997616 -0.303000003099 -0.16400000453 132.0
0.966000020504 -0.317999988794 -0.167999997735 122.0
0.933000028133 -0.312999993563 -0.163000002503 129.0
0.931999981403 -0.319000005722 -0.163000002503 130.0
0.930000007153 -0.324999988079 -0.163000002503 118.0
0.936999976635 -0.333000004292 -0.16400000453 117.0
0.944000005722 -0.342000007629 -0.165999993682 122.0
0.938000023365 -0.347000002861 -0.165000006557 122.0
0.945999979973 -0.356000006199 -0.166999995708 119.0
0.913999974728 -0.34999999404 -0.16099999845 116.0
0.949000000954 -0.370000004768 -0.167999997735 113.0
0.927999973297 -0.368000000715 -0.165000006557 123.0
0.915000021458 -0.370000004768 -0.163000002503 115.0
0.920000016689 -0.377999991179 -0.16400000453 104.0
0.955999970436 -0.40000000596 -0.170000001788 115.0
0.913999974728 -0.388999998569 -0.163000002503 110.0
0.911000013351 -0.393999993801 -0.163000002503 113.0
0.933000028133 -0.409999996424 -0.167999997735 108.0
0.90499997139 -0.404000014067 -0.163000002503 112.0
0.90600001812 -0.412000000477 -0.163000002503 110.0
0.930999994278 -0.430000007153 -0.167999997735 103.0
0.915000021458 -0.430000007153 -0.165999993682 98.0
0.85799998045 -0.409000009298 -0.156000003219 103.0
0.930000007153 -0.451000005007 -0.168999999762 102.0
0.913999974728 -0.449999988079 -0.166999995708 99.0
0.912999987602 -0.456000000238 -0.166999995708 102.0
0.902000010014 -0.458000004292 -0.165000006557 91.0
0.931999981403 -0.479999989271 -0.171000003815 101.0
0.922999978065 -0.483000010252 -0.170000001788 86.0
0.93599998951 -0.497999995947 -0.172999992967 90.0
0.910000026226 -0.490999996662 -0.168999999762 99.0
0.916999995708 -0.501999974251 -0.170000001788 97.0
0.875 -0.486000001431 -0.163000002503 88.0
0.916000008583 -0.51700001955 -0.171000003815 95.0
3.23099994659 1.66799998283 -0.632000029087 88.0
0.963999986649 0.430999994278 -0.184000000358 371.0
0.958000004292 0.414999991655 -0.181999996305 465.0
0.949000000954 0.404000014067 -0.180000007153 370.0
0.950999975204 0.398000001907 -0.179000005126 325.0
0.958999991417 0.393999993801 -0.180999994278 352.0
0.962000012398 0.388999998569 -0.180999994278 386.0
0.954999983311 0.379000008106 -0.179000005126 438.0
0.966000020504 0.377000004053 -0.180999994278 468.0
0.959999978542 0.368000000715 -0.179000005126 509.0
0.957000017166 0.360000014305 -0.178000003099 556.0
0.976999998093 0.361000001431 -0.181999996305 603.0
0.967999994755 0.351000010967 -0.179000005126 638.0
0.966000020504 0.344000011683 -0.179000005126 672.0
0.966000020504 0.337000012398 -0.178000003099 724.0
0.967000007629 0.331000000238 -0.178000003099 772.0
0.96899998188 0.324999988079 -0.178000003099 801.0
0.967999994755 0.319000005722 -0.178000003099 842.0
0.973999977112 0.31400001049 -0.179000005126 876.0
0.967999994755 0.305999994278 -0.177000001073 924.0
0.972000002861 0.300999999046 -0.178000003099 971.0
0.98299998045 0.298000007868 -0.179000005126 1005.0
0.98299998045 0.291000008583 -0.179000005126 1024.0
0.981000006199 0.284999996424 -0.178000003099 1080.0
0.981000006199 0.277999997139 -0.178000003099 1138.0
0.985000014305 0.273000001907 -0.178000003099 1134.0
0.98400002718 0.266999989748 -0.178000003099 1159.0
0.98400002718 0.259999990463 -0.178000003099 1145.0
0.98299998045 0.254000008106 -0.177000001073 1170.0
0.989000022411 0.248999997973 -0.178000003099 1165.0
0.989000022411 0.243000000715 -0.178000003099 1226.0
0.991999983788 0.237000003457 -0.178000003099 1254.0
0.990999996662 0.231000006199 -0.178000003099 1284.0
0.992999970913 0.225999996066 -0.178000003099 1293.0
0.990999996662 0.218999996781 -0.177000001073 1298.0
0.994000017643 0.21400000155 -0.178000003099 1312.0
0.998000025749 0.208000004292 -0.178000003099 1323.0
0.998000025749 0.202000007033 -0.178000003099 1320.0
1.0039999485 0.196999996901 -0.179000005126 1333.0
1.0 0.189999997616 -0.178000003099 1356.0
1.0039999485 0.185000002384 -0.178000003099 1340.0
1.00800001621 0.180000007153 -0.179000005126 1347.0
1.00499999523 0.172999992967 -0.178000003099 1345.0
1.00999999046 0.167999997735 -0.179000005126 1318.0
1.00899994373 0.162000000477 -0.179000005126 1337.0
1.00899994373 0.156000003219 -0.178000003099 1319.0
1.01600003242 0.150999993086 -0.179000005126 1296.0
1.00999999046 0.143999993801 -0.178000003099 1324.0
1.02300000191 0.140000000596 -0.180000007153 1322.0
1.00999999046 0.131999999285 -0.178000003099 1308.0
1.02199995518 0.127000004053 -0.180000007153 1215.0
1.01499998569 0.120999999344 -0.179000005126 1151.0
1.01900005341 0.115000002086 -0.179000005126 1123.0
1.02600002289 0.109999999404 -0.180000007153 1136.0
1.02400004864 0.103000000119 -0.180000007153 1116.0
1.01900005341 0.097000002861 -0.179000005126 1072.0
1.02499997616 0.0920000001788 -0.180000007153 1071.0
1.02100002766 0.0850000008941 -0.179000005126 1054.0
1.02699995041 0.0799999982119 -0.180000007153 1019.0
1.02799999714 0.0740000009537 -0.180000007153 1017.0
1.02999997139 0.0680000036955 -0.180000007153 1030.0
1.02799999714 0.0619999989867 -0.180000007153 1002.0
1.03299999237 0.0560000017285 -0.180999994278 987.0
1.03900003433 0.0500000007451 -0.181999996305 971.0
1.04100000858 0.0439999997616 -0.181999996305 958.0
1.04200005531 0.0379999987781 -0.181999996305 960.0
1.04400002956 0.0320000015199 -0.181999996305 959.0
1.04299998283 0.0260000005364 -0.181999996305 937.0
1.04600000381 0.019999999553 -0.181999996305 905.0
1.04200005531 0.0140000004321 -0.181999996305 863.0
1.04600000381 0.00800000037998 -0.181999996305 437.0
2.38199996948 -0.0930000022054 -0.414999991655 113.0
2.39700007439 -0.108000002801 -0.418000012636 187.0
2.41100001335 -0.122000001371 -0.419999986887 100.0
2.34400010109 -0.133000001311 -0.409000009298 183.0
2.33200001717 -0.144999995828 -0.407000005245 116.0
2.30599999428 -0.197999998927 -0.402999997139 119.0
2.29999995232 -0.21099999547 -0.402000010014 158.0
1.41700005531 -0.136999994516 -0.24699999392 92.0
0.981999993324 -0.10000000149 -0.171000003815 141.0
0.962000012398 -0.103000000119 -0.167999997735 146.0
0.98400002718 -0.111000001431 -0.172000005841 148.0
0.964999973774 -0.115000002086 -0.168999999762 147.0
0.959999978542 -0.119999997318 -0.167999997735 145.0
0.995000004768 -0.129999995232 -0.173999994993 142.0
0.957000017166 -0.130999997258 -0.167999997735 145.0
0.972000002861 -0.138999998569 -0.170000001788 146.0
0.989000022411 -0.146999999881 -0.172999992967 147.0
0.976999998093 -0.150999993086 -0.171000003815 142.0
0.952000021935 -0.152999997139 -0.166999995708 146.0
0.972999989986 -0.162000000477 -0.171000003815 146.0
0.978999972343 -0.168999999762 -0.172000005841 141.0
0.947000026703 -0.168999999762 -0.165999993682 145.0
0.953999996185 -0.175999999046 -0.167999997735 145.0
0.963999986649 -0.184000000358 -0.170000001788 143.0
0.949999988079 -0.187000006437 -0.166999995708 146.0
0.977999985218 -0.197999998927 -0.172000005841 139.0
0.93599998951 -0.194999992847 -0.165000006557 136.0
0.971000015736 -0.209000006318 -0.172000005841 147.0
0.961000025272 -0.212999999523 -0.170000001788 147.0
0.962999999523 -0.218999996781 -0.170000001788 146.0
0.947000026703 -0.221000000834 -0.167999997735 139.0
0.940999984741 -0.225999996066 -0.166999995708 140.0
0.976000010967 -0.239999994636 -0.172999992967 139.0
0.947000026703 -0.238999992609 -0.167999997735 137.0
0.941999971867 -0.243000000715 -0.167999997735 142.0
0.941999971867 -0.248999997973 -0.167999997735 147.0
0.964999973774 -0.261999994516 -0.172000005841 139.0
0.97000002861 -0.268999993801 -0.172999992967 136.0
0.986000001431 -0.280000001192 -0.175999999046 133.0
0.949999988079 -0.275999993086 -0.170000001788 131.0
0.935000002384 -0.277000010014 -0.167999997735 132.0
0.938000023365 -0.284000009298 -0.167999997735 134.0
0.972999989986 -0.300999999046 -0.17499999702 131.0
0.976000010967 -0.308999985456 -0.175999999046 130.0
0.943000018597 -0.303999990225 -0.170000001788 128.0
0.950999975204 -0.312999993563 -0.172000005841 128.0
0.981000006199 -0.330000013113 -0.177000001073 131.0
0.938000023365 -0.321000009775 -0.170000001788 125.0
0.920000016689 -0.321000009775 -0.166999995708 125.0
0.953999996185 -0.340000003576 -0.172999992967 124.0
0.945999979973 -0.342999994755 -0.172000005841 124.0
0.933000028133 -0.344999998808 -0.170000001788 121.0
0.958999991417 -0.361000001431 -0.17499999702 118.0
0.958999991417 -0.368000000715 -0.175999999046 119.0
0.950999975204 -0.370999991894 -0.173999994993 110.0
0.936999976635 -0.372999995947 -0.172000005841 114.0
0.902999997139 -0.365000009537 -0.165999993682 111.0
0.961000025272 -0.395999997854 -0.177000001073 116.0
0.929000020027 -0.388999998569 -0.172000005841 112.0
0.936999976635 -0.398999989033 -0.173999994993 107.0
0.90499997139 -0.391999989748 -0.167999997735 109.0
0.919000029564 -0.405000001192 -0.171000003815 108.0
0.930000007153 -0.416000008583 -0.172999992967 103.0
0.962000012398 -0.437999993563 -0.180000007153 106.0
0.930999994278 -0.430000007153 -0.173999994993 96.0
0.952000021935 -0.446999996901 -0.179000005126 98.0
0.912999987602 -0.43599998951 -0.172000005841 99.0
0.949999988079 -0.46099999547 -0.179000005126 108.0
0.910000026226 -0.448000013828 -0.172000005841 97.0
0.896000027657 -0.448000013828 -0.170000001788 95.0
0.907000005245 -0.46099999547 -0.172000005841 101.0
0.90499997139 -0.467000007629 -0.172000005841 95.0
0.898999989033 -0.470999985933 -0.172000005841 89.0
0.903999984264 -0.481000006199 -0.172999992967 102.0
0.912000000477 -0.493000000715 -0.17499999702 93.0
0.916000008583 -0.501999974251 -0.175999999046 96.0
0.902999997139 -0.501999974251 -0.173999994993 90.0
0.925000011921 -0.523000001907 -0.179000005126 89.0
3.01399993896 1.62999999523 -0.615999996662 84.0
3.1289999485 1.64199995995 -0.634999990463 77.0
0.827000021935 0.277999997139 -0.157000005245 64.0
4.35500001907 1.43499994278 -0.82800000906 54.0
4.69000005722 1.51400005817 -0.889999985695 48.0
4.76599979401 1.50699996948 -0.902999997139 55.0
0.425999999046 0.131999999285 -0.0799999982119 70.0
0.924000024796 0.268000006676 -0.173999994993 212.0
0.948000013828 0.268999993801 -0.178000003099 249.0
0.98299998045 0.254000008106 -0.182999998331 318.0
0.996999979019 0.252000004053 -0.186000004411 320.0
0.999000012875 0.238999992609 -0.186000004411 380.0
1.02100002766 0.238000005484 -0.188999995589 400.0
0.994000017643 0.225999996066 -0.184000000358 435.0
0.995999991894 0.219999998808 -0.184000000358 319.0
1.00699996948 0.216999992728 -0.186000004411 341.0
1.00600004196 0.209999993443 -0.186000004411 273.0
1.02799999714 0.208000004292 -0.188999995589 289.0
1.0039999485 0.196999996901 -0.185000002384 302.0
1.00600004196 0.192000001669 -0.185000002384 337.0
1.01600003242 0.187000006437 -0.187000006437 350.0
1.02600002289 0.182999998331 -0.187999993563 364.0
1.01600003242 0.17499999702 -0.186000004411 372.0
1.01900005341 0.170000001788 -0.187000006437 378.0
1.01400005817 0.163000002503 -0.186000004411 378.0
1.01699995995 0.157000005245 -0.186000004411 379.0
1.01800000668 0.150999993086 -0.186000004411 379.0
1.01900005341 0.144999995828 -0.186000004411 391.0
1.01499998569 0.138999998569 -0.185000002384 405.0
1.02799999714 0.134000003338 -0.187000006437 389.0
1.03499996662 0.128999993205 -0.187999993563 382.0
1.03299999237 0.123000003397 -0.187999993563 371.0
1.02999997139 0.115999996662 -0.187000006437 369.0
1.03699994087 0.111000001431 -0.187999993563 390.0
1.02499997616 0.104000002146 -0.186000004411 405.0
1.04200005531 0.0989999994636 -0.188999995589 398.0
1.03699994087 0.0930000022054 -0.187999993563 400.0
1.04100000858 0.0869999974966 -0.188999995589 399.0
1.04799997807 0.0810000002384 -0.189999997616 395.0
1.03900003433 0.0750000029802 -0.187999993563 387.0
1.05400002003 0.070000000298 -0.190999999642 383.0
1.04799997807 0.0630000010133 -0.189999997616 369.0
1.04499995708 0.0570000000298 -0.188999995589 366.0
1.0490000248 0.0509999990463 -0.189999997616 377.0
1.05099999905 0.0450000017881 -0.189999997616 377.0
1.04100000858 0.0379999987781 -0.187999993563 370.0
1.05799996853 0.0329999998212 -0.190999999642 361.0
1.04100000858 0.0260000005364 -0.187999993563 358.0
1.05900001526 0.0209999997169 -0.190999999642 340.0
1.05499994755 0.0140000004321 -0.189999997616 309.0
1.07000005245 0.00800000037998 -0.193000003695 158.0
2.41400003433 -0.0949999988079 -0.43599998951 126.0
2.39599990845 -0.108000002801 -0.432000011206 198.0
2.36800003052 -0.119999997318 -0.426999986172 97.0
2.33200001717 -0.131999999285 -0.421000003815 211.0
2.30900001526 -0.143999993801 -0.416999995708 131.0
2.29800009727 -0.21099999547 -0.414999991655 171.0
1.37399995327 -0.133000001311 -0.247999995947 88.0
0.962000012398 -0.097999997437 -0.173999994993 138.0
0.981999993324 -0.104999996722 -0.177000001073 138.0
0.977999985218 -0.111000001431 -0.177000001073 140.0
0.994000017643 -0.119000002742 -0.180000007153 143.0
0.986000001431 -0.123000003397 -0.178000003099 143.0
0.978999972343 -0.12800000608 -0.177000001073 141.0
0.96899998188 -0.133000001311 -0.17499999702 139.0
0.973999977112 -0.138999998569 -0.175999999046 144.0
0.976999998093 -0.144999995828 -0.177000001073 145.0
0.966000020504 -0.149000003934 -0.17499999702 142.0
0.986000001431 -0.158999994397 -0.179000005126 142.0
0.954999983311 -0.158999994397 -0.172999992967 143.0
0.964999973774 -0.166999995708 -0.17499999702 144.0
0.976000010967 -0.173999994993 -0.177000001073 141.0
0.975000023842 -0.180000007153 -0.177000001073 146.0
0.944000005722 -0.180000007153 -0.172000005841 146.0
0.962000012398 -0.188999995589 -0.17499999702 146.0
0.971000015736 -0.196999996901 -0.177000001073 147.0
0.973999977112 -0.203999996185 -0.178000003099 135.0
0.962000012398 -0.207000002265 -0.175999999046 143.0
0.962999999523 -0.212999999523 -0.175999999046 137.0
0.96899998188 -0.221000000834 -0.177000001073 135.0
0.990999996662 -0.231999993324 -0.181999996305 144.0
0.958000004292 -0.230000004172 -0.175999999046 140.0
0.955999970436 -0.234999999404 -0.17499999702 136.0
0.958000004292 -0.241999998689 -0.175999999046 135.0
0.958000004292 -0.247999995947 -0.175999999046 136.0
0.97000002861 -0.256999999285 -0.179000005126 145.0
0.958000004292 -0.259999990463 -0.177000001073 135.0
0.947000026703 -0.263000011444 -0.17499999702 135.0
0.945999979973 -0.268999993801 -0.17499999702 134.0
0.957000017166 -0.277999997139 -0.177000001073 137.0
