ply
format ascii 1.0
element vertex 931
property float x
property float y
property float z
property float intensity
end_header
4.08900022507 1.18599998951 1.0720000267 113.0
4.06199979782 1.15199995041 1.06299996376 108.0
4.04699993134 1.1210000515 1.05799996853 108.0
4.09200000763 1.10699999332 1.06799995899 109.0
4.04699993134 1.06900000572 1.05499994755 107.0
4.03000020981 1.03900003433 1.04999995232 103.0
4.07000017166 1.02300000191 1.05900001526 110.0
4.04400014877 0.990999996662 1.05099999905 111.0
4.07100009918 0.972000002861 1.05700004101 104.0
4.07399988174 0.947000026703 1.05599999428 110.0
4.09800004959 0.925999999046 1.06099998951 110.0
4.1139998436 0.903999984264 1.06400001049 108.0
4.08300018311 0.871999979019 1.05499994755 112.0
4.09700012207 0.848999977112 1.05799996853 108.0
4.01900005341 0.808000028133 1.03699994087 109.0
4.13800001144 0.805999994278 1.06700003147 103.0
4.04400014877 0.763000011444 1.04100000858 92.0
0.962999999523 -0.0340000018477 0.243000000715 859.0
0.938000023365 -0.0390000008047 0.237000003457 1207.0
0.940999984741 -0.0439999997616 0.238000005484 1238.0
0.93599998951 -0.0500000007451 0.237000003457 1234.0
0.938000023365 -0.054999999702 0.237000003457 1178.0
0.938000023365 -0.0610000006855 0.237000003457 1231.0
0.931999981403 -0.0659999996424 0.236000001431 1229.0
0.934000015259 -0.0719999969006 0.237000003457 1222.0
0.933000028133 -0.0769999995828 0.236000001431 1249.0
0.930000007153 -0.082000002265 0.236000001431 1215.0
0.933000028133 -0.0879999995232 0.237000003457 1227.0
0.929000020027 -0.0930000022054 0.236000001431 1224.0
0.930999994278 -0.0989999994636 0.236000001431 1225.0
0.926999986172 -0.104000002146 0.236000001431 1203.0
0.930000007153 -0.109999999404 0.237000003457 1221.0
0.927999973297 -0.115000002086 0.236000001431 1223.0
0.925000011921 -0.120999999344 0.236000001431 1241.0
0.930999994278 -0.127000004053 0.237000003457 1217.0
0.933000028133 -0.133000001311 0.238000005484 1260.0
0.931999981403 -0.137999996543 0.238000005484 1268.0
0.924000024796 -0.143000006676 0.236000001431 1226.0
0.925000011921 -0.148000001907 0.237000003457 1248.0
0.929000020027 -0.155000001192 0.238000005484 1262.0
0.925999999046 -0.159999996424 0.237000003457 1246.0
0.926999986172 -0.165999993682 0.238000005484 1257.0
0.925000011921 -0.171000003815 0.238000005484 1257.0
0.919000029564 -0.175999999046 0.236000001431 1265.0
0.925000011921 -0.181999996305 0.238000005484 1262.0
0.925999999046 -0.187999993563 0.238999992609 1253.0
0.922999978065 -0.193000003695 0.238000005484 1275.0
0.92199999094 -0.199000000954 0.238000005484 1271.0
0.922999978065 -0.204999998212 0.238999992609 1269.0
0.917999982834 -0.209999993443 0.238000005484 1257.0
0.925999999046 -0.216999992728 0.239999994636 1249.0
0.921000003815 -0.222000002861 0.238999992609 1298.0
0.924000024796 -0.228000000119 0.239999994636 1303.0
0.917999982834 -0.232999995351 0.238999992609 1283.0
0.921000003815 -0.238999992609 0.239999994636 1279.0
0.920000016689 -0.245000004768 0.239999994636 1281.0
0.917999982834 -0.25 0.239999994636 1296.0
0.919000029564 -0.256999999285 0.240999996662 1281.0
0.924000024796 -0.263999998569 0.241999998689 1277.0
0.913999974728 -0.266999989748 0.239999994636 1271.0
0.92199999094 -0.27500000596 0.243000000715 1294.0
0.912000000477 -0.279000014067 0.240999996662 1272.0
0.916999995708 -0.286000013351 0.241999998689 1275.0
0.916000008583 -0.291999995708 0.243000000715 1252.0
0.912000000477 -0.29699999094 0.241999998689 1270.0
0.912999987602 -0.303000003099 0.243000000715 1237.0
0.907999992371 -0.307999998331 0.241999998689 1253.0
0.911000013351 -0.314999997616 0.243000000715 1294.0
0.915000021458 -0.323000013828 0.245000004768 1247.0
0.912999987602 -0.32800000906 0.244000002742 1274.0
0.911000013351 -0.333999991417 0.245000004768 1270.0
0.910000026226 -0.340000003576 0.245000004768 1246.0
0.907999992371 -0.344999998808 0.245000004768 1243.0
0.903999984264 -0.34999999404 0.244000002742 1221.0
0.902000010014 -0.356000006199 0.244000002742 1224.0
0.910000026226 -0.365000009537 0.24699999392 1222.0
0.907000005245 -0.370999991894 0.24699999392 1217.0
0.902000010014 -0.375 0.246000006795 1204.0
0.90600001812 -0.38299998641 0.24699999392 1206.0
0.903999984264 -0.388999998569 0.24699999392 1220.0
0.901000022888 -0.395000010729 0.24699999392 1198.0
0.90600001812 -0.402999997139 0.248999997973 1215.0
0.896000027657 -0.405000001192 0.24699999392 1230.0
0.902999997139 -0.416000008583 0.25 1223.0
0.897000014782 -0.418999999762 0.248999997973 1224.0
0.901000022888 -0.428000003099 0.250999987125 1211.0
0.897000014782 -0.432999998331 0.25 1235.0
0.894999980927 -0.43900001049 0.25 1244.0
0.901000022888 -0.449000000954 0.252999991179 1225.0
0.897000014782 -0.453999996185 0.252000004053 1205.0
0.894999980927 -0.460000008345 0.252000004053 1200.0
0.898999989033 -0.469999998808 0.254000008106 1203.0
0.893000006676 -0.474000006914 0.252999991179 1190.0
0.897000014782 -0.483000010252 0.254999995232 1184.0
0.894999980927 -0.490000009537 0.256000012159 1190.0
0.894999980927 -0.497000008821 0.256999999285 1187.0
0.898999989033 -0.507000029087 0.259000003338 1166.0
0.89200001955 -0.509999990463 0.256999999285 1143.0
2.04500007629 1.21399998665 0.570999979973 309.0
2.01900005341 1.18099999428 0.561999976635 300.0
2.04699993134 1.17999994755 0.568000018597 289.0
2.03399991989 1.15499997139 0.563000023365 230.0
2.09100008011 1.16999995708 0.577000021935 120.0
2.08400011063 1.14900004864 0.573000013828 148.0
2.14100003242 1.1629999876 0.587000012398 281.0
2.18499994278 1.16900002956 0.597999989986 189.0
2.18600010872 1.15199995041 0.596000015736 108.0
3.16700005531 1.28499996662 0.833000004292 93.0
3.25099992752 1.29600000381 0.852999985218 89.0
3.3259999752 1.30200004578 0.870999991894 68.0
3.69400000572 1.41999995708 0.966000020504 89.0
3.69400000572 1.39400005341 0.963999986649 106.0
3.67700004578 1.36199998856 0.958000004292 114.0
3.78800010681 1.37699997425 0.985000014305 90.0
4.03499984741 1.43900001049 1.04799997807 69.0
4.10799980164 1.43700003624 1.06500005722 64.0
3.98900008202 1.36800003052 1.03199994564 86.0
4.06199979782 1.36600005627 1.04999995232 116.0
4.09100008011 1.34800004959 1.05499994755 118.0
4.0640001297 1.31200003624 1.04700005054 115.0
4.01300001144 1.26800000668 1.03199994564 109.0
4.05100011826 1.25300002098 1.03999996185 113.0
4.05499982834 1.22800004482 1.03999996185 107.0
4.0560002327 1.20200002193 1.0379999876 111.0
4.03599977493 1.16900002956 1.03199994564 108.0
3.99300003052 1.13100004196 1.01900005341 108.0
4.05000019073 1.1210000515 1.03299999237 106.0
4.03299999237 1.09000003338 1.02699995041 114.0
4.05000019073 1.06799995899 1.02999997139 114.0
4.06500005722 1.04600000381 1.03299999237 109.0
4.12599992752 1.03600001335 1.04700005054 109.0
4.09399986267 1.00199997425 1.03699994087 105.0
4.05100011826 0.964999973774 1.02499997616 104.0
4.10400009155 0.952000021935 1.0379999876 112.0
4.12799978256 0.931999981403 1.04299998283 107.0
4.09000015259 0.898000001907 1.03199994564 109.0
4.0609998703 0.865999996662 1.02400004864 114.0
4.08099985123 0.84500002861 1.02799999714 109.0
4.00199985504 0.804000020027 1.00699996948 102.0
4.11100006104 0.800000011921 1.03299999237 101.0
4.08400011063 0.769999980927 1.02600002289 81.0
0.958000004292 -0.0340000018477 0.236000001431 872.0
0.931999981403 -0.0390000008047 0.230000004172 1205.0
0.936999976635 -0.0439999997616 0.231000006199 1235.0
0.929000020027 -0.0489999987185 0.229000002146 1249.0
0.939999997616 -0.054999999702 0.231999993324 1197.0
0.934000015259 -0.0610000006855 0.230000004172 1212.0
0.930999994278 -0.0659999996424 0.230000004172 1255.0
0.930999994278 -0.0710000023246 0.230000004172 1243.0
0.934000015259 -0.0769999995828 0.231000006199 1254.0
0.93900001049 -0.082999996841 0.231999993324 1224.0
0.93599998951 -0.0879999995232 0.231999993324 1243.0
0.933000028133 -0.0939999967813 0.231000006199 1245.0
0.933000028133 -0.0989999994636 0.231000006199 1239.0
0.930000007153 -0.104000002146 0.231000006199 1231.0
0.933000028133 -0.109999999404 0.231000006199 1230.0
0.930999994278 -0.115999996662 0.231000006199 1240.0
0.935000002384 -0.122000001371 0.231999993324 1253.0
0.930000007153 -0.127000004053 0.231000006199 1249.0
0.925999999046 -0.131999999285 0.230000004172 1265.0
0.925999999046 -0.136999994516 0.231000006199 1283.0
0.929000020027 -0.143000006676 0.231999993324 1222.0
0.924000024796 -0.148000001907 0.231000006199 1247.0
0.925999999046 -0.153999999166 0.231000006199 1258.0
0.926999986172 -0.159999996424 0.231999993324 1260.0
0.926999986172 -0.165000006557 0.231999993324 1270.0
0.927999973297 -0.171000003815 0.232999995351 1284.0
0.930000007153 -0.177000001073 0.232999995351 1268.0
0.921000003815 -0.180999994278 0.231000006199 1267.0
0.92199999094 -0.187000006437 0.231999993324 1264.0
0.921000003815 -0.193000003695 0.231999993324 1303.0
0.920000016689 -0.197999998927 0.231999993324 1298.0
0.922999978065 -0.204999998212 0.232999995351 1251.0
0.925999999046 -0.21099999547 0.233999997377 1280.0
0.92199999094 -0.216000005603 0.232999995351 1259.0
0.925000011921 -0.223000004888 0.233999997377 1285.0
0.919000029564 -0.226999998093 0.232999995351 1296.0
0.916999995708 -0.231999993324 0.232999995351 1290.0
0.917999982834 -0.238000005484 0.232999995351 1268.0
0.919000029564 -0.245000004768 0.233999997377 1282.0
0.912000000477 -0.248999997973 0.232999995351 1312.0
0.915000021458 -0.254999995232 0.233999997377 1289.0
0.919000029564 -0.261999994516 0.234999999404 1296.0
0.919000029564 -0.268000006676 0.236000001431 1290.0
0.912999987602 -0.273000001907 0.234999999404 1280.0
0.92199999094 -0.280999988317 0.237000003457 1286.0
0.916000008583 -0.284999996424 0.236000001431 1269.0
0.913999974728 -0.291000008583 0.236000001431 1266.0
0.907999992371 -0.294999986887 0.234999999404 1269.0
0.910000026226 -0.301999986172 0.236000001431 1264.0
0.912999987602 -0.308999985456 0.237000003457 1247.0
0.911000013351 -0.314999997616 0.237000003457 1271.0
0.907000005245 -0.319000005722 0.236000001431 1302.0
0.908999979496 -0.326000005007 0.237000003457 1279.0
0.907999992371 -0.331999987364 0.238000005484 1297.0
0.90499997139 -0.337000012398 0.237000003457 1290.0
0.912000000477 -0.345999985933 0.239999994636 1262.0
0.903999984264 -0.34999999404 0.238000005484 1238.0
0.907000005245 -0.356999993324 0.239999994636 1222.0
0.899999976158 -0.361000001431 0.238000005484 1240.0
0.902999997139 -0.368000000715 0.238999992609 1225.0
0.90499997139 -0.375999987125 0.239999994636 1202.0
0.897000014782 -0.379000008106 0.238999992609 1222.0
0.901000022888 -0.386999994516 0.240999996662 1212.0
0.910000026226 -0.398000001907 0.244000002742 1225.0
0.907999992371 -0.404000014067 0.244000002742 1235.0
0.894999980927 -0.404000014067 0.240999996662 1228.0
0.902000010014 -0.41400000453 0.243000000715 1236.0
0.898999989033 -0.419999986887 0.243000000715 1241.0
0.897000014782 -0.425999999046 0.243000000715 1228.0
0.898999989033 -0.433999985456 0.245000004768 1249.0
0.898000001907 -0.439999997616 0.245000004768 1262.0
0.899999976158 -0.448000013828 0.246000006795 1257.0
0.894999980927 -0.45300000906 0.246000006795 1213.0
0.896000027657 -0.460000008345 0.246000006795 1180.0
0.898999989033 -0.469000011683 0.247999995947 1197.0
0.896000027657 -0.47499999404 0.247999995947 1211.0
0.896000027657 -0.481999993324 0.248999997973 1204.0
0.889999985695 -0.486000001431 0.247999995947 1175.0
0.888999998569 -0.493000000715 0.248999997973 1188.0
0.889999985695 -0.500999987125 0.25 1172.0
0.89099997282 -0.509000003338 0.250999987125 1160.0
2.03200006485 1.20399999619 0.552999973297 307.0
2.03399991989 1.18799996376 0.551999986172 299.0
2.0569999218 1.18400001526 0.555999994278 296.0
2.03600001335 1.15499997139 0.549000024796 213.0
2.08200001717 1.1629999876 0.560000002384 127.0
2.08200001717 1.14600002766 0.558000028133 166.0
2.14499998093 1.1629999876 0.573000013828 296.0
2.19199991226 1.17100000381 0.584999978542 182.0
2.19799995422 1.15600001812 0.584999978542 90.0
3.23200011253 1.30900001526 0.828999996185 97.0
3.2650001049 1.2990000248 0.834999978542 78.0
3.35299992561 1.31099998951 0.856000006199 78.0
3.68600010872 1.41499996185 0.939999997616 101.0
3.71399998665 1.39999997616 0.944999992847 118.0
3.69799995422 1.36800003052 0.93900001049 106.0
3.98099994659 1.38999998569 1.00600004196 66.0
4.00400018692 1.3710000515 1.00999999046 91.0
4.02299976349 1.35000002384 1.01300001144 111.0
4.05499982834 1.33399999142 1.01900005341 110.0
4.00400018692 1.28999996185 1.00499999523 110.0
4.03700017929 1.27400004864 1.01199996471 107.0
4.09499979019 1.26499998569 1.02499997616 110.0
4.05700016022 1.22699999809 1.01400005817 107.0
4.09100008011 1.21000003815 1.02100002766 111.0
4.04699993134 1.17100000381 1.00800001621 106.0
4.03599977493 1.14100003242 1.00499999523 113.0
4.10599994659 1.13399994373 1.02100002766 114.0
4.06300020218 1.09599995613 1.00899994373 112.0
4.09200000763 1.07799994946 1.01499998569 113.0
4.09800004959 1.0529999733 1.01499998569 111.0
4.03999996185 1.01300001144 0.999000012875 112.0
4.08900022507 0.999000012875 1.00999999046 109.0
4.04500007629 0.962999999523 0.998000025749 113.0
4.11800003052 0.953999996185 1.01499998569 110.0
4.0529999733 0.912999987602 0.998000025749 104.0
4.09899997711 0.898000001907 1.00800001621 112.0
4.09000015259 0.870999991894 1.00499999523 109.0
4.07100009918 0.841000020504 0.999000012875 110.0
4.07399988174 0.816999971867 0.999000012875 106.0
4.11299991608 0.799000024796 1.00800001621 101.0
4.01999998093 0.755999982357 0.98400002718 84.0
0.958999991417 -0.0340000018477 0.230000004172 882.0
0.933000028133 -0.0390000008047 0.224000006914 1224.0
0.934000015259 -0.0439999997616 0.22499999404 1240.0
0.935000002384 -0.0500000007451 0.22499999404 1254.0
0.93900001049 -0.054999999702 0.225999996066 1206.0
0.934000015259 -0.0610000006855 0.22499999404 1226.0
0.936999976635 -0.0659999996424 0.22499999404 1265.0
0.934000015259 -0.0719999969006 0.22499999404 1273.0
0.927999973297 -0.0769999995828 0.224000006914 1260.0
0.93599998951 -0.082999996841 0.225999996066 1245.0
0.933000028133 -0.0879999995232 0.22499999404 1261.0
0.935000002384 -0.0939999967813 0.225999996066 1249.0
0.93599998951 -0.10000000149 0.225999996066 1242.0
0.933000028133 -0.104999996722 0.225999996066 1250.0
0.931999981403 -0.109999999404 0.22499999404 1274.0
0.934000015259 -0.115999996662 0.225999996066 1276.0
0.927999973297 -0.120999999344 0.22499999404 1280.0
0.926999986172 -0.126000002027 0.22499999404 1262.0
0.922999978065 -0.130999997258 0.224000006914 1250.0
0.926999986172 -0.136999994516 0.22499999404 1271.0
0.933000028133 -0.143999993801 0.226999998093 1250.0
0.929000020027 -0.149000003934 0.225999996066 1245.0
0.921000003815 -0.152999997139 0.224000006914 1275.0
0.927999973297 -0.159999996424 0.225999996066 1275.0
0.922999978065 -0.165000006557 0.22499999404 1292.0
0.929000020027 -0.172000005841 0.226999998093 1270.0
0.922999978065 -0.175999999046 0.225999996066 1279.0
0.925999999046 -0.181999996305 0.226999998093 1263.0
0.922999978065 -0.187000006437 0.225999996066 1280.0
0.922999978065 -0.193000003695 0.225999996066 1282.0
0.925999999046 -0.199000000954 0.226999998093 1304.0
0.922999978065 -0.203999996185 0.226999998093 1270.0
0.925000011921 -0.21099999547 0.228000000119 1287.0
0.921000003815 -0.215000003576 0.226999998093 1273.0
0.92199999094 -0.222000002861 0.228000000119 1297.0
0.921000003815 -0.226999998093 0.228000000119 1293.0
0.920000016689 -0.232999995351 0.228000000119 1307.0
0.915000021458 -0.237000003457 0.226999998093 1282.0
0.922999978065 -0.245000004768 0.229000002146 1286.0
0.921000003815 -0.250999987125 0.229000002146 1308.0
0.920000016689 -0.256000012159 0.229000002146 1323.0
0.915000021458 -0.261000007391 0.228000000119 1322.0
0.916000008583 -0.266999989748 0.229000002146 1316.0
0.916000008583 -0.273000001907 0.229000002146 1313.0
0.92199999094 -0.280999988317 0.231000006199 1313.0
0.915000021458 -0.284999996424 0.230000004172 1324.0
0.911000013351 -0.289999991655 0.229000002146 1307.0
0.912000000477 -0.296000003815 0.230000004172 1290.0
0.916999995708 -0.303999990225 0.231999993324 1305.0
0.907000005245 -0.305999994278 0.230000004172 1275.0
0.912000000477 -0.314999997616 0.231000006199 1287.0
0.907999992371 -0.319000005722 0.231000006199 1308.0
0.908999979496 -0.326000005007 0.231000006199 1323.0
0.907999992371 -0.331999987364 0.231999993324 1312.0
0.903999984264 -0.337000012398 0.231000006199 1331.0
0.903999984264 -0.342999994755 0.231999993324 1317.0
0.90600001812 -0.34999999404 0.232999995351 1277.0
0.912000000477 -0.358999997377 0.234999999404 1252.0
0.907000005245 -0.363000005484 0.233999997377 1236.0
0.90499997139 -0.368999987841 0.233999997377 1212.0
0.902000010014 -0.374000012875 0.233999997377 1225.0
0.907000005245 -0.381999999285 0.234999999404 1252.0
0.90499997139 -0.388000011444 0.236000001431 1242.0
0.907000005245 -0.395999997854 0.237000003457 1263.0
0.899999976158 -0.40000000596 0.236000001431 1260.0
0.902999997139 -0.407000005245 0.237000003457 1243.0
0.902000010014 -0.41400000453 0.237000003457 1257.0
0.898999989033 -0.418999999762 0.237000003457 1253.0
0.899999976158 -0.425999999046 0.238000005484 1262.0
0.897000014782 -0.432000011206 0.238000005484 1285.0
0.897000014782 -0.43900001049 0.238999992609 1297.0
0.896000027657 -0.446000009775 0.238999992609 1259.0
0.896000027657 -0.451999992132 0.239999994636 1243.0
0.896000027657 -0.458999991417 0.239999994636 1236.0
0.889999985695 -0.463999986649 0.238999992609 1223.0
0.89099997282 -0.470999985933 0.239999994636 1223.0
0.893999993801 -0.479999989271 0.241999998689 1193.0
0.894999980927 -0.488000005484 0.243000000715 1181.0
0.898000001907 -0.497000008821 0.245000004768 1175.0
0.893000006676 -0.501999974251 0.244000002742 1167.0
0.893000006676 -0.509000003338 0.245000004768 1163.0
2.02699995041 1.19900000095 0.537000000477 304.0
2.02300000191 1.17999994755 0.535000026226 304.0
2.03999996185 1.17200005054 0.537999987602 290.0
2.06500005722 1.16900002956 0.542999982834 190.0
2.08599996567 1.16400003433 0.546000003815 127.0
2.117000103 1.16400003433 0.552999973297 174.0
2.17100000381 1.17599999905 0.565999984741 283.0
2.16499996185 1.15499997139 0.561999976635 156.0
2.21900010109 1.16600000858 0.574999988079 91.0
3.28500008583 1.30499994755 0.819000005722 79.0
3.44400000572 1.34399998188 0.856999993324 75.0
3.60800004005 1.38300001621 0.896000027657 94.0
3.65499997139 1.375 0.90600001812 109.0
3.69400000572 1.36399996281 0.913999974728 108.0
3.78200006485 1.3710000515 0.934000015259 77.0
4.15100002289 1.44799995422 1.02199995518 67.0
4.09600019455 1.39999997616 1.00699996948 89.0
4.00699996948 1.34300005436 0.98299998045 117.0
4.04600000381 1.32899999619 0.990999996662 114.0
4.07600021362 1.31200003624 0.996999979019 113.0
4.03700017929 1.27199995518 0.986000001431 107.0
4.09899997711 1.26499998569 0.999000012875 110.0
4.04899978638 1.22200000286 0.986000001431 112.0
4.05200004578 1.1970000267 0.985000014305 111.0
4.04099988937 1.16700005531 0.981000006199 103.0
4.04400014877 1.14199995995 0.981000006199 111.0
4.06300020218 1.1210000515 0.98400002718 106.0
4.07800006866 1.09899997711 0.986000001431 108.0
4.05399990082 1.06599998474 0.978999972343 113.0
4.10300016403 1.0529999733 0.990000009537 112.0
4.12699985504 1.03299999237 0.994000017643 105.0
4.04799985886 0.987999975681 0.973999977112 104.0
4.0720000267 0.967999994755 0.978999972343 107.0
4.11000013351 0.950999975204 0.986999988556 113.0
4.09899997711 0.922999978065 0.98299998045 108.0
4.05900001526 0.888000011444 0.972999989986 111.0
4.12099981308 0.875999987125 0.986999988556 106.0
4.05000019073 0.836000025272 0.96899998188 110.0
4.06699991226 0.81400001049 0.972000002861 104.0
4.11499977112 0.799000024796 0.98299998045 105.0
4.05800008774 0.763000011444 0.967999994755 79.0
0.955999970436 -0.0340000018477 0.224000006914 903.0
0.93599998951 -0.0390000008047 0.218999996781 1210.0
0.934000015259 -0.0439999997616 0.218999996781 1252.0
0.930000007153 -0.0489999987185 0.217999994755 1272.0
0.941999971867 -0.0560000017285 0.221000000834 1225.0
0.93599998951 -0.0610000006855 0.219999998808 1245.0
0.929000020027 -0.0659999996424 0.217999994755 1277.0
0.931999981403 -0.0710000023246 0.218999996781 1284.0
0.93599998951 -0.0769999995828 0.219999998808 1269.0
0.931999981403 -0.082000002265 0.218999996781 1232.0
0.927999973297 -0.0869999974966 0.217999994755 1251.0
0.933000028133 -0.0930000022054 0.218999996781 1240.0
0.930999994278 -0.0989999994636 0.218999996781 1258.0
0.933000028133 -0.104999996722 0.219999998808 1280.0
0.927999973297 -0.109999999404 0.218999996781 1255.0
0.929000020027 -0.115000002086 0.218999996781 1255.0
0.935000002384 -0.122000001371 0.221000000834 1284.0
0.929000020027 -0.126000002027 0.218999996781 1258.0
0.929000020027 -0.131999999285 0.219999998808 1251.0
0.929000020027 -0.137999996543 0.219999998808 1271.0
0.925999999046 -0.143000006676 0.218999996781 1279.0
0.924000024796 -0.148000001907 0.218999996781 1264.0
0.929000020027 -0.153999999166 0.221000000834 1283.0
0.925000011921 -0.158999994397 0.219999998808 1269.0
0.935000002384 -0.166999995708 0.222000002861 1287.0
0.921000003815 -0.170000001788 0.218999996781 1275.0
0.929000020027 -0.177000001073 0.221000000834 1265.0
0.927999973297 -0.181999996305 0.221000000834 1260.0
0.921000003815 -0.187000006437 0.219999998808 1281.0
0.924000024796 -0.193000003695 0.221000000834 1274.0
0.924000024796 -0.199000000954 0.221000000834 1290.0
0.921000003815 -0.203999996185 0.221000000834 1285.0
0.922999978065 -0.209999993443 0.222000002861 1283.0
0.921000003815 -0.215000003576 0.221000000834 1293.0
0.919000029564 -0.221000000834 0.221000000834 1301.0
0.919000029564 -0.225999996066 0.221000000834 1279.0
0.922999978065 -0.232999995351 0.223000004888 1317.0
0.915000021458 -0.237000003457 0.221000000834 1317.0
0.921000003815 -0.245000004768 0.223000004888 1301.0
0.919000029564 -0.25 0.223000004888 1316.0
0.910000026226 -0.252999991179 0.221000000834 1343.0
0.920000016689 -0.261999994516 0.224000006914 1335.0
0.916000008583 -0.266999989748 0.223000004888 1331.0
0.912999987602 -0.272000014782 0.223000004888 1341.0
0.912000000477 -0.277000010014 0.223000004888 1329.0
0.916999995708 -0.284999996424 0.22499999404 1339.0
0.913999974728 -0.289999991655 0.224000006914 1322.0
0.910000026226 -0.294999986887 0.224000006914 1298.0
0.907000005245 -0.300000011921 0.223000004888 1317.0
0.907999992371 -0.305999994278 0.224000006914 1321.0
0.907999992371 -0.312999993563 0.224000006914 1298.0
0.910000026226 -0.319000005722 0.22499999404 1291.0
0.912000000477 -0.326000005007 0.225999996066 1330.0
0.908999979496 -0.331999987364 0.225999996066 1332.0
0.907999992371 -0.337000012398 0.225999996066 1340.0
0.907000005245 -0.342999994755 0.225999996066 1330.0
0.908999979496 -0.351000010967 0.226999998093 1319.0
0.907999992371 -0.356999993324 0.228000000119 1280.0
0.902000010014 -0.361000001431 0.226999998093 1265.0
0.897000014782 -0.365000009537 0.225999996066 1255.0
0.903999984264 -0.374000012875 0.228000000119 1219.0
0.907999992371 -0.381999999285 0.230000004172 1268.0
0.902999997139 -0.386999994516 0.229000002146 1243.0
0.898999989033 -0.391999989748 0.229000002146 1262.0
0.897000014782 -0.398000001907 0.229000002146 1247.0
0.898999989033 -0.405000001192 0.230000004172 1240.0
0.899999976158 -0.412000000477 0.231000006199 1251.0
0.902999997139 -0.419999986887 0.231999993324 1275.0
0.898000001907 -0.425000011921 0.231000006199 1282.0
0.898000001907 -0.432000011206 0.231999993324 1290.0
0.899999976158 -0.439999997616 0.232999995351 1280.0
0.896000027657 -0.444999992847 0.232999995351 1271.0
0.897000014782 -0.451999992132 0.233999997377 1252.0
0.898000001907 -0.460000008345 0.234999999404 1254.0
0.897000014782 -0.465999990702 0.234999999404 1249.0
0.894999980927 -0.472999989986 0.234999999404 1226.0
0.899999976158 -0.483000010252 0.237000003457 1205.0
0.893000006676 -0.486000001431 0.236000001431 1205.0
0.89200001955 -0.493000000715 0.237000003457 1192.0
0.89099997282 -0.5 0.237000003457 1193.0
0.89200001955 -0.508000016212 0.238000005484 1204.0
2.03800010681 1.20399999619 0.526000022888 299.0
2.03200006485 1.18299996853 0.523000001907 299.0
2.03399991989 1.16700005531 0.522000014782 284.0
2.06399989128 1.16700005531 0.527999997139 179.0
2.09699988365 1.16799998283 0.535000026226 122.0
2.14400005341 1.17599999905 0.545000016689 191.0
2.15599989891 1.16600000858 0.54699999094 285.0
2.15799999237 1.14900004864 0.546000003815 154.0
3.20499992371 1.29400002956 0.778999984264 84.0
3.27900004387 1.30099999905 0.796000003815 82.0
3.30599999428 1.28900003433 0.800999999046 78.0
3.67300009727 1.40600001812 0.888000011444 96.0
3.73799991608 1.40499997139 0.902000010014 110.0
3.69499993324 1.36300003529 0.889999985695 106.0
3.83500003815 1.38800001144 0.92199999094 69.0
4.01999998093 1.39999997616 0.962999999523 64.0
3.98399996758 1.36099994183 0.95300000906 98.0
4.02299976349 1.34700000286 0.961000025272 118.0
4.07100009918 1.33500003815 0.971000015736 113.0
4.08900022507 1.31400001049 0.973999977112 110.0
4.0720000267 1.28199994564 0.967999994755 106.0
3.99000000954 1.22899997234 0.947000026703 113.0
4.01700019836 1.21099996567 0.952000021935 106.0
4.12099981308 1.2159999609 0.976000010967 107.0
4.0640001297 1.17200005054 0.961000025272 114.0
4.03200006485 1.13699996471 0.952000021935 103.0
4.11000013351 1.13199996948 0.96899998188 107.0
4.05999994278 1.09300005436 0.955999970436 109.0
4.08199977875 1.0720000267 0.959999978542 97.0
4.07100009918 1.04299998283 0.955999970436 109.0
4.0529999733 1.01300001144 0.950999975204 109.0
4.06500005722 0.990000009537 0.95300000906 111.0
4.09100008011 0.971000015736 0.958000004292 111.0
4.12699985504 0.953999996185 0.964999973774 110.0
4.06799983978 0.913999974728 0.949999988079 106.0
4.15299987793 0.907999992371 0.96899998188 105.0
4.13000011444 0.876999974251 0.962999999523 105.0
4.09000015259 0.842999994755 0.95300000906 107.0
4.09100008011 0.818000018597 0.952000021935 106.0
4.09600019455 0.794000029564 0.952000021935 105.0
4.08400011063 0.76599997282 0.949000000954 86.0
0.958000004292 -0.0340000018477 0.217999994755 918.0
0.939999997616 -0.0390000008047 0.21400000155 1212.0
0.934000015259 -0.0439999997616 0.212999999523 1246.0
0.936999976635 -0.0500000007451 0.21400000155 1280.0
0.934000015259 -0.054999999702 0.212999999523 1228.0
0.933000028133 -0.0599999986589 0.212999999523 1249.0
0.934000015259 -0.0659999996424 0.212999999523 1268.0
0.938000023365 -0.0719999969006 0.21400000155 1291.0
0.930999994278 -0.0769999995828 0.212999999523 1267.0
0.930999994278 -0.082000002265 0.212999999523 1253.0
0.930000007153 -0.0879999995232 0.212999999523 1250.0
0.931999981403 -0.0930000022054 0.21400000155 1267.0
0.929000020027 -0.0989999994636 0.212999999523 1257.0
0.934000015259 -0.104999996722 0.21400000155 1243.0
0.926999986172 -0.108999997377 0.212999999523 1259.0
0.929000020027 -0.115000002086 0.212999999523 1280.0
0.931999981403 -0.120999999344 0.21400000155 1316.0
0.927999973297 -0.126000002027 0.21400000155 1268.0
0.930999994278 -0.131999999285 0.21400000155 1233.0
0.926999986172 -0.136999994516 0.21400000155 1267.0
0.927999973297 -0.143000006676 0.21400000155 1300.0
0.927999973297 -0.148000001907 0.21400000155 1289.0
0.925999999046 -0.153999999166 0.21400000155 1270.0
0.92199999094 -0.158999994397 0.212999999523 1275.0
0.931999981403 -0.165999993682 0.216000005603 1280.0
0.924000024796 -0.170000001788 0.21400000155 1294.0
0.925999999046 -0.175999999046 0.215000003576 1259.0
0.921000003815 -0.180999994278 0.21400000155 1288.0
0.924000024796 -0.187000006437 0.215000003576 1284.0
0.922999978065 -0.193000003695 0.215000003576 1279.0
0.926999986172 -0.199000000954 0.216000005603 1312.0
0.919000029564 -0.202999994159 0.215000003576 1300.0
0.916000008583 -0.208000004292 0.21400000155 1279.0
0.921000003815 -0.215000003576 0.216000005603 1299.0
0.922999978065 -0.221000000834 0.216000005603 1295.0
0.920000016689 -0.225999996066 0.216000005603 1317.0
0.92199999094 -0.232999995351 0.216999992728 1307.0
0.921000003815 -0.238000005484 0.216999992728 1322.0
0.913999974728 -0.241999998689 0.215000003576 1316.0
0.919000029564 -0.25 0.216999992728 1320.0
0.921000003815 -0.256000012159 0.217999994755 1367.0
0.913999974728 -0.259999990463 0.216000005603 1339.0
0.912999987602 -0.264999985695 0.216000005603 1344.0
0.916000008583 -0.273000001907 0.217999994755 1329.0
0.917999982834 -0.279000014067 0.217999994755 1317.0
0.911000013351 -0.282999992371 0.216999992728 1323.0
0.912999987602 -0.289999991655 0.217999994755 1316.0
0.912000000477 -0.294999986887 0.217999994755 1315.0
0.913999974728 -0.301999986172 0.218999996781 1309.0
0.913999974728 -0.307999998331 0.218999996781 1328.0
0.915000021458 -0.314999997616 0.219999998808 1328.0
0.912999987602 -0.319999992847 0.219999998808 1298.0
0.90499997139 -0.323000013828 0.218999996781 1320.0
0.916000008583 -0.333999991417 0.222000002861 1322.0
0.90499997139 -0.33599999547 0.219999998808 1312.0
0.910000026226 -0.344000011683 0.221000000834 1298.0
0.911000013351 -0.351000010967 0.222000002861 1325.0
0.90499997139 -0.354999989271 0.221000000834 1297.0
0.910000026226 -0.363999992609 0.223000004888 1314.0
0.901000022888 -0.365999996662 0.221000000834 1281.0
0.90499997139 -0.374000012875 0.223000004888 1245.0
0.90499997139 -0.381000012159 0.223000004888 1277.0
0.903999984264 -0.386999994516 0.223000004888 1300.0
0.899999976158 -0.391999989748 0.223000004888 1283.0
0.902000010014 -0.398999989033 0.224000006914 1240.0
0.907000005245 -0.407999992371 0.225999996066 1228.0
0.901000022888 -0.412000000477 0.22499999404 1276.0
0.894999980927 -0.416000008583 0.224000006914 1284.0
0.893999993801 -0.42199999094 0.224000006914 1306.0
0.897000014782 -0.430999994278 0.225999996066 1293.0
0.893000006676 -0.43599998951 0.22499999404 1308.0
0.903999984264 -0.448000013828 0.229000002146 1268.0
0.898999989033 -0.45300000906 0.228000000119 1264.0
0.897000014782 -0.458999991417 0.228000000119 1261.0
0.894999980927 -0.465000003576 0.229000002146 1268.0
0.893999993801 -0.472000002861 0.229000002146 1240.0
0.893000006676 -0.477999985218 0.229000002146 1230.0
0.889999985695 -0.483999997377 0.229000002146 1245.0
0.89099997282 -0.49200001359 0.230000004172 1230.0
0.893999993801 -0.500999987125 0.231999993324 1215.0
0.888000011444 -0.504999995232 0.231000006199 1258.0
2.03800010681 1.20200002193 0.512000024319 299.0
2.03099989891 1.18099999428 0.508000016212 293.0
2.04399991035 1.17100000381 0.509999990463 272.0
2.04600000381 1.15499997139 0.509000003338 163.0
2.05800008774 1.14499998093 0.509999990463 126.0
2.14599990845 1.17599999905 0.53100001812 209.0
2.14299988747 1.15699994564 0.527999997139 267.0
2.19899988174 1.16999995708 0.541000008583 134.0
3.19799995422 1.28999996185 0.755999982357 91.0
3.27600002289 1.29799997807 0.773000001907 75.0
3.48200011253 1.35500001907 0.820999979973 71.0
3.65000009537 1.39499998093 0.85900002718 112.0
3.71000003815 1.39199995995 0.870999991894 109.0
3.7009999752 1.36300003529 0.866999983788 103.0
3.98300004005 1.44000005722 0.931999981403 64.0
4.01599979401 1.39699995518 0.936999976635 68.0
3.97099995613 1.35399997234 0.925000011921 103.0
4.02799987793 1.34599995613 0.93599998951 111.0
4.07899999619 1.33599996567 0.947000026703 115.0
4.07299995422 1.30700004101 0.944000005722 116.0
4.10400009155 1.28999996185 0.949999988079 106.0
4.0720000267 1.25300002098 0.940999984741 113.0
4.03900003433 1.2159999609 0.931999981403 111.0
4.11800003052 1.21300005913 0.949000000954 105.0
4.10400009155 1.18200004101 0.944000005722 87.0
4.10699987411 1.15699994564 0.944000005722 81.0
4.10200023651 1.1289999485 0.940999984741 91.0
4.07100009918 1.09399998188 0.933000028133 89.0
4.08400011063 1.0720000267 0.935000002384 82.0
4.07600021362 1.04299998283 0.931999981403 96.0
4.08500003815 1.01999998093 0.933000028133 103.0
4.05100011826 0.986000001431 0.924000024796 102.0
4.10200023651 0.972000002861 0.934000015259 114.0
4.09399986267 0.944999992847 0.931999981403 105.0
4.09000015259 0.917999982834 0.930000007153 106.0
4.13800001144 0.902999997139 0.939999997616 113.0
4.07600021362 0.864000022411 0.925000011921 108.0
4.07899999619 0.839999973774 0.925000011921 99.0
4.10099983215 0.819000005722 0.929000020027 101.0
4.07999992371 0.790000021458 0.922999978065 105.0
4.04600000381 0.758000016212 0.915000021458 72.0
0.952000021935 -0.0340000018477 0.21099999547 934.0
0.938000023365 -0.0390000008047 0.208000004292 1225.0
0.933000028133 -0.0439999997616 0.207000002265 1245.0
0.935000002384 -0.0500000007451 0.208000004292 1288.0
0.930999994278 -0.054999999702 0.207000002265 1230.0
0.935000002384 -0.0610000006855 0.208000004292 1242.0
0.935000002384 -0.0659999996424 0.208000004292 1263.0
0.933000028133 -0.0710000023246 0.208000004292 1287.0
0.933000028133 -0.0769999995828 0.208000004292 1277.0
0.936999976635 -0.082999996841 0.209000006318 1250.0
0.930000007153 -0.0879999995232 0.207000002265 1246.0
0.934000015259 -0.0930000022054 0.208000004292 1265.0
0.929000020027 -0.097999997437 0.207000002265 1252.0
0.930000007153 -0.104000002146 0.208000004292 1240.0
0.931999981403 -0.109999999404 0.208000004292 1266.0
0.934000015259 -0.115999996662 0.209000006318 1303.0
0.926999986172 -0.119999997318 0.207000002265 1333.0
0.924000024796 -0.125 0.207000002265 1280.0
0.930000007153 -0.131999999285 0.208000004292 1242.0
0.926999986172 -0.136999994516 0.208000004292 1254.0
0.925000011921 -0.142000004649 0.208000004292 1286.0
0.920000016689 -0.146999999881 0.207000002265 1290.0
0.927999973297 -0.153999999166 0.209000006318 1278.0
0.92199999094 -0.158000007272 0.208000004292 1262.0
0.925999999046 -0.165000006557 0.209000006318 1281.0
0.924000024796 -0.170000001788 0.208000004292 1321.0
0.925999999046 -0.175999999046 0.209000006318 1280.0
0.922999978065 -0.180999994278 0.209000006318 1294.0
0.926999986172 -0.187999993563 0.209999993443 1281.0
0.916999995708 -0.190999999642 0.208000004292 1306.0
0.921000003815 -0.197999998927 0.209000006318 1309.0
0.922999978065 -0.203999996185 0.209999993443 1294.0
0.916999995708 -0.208000004292 0.209000006318 1298.0
0.915000021458 -0.212999999523 0.208000004292 1299.0
0.915000021458 -0.218999996781 0.209000006318 1298.0
0.919000029564 -0.225999996066 0.209999993443 1300.0
0.919000029564 -0.231999993324 0.209999993443 1316.0
0.920000016689 -0.238000005484 0.21099999547 1338.0
0.915000021458 -0.241999998689 0.209999993443 1322.0
0.916000008583 -0.247999995947 0.209999993443 1327.0
0.92199999094 -0.256000012159 0.211999997497 1337.0
0.915000021458 -0.259999990463 0.21099999547 1350.0
0.919000029564 -0.266999989748 0.211999997497 1348.0
0.920000016689 -0.273000001907 0.212999999523 1373.0
0.915000021458 -0.277999997139 0.211999997497 1352.0
0.917999982834 -0.284999996424 0.212999999523 1340.0
0.912999987602 -0.28900000453 0.211999997497 1321.0
0.912000000477 -0.294999986887 0.211999997497 1312.0
0.907000005245 -0.298999994993 0.211999997497 1319.0
0.90499997139 -0.305000007153 0.211999997497 1303.0
0.911000013351 -0.312999993563 0.212999999523 1299.0
0.911000013351 -0.319000005722 0.21400000155 1298.0
0.916999995708 -0.326999992132 0.216000005603 1294.0
0.907000005245 -0.330000013113 0.21400000155 1323.0
0.911000013351 -0.337999999523 0.215000003576 1350.0
0.90600001812 -0.342000007629 0.21400000155 1348.0
0.899999976158 -0.345999985933 0.212999999523 1337.0
0.903999984264 -0.354000002146 0.215000003576 1353.0
0.90600001812 -0.361000001431 0.216000005603 1344.0
0.902000010014 -0.365999996662 0.215000003576 1305.0
0.907000005245 -0.375 0.216999992728 1263.0
0.90499997139 -0.379999995232 0.216999992728 1259.0
0.898000001907 -0.384000003338 0.216000005603 1278.0
0.90499997139 -0.393999993801 0.217999994755 1272.0
0.899999976158 -0.398000001907 0.216999992728 1269.0
0.898999989033 -0.404000014067 0.217999994755 1288.0
0.897000014782 -0.409999996424 0.217999994755 1299.0
0.898999989033 -0.418000012636 0.218999996781 1311.0
0.898000001907 -0.423999994993 0.218999996781 1296.0
0.898999989033 -0.430999994278 0.219999998808 1294.0
0.898999989033 -0.437999993563 0.221000000834 1308.0
0.889999985695 -0.441000014544 0.218999996781 1289.0
0.896000027657 -0.451000005007 0.221000000834 1263.0
0.893000006676 -0.456000000238 0.221000000834 1250.0
0.89099997282 -0.462000012398 0.221000000834 1242.0
0.888000011444 -0.467999994755 0.221000000834 1227.0
0.897000014782 -0.479999989271 0.224000006914 1254.0
0.89099997282 -0.483999997377 0.223000004888 1267.0
0.894999980927 -0.493000000715 0.22499999404 1264.0
0.889999985695 -0.497999995947 0.22499999404 1258.0
0.888999998569 -0.504999995232 0.22499999404 1253.0
2.02399992943 1.19200003147 0.493999987841 309.0
2.03699994087 1.18299996853 0.495000004768 302.0
2.03099989891 1.16199994087 0.49200001359 267.0
2.08100008965 1.17299997807 0.503000020981 144.0
2.09400010109 1.1629999876 0.504999995232 132.0
2.14100003242 1.17100000381 0.514999985695 238.0
2.16899991035 1.16900002956 0.519999980927 259.0
2.21900010109 1.1779999733 0.52999997139 129.0
2.65700006485 1.24500000477 0.623000025749 75.0
3.2349998951 1.3029999733 0.744000017643 88.0
3.26200008392 1.29100000858 0.749000012875 74.0
3.47799992561 1.35199999809 0.79699999094 70.0
3.71300005913 1.41700005531 0.848999977112 118.0
3.73600006104 1.39999997616 0.852999985218 111.0
3.69000005722 1.35699999332 0.841000020504 95.0
3.88800001144 1.40299999714 0.884999990463 73.0
3.95499992371 1.39999997616 0.898000001907 65.0
3.93300008774 1.36600005627 0.89200001955 66.0
4.01900005341 1.36899995804 0.910000026226 107.0
4.01900005341 1.34200000763 0.907999992371 120.0
4.03100013733 1.31900000572 0.910000026226 109.0
4.0110001564 1.28499996662 0.903999984264 112.0
4.08799982071 1.28299999237 0.920000016689 107.0
4.12400007248 1.26699995995 0.925999999046 112.0
4.09200000763 1.23099994659 0.917999982834 94.0
4.0560002327 1.03699994087 0.902000010014 60.0
4.02600002289 1.0039999485 0.893999993801 80.0
4.11899995804 1.00100004673 0.912999987602 103.0
4.10300016403 0.971000015736 0.908999979496 109.0
4.117000103 0.949000000954 0.911000013351 116.0
4.132999897 0.926999986172 0.913999974728 105.0
4.05800008774 0.884999990463 0.896000027657 110.0
4.09999990463 0.867999970913 0.90499997139 105.0
4.09000015259 0.841000020504 0.902000010014 104.0
4.04199981689 0.805999994278 0.889999985695 103.0
4.04799985886 0.782999992371 0.89099997282 105.0
4.15999984741 0.778999984264 0.915000021458 80.0
0.950999975204 -0.0340000018477 0.204999998212 962.0
0.933000028133 -0.0379999987781 0.201000005007 1259.0
0.933000028133 -0.0439999997616 0.201000005007 1247.0
0.929000020027 -0.0489999987185 0.201000005007 1283.0
0.931999981403 -0.054999999702 0.201000005007 1239.0
0.934000015259 -0.0599999986589 0.202000007033 1218.0
0.934000015259 -0.0659999996424 0.202000007033 1236.0
0.933000028133 -0.0710000023246 0.202000007033 1252.0
0.934000015259 -0.0769999995828 0.202000007033 1282.0
0.929000020027 -0.082000002265 0.201000005007 1241.0
0.930000007153 -0.0869999974966 0.201000005007 1251.0
0.929000020027 -0.0930000022054 0.201000005007 1278.0
0.925000011921 -0.097999997437 0.201000005007 1272.0
0.930999994278 -0.104000002146 0.202000007033 1251.0
0.930999994278 -0.109999999404 0.202000007033 1255.0
0.925999999046 -0.11400000006 0.201000005007 1298.0
0.927999973297 -0.119999997318 0.202000007033 1316.0
0.931999981403 -0.126000002027 0.202999994159 1293.0
0.926999986172 -0.130999997258 0.202000007033 1264.0
0.925999999046 -0.136999994516 0.202000007033 1266.0
0.930000007153 -0.143000006676 0.202999994159 1278.0
0.916999995708 -0.145999997854 0.20000000298 1289.0
0.924000024796 -0.152999997139 0.202000007033 1262.0
0.924000024796 -0.158999994397 0.202000007033 1260.0
0.92199999094 -0.16400000453 0.202000007033 1257.0
0.922999978065 -0.170000001788 0.202000007033 1267.0
0.920000016689 -0.17499999702 0.202000007033 1287.0
0.925000011921 -0.180999994278 0.202999994159 1302.0
0.919000029564 -0.186000004411 0.202000007033 1273.0
0.921000003815 -0.192000001669 0.202999994159 1321.0
0.919000029564 -0.196999996901 0.202999994159 1324.0
0.924000024796 -0.203999996185 0.203999996185 1292.0
0.921000003815 -0.209000006318 0.203999996185 1296.0
0.919000029564 -0.21400000155 0.203999996185 1305.0
0.92199999094 -0.221000000834 0.204999998212 1290.0
0.921000003815 -0.225999996066 0.204999998212 1303.0
0.921000003815 -0.231999993324 0.204999998212 1327.0
0.912999987602 -0.236000001431 0.202999994159 1337.0
0.917999982834 -0.243000000715 0.204999998212 1320.0
0.920000016689 -0.248999997973 0.204999998212 1335.0
0.915000021458 -0.254000008106 0.204999998212 1324.0
0.913999974728 -0.259000003338 0.204999998212 1345.0
0.915000021458 -0.266000002623 0.204999998212 1341.0
0.916000008583 -0.272000014782 0.206000000238 1363.0
0.915000021458 -0.277000010014 0.206000000238 1370.0
0.911000013351 -0.282000005245 0.206000000238 1347.0
0.916000008583 -0.289999991655 0.207000002265 1336.0
0.913999974728 -0.294999986887 0.207000002265 1317.0
0.913999974728 -0.300999999046 0.207000002265 1308.0
0.90600001812 -0.305000007153 0.206000000238 1325.0
0.912999987602 -0.312999993563 0.208000004292 1322.0
0.90600001812 -0.317000001669 0.207000002265 1303.0
0.907000005245 -0.324000000954 0.207000002265 1299.0
0.911000013351 -0.331000000238 0.209000006318 1311.0
0.908999979496 -0.337000012398 0.209000006318 1315.0
0.90499997139 -0.340999990702 0.208000004292 1326.0
0.902000010014 -0.347000002861 0.208000004292 1336.0
0.90600001812 -0.354999989271 0.209000006318 1318.0
0.907000005245 -0.361000001431 0.209999993443 1319.0
0.903999984264 -0.365999996662 0.209999993443 1303.0
0.902999997139 -0.372000008821 0.209999993443 1236.0
0.902999997139 -0.379000008106 0.21099999547 1279.0
0.903999984264 -0.386000007391 0.21099999547 1281.0
0.90600001812 -0.393000006676 0.211999997497 1269.0
0.903999984264 -0.398999989033 0.212999999523 1302.0
0.893999993801 -0.400999993086 0.21099999547 1282.0
0.897000014782 -0.409999996424 0.211999997497 1295.0
0.896000027657 -0.416000008583 0.211999997497 1321.0
0.897000014782 -0.423000007868 0.212999999523 1300.0
0.893000006676 -0.428000003099 0.212999999523 1298.0
0.894999980927 -0.43599998951 0.21400000155 1310.0
0.902000010014 -0.446000009775 0.216000005603 1278.0
0.893999993801 -0.449000000954 0.215000003576 1270.0
0.89099997282 -0.455000013113 0.215000003576 1249.0
0.888999998569 -0.46099999547 0.215000003576 1236.0
0.893000006676 -0.469999998808 0.216000005603 1268.0
0.89200001955 -0.476999998093 0.216999992728 1256.0
0.888000011444 -0.481999993324 0.216999992728 1289.0
0.893999993801 -0.49200001359 0.218999996781 1272.0
0.885999977589 -0.495000004768 0.216999992728 1244.0
0.89099997282 -0.505999982357 0.219999998808 1227.0
2.01699995995 1.18700003624 0.477999985218 303.0
2.03200006485 1.1779999733 0.479999989271 310.0
2.03299999237 1.16199994087 0.479000002146 267.0
2.04999995232 1.15400004387 0.481000006199 130.0
2.08699989319 1.15699994564 0.488999992609 138.0
2.13499999046 1.16700005531 0.499000012875 252.0
2.15700006485 1.16100001335 0.501999974251 240.0
2.21600008011 1.17499995232 0.514999985695 119.0
3.18300008774 1.27999997139 0.711000025272 98.0
3.26399993896 1.28999996185 0.727999985218 78.0
3.60299992561 1.39900004864 0.801999986172 76.0
3.66000008583 1.39499998093 0.813000023365 112.0
3.69899988174 1.38399994373 0.819999992847 110.0
3.72199988365 1.36699998379 0.824000000954 94.0
4.0640001297 1.40999996662 0.896000027657 69.0
4.04099988937 1.37399995327 0.888999998569 102.0
3.992000103 1.33099997044 0.876999974251 121.0
4.00400018692 1.30799996853 0.878000020981 114.0
4.05999994278 1.29999995232 0.888999998569 113.0
4.05100011826 1.26999998093 0.885999977589 102.0
4.05399990082 1.24399995804 0.884999990463 96.0
4.10699987411 1.23399996758 0.894999980927 82.0
4.05700016022 0.985000014305 0.874000012875 81.0
4.09399986267 0.967999994755 0.880999982357 97.0
4.12599992752 0.949999988079 0.887000024319 108.0
4.06300020218 0.910000026226 0.873000025749 104.0
4.10200023651 0.893000006676 0.879999995232 107.0
4.10200023651 0.867999970913 0.879999995232 108.0
4.07499980927 0.837000012398 0.873000025749 103.0
4.07800006866 0.811999976635 0.873000025749 100.0
4.09000015259 0.790000021458 0.875 103.0
4.15299987793 0.776000022888 0.888000011444 77.0
0.955999970436 -0.0340000018477 0.20000000298 979.0
0.938000023365 -0.0390000008047 0.196999996901 1275.0
0.926999986172 -0.0439999997616 0.194000005722 1256.0
0.93900001049 -0.0500000007451 0.196999996901 1274.0
0.931999981403 -0.054999999702 0.195999994874 1257.0
0.930000007153 -0.0599999986589 0.194999992847 1228.0
0.933000028133 -0.0659999996424 0.195999994874 1250.0
0.933000028133 -0.0710000023246 0.195999994874 1265.0
0.934000015259 -0.0769999995828 0.195999994874 1302.0
0.929000020027 -0.082000002265 0.195999994874 1250.0
0.934000015259 -0.0879999995232 0.196999996901 1254.0
0.934000015259 -0.0930000022054 0.196999996901 1261.0
0.929000020027 -0.097999997437 0.195999994874 1281.0
0.930000007153 -0.104000002146 0.195999994874 1264.0
0.924000024796 -0.108999997377 0.194999992847 1274.0
0.924000024796 -0.11400000006 0.194999992847 1288.0
0.930999994278 -0.120999999344 0.196999996901 1315.0
0.929000020027 -0.126000002027 0.196999996901 1304.0
0.921000003815 -0.129999995232 0.194999992847 1278.0
0.930000007153 -0.136999994516 0.196999996901 1290.0
0.924000024796 -0.142000004649 0.195999994874 1297.0
0.921000003815 -0.146999999881 0.195999994874 1299.0
0.925999999046 -0.152999997139 0.196999996901 1299.0
0.92199999094 -0.158000007272 0.195999994874 1291.0
0.922999978065 -0.16400000453 0.196999996901 1284.0
0.916999995708 -0.167999997735 0.195999994874 1280.0
0.921000003815 -0.17499999702 0.195999994874 1305.0
0.92199999094 -0.180999994278 0.196999996901 1306.0
0.919000029564 -0.186000004411 0.196999996901 1296.0
0.92199999094 -0.192000001669 0.197999998927 1289.0
0.913999974728 -0.195999994874 0.195999994874 1314.0
0.917999982834 -0.202000007033 0.196999996901 1295.0
0.920000016689 -0.208000004292 0.197999998927 1306.0
0.92199999094 -0.215000003576 0.197999998927 1317.0
0.920000016689 -0.219999998808 0.197999998927 1297.0
0.920000016689 -0.225999996066 0.199000000954 1294.0
0.916999995708 -0.231000006199 0.197999998927 1338.0
0.912999987602 -0.236000001431 0.197999998927 1326.0
0.912999987602 -0.240999996662 0.197999998927 1310.0
0.916000008583 -0.247999995947 0.199000000954 1294.0
0.916000008583 -0.254000008106 0.199000000954 1329.0
0.912000000477 -0.25799998641 0.199000000954 1335.0
0.910000026226 -0.263999998569 0.197999998927 1331.0
0.908999979496 -0.270000010729 0.199000000954 1314.0
0.913999974728 -0.277000010014 0.20000000298 1334.0
0.908999979496 -0.280999988317 0.199000000954 1333.0
0.912000000477 -0.287999987602 0.20000000298 1339.0
0.912000000477 -0.293999999762 0.201000005007 1314.0
0.912000000477 -0.300000011921 0.201000005007 1285.0
0.908999979496 -0.305000007153 0.201000005007 1302.0
0.907999992371 -0.31099998951 0.201000005007 1307.0
0.917999982834 -0.321000009775 0.203999996185 1299.0
0.910000026226 -0.324000000954 0.202000007033 1293.0
0.907000005245 -0.328999996185 0.202000007033 1286.0
0.902999997139 -0.333999991417 0.202000007033 1312.0
0.90499997139 -0.340999990702 0.202000007033 1318.0
0.903999984264 -0.347000002861 0.202999994159 1316.0
0.907999992371 -0.354999989271 0.203999996185 1291.0
0.898000001907 -0.356999993324 0.202000007033 1282.0
0.902999997139 -0.365999996662 0.203999996185 1314.0
0.908999979496 -0.374000012875 0.206000000238 1275.0
0.901000022888 -0.377999991179 0.203999996185 1286.0
0.90600001812 -0.386999994516 0.206000000238 1315.0
0.902999997139 -0.391999989748 0.206000000238 1319.0
0.902999997139 -0.398000001907 0.206000000238 1299.0
0.901000022888 -0.404000014067 0.206000000238 1280.0
0.897000014782 -0.409000009298 0.206000000238 1277.0
0.899999976158 -0.416999995708 0.207000002265 1302.0
0.898000001907 -0.423000007868 0.207000002265 1283.0
0.898999989033 -0.430000007153 0.208000004292 1304.0
0.89200001955 -0.432999998331 0.207000002265 1285.0
