ply
format ascii 1.0
element vertex 943
property float x
property float y
property float z
property float intensity
end_header
4.09200000763 0.476000010967 1.12300002575 106.0
4.01900005341 0.444000005722 1.10300004482 99.0
4.00699996948 0.418000012636 1.09899997711 73.0
0.916000008583 -0.119999997318 0.250999987125 672.0
0.90499997139 -0.123999997973 0.247999995947 1267.0
0.899999976158 -0.12800000608 0.24699999392 1322.0
0.903999984264 -0.134000003338 0.247999995947 1352.0
0.90499997139 -0.140000000596 0.248999997973 1284.0
0.903999984264 -0.145999997854 0.247999995947 1325.0
0.902000010014 -0.150999993086 0.247999995947 1351.0
0.901000022888 -0.156000003219 0.247999995947 1329.0
0.90499997139 -0.162000000477 0.248999997973 1363.0
0.899999976158 -0.166999995708 0.247999995947 1355.0
0.898000001907 -0.172000005841 0.247999995947 1336.0
0.901000022888 -0.178000003099 0.248999997973 1344.0
0.897000014782 -0.182999998331 0.247999995947 1338.0
0.898000001907 -0.188999995589 0.248999997973 1356.0
0.89200001955 -0.193000003695 0.24699999392 1335.0
0.896000027657 -0.20000000298 0.248999997973 1342.0
0.893000006676 -0.203999996185 0.247999995947 1368.0
0.897000014782 -0.21099999547 0.25 1353.0
0.89200001955 -0.216000005603 0.248999997973 1378.0
0.888000011444 -0.219999998808 0.247999995947 1404.0
0.889999985695 -0.225999996066 0.248999997973 1341.0
0.896000027657 -0.233999997377 0.250999987125 1357.0
0.888000011444 -0.237000003457 0.248999997973 1378.0
0.880999982357 -0.240999996662 0.247999995947 1367.0
0.882000029087 -0.24699999392 0.247999995947 1373.0
0.885999977589 -0.254000008106 0.25 1392.0
0.882000029087 -0.259000003338 0.248999997973 1397.0
0.882000029087 -0.263999998569 0.248999997973 1384.0
0.880999982357 -0.270000010729 0.25 1363.0
0.879000008106 -0.27500000596 0.248999997973 1416.0
0.880999982357 -0.282000005245 0.25 1414.0
0.882000029087 -0.287999987602 0.250999987125 1378.0
0.884000003338 -0.294999986887 0.252000004053 1404.0
0.883000016212 -0.300000011921 0.252000004053 1372.0
0.878000020981 -0.305000007153 0.252000004053 1403.0
0.875 -0.310000002384 0.250999987125 1430.0
0.873000025749 -0.314999997616 0.250999987125 1415.0
0.871999979019 -0.321000009775 0.250999987125 1388.0
0.875 -0.32800000906 0.252999991179 1409.0
0.875 -0.333999991417 0.252999991179 1410.0
0.871999979019 -0.338999986649 0.252999991179 1417.0
0.870999991894 -0.344999998808 0.252999991179 1418.0
0.865999996662 -0.349000006914 0.252000004053 1402.0
0.871999979019 -0.358000010252 0.254999995232 1407.0
0.865999996662 -0.361999988556 0.254000008106 1408.0
0.865999996662 -0.368000000715 0.254000008106 1404.0
0.862999975681 -0.372999995947 0.254000008106 1376.0
0.865000009537 -0.379999995232 0.254999995232 1397.0
0.864000022411 -0.386000007391 0.254999995232 1379.0
0.864000022411 -0.393000006676 0.256000012159 1359.0
0.867999970913 -0.400999993086 0.25799998641 1407.0
0.85799998045 -0.402999997139 0.256000012159 1400.0
0.85799998045 -0.409999996424 0.256000012159 1424.0
0.855000019073 -0.41400000453 0.256000012159 1415.0
0.856000006199 -0.42199999094 0.256999999285 1378.0
0.860000014305 -0.430999994278 0.259000003338 1352.0
0.850000023842 -0.432000011206 0.256999999285 1356.0
0.855000019073 -0.442000001669 0.259000003338 1346.0
0.842000007629 -0.442000001669 0.256000012159 1365.0
0.852999985218 -0.453999996185 0.259999990463 1332.0
0.850000023842 -0.460000008345 0.259999990463 1327.0
0.84399998188 -0.463999986649 0.259000003338 1324.0
0.850000023842 -0.474000006914 0.261999994516 1338.0
0.847999989986 -0.479999989271 0.261999994516 1325.0
0.847000002861 -0.486999988556 0.261999994516 1352.0
1.08599996567 0.647000014782 0.324999988079 483.0
1.10699999332 0.649999976158 0.331000000238 468.0
1.24800002575 0.722999989986 0.372000008821 304.0
1.67700004578 0.957000017166 0.499000012875 231.0
1.70599997044 0.958999991417 0.507000029087 223.0
1.73899996281 0.962999999523 0.514999985695 220.0
1.75800001621 0.959999978542 0.518999993801 224.0
1.80799996853 0.972000002861 0.532999992371 177.0
1.88300001621 0.996999979019 0.552999973297 80.0
2.0529999733 1.07000005245 0.601999998093 79.0
2.05500006676 1.05499994755 0.600000023842 172.0
2.08699989319 1.05499994755 0.60799998045 279.0
2.08999991417 1.03999996185 0.60799998045 292.0
2.09100008011 1.02400004864 0.606000006199 294.0
2.06399989128 0.995000004768 0.597000002861 293.0
2.09599995613 0.994000017643 0.605000019073 274.0
2.09599995613 0.977999985218 0.602999985218 149.0
2.14499998093 0.985000014305 0.615999996662 125.0
2.18600010872 0.986999988556 0.625999987125 190.0
2.21300005913 0.98299998045 0.633000016212 269.0
2.22399997711 0.971000015736 0.634000003338 145.0
2.17199993134 0.931999981403 0.617999970913 73.0
3.29800009727 1.02499997616 0.911000013351 88.0
3.38000011444 1.02799999714 0.931999981403 79.0
3.6819999218 1.09599995613 1.01400005817 80.0
3.71300005913 1.08000004292 1.02100002766 103.0
3.78099989891 1.0759999752 1.03900003433 107.0
3.82699990273 1.06400001049 1.04999995232 89.0
4.27299976349 1.15999996662 1.17100000381 63.0
4.09899997711 1.08599996567 1.12199997902 67.0
4.05999994278 1.04999995232 1.11000001431 71.0
4.03399991989 1.01699995995 1.10099995136 105.0
4.08799982071 1.00499999523 1.11500000954 116.0
4.09000015259 0.978999972343 1.11399996281 111.0
4.10599994659 0.957000017166 1.11699998379 116.0
4.11000013351 0.931999981403 1.11699998379 109.0
4.09299993515 0.902000010014 1.11099994183 108.0
4.04600000381 0.866999983788 1.09800004959 106.0
4.13199996948 0.85900002718 1.12000000477 98.0
4.11999988556 0.830999970436 1.11500000954 107.0
4.04099988937 0.790000021458 1.09300005436 105.0
4.08699989319 0.773999989033 1.10500001907 108.0
4.07000017166 0.745000004768 1.09899997711 110.0
4.06300020218 0.71899998188 1.09599995613 105.0
4.117000103 0.70300000906 1.11000001431 111.0
4.06500005722 0.670000016689 1.09500002861 112.0
4.07299995422 0.646000027657 1.09599995613 112.0
4.08799982071 0.624000012875 1.10000002384 108.0
4.07700014114 0.597000002861 1.09599995613 111.0
4.14300012589 0.580999970436 1.11300003529 106.0
4.09600019455 0.550000011921 1.10000002384 100.0
4.1360001564 0.53100001812 1.11000001431 103.0
4.12200021744 0.504000008106 1.10599994659 103.0
4.07299995422 0.472999989986 1.09200000763 106.0
4.07499980927 0.449000000954 1.09200000763 99.0
4.12300014496 0.430000007153 1.10399997234 86.0
0.912000000477 -0.119000002742 0.244000002742 657.0
0.907000005245 -0.123999997973 0.243000000715 1272.0
0.908999979496 -0.129999995232 0.243000000715 1317.0
0.907000005245 -0.135000005364 0.243000000715 1363.0
0.902000010014 -0.138999998569 0.241999998689 1310.0
0.901000022888 -0.144999995828 0.241999998689 1302.0
0.902000010014 -0.150999993086 0.241999998689 1361.0
0.902000010014 -0.156000003219 0.243000000715 1350.0
0.902999997139 -0.162000000477 0.243000000715 1385.0
0.897000014782 -0.165999993682 0.241999998689 1357.0
0.907999992371 -0.173999994993 0.245000004768 1364.0
0.89200001955 -0.175999999046 0.240999996662 1343.0
0.899999976158 -0.182999998331 0.243000000715 1353.0
0.89200001955 -0.187000006437 0.241999998689 1367.0
0.898000001907 -0.194000005722 0.243000000715 1366.0
0.896000027657 -0.199000000954 0.243000000715 1358.0
0.896000027657 -0.204999998212 0.244000002742 1392.0
0.887000024319 -0.209000006318 0.240999996662 1385.0
0.89200001955 -0.215000003576 0.243000000715 1384.0
0.893000006676 -0.221000000834 0.244000002742 1410.0
0.893000006676 -0.226999998093 0.244000002742 1386.0
0.887000024319 -0.231000006199 0.243000000715 1350.0
0.888000011444 -0.237000003457 0.243000000715 1380.0
0.888000011444 -0.243000000715 0.244000002742 1365.0
0.888000011444 -0.248999997973 0.244000002742 1400.0
0.885999977589 -0.254000008106 0.244000002742 1387.0
0.879999995232 -0.25799998641 0.243000000715 1410.0
0.884999990463 -0.264999985695 0.244000002742 1381.0
0.883000016212 -0.270000010729 0.244000002742 1377.0
0.879999995232 -0.27500000596 0.244000002742 1416.0
0.874000012875 -0.279000014067 0.243000000715 1431.0
0.876999974251 -0.286000013351 0.244000002742 1391.0
0.879999995232 -0.293000012636 0.245000004768 1398.0
0.875 -0.29699999094 0.244000002742 1395.0
0.874000012875 -0.303000003099 0.244000002742 1409.0
0.875999987125 -0.310000002384 0.246000006795 1415.0
0.871999979019 -0.31400001049 0.245000004768 1416.0
0.871999979019 -0.319999992847 0.245000004768 1424.0
0.875999987125 -0.32800000906 0.24699999392 1400.0
0.869000017643 -0.331000000238 0.246000006795 1419.0
0.861999988556 -0.335000008345 0.244000002742 1437.0
0.870000004768 -0.344000011683 0.24699999392 1421.0
0.867999970913 -0.349000006914 0.24699999392 1440.0
0.861999988556 -0.352999985218 0.246000006795 1394.0
0.869000017643 -0.361999988556 0.247999995947 1417.0
0.865000009537 -0.36700001359 0.247999995947 1421.0
0.861999988556 -0.372000008821 0.247999995947 1415.0
0.864000022411 -0.379000008106 0.248999997973 1392.0
0.862999975681 -0.384999990463 0.248999997973 1386.0
0.865999996662 -0.393000006676 0.250999987125 1371.0
0.865000009537 -0.398999989033 0.250999987125 1393.0
0.856999993324 -0.402000010014 0.248999997973 1432.0
0.856999993324 -0.407999992371 0.25 1398.0
0.855000019073 -0.41400000453 0.25 1428.0
0.856999993324 -0.421000003815 0.250999987125 1417.0
0.85900002718 -0.428999990225 0.252999991179 1402.0
0.848999977112 -0.430999994278 0.250999987125 1373.0
0.850000023842 -0.43900001049 0.252000004053 1341.0
0.847999989986 -0.444000005722 0.252000004053 1375.0
0.846000015736 -0.449999988079 0.252000004053 1334.0
0.847999989986 -0.458000004292 0.252999991179 1332.0
0.855000019073 -0.469000011683 0.256000012159 1342.0
0.851000010967 -0.474000006914 0.256000012159 1356.0
0.847000002861 -0.479000002146 0.256000012159 1357.0
0.847000002861 -0.486000001431 0.256000012159 1368.0
1.09000003338 0.648000001907 0.319000005722 490.0
1.10500001907 0.648000001907 0.321999996901 480.0
1.34300005436 0.777000010014 0.391000002623 263.0
1.68599998951 0.961000025272 0.490000009537 231.0
1.72699999809 0.97000002861 0.500999987125 229.0
1.7460000515 0.966000020504 0.504999995232 221.0
1.7990000248 0.980000019073 0.518000006676 227.0
1.82899999619 0.981999993324 0.526000022888 157.0
1.93299996853 1.02199995518 0.554000020027 81.0
2.0039999485 1.04299998283 0.573000013828 98.0
2.04099988937 1.04600000381 0.582000017166 127.0
2.09599995613 1.05799996853 0.596000015736 202.0
2.0720000267 1.02900004387 0.587999999523 290.0
2.10299992561 1.02799999714 0.59500002861 295.0
2.0759999752 0.999000012875 0.586000025272 292.0
2.08599996567 0.987999975681 0.587000012398 268.0
2.07899999619 0.96899998188 0.583999991417 133.0
2.117000103 0.97000002861 0.592999994755 121.0
2.17100000381 0.978999972343 0.606999993324 206.0
2.20199990273 0.976000010967 0.614000022411 256.0
2.20900011063 0.962999999523 0.615000009537 130.0
3.30500006676 1.04799997807 0.89200001955 83.0
3.26699995995 1.01400005817 0.880999982357 86.0
3.34899997711 1.01699995995 0.902000010014 71.0
3.65799999237 1.0870000124 0.98400002718 81.0
3.74099993706 1.0870000124 1.00499999523 108.0
3.77999997139 1.07400000095 1.01400005817 98.0
3.71600008011 1.03100001812 0.995000004768 83.0
4.06300020218 1.0490000248 1.08399999142 76.0
4.09999990463 1.03199994564 1.09300005436 105.0
4.09899997711 1.00600004196 1.0909999609 111.0
4.11499977112 0.98400002718 1.09399998188 106.0
4.12099981308 0.958999991417 1.09500002861 110.0
4.04799985886 0.916999995708 1.07400000095 106.0
4.10799980164 0.903999984264 1.08899998665 107.0
4.14200019836 0.885999977589 1.09700000286 106.0
4.10200023651 0.851999998093 1.08500003815 103.0
4.11499977112 0.828999996185 1.08800005913 104.0
4.10900020599 0.801999986172 1.08500003815 108.0
4.11299991608 0.777000010014 1.08500003815 102.0
4.06799983978 0.744000017643 1.0720000267 101.0
4.07499980927 0.72000002861 1.07299995422 105.0
4.12900018692 0.703999996185 1.0870000124 111.0
4.06699991226 0.669000029564 1.07000005245 106.0
4.09499979019 0.648999989033 1.07700002193 103.0
4.12699985504 0.628000020981 1.08399999142 94.0
4.13000011444 0.603999972343 1.08399999142 112.0
4.16400003433 0.583999991417 1.09200000763 106.0
4.15199995041 0.556999981403 1.08899998665 112.0
4.12400007248 0.527999997139 1.08099997044 107.0
4.117000103 0.501999974251 1.07799994946 100.0
4.12699985504 0.479000002146 1.08099997044 101.0
4.1139998436 0.45300000906 1.07700002193 102.0
4.13700008392 0.430000007153 1.08200001717 78.0
0.911000013351 -0.119000002742 0.238000005484 635.0
0.902000010014 -0.123000003397 0.236000001431 1267.0
0.901000022888 -0.12800000608 0.236000001431 1320.0
0.907000005245 -0.135000005364 0.237000003457 1362.0
0.903999984264 -0.140000000596 0.237000003457 1326.0
0.899999976158 -0.144999995828 0.236000001431 1320.0
0.907000005245 -0.150999993086 0.238000005484 1369.0
0.899999976158 -0.155000001192 0.236000001431 1385.0
0.901000022888 -0.16099999845 0.237000003457 1384.0
0.901000022888 -0.166999995708 0.237000003457 1370.0
0.899999976158 -0.172000005841 0.237000003457 1366.0
0.894999980927 -0.177000001073 0.236000001431 1369.0
0.899999976158 -0.182999998331 0.238000005484 1367.0
0.894999980927 -0.187999993563 0.237000003457 1377.0
0.89200001955 -0.193000003695 0.236000001431 1405.0
0.896000027657 -0.199000000954 0.237000003457 1389.0
0.89200001955 -0.203999996185 0.237000003457 1413.0
0.888999998569 -0.209000006318 0.236000001431 1394.0
0.888000011444 -0.21400000155 0.236000001431 1378.0
0.894999980927 -0.221000000834 0.238000005484 1394.0
0.884000003338 -0.224000006914 0.236000001431 1395.0
0.888999998569 -0.231000006199 0.237000003457 1359.0
0.885999977589 -0.236000001431 0.237000003457 1400.0
0.884000003338 -0.240999996662 0.237000003457 1382.0
0.884999990463 -0.24699999392 0.237000003457 1417.0
0.882000029087 -0.252000004053 0.237000003457 1395.0
0.879999995232 -0.25799998641 0.237000003457 1383.0
0.883000016212 -0.263999998569 0.238000005484 1392.0
0.879999995232 -0.268999993801 0.238000005484 1392.0
0.875999987125 -0.273999989033 0.237000003457 1409.0
0.884000003338 -0.282000005245 0.239999994636 1432.0
0.873000025749 -0.284000009298 0.237000003457 1424.0
0.882000029087 -0.293000012636 0.239999994636 1390.0
0.875 -0.29699999094 0.238000005484 1414.0
0.873000025749 -0.301999986172 0.238999992609 1414.0
0.879000008106 -0.310000002384 0.239999994636 1424.0
0.871999979019 -0.312999993563 0.238999992609 1414.0
0.875 -0.321000009775 0.239999994636 1425.0
0.875999987125 -0.326999992132 0.240999996662 1431.0
0.874000012875 -0.331999987364 0.240999996662 1430.0
0.867999970913 -0.33599999547 0.239999994636 1464.0
0.871999979019 -0.344000011683 0.241999998689 1435.0
0.869000017643 -0.349000006914 0.240999996662 1454.0
0.873000025749 -0.356999993324 0.243000000715 1447.0
0.861999988556 -0.358999997377 0.240999996662 1456.0
0.864000022411 -0.365999996662 0.241999998689 1467.0
0.865000009537 -0.372999995947 0.243000000715 1443.0
0.864000022411 -0.377999991179 0.243000000715 1414.0
0.855000019073 -0.381000012159 0.240999996662 1423.0
0.861999988556 -0.389999985695 0.244000002742 1401.0
0.856000006199 -0.393999993801 0.241999998689 1401.0
0.851999998093 -0.398999989033 0.241999998689 1420.0
0.85900002718 -0.409000009298 0.245000004768 1454.0
0.85799998045 -0.414999991655 0.245000004768 1451.0
0.856000006199 -0.419999986887 0.245000004768 1457.0
0.861000001431 -0.430000007153 0.24699999392 1445.0
0.856000006199 -0.433999985456 0.24699999392 1413.0
0.851999998093 -0.43900001049 0.246000006795 1391.0
0.856000006199 -0.448000013828 0.247999995947 1369.0
0.847999989986 -0.449999988079 0.24699999392 1342.0
0.847999989986 -0.456999987364 0.24699999392 1349.0
0.847000002861 -0.463999986649 0.247999995947 1359.0
0.850000023842 -0.472000002861 0.248999997973 1374.0
0.847000002861 -0.477999985218 0.248999997973 1395.0
0.84399998188 -0.483000010252 0.248999997973 1378.0
1.0759999752 0.638999998569 0.307000011206 484.0
1.10699999332 0.648000001907 0.314999997616 452.0
1.41199994087 0.814999997616 0.400999993086 250.0
1.68400001526 0.958000004292 0.477999985218 234.0
1.73300004005 0.971000015736 0.490000009537 226.0
1.76699995995 0.975000023842 0.497999995947 218.0
1.78600001335 0.971000015736 0.501999974251 219.0
1.80900001526 0.96899998188 0.507000029087 148.0
2.06599998474 1.05700004101 0.574999988079 126.0
2.09999990463 1.05799996853 0.583000004292 248.0
2.08800005913 1.03600001335 0.57800000906 297.0
2.09500002861 1.02300000191 0.578999996185 298.0
2.10500001907 1.01100003719 0.579999983311 291.0
2.09299993515 0.989000022411 0.574999988079 255.0
2.12700009346 0.989000022411 0.583000004292 130.0
2.14199995995 0.980000019073 0.586000025272 130.0
2.18099999428 0.981999993324 0.59500002861 221.0
2.19400000572 0.971000015736 0.597000002861 253.0
2.23200011253 0.972000002861 0.606000006199 119.0
2.45399999619 0.978999972343 0.660000026226 69.0
3.36199998856 1.06400001049 0.885999977589 86.0
3.31900000572 1.02799999714 0.873000025749 86.0
3.35100007057 1.01600003242 0.879999995232 72.0
3.73000001907 1.10599994659 0.978999972343 86.0
3.757999897 1.09000003338 0.985000014305 102.0
3.72300004959 1.05599999428 0.973999977112 104.0
4.02099990845 1.03699994087 1.04700005054 78.0
4.07999992371 1.02600002289 1.06099998951 111.0
4.07899999619 0.999000012875 1.05999994278 114.0
4.10599994659 0.980000019073 1.06599998474 112.0
4.14300012589 0.962999999523 1.07400000095 104.0
4.12400007248 0.931999981403 1.06799995899 102.0
4.10900020599 0.902999997139 1.06299996376 115.0
4.10900020599 0.876999974251 1.06200003624 108.0
4.125 0.855000019073 1.06500005722 108.0
4.12400007248 0.828999996185 1.06400001049 105.0
4.16599988937 0.811999976635 1.07400000095 98.0
4.09299993515 0.773000001907 1.05400002003 107.0
4.09999990463 0.749000012875 1.05499994755 108.0
4.08500003815 0.721000015736 1.04999995232 105.0
4.11999988556 0.702000021935 1.05900001526 108.0
4.15100002289 0.681999981403 1.06599998474 110.0
4.08199977875 0.644999980927 1.04700005054 106.0
4.06699991226 0.617999970913 1.04299998283 111.0
4.10900020599 0.600000023842 1.0529999733 108.0
4.14300012589 0.579999983311 1.06099998951 103.0
4.13700008392 0.554000020027 1.05900001526 109.0
4.11800003052 0.527000010014 1.0529999733 107.0
4.09299993515 0.499000012875 1.04600000381 99.0
4.08400011063 0.472999989986 1.04400002956 105.0
4.09000015259 0.449000000954 1.04499995708 99.0
4.07100009918 0.423000007868 1.03900003433 71.0
0.894999980927 -0.115999996662 0.228000000119 632.0
0.903999984264 -0.123000003397 0.230000004172 1275.0
0.902999997139 -0.12800000608 0.230000004172 1343.0
0.908999979496 -0.135000005364 0.231999993324 1368.0
0.907000005245 -0.140000000596 0.231999993324 1342.0
0.90600001812 -0.144999995828 0.231999993324 1320.0
0.902999997139 -0.15000000596 0.231000006199 1367.0
0.899999976158 -0.155000001192 0.231000006199 1397.0
0.898999989033 -0.16099999845 0.231000006199 1394.0
0.898999989033 -0.165999993682 0.231000006199 1357.0
0.899999976158 -0.172000005841 0.231000006199 1378.0
0.894999980927 -0.175999999046 0.230000004172 1366.0
0.896000027657 -0.181999996305 0.231000006199 1382.0
0.893000006676 -0.187000006437 0.230000004172 1374.0
0.89099997282 -0.192000001669 0.230000004172 1396.0
0.897000014782 -0.199000000954 0.231999993324 1375.0
0.89099997282 -0.202999994159 0.231000006199 1406.0
0.887000024319 -0.208000004292 0.230000004172 1408.0
0.888000011444 -0.21400000155 0.231000006199 1395.0
0.888999998569 -0.219999998808 0.231000006199 1374.0
0.888000011444 -0.22499999404 0.231000006199 1417.0
0.885999977589 -0.230000004172 0.231000006199 1409.0
0.882000029087 -0.234999999404 0.230000004172 1389.0
0.893000006676 -0.244000002742 0.233999997377 1392.0
0.885999977589 -0.24699999392 0.231999993324 1406.0
0.883000016212 -0.252000004053 0.231999993324 1409.0
0.885999977589 -0.259000003338 0.232999995351 1378.0
0.884000003338 -0.263999998569 0.232999995351 1394.0
0.879000008106 -0.268000006676 0.231999993324 1392.0
0.875999987125 -0.273000001907 0.231000006199 1419.0
0.879000008106 -0.280000001192 0.232999995351 1411.0
0.882000029087 -0.287000000477 0.233999997377 1422.0
0.879999995232 -0.291999995708 0.233999997377 1412.0
0.876999974251 -0.29699999094 0.232999995351 1414.0
0.871999979019 -0.300999999046 0.231999993324 1429.0
0.871999979019 -0.307000011206 0.232999995351 1426.0
0.876999974251 -0.314999997616 0.234999999404 1429.0
0.870999991894 -0.319000005722 0.233999997377 1458.0
0.867999970913 -0.324000000954 0.232999995351 1445.0
0.871999979019 -0.331000000238 0.234999999404 1437.0
0.866999983788 -0.33599999547 0.233999997377 1462.0
0.870000004768 -0.342999994755 0.234999999404 1464.0
0.865999996662 -0.347000002861 0.234999999404 1477.0
0.861999988556 -0.351999998093 0.233999997377 1469.0
0.861999988556 -0.358000010252 0.234999999404 1455.0
0.864000022411 -0.365000009537 0.236000001431 1467.0
0.865999996662 -0.372000008821 0.237000003457 1476.0
0.85900002718 -0.375999987125 0.236000001431 1443.0
0.85900002718 -0.381999999285 0.236000001431 1432.0
0.861999988556 -0.389999985695 0.238000005484 1433.0
0.861000001431 -0.395999997854 0.238000005484 1433.0
0.855000019073 -0.40000000596 0.237000003457 1423.0
0.85900002718 -0.407999992371 0.238999992609 1440.0
0.860000014305 -0.414999991655 0.239999994636 1474.0
0.851999998093 -0.418000012636 0.238000005484 1476.0
0.855000019073 -0.425999999046 0.239999994636 1446.0
0.855000019073 -0.432999998331 0.239999994636 1454.0
0.853999972343 -0.43900001049 0.240999996662 1408.0
0.851000010967 -0.444000005722 0.240999996662 1414.0
0.850000023842 -0.449999988079 0.240999996662 1388.0
0.848999977112 -0.456999987364 0.241999998689 1374.0
0.84500002861 -0.462000012398 0.240999996662 1393.0
0.847999989986 -0.469999998808 0.243000000715 1393.0
0.851999998093 -0.479999989271 0.245000004768 1396.0
0.851000010967 -0.486999988556 0.245000004768 1389.0
1.10300004482 0.653999984264 0.307000011206 485.0
1.12600004673 0.657999992371 0.312000006437 441.0
1.47000002861 0.847000002861 0.407000005245 242.0
1.71300005913 0.972999989986 0.474000006914 231.0
1.71700000763 0.961000025272 0.472999989986 227.0
1.75300002098 0.966000020504 0.481999993324 222.0
1.75899994373 0.954999983311 0.481999993324 225.0
1.80599999428 0.966000020504 0.493999987841 142.0
2.04099988937 1.05900001526 0.555000007153 104.0
2.07399988174 1.05900001526 0.563000023365 217.0
2.09500002861 1.05400002003 0.566999971867 285.0
2.08699989319 1.03299999237 0.563000023365 301.0
2.09599995613 1.02199995518 0.56400001049 295.0
2.0759999752 0.995999991894 0.556999981403 295.0
2.09699988365 0.990000009537 0.561999976635 240.0
2.125 0.986999988556 0.568000018597 126.0
2.13100004196 0.973999977112 0.568000018597 132.0
2.19600009918 0.986999988556 0.583999991417 248.0
2.18700003624 0.967000007629 0.580999970436 236.0
2.26300001144 0.98299998045 0.598999977112 120.0
3.24399995804 1.02499997616 0.833999991417 95.0
3.28399991989 1.01600003242 0.842999994755 79.0
3.39100003242 1.02699995041 0.869000017643 68.0
3.73099994659 1.10500001907 0.954999983311 89.0
3.7539999485 1.08800005913 0.959999978542 109.0
3.75500011444 1.06299996376 0.958999991417 97.0
4.08400011063 1.05099999905 1.03699994087 77.0
4.13700008392 1.03900003433 1.04999995232 116.0
4.11899995804 1.00800001621 1.04400002956 110.0
4.11000013351 0.978999972343 1.03999996185 110.0
4.14200019836 0.961000025272 1.04700005054 104.0
4.09899997711 0.925000011921 1.03499996662 101.0
4.10300016403 0.899999976158 1.03499996662 106.0
4.0560002327 0.865000009537 1.02199995518 110.0
4.13700008392 0.856000006199 1.04200005531 111.0
4.11100006104 0.825999975204 1.03499996662 104.0
4.13999986649 0.805999994278 1.04100000858 108.0
4.17500019073 0.787000000477 1.0490000248 109.0
4.09100008011 0.745999991894 1.02699995041 108.0
4.0609998703 0.714999973774 1.01800000668 110.0
4.10300016403 0.698000013828 1.02799999714 107.0
4.12599992752 0.676999986172 1.03299999237 107.0
4.13999986649 0.653999984264 1.03600001335 103.0
4.10200023651 0.623000025749 1.02600002289 103.0
4.14599990845 0.603999972343 1.03600001335 105.0
4.13700008392 0.57800000906 1.03299999237 106.0
4.16099977493 0.555999994278 1.03900003433 112.0
4.1779999733 0.532999992371 1.04200005531 105.0
4.09899997711 0.499000012875 1.02199995518 100.0
4.15700006485 0.481000006199 1.03600001335 101.0
4.05499982834 0.444999992847 1.00999999046 107.0
4.14499998093 0.430000007153 1.03199994564 79.0
0.920000016689 -0.119999997318 0.229000002146 633.0
0.90600001812 -0.123000003397 0.22499999404 1292.0
0.903999984264 -0.128999993205 0.22499999404 1326.0
0.899999976158 -0.133000001311 0.224000006914 1367.0
0.899999976158 -0.138999998569 0.224000006914 1357.0
0.90600001812 -0.144999995828 0.225999996066 1349.0
0.902999997139 -0.15000000596 0.225999996066 1374.0
0.903999984264 -0.156000003219 0.225999996066 1405.0
0.898999989033 -0.159999996424 0.22499999404 1419.0
0.893000006676 -0.165000006557 0.224000006914 1374.0
0.894999980927 -0.171000003815 0.224000006914 1366.0
0.896000027657 -0.175999999046 0.22499999404 1372.0
0.901000022888 -0.182999998331 0.225999996066 1370.0
0.89200001955 -0.187000006437 0.224000006914 1361.0
0.898999989033 -0.194000005722 0.225999996066 1372.0
0.888999998569 -0.196999996901 0.224000006914 1383.0
0.893999993801 -0.203999996185 0.225999996066 1444.0
0.894999980927 -0.209999993443 0.225999996066 1417.0
0.889999985695 -0.21400000155 0.22499999404 1390.0
0.89200001955 -0.219999998808 0.225999996066 1364.0
0.89099997282 -0.225999996066 0.225999996066 1400.0
0.884999990463 -0.230000004172 0.22499999404 1434.0
0.883000016212 -0.234999999404 0.22499999404 1403.0
0.889999985695 -0.241999998689 0.226999998093 1397.0
0.880999982357 -0.246000006795 0.22499999404 1403.0
0.887000024319 -0.252999991179 0.226999998093 1419.0
0.880999982357 -0.256999999285 0.225999996066 1422.0
0.89099997282 -0.266000002623 0.229000002146 1394.0
0.883000016212 -0.268999993801 0.226999998093 1404.0
0.879000008106 -0.273999989033 0.225999996066 1424.0
0.878000020981 -0.279000014067 0.225999996066 1423.0
0.876999974251 -0.284999996424 0.226999998093 1428.0
0.874000012875 -0.289999991655 0.225999996066 1426.0
0.875 -0.296000003815 0.226999998093 1421.0
0.874000012875 -0.301999986172 0.226999998093 1423.0
0.871999979019 -0.307000011206 0.226999998093 1444.0
0.870000004768 -0.312000006437 0.226999998093 1425.0
0.873000025749 -0.319000005722 0.228000000119 1456.0
0.871999979019 -0.324999988079 0.229000002146 1452.0
0.878000020981 -0.333000004292 0.231000006199 1445.0
0.867999970913 -0.33599999547 0.229000002146 1465.0
0.870999991894 -0.342999994755 0.230000004172 1498.0
0.869000017643 -0.347999989986 0.230000004172 1466.0
0.865999996662 -0.352999985218 0.229000002146 1477.0
0.866999983788 -0.360000014305 0.230000004172 1463.0
0.865999996662 -0.365000009537 0.231000006199 1461.0
0.870000004768 -0.374000012875 0.231999993324 1447.0
0.85799998045 -0.375 0.230000004172 1441.0
0.85900002718 -0.381999999285 0.231000006199 1452.0
0.855000019073 -0.386000007391 0.230000004172 1433.0
0.856000006199 -0.393000006676 0.231000006199 1439.0
0.85900002718 -0.400999993086 0.231999993324 1428.0
0.85900002718 -0.407999992371 0.232999995351 1463.0
0.856999993324 -0.412999987602 0.232999995351 1476.0
0.853999972343 -0.418000012636 0.232999995351 1457.0
0.85799998045 -0.426999986172 0.234999999404 1441.0
0.856000006199 -0.432999998331 0.234999999404 1459.0
0.856000006199 -0.43900001049 0.234999999404 1447.0
0.853999972343 -0.444999992847 0.236000001431 1451.0
0.853999972343 -0.451999992132 0.236000001431 1417.0
0.847000002861 -0.455000013113 0.234999999404 1365.0
0.851000010967 -0.465000003576 0.237000003457 1412.0
0.842999994755 -0.467000007629 0.234999999404 1427.0
0.84399998188 -0.474000006914 0.236000001431 1409.0
0.847999989986 -0.483999997377 0.238000005484 1369.0
1.10099995136 0.652000010014 0.298000007868 490.0
1.125 0.65600001812 0.303999990225 421.0
1.54600000381 0.888999998569 0.416999995708 238.0
1.70299994946 0.966000020504 0.458999991417 233.0
1.70399999619 0.952000021935 0.458000004292 219.0
1.76499998569 0.971000015736 0.472999989986 225.0
1.78999996185 0.97000002861 0.477999985218 212.0
1.79999995232 0.961000025272 0.479000002146 147.0
2.03299999237 1.0529999733 0.538999974728 109.0
2.04999995232 1.04600000381 0.541999995708 130.0
2.08699989319 1.04799997807 0.550000011921 252.0
2.07999992371 1.02799999714 0.54699999094 299.0
2.09999990463 1.02199995518 0.550999999046 300.0
2.07399988174 0.992999970913 0.542999982834 285.0
2.08599996567 0.98299998045 0.545000016689 228.0
2.1210000515 0.98299998045 0.551999986172 126.0
2.17600011826 0.991999983788 0.564999997616 132.0
2.18600010872 0.981000006199 0.566999971867 253.0
2.20499992371 0.972999989986 0.570999979973 223.0
2.26099991798 0.981000006199 0.583999991417 115.0
2.41599988937 0.961000025272 0.616999983788 70.0
2.89499998093 1.03100001812 0.731999993324 68.0
3.29099988937 1.03900003433 0.824000000954 94.0
3.32299995422 1.02699995041 0.830999970436 84.0
3.41300010681 1.03199994564 0.851999998093 75.0
3.69799995422 1.09399998188 0.922999978065 88.0
3.76399993896 1.08899998665 0.938000023365 104.0
3.75999999046 1.06299996376 0.93599998951 101.0
3.76699995995 1.04100000858 0.93599998951 81.0
4.0609998703 1.04400002956 1.00600004196 81.0
4.05900001526 1.01699995995 1.0039999485 113.0
4.07000017166 0.994000017643 1.00499999523 114.0
4.10900020599 0.977999985218 1.01400005817 113.0
4.08500003815 0.947000026703 1.00699996948 105.0
4.13000011444 0.930999994278 1.01699995995 105.0
4.09100008011 0.897000014782 1.00600004196 105.0
4.08400011063 0.870000004768 1.0039999485 103.0
4.10900020599 0.848999977112 1.00899994373 104.0
4.14699983597 0.830999970436 1.01699995995 102.0
4.11999988556 0.800999999046 1.00999999046 103.0
4.12599992752 0.777000010014 1.01100003719 98.0
4.13700008392 0.753000020981 1.01199996471 101.0
4.11199998856 0.722999989986 1.00499999523 99.0
4.10099983215 0.695999979973 1.00199997425 104.0
4.08500003815 0.669000029564 0.996999979019 112.0
4.10900020599 0.648000001907 1.00300002098 107.0
4.08300018311 0.619000017643 0.995999991894 113.0
4.1360001564 0.601999998093 1.00800001621 103.0
4.07399988174 0.568000018597 0.991999983788 102.0
4.11199998856 0.549000024796 1.00100004673 105.0
4.117000103 0.524999976158 1.00199997425 108.0
4.07600021362 0.495000004768 0.990999996662 99.0
4.10200023651 0.474000006914 0.996999979019 101.0
4.13100004196 0.451999992132 1.00300002098 102.0
4.16499996185 0.430999994278 1.01100003719 68.0
0.916999995708 -0.119000002742 0.222000002861 624.0
0.902000010014 -0.123000003397 0.218999996781 1291.0
0.903999984264 -0.12800000608 0.218999996781 1336.0
0.902999997139 -0.134000003338 0.218999996781 1368.0
0.898999989033 -0.137999996543 0.217999994755 1384.0
0.90600001812 -0.144999995828 0.219999998808 1337.0
0.903999984264 -0.15000000596 0.219999998808 1363.0
0.897000014782 -0.155000001192 0.218999996781 1370.0
0.898999989033 -0.159999996424 0.218999996781 1405.0
0.894999980927 -0.165000006557 0.217999994755 1377.0
0.894999980927 -0.171000003815 0.218999996781 1373.0
0.894999980927 -0.175999999046 0.218999996781 1388.0
0.888000011444 -0.180000007153 0.217999994755 1384.0
0.893999993801 -0.187000006437 0.218999996781 1359.0
0.893999993801 -0.192000001669 0.219999998808 1367.0
0.888999998569 -0.196999996901 0.218999996781 1411.0
0.89200001955 -0.202999994159 0.219999998808 1456.0
0.89099997282 -0.208000004292 0.219999998808 1435.0
0.887000024319 -0.212999999523 0.218999996781 1395.0
0.888000011444 -0.218999996781 0.218999996781 1370.0
0.885999977589 -0.224000006914 0.218999996781 1387.0
0.884000003338 -0.229000002146 0.218999996781 1433.0
0.884999990463 -0.234999999404 0.219999998808 1414.0
0.884999990463 -0.240999996662 0.219999998808 1375.0
0.887000024319 -0.24699999392 0.221000000834 1382.0
0.884999990463 -0.252000004053 0.221000000834 1422.0
0.879000008106 -0.256000012159 0.218999996781 1422.0
0.880999982357 -0.263000011444 0.221000000834 1415.0
0.880999982357 -0.268000006676 0.221000000834 1412.0
0.878000020981 -0.273000001907 0.219999998808 1425.0
0.878000020981 -0.279000014067 0.221000000834 1454.0
0.880999982357 -0.286000013351 0.222000002861 1417.0
0.878000020981 -0.291000008583 0.222000002861 1438.0
0.882000029087 -0.298000007868 0.223000004888 1419.0
0.879000008106 -0.303000003099 0.223000004888 1427.0
0.875 -0.307000011206 0.222000002861 1438.0
0.874000012875 -0.312999993563 0.222000002861 1438.0
0.869000017643 -0.317000001669 0.222000002861 1454.0
0.870999991894 -0.324000000954 0.222000002861 1473.0
0.870999991894 -0.330000013113 0.223000004888 1468.0
0.870000004768 -0.33599999547 0.223000004888 1464.0
0.869000017643 -0.342000007629 0.224000006914 1499.0
0.869000017643 -0.347999989986 0.224000006914 1471.0
0.867999970913 -0.352999985218 0.224000006914 1477.0
0.862999975681 -0.358000010252 0.223000004888 1487.0
0.85799998045 -0.361999988556 0.223000004888 1471.0
0.861999988556 -0.370000004768 0.224000006914 1452.0
0.861999988556 -0.375999987125 0.22499999404 1445.0
0.862999975681 -0.38299998641 0.225999996066 1454.0
0.860000014305 -0.388000011444 0.225999996066 1443.0
0.85900002718 -0.393999993801 0.225999996066 1446.0
0.856999993324 -0.40000000596 0.225999996066 1412.0
0.856999993324 -0.405999988317 0.225999996066 1433.0
0.853999972343 -0.411000013351 0.225999996066 1438.0
0.856000006199 -0.418999999762 0.228000000119 1487.0
0.853999972343 -0.423999994993 0.228000000119 1499.0
0.848999977112 -0.428999990225 0.226999998093 1481.0
0.846000015736 -0.433999985456 0.226999998093 1475.0
0.851999998093 -0.444000005722 0.229000002146 1494.0
0.847999989986 -0.448000013828 0.229000002146 1446.0
0.847000002861 -0.455000013113 0.229000002146 1402.0
0.851000010967 -0.463999986649 0.231000006199 1394.0
0.838999986649 -0.463999986649 0.229000002146 1420.0
0.847000002861 -0.47499999404 0.231000006199 1379.0
0.846000015736 -0.481999993324 0.231999993324 1406.0
1.0870000124 0.64200001955 0.287000000477 479.0
1.15400004387 0.672999978065 0.303999990225 402.0
1.61300003529 0.926999986172 0.423999994993 232.0
1.67499995232 0.948000013828 0.439999997616 240.0
1.74199998379 0.972000002861 0.456000000238 222.0
1.78299999237 0.980000019073 0.465000003576 224.0
1.79600000381 0.972000002861 0.467000007629 213.0
1.78499996662 0.952000021935 0.462999999523 109.0
1.9659999609 1.01699995995 0.508000016212 91.0
2.05900001526 1.0490000248 0.52999997139 149.0
2.08500003815 1.04600000381 0.536000013351 270.0
2.07800006866 1.02600002289 0.532000005245 288.0
2.09200000763 1.01600003242 0.535000026226 291.0
2.08999991417 1.0 0.532999992371 285.0
2.08299994469 0.980000019073 0.52999997139 207.0
2.09299993515 0.96899998188 0.53100001812 117.0
2.15599989891 0.981999993324 0.546000003815 139.0
2.19799995422 0.985000014305 0.555000007153 264.0
2.21199989319 0.975000023842 0.556999981403 208.0
2.27200007439 0.985000014305 0.570999979973 120.0
3.25500011444 1.02600002289 0.794000029564 94.0
3.30800008774 1.02100002766 0.805999994278 71.0
3.32899999619 1.00499999523 0.810000002384 66.0
3.69199991226 1.0909999609 0.897000014782 93.0
3.72499990463 1.0759999752 0.903999984264 109.0
3.7539999485 1.05999994278 0.910000026226 94.0
3.83400011063 1.05799996853 0.927999973297 79.0
3.90599989891 1.0529999733 0.944999992847 63.0
4.11600017548 1.08299994469 0.994000017643 63.0
4.09999990463 1.05200004578 0.989000022411 82.0
4.11100006104 1.02900004387 0.990999996662 107.0
4.04500007629 0.986999988556 0.973999977112 111.0
4.10300016403 0.975000023842 0.986999988556 112.0
4.09600019455 0.948000013828 0.98400002718 108.0
4.15600013733 0.93599998951 0.996999979019 104.0
4.11199998856 0.899999976158 0.986000001431 104.0
4.09000015259 0.870000004768 0.978999972343 103.0
4.08799982071 0.84399998188 0.977999985218 84.0
4.14799976349 0.830999970436 0.990999996662 90.0
4.08500003815 0.792999982834 0.976000010967 69.0
4.15899991989 0.782000005245 0.991999983788 69.0
4.13899993896 0.751999974251 0.986999988556 75.0
4.10500001907 0.721000015736 0.977999985218 87.0
4.13199996948 0.700999975204 0.98400002718 81.0
4.12099981308 0.674000024796 0.980000019073 97.0
4.132999897 0.651000022888 0.981999993324 106.0
4.12300014496 0.624000012875 0.978999972343 104.0
4.10099983215 0.596000015736 0.973999977112 108.0
4.13999986649 0.577000021935 0.981999993324 104.0
4.1139998436 0.547999978065 0.976000010967 110.0
4.11600017548 0.523999989033 0.976000010967 103.0
4.14599990845 0.503000020981 0.981999993324 100.0
4.11100006104 0.474000006914 0.973999977112 110.0
4.10799980164 0.449000000954 0.972000002861 104.0
4.13800001144 0.428000003099 0.978999972343 80.0
0.912000000477 -0.118000000715 0.215000003576 624.0
0.901000022888 -0.122000001371 0.212999999523 1333.0
0.902000010014 -0.12800000608 0.212999999523 1343.0
0.901000022888 -0.133000001311 0.212999999523 1372.0
0.899999976158 -0.137999996543 0.212999999523 1379.0
0.902000010014 -0.143999993801 0.21400000155 1337.0
0.896000027657 -0.149000003934 0.212999999523 1353.0
0.903999984264 -0.156000003219 0.215000003576 1342.0
0.898999989033 -0.159999996424 0.21400000155 1400.0
0.893999993801 -0.165000006557 0.212999999523 1376.0
0.893999993801 -0.170000001788 0.212999999523 1368.0
0.897000014782 -0.175999999046 0.21400000155 1377.0
0.889999985695 -0.180000007153 0.211999997497 1385.0
0.893999993801 -0.187000006437 0.21400000155 1399.0
0.89099997282 -0.190999999642 0.212999999523 1387.0
0.894999980927 -0.197999998927 0.215000003576 1400.0
0.887000024319 -0.202000007033 0.212999999523 1427.0
0.884999990463 -0.207000002265 0.212999999523 1434.0
0.888999998569 -0.212999999523 0.21400000155 1431.0
0.887000024319 -0.217999994755 0.21400000155 1392.0
0.885999977589 -0.224000006914 0.21400000155 1391.0
0.879999995232 -0.228000000119 0.212999999523 1420.0
0.89200001955 -0.237000003457 0.216000005603 1396.0
0.879999995232 -0.238999992609 0.212999999523 1378.0
0.882000029087 -0.245000004768 0.21400000155 1391.0
0.880999982357 -0.250999987125 0.21400000155 1396.0
0.884999990463 -0.256999999285 0.215000003576 1412.0
0.882000029087 -0.261999994516 0.215000003576 1439.0
0.878000020981 -0.266999989748 0.21400000155 1414.0
0.876999974251 -0.273000001907 0.215000003576 1417.0
0.879999995232 -0.279000014067 0.216000005603 1459.0
0.883000016212 -0.286000013351 0.216999992728 1441.0
0.878000020981 -0.289999991655 0.216000005603 1420.0
0.876999974251 -0.296000003815 0.216000005603 1443.0
0.878000020981 -0.301999986172 0.216999992728 1434.0
0.869000017643 -0.305000007153 0.215000003576 1423.0
0.874000012875 -0.312999993563 0.216999992728 1459.0
0.871999979019 -0.317999988794 0.216999992728 1462.0
0.867999970913 -0.321999996901 0.216000005603 1470.0
0.867999970913 -0.328999996185 0.216999992728 1453.0
0.866999983788 -0.333999991417 0.216999992728 1468.0
0.874000012875 -0.342999994755 0.218999996781 1471.0
0.869000017643 -0.347000002861 0.217999994755 1482.0
0.864000022411 -0.351000010967 0.217999994755 1482.0
0.865999996662 -0.358999997377 0.218999996781 1490.0
0.861000001431 -0.361999988556 0.217999994755 1502.0
0.861000001431 -0.368999987841 0.217999994755 1480.0
0.865999996662 -0.377000004053 0.219999998808 1458.0
0.85900002718 -0.379999995232 0.218999996781 1436.0
0.865000009537 -0.388999998569 0.221000000834 1443.0
0.853999972343 -0.391000002623 0.218999996781 1427.0
0.855000019073 -0.398000001907 0.219999998808 1438.0
0.852999985218 -0.402999997139 0.219999998808 1431.0
0.853999972343 -0.409999996424 0.221000000834 1437.0
0.848999977112 -0.414999991655 0.219999998808 1460.0
0.851999998093 -0.42199999094 0.221000000834 1468.0
0.851999998093 -0.430000007153 0.222000002861 1472.0
0.850000023842 -0.435000002384 0.222000002861 1460.0
0.84500002861 -0.43900001049 0.221000000834 1452.0
0.847000002861 -0.446999996901 0.222000002861 1455.0
0.84500002861 -0.45300000906 0.223000004888 1372.0
0.846000015736 -0.460000008345 0.224000006914 1396.0
0.842999994755 -0.465999990702 0.224000006914 1416.0
0.848999977112 -0.476000010967 0.225999996066 1396.0
0.846000015736 -0.481999993324 0.225999996066 1427.0
1.10199999809 0.649999976158 0.282999992371 479.0
1.18200004101 0.688000023365 0.303000003099 376.0
1.68299996853 0.964999973774 0.430999994278 229.0
1.74199998379 0.985000014305 0.444999992847 236.0
1.71099996567 0.95300000906 0.43599998951 227.0
1.76900005341 0.971000015736 0.449000000954 224.0
1.76100003719 0.952000021935 0.446000009775 211.0
1.68799996376 0.898999989033 0.425999999046 100.0
2.02300000191 1.04499995708 0.509000003338 138.0
2.08800005913 1.06200003624 0.523000001907 262.0
2.09100008011 1.04700005054 0.523000001907 299.0
2.07800006866 1.02400004864 0.518000006676 297.0
2.08400011063 1.01100003719 0.518000006676 293.0
2.09100008011 0.999000012875 0.518999993801 281.0
2.07500004768 0.975000023842 0.513999998569 198.0
2.08899998665 0.966000020504 0.51599997282 109.0
2.17000007629 0.986999988556 0.535000026226 149.0
2.19099998474 0.980000019073 0.538999974728 276.0
2.21000003815 0.972999989986 0.541999995708 192.0
2.22799992561 0.963999986649 0.545000016689 102.0
2.39299988747 0.949000000954 0.579999983311 67.0
2.54399991035 0.955999970436 0.612999975681 67.0
3.28900003433 1.03499996662 0.78100001812 88.0
3.35199999809 1.03299999237 0.795000016689 83.0
3.68700003624 1.11199998856 0.874000012875 64.0
3.73200011253 1.10099995136 0.883000016212 93.0
3.73699998856 1.07799994946 0.883000016212 101.0
3.79299998283 1.06900000572 0.894999980927 101.0
3.77999997139 1.04100000858 0.89099997282 72.0
4.117000103 1.05499994755 0.967000007629 89.0
4.1360001564 1.0340000391 0.97000002861 114.0
4.09700012207 0.998000025749 0.959999978542 110.0
4.09999990463 0.972999989986 0.959999978542 109.0
4.10699987411 0.949000000954 0.961000025272 112.0
4.10900020599 0.924000024796 0.959999978542 110.0
4.11299991608 0.898999989033 0.959999978542 101.0
4.14400005341 0.879999995232 0.966000020504 81.0
4.05800008774 0.686999976635 0.940999984741 57.0
4.17000007629 0.680999994278 0.966000020504 76.0
4.12799978256 0.648999989033 0.955999970436 99.0
4.12699985504 0.624000012875 0.954999983311 104.0
4.08400011063 0.592999994755 0.944000005722 104.0
4.15500020981 0.57800000906 0.959999978542 107.0
4.06699991226 0.541000008583 0.93900001049 110.0
4.09800004959 0.521000027657 0.945999979973 109.0
4.10699987411 0.497999995947 0.948000013828 101.0
4.09100008011 0.470999985933 0.944000005722 97.0
4.08900022507 0.446999996901 0.943000018597 100.0
4.16599988937 0.430000007153 0.959999978542 73.0
0.910000026226 -0.118000000715 0.209000006318 626.0
0.898999989033 -0.122000001371 0.207000002265 1331.0
0.902000010014 -0.12800000608 0.208000004292 1360.0
0.899999976158 -0.133000001311 0.207000002265 1368.0
0.902999997139 -0.138999998569 0.208000004292 1378.0
0.896000027657 -0.143000006676 0.207000002265 1356.0
0.896000027657 -0.149000003934 0.207000002265 1359.0
0.898999989033 -0.153999999166 0.208000004292 1355.0
0.896000027657 -0.158999994397 0.207000002265 1399.0
0.893999993801 -0.165000006557 0.207000002265 1386.0
0.899999976158 -0.171000003815 0.209000006318 1374.0
0.893000006676 -0.17499999702 0.207000002265 1387.0
0.896000027657 -0.180999994278 0.208000004292 1391.0
0.893000006676 -0.186000004411 0.208000004292 1411.0
0.89099997282 -0.190999999642 0.208000004292 1391.0
0.893999993801 -0.197999998927 0.209000006318 1412.0
0.893999993801 -0.202999994159 0.209000006318 1432.0
0.89200001955 -0.208000004292 0.209000006318 1444.0
0.885999977589 -0.211999997497 0.208000004292 1444.0
0.889999985695 -0.218999996781 0.209000006318 1399.0
0.885999977589 -0.224000006914 0.208000004292 1393.0
0.887000024319 -0.229000002146 0.209000006318 1422.0
0.884000003338 -0.233999997377 0.208000004292 1437.0
0.883000016212 -0.239999994636 0.208000004292 1431.0
0.880999982357 -0.245000004768 0.208000004292 1420.0
0.879999995232 -0.25 0.208000004292 1411.0
0.875999987125 -0.254999995232 0.208000004292 1423.0
0.879999995232 -0.261999994516 0.209000006318 1435.0
0.879999995232 -0.266999989748 0.209000006318 1439.0
0.876999974251 -0.272000014782 0.209000006318 1426.0
0.880999982357 -0.279000014067 0.209999993443 1459.0
0.875 -0.282999992371 0.209000006318 1440.0
0.875 -0.28900000453 0.209999993443 1431.0
0.873000025749 -0.293999999762 0.209000006318 1435.0
0.878000020981 -0.301999986172 0.21099999547 1447.0
0.865000009537 -0.303000003099 0.209000006318 1418.0
0.871999979019 -0.312000006437 0.21099999547 1442.0
0.871999979019 -0.317999988794 0.21099999547 1469.0
0.869000017643 -0.323000013828 0.21099999547 1461.0
0.874000012875 -0.330000013113 0.211999997497 1440.0
0.865999996662 -0.333000004292 0.21099999547 1438.0
0.865999996662 -0.340000003576 0.21099999547 1458.0
0.867999970913 -0.345999985933 0.211999997497 1497.0
0.865999996662 -0.351999998093 0.211999997497 1460.0
0.865000009537 -0.358000010252 0.212999999523 1452.0
0.865999996662 -0.363999992609 0.212999999523 1480.0
0.866999983788 -0.370999991894 0.21400000155 1455.0
0.864000022411 -0.375999987125 0.21400000155 1468.0
0.862999975681 -0.381999999285 0.21400000155 1437.0
0.864000022411 -0.388999998569 0.215000003576 1428.0
0.85799998045 -0.391999989748 0.21400000155 1447.0
0.85799998045 -0.398999989033 0.215000003576 1431.0
0.85799998045 -0.405000001192 0.215000003576 1418.0
0.855000019073 -0.411000013351 0.215000003576 1434.0
0.852999985218 -0.416000008583 0.215000003576 1429.0
0.860000014305 -0.425999999046 0.217999994755 1446.0
0.850000023842 -0.428000003099 0.216000005603 1460.0
0.848999977112 -0.433999985456 0.216000005603 1427.0
0.851000010967 -0.442000001669 0.216999992728 1443.0
0.847000002861 -0.446000009775 0.216999992728 1444.0
0.848999977112 -0.455000013113 0.217999994755 1412.0
0.84500002861 -0.458999991417 0.217999994755 1433.0
0.847999989986 -0.467999994755 0.218999996781 1447.0
0.847999989986 -0.47499999404 0.219999998808 1441.0
0.84399998188 -0.479999989271 0.219999998808 1433.0
1.10300004482 0.649999976158 0.27500000596 482.0
1.19299995899 0.693000018597 0.29699999094 339.0
1.68499994278 0.964999973774 0.419999986887 231.0
1.68900001049 0.95300000906 0.418999999762 234.0
1.75499999523 0.976000010967 0.435000002384 220.0
1.74800002575 0.957000017166 0.432000011206 219.0
1.79600000381 0.96899998188 0.442000001669 203.0
1.78699994087 0.949999988079 0.43900001049 79.0
2.03900003433 1.05200004578 0.499000012875 114.0
2.07399988174 1.0529999733 0.505999982357 184.0
2.09200000763 1.04600000381 0.509000003338 273.0
2.08999991417 1.02900004387 0.507000029087 284.0
2.08299994469 1.00899994373 0.504000008106 290.0
2.08599996567 0.995000004768 0.503000020981 277.0
2.08999991417 0.981000006199 0.503000020981 196.0
2.11299991608 0.975000023842 0.508000016212 113.0
2.15700006485 0.980000019073 0.51700001955 155.0
2.17899990082 0.973999977112 0.521000027657 287.0
2.21099996567 0.971000015736 0.527999997139 183.0
2.23900008202 0.967999994755 0.532999992371 119.0
2.30999994278 0.930999994278 0.545000016689 68.0
2.82800006866 1.06099998951 0.662999987602 68.0
3.24300003052 1.01900005341 0.75 82.0
3.3069999218 1.01699995995 0.763000011444 78.0
3.56699991226 1.07400000095 0.823000013828 62.0
3.73099994659 1.09899997711 0.85900002718 90.0
3.70700001717 1.06799995899 0.851999998093 109.0
3.77800011635 1.06400001049 0.867999970913 100.0
4.14900016785 1.06200003624 0.949000000954 84.0
4.04500007629 1.00999999046 0.924000024796 108.0
4.09600019455 0.996999979019 0.934000015259 107.0
4.09299993515 0.97000002861 0.931999981403 109.0
4.09299993515 0.944999992847 0.931999981403 99.0
4.09299993515 0.919000029564 0.930999994278 93.0
4.23999977112 0.925999999046 0.962999999523 75.0
4.08500003815 0.666000008583 0.921000003815 67.0
4.15500020981 0.652000010014 0.93599998951 86.0
4.09600019455 0.617999970913 0.92199999094 88.0
4.15600013733 0.601999998093 0.935000002384 89.0
4.15500020981 0.577000021935 0.935000002384 88.0
4.16699981689 0.554000020027 0.936999976635 91.0
4.15199995041 0.527000010014 0.933000028133 86.0
4.1779999733 0.504999995232 0.938000023365 87.0
4.14499998093 0.476999998093 0.930000007153 83.0
4.14599990845 0.451999992132 0.930000007153 82.0
0.912000000477 -0.118000000715 0.203999996185 630.0
0.90600001812 -0.123000003397 0.202999994159 1321.0
