ply
format ascii 1.0
element vertex 907
property float x
property float y
property float z
property float intensity
end_header
4.55399990082 1.13499999046 -0.246000006795 70.0
4.47300004959 1.0870000124 -0.240999996662 68.0
4.51599979401 1.07000005245 -0.243000000715 69.0
4.57299995422 1.05499994755 -0.245000004768 63.0
4.57999992371 1.02900004387 -0.245000004768 68.0
4.49800014496 0.98299998045 -0.240999996662 60.0
4.61499977112 0.980000019073 -0.246000006795 64.0
4.67500019073 0.964999973774 -0.248999997973 64.0
4.67600011826 0.936999976635 -0.248999997973 66.0
4.63999986649 0.901000022888 -0.24699999392 67.0
4.63700008392 0.873000025749 -0.246000006795 62.0
4.71000003815 0.85799998045 -0.25 62.0
4.63199996948 0.816999971867 -0.245000004768 64.0
4.6970000267 0.800000011921 -0.247999995947 55.0
4.66300010681 0.76599997282 -0.246000006795 65.0
4.71799993515 0.746999979019 -0.248999997973 59.0
4.8109998703 0.704999983311 -0.252999991179 57.0
4.69299983978 0.660000026226 -0.246000006795 54.0
4.76300001144 0.64200001955 -0.25 54.0
4.78100013733 0.615999996662 -0.250999987125 50.0
2.50200009346 0.279000014067 -0.130999997258 50.0
2.40100002289 -0.104999996722 -0.123000003397 242.0
2.42700004578 -0.119999997318 -0.125 128.0
2.3710000515 -0.130999997258 -0.122000001371 156.0
2.32399988174 -0.142000004649 -0.119000002742 261.0
2.32899999619 -0.156000003219 -0.119000002742 113.0
2.63899993896 -0.223000004888 -0.135000005364 57.0
2.31100010872 -0.208000004292 -0.118000000715 132.0
2.22199988365 -0.212999999523 -0.11400000006 155.0
1.09599995613 -0.109999999404 -0.0560000017285 120.0
1.0039999485 -0.105999998748 -0.0520000010729 151.0
0.96899998188 -0.108000002801 -0.0500000007451 147.0
0.98400002718 -0.115000002086 -0.0509999990463 153.0
0.971000015736 -0.119000002742 -0.0500000007451 152.0
0.972999989986 -0.125 -0.0500000007451 155.0
0.990999996662 -0.133000001311 -0.0509999990463 155.0
0.981000006199 -0.137999996543 -0.0500000007451 165.0
1.00199997425 -0.146999999881 -0.0520000010729 163.0
0.986000001431 -0.15000000596 -0.0509999990463 163.0
0.973999977112 -0.153999999166 -0.0500000007451 163.0
0.995000004768 -0.163000002503 -0.0509999990463 154.0
0.981999993324 -0.166999995708 -0.0509999990463 160.0
0.981000006199 -0.172999992967 -0.0509999990463 158.0
0.962000012398 -0.17499999702 -0.0500000007451 159.0
0.972000002861 -0.182999998331 -0.0500000007451 162.0
0.976000010967 -0.188999995589 -0.0500000007451 157.0
0.945999979973 -0.188999995589 -0.0489999987185 154.0
0.978999972343 -0.202000007033 -0.0509999990463 159.0
0.976999998093 -0.207000002265 -0.0500000007451 161.0
0.963999986649 -0.209999993443 -0.0500000007451 151.0
0.981999993324 -0.219999998808 -0.0509999990463 154.0
0.957000017166 -0.219999998808 -0.0500000007451 157.0
0.97000002861 -0.229000002146 -0.0500000007451 156.0
0.971000015736 -0.234999999404 -0.0500000007451 153.0
0.98299998045 -0.244000002742 -0.0509999990463 151.0
0.966000020504 -0.246000006795 -0.0500000007451 156.0
0.96899998188 -0.252999991179 -0.0500000007451 151.0
0.958000004292 -0.256000012159 -0.0500000007451 150.0
0.944999992847 -0.259000003338 -0.0489999987185 150.0
0.973999977112 -0.273000001907 -0.0509999990463 141.0
0.963999986649 -0.275999993086 -0.0500000007451 140.0
0.97000002861 -0.284000009298 -0.0509999990463 142.0
0.95300000906 -0.284999996424 -0.0500000007451 145.0
0.971000015736 -0.29699999094 -0.0509999990463 144.0
0.939999997616 -0.293000012636 -0.0489999987185 138.0
0.972999989986 -0.310000002384 -0.0509999990463 137.0
0.935000002384 -0.303000003099 -0.0489999987185 127.0
0.976999998093 -0.324000000954 -0.0509999990463 138.0
0.959999978542 -0.324000000954 -0.0500000007451 136.0
0.976999998093 -0.337000012398 -0.0509999990463 131.0
0.941999971867 -0.331000000238 -0.0500000007451 132.0
0.945999979973 -0.337999999523 -0.0500000007451 133.0
0.930000007153 -0.338999986649 -0.0489999987185 129.0
0.924000024796 -0.342999994755 -0.0489999987185 127.0
0.938000023365 -0.354000002146 -0.0500000007451 126.0
0.921000003815 -0.354000002146 -0.0489999987185 126.0
0.910000026226 -0.356000006199 -0.0480000004172 129.0
0.930000007153 -0.370999991894 -0.0489999987185 126.0
0.912000000477 -0.368999987841 -0.0480000004172 119.0
0.930999994278 -0.384000003338 -0.0500000007451 122.0
0.913999974728 -0.38299998641 -0.0489999987185 119.0
0.967999994755 -0.412999987602 -0.0520000010729 116.0
0.944000005722 -0.409999996424 -0.0509999990463 111.0
0.925000011921 -0.407999992371 -0.0500000007451 105.0
0.902000010014 -0.404000014067 -0.0480000004172 117.0
0.938000023365 -0.426999986172 -0.0500000007451 117.0
0.926999986172 -0.428999990225 -0.0500000007451 112.0
0.938000023365 -0.441000014544 -0.0509999990463 113.0
0.913999974728 -0.437000006437 -0.0500000007451 105.0
0.907000005245 -0.439999997616 -0.0489999987185 115.0
0.934000015259 -0.460000008345 -0.0509999990463 115.0
0.943000018597 -0.472000002861 -0.0509999990463 102.0
0.916000008583 -0.465000003576 -0.0500000007451 101.0
0.90499997139 -0.467000007629 -0.0500000007451 103.0
0.898000001907 -0.469999998808 -0.0489999987185 105.0
0.902000010014 -0.479000002146 -0.0500000007451 99.0
0.884999990463 -0.476999998093 -0.0489999987185 91.0
0.902000010014 -0.493999987841 -0.0500000007451 93.0
0.935000002384 -0.518999993801 -0.0520000010729 90.0
0.949000000954 0.536000013351 -0.0640000030398 165.0
3.5039999485 1.78699994087 -0.230000004172 74.0
3.68300008774 1.85000002384 -0.240999996662 74.0
3.69499993324 1.7990000248 -0.239999994636 84.0
3.66700005531 1.75800001621 -0.238000005484 80.0
4.08500003815 1.9279999733 -0.263999998569 69.0
4.05700016022 1.88499999046 -0.261000007391 77.0
4.07000017166 1.83000004292 -0.261000007391 79.0
4.02099990845 1.77900004387 -0.256999999285 81.0
3.9470000267 1.71800005436 -0.250999987125 76.0
4.03599977493 1.72800004482 -0.256000012159 77.0
4.07600021362 1.7159999609 -0.25799998641 83.0
4.0689997673 1.68400001526 -0.256999999285 87.0
4.05800008774 1.65100002289 -0.256000012159 82.0
4.01000022888 1.60300004482 -0.252000004053 79.0
3.97600007057 1.56200003624 -0.248999997973 81.0
4.02099990845 1.55200004578 -0.250999987125 81.0
3.98200011253 1.50999999046 -0.247999995947 84.0
4.09600019455 1.52499997616 -0.254999995232 86.0
4.04199981689 1.47800004482 -0.250999987125 84.0
3.97499990463 1.42700004578 -0.246000006795 75.0
3.98799991608 1.40400004387 -0.246000006795 86.0
4.10699987411 1.41900002956 -0.252999991179 84.0
3.99300003052 1.35300004482 -0.246000006795 84.0
4.02299976349 1.3370000124 -0.24699999392 87.0
4.07000017166 1.32500004768 -0.248999997973 83.0
4.02699995041 1.28499996662 -0.246000006795 76.0
4.03399991989 1.26100003719 -0.246000006795 79.0
4.07999992371 1.24899995327 -0.247999995947 74.0
4.15299987793 1.24500000477 -0.252000004053 57.0
4.51700019836 1.32500004768 -0.273999989033 59.0
4.5110001564 1.29499995708 -0.273000001907 59.0
4.53000020981 1.27100002766 -0.273999989033 59.0
4.62900018692 1.26999998093 -0.279000014067 56.0
4.52500009537 1.12800002098 -0.270999997854 57.0
4.53100013733 1.10199999809 -0.270999997854 59.0
4.61600017548 1.09399998188 -0.27500000596 60.0
4.39699983597 1.01499998569 -0.261999994516 53.0
4.60799980164 1.03499996662 -0.273999989033 56.0
4.5720000267 0.971000015736 -0.270999997854 60.0
4.632999897 0.955999970436 -0.273999989033 61.0
4.62300014496 0.925999999046 -0.273000001907 57.0
4.70100021362 0.912999987602 -0.277999997139 53.0
4.52400016785 0.851999998093 -0.266999989748 58.0
4.76300001144 0.782999992371 -0.279000014067 55.0
4.74900007248 0.751999974251 -0.277999997139 59.0
4.67199993134 0.712999999523 -0.273000001907 52.0
4.90700006485 0.71899998188 -0.287000000477 53.0
4.92700004578 0.693000018597 -0.287999987602 51.0
4.85200023651 0.653999984264 -0.282999992371 53.0
2.3900001049 -0.104999996722 -0.136999994516 223.0
2.40799999237 -0.119000002742 -0.136999994516 128.0
2.36599993706 -0.130999997258 -0.135000005364 167.0
2.31399989128 -0.141000002623 -0.131999999285 260.0
2.45900011063 -0.207000002265 -0.140000000596 48.0
2.31100010872 -0.208000004292 -0.131999999285 134.0
2.20499992371 -0.21099999547 -0.126000002027 141.0
1.07799994946 -0.108000002801 -0.0619999989867 128.0
0.972000002861 -0.103000000119 -0.0560000017285 153.0
0.96899998188 -0.108000002801 -0.054999999702 156.0
0.990000009537 -0.115999996662 -0.0570000000298 150.0
0.999000012875 -0.123000003397 -0.0570000000298 156.0
0.971000015736 -0.125 -0.0560000017285 163.0
0.981999993324 -0.131999999285 -0.0560000017285 157.0
0.976000010967 -0.136999994516 -0.0560000017285 161.0
0.980000019073 -0.143000006676 -0.0560000017285 159.0
0.972999989986 -0.148000001907 -0.0560000017285 162.0
0.986999988556 -0.156000003219 -0.0570000000298 168.0
0.972999989986 -0.159999996424 -0.0560000017285 160.0
0.972000002861 -0.165000006557 -0.0560000017285 167.0
0.98299998045 -0.172999992967 -0.0560000017285 168.0
0.990999996662 -0.180000007153 -0.0570000000298 165.0
0.957000017166 -0.180000007153 -0.054999999702 154.0
0.97000002861 -0.187999993563 -0.0560000017285 160.0
0.96899998188 -0.194000005722 -0.0560000017285 160.0
0.981999993324 -0.202000007033 -0.0560000017285 160.0
0.980000019073 -0.208000004292 -0.0560000017285 165.0
0.973999977112 -0.211999997497 -0.0560000017285 155.0
0.96899998188 -0.216999992728 -0.0560000017285 153.0
0.973999977112 -0.224000006914 -0.0560000017285 162.0
0.967999994755 -0.229000002146 -0.0560000017285 157.0
0.953999996185 -0.231000006199 -0.054999999702 157.0
0.981999993324 -0.244000002742 -0.0570000000298 150.0
0.949000000954 -0.241999998689 -0.054999999702 154.0
0.97000002861 -0.252999991179 -0.0560000017285 154.0
0.967999994755 -0.259000003338 -0.0560000017285 154.0
0.972999989986 -0.266000002623 -0.0560000017285 148.0
0.962000012398 -0.268999993801 -0.0560000017285 151.0
0.976000010967 -0.279000014067 -0.0570000000298 141.0
0.964999973774 -0.282000005245 -0.0560000017285 141.0
0.954999983311 -0.284999996424 -0.054999999702 140.0
0.976000010967 -0.298000007868 -0.0570000000298 142.0
0.926999986172 -0.28900000453 -0.0540000014007 142.0
0.958000004292 -0.305000007153 -0.0560000017285 141.0
0.958999991417 -0.312000006437 -0.0560000017285 139.0
0.95300000906 -0.316000014544 -0.0560000017285 133.0
0.950999975204 -0.321000009775 -0.0560000017285 139.0
0.938000023365 -0.323000013828 -0.054999999702 124.0
0.952000021935 -0.333999991417 -0.0560000017285 131.0
0.927999973297 -0.331999987364 -0.054999999702 131.0
0.930000007153 -0.338999986649 -0.054999999702 128.0
0.907000005245 -0.337000012398 -0.0529999993742 128.0
0.939999997616 -0.354999989271 -0.054999999702 127.0
0.919000029564 -0.354000002146 -0.0540000014007 118.0
0.971000015736 -0.381000012159 -0.0570000000298 119.0
0.941999971867 -0.375999987125 -0.0560000017285 125.0
0.922999978065 -0.374000012875 -0.054999999702 120.0
0.898000001907 -0.370000004768 -0.0529999993742 121.0
0.934000015259 -0.391999989748 -0.0560000017285 115.0
0.916000008583 -0.391000002623 -0.054999999702 111.0
0.912999987602 -0.395999997854 -0.054999999702 114.0
0.930999994278 -0.411000013351 -0.0560000017285 112.0
0.955999970436 -0.428999990225 -0.0570000000298 116.0
0.910000026226 -0.41400000453 -0.054999999702 107.0
0.947000026703 -0.43900001049 -0.0570000000298 111.0
0.917999982834 -0.432000011206 -0.054999999702 108.0
0.910000026226 -0.435000002384 -0.054999999702 109.0
0.929000020027 -0.451000005007 -0.0560000017285 110.0
0.89200001955 -0.43900001049 -0.0540000014007 104.0
0.917999982834 -0.458999991417 -0.0560000017285 106.0
0.901000022888 -0.458000004292 -0.054999999702 104.0
0.930999994278 -0.481000006199 -0.0570000000298 100.0
0.912999987602 -0.477999985218 -0.0560000017285 91.0
0.944000005722 -0.501999974251 -0.0579999983311 94.0
0.949999988079 -0.513000011444 -0.0579999983311 98.0
0.888999998569 -0.486999988556 -0.054999999702 88.0
0.917999982834 -0.509999990463 -0.0570000000298 97.0
0.930999994278 0.533999979496 -0.0689999982715 780.0
0.931999981403 0.527000010014 -0.0689999982715 751.0
0.931999981403 0.518999993801 -0.0689999982715 717.0
0.93900001049 0.514999985695 -0.0689999982715 676.0
0.938000023365 0.507000029087 -0.0689999982715 634.0
0.936999976635 0.499000012875 -0.0680000036955 616.0
0.933000028133 0.490000009537 -0.0680000036955 590.0
0.936999976635 0.485000014305 -0.0680000036955 547.0
0.940999984741 0.479000002146 -0.0680000036955 501.0
0.933000028133 0.467999994755 -0.0670000016689 458.0
0.927999973297 0.458000004292 -0.0670000016689 432.0
0.922999978065 0.449000000954 -0.0659999996424 395.0
0.92199999094 0.441000014544 -0.0659999996424 375.0
0.898999989033 0.423999994993 -0.0640000030398 370.0
0.887000024319 0.412000000477 -0.0630000010133 323.0
0.885999977589 0.405000001192 -0.0630000010133 303.0
0.866999983788 0.389999985695 -0.0610000006855 271.0
0.90499997139 0.40000000596 -0.0640000030398 295.0
0.921000003815 0.400999993086 -0.0649999976158 360.0
0.912999987602 0.389999985695 -0.0640000030398 335.0
0.768999993801 0.317999988794 -0.0540000014007 149.0
0.615000009537 0.246000006795 -0.0430000014603 104.0
0.488999992609 0.192000001669 -0.0340000018477 84.0
0.202999994159 0.0780000016093 -0.0140000004321 62.0
0.0489999987185 0.0179999992251 -0.00400000018999 57.0
4.67500019073 1.74100005627 -0.319000005722 61.0
4.41099977493 1.61300003529 -0.300999999046 62.0
4.21899986267 1.51400005817 -0.287000000477 70.0
4.32899999619 1.52499997616 -0.293999999762 68.0
4.03399991989 1.39400005341 -0.273000001907 79.0
4.16900014877 1.4129999876 -0.282000005245 74.0
4.25099992752 1.4129999876 -0.287000000477 69.0
4.17600011826 1.36000001431 -0.280999988317 70.0
4.07800006866 1.30200004578 -0.273999989033 69.0
4.05999994278 1.26999998093 -0.272000014782 71.0
4.26999998093 1.30799996853 -0.286000013351 64.0
4.632999897 1.24199998379 -0.305999994278 54.0
4.78200006485 1.25199997425 -0.316000014544 54.0
4.56699991226 1.05400002003 -0.298999994993 53.0
4.75400018692 1.06799995899 -0.31099998951 52.0
2.4279999733 -0.0930000022054 -0.152999997139 101.0
2.39199995995 -0.104999996722 -0.15000000596 217.0
2.41100001335 -0.119999997318 -0.151999995112 126.0
2.35599994659 -0.129999995232 -0.148000001907 162.0
2.31699991226 -0.142000004649 -0.145999997854 231.0
2.32899999619 -0.156000003219 -0.145999997854 104.0
2.3180000782 -0.209000006318 -0.145999997854 141.0
2.20000004768 -0.21099999547 -0.137999996543 140.0
1.09000003338 -0.108999997377 -0.0689999982715 127.0
0.986999988556 -0.104000002146 -0.0619999989867 149.0
0.989000022411 -0.109999999404 -0.0619999989867 150.0
0.977999985218 -0.115000002086 -0.0619999989867 151.0
0.989000022411 -0.122000001371 -0.0619999989867 154.0
0.978999972343 -0.126000002027 -0.0619999989867 153.0
0.995000004768 -0.134000003338 -0.0630000010133 158.0
0.985000014305 -0.138999998569 -0.0619999989867 156.0
0.986000001431 -0.143999993801 -0.0619999989867 161.0
0.972999989986 -0.148000001907 -0.0610000006855 158.0
0.990999996662 -0.157000005245 -0.0630000010133 157.0
0.995000004768 -0.163000002503 -0.0630000010133 164.0
0.957000017166 -0.163000002503 -0.0599999986589 163.0
0.972000002861 -0.171000003815 -0.0610000006855 169.0
0.976000010967 -0.178000003099 -0.0619999989867 157.0
0.98400002718 -0.185000002384 -0.0619999989867 157.0
0.967999994755 -0.187999993563 -0.0610000006855 156.0
0.949000000954 -0.189999997616 -0.0599999986589 154.0
0.973999977112 -0.201000005007 -0.0619999989867 157.0
0.963999986649 -0.204999998212 -0.0610000006855 160.0
0.967000007629 -0.21099999547 -0.0610000006855 156.0
0.967000007629 -0.216999992728 -0.0610000006855 158.0
0.961000025272 -0.221000000834 -0.0610000006855 157.0
0.990000009537 -0.233999997377 -0.0630000010133 154.0
0.975000023842 -0.237000003457 -0.0619999989867 154.0
0.961000025272 -0.238999992609 -0.0610000006855 154.0
0.957000017166 -0.244000002742 -0.0610000006855 157.0
0.958000004292 -0.25 -0.0610000006855 155.0
0.964999973774 -0.25799998641 -0.0619999989867 149.0
0.973999977112 -0.266999989748 -0.0619999989867 152.0
0.972000002861 -0.272000014782 -0.0619999989867 147.0
0.926999986172 -0.264999985695 -0.0590000003576 144.0
0.943000018597 -0.275999993086 -0.0599999986589 146.0
0.958000004292 -0.287000000477 -0.0610000006855 138.0
0.954999983311 -0.291999995708 -0.0610000006855 145.0
0.963999986649 -0.300999999046 -0.0619999989867 142.0
0.957000017166 -0.305000007153 -0.0619999989867 138.0
0.944000005722 -0.307000011206 -0.0610000006855 134.0
0.961000025272 -0.319000005722 -0.0619999989867 138.0
0.963999986649 -0.326000005007 -0.0619999989867 134.0
0.971000015736 -0.335000008345 -0.0630000010133 132.0
0.915000021458 -0.321000009775 -0.0590000003576 129.0
0.943000018597 -0.337000012398 -0.0610000006855 130.0
0.941999971867 -0.342999994755 -0.0610000006855 131.0
0.944000005722 -0.34999999404 -0.0610000006855 124.0
0.958000004292 -0.363000005484 -0.0619999989867 122.0
0.925999999046 -0.356000006199 -0.0599999986589 123.0
0.929000020027 -0.363999992609 -0.0610000006855 126.0
0.962999999523 -0.384000003338 -0.0630000010133 123.0
0.935000002384 -0.379000008106 -0.0610000006855 117.0
0.939999997616 -0.388000011444 -0.0619999989867 116.0
0.90499997139 -0.379999995232 -0.0599999986589 115.0
0.958000004292 -0.409000009298 -0.0630000010133 111.0
0.933000028133 -0.405000001192 -0.0619999989867 111.0
0.933000028133 -0.412000000477 -0.0619999989867 115.0
0.944000005722 -0.423000007868 -0.0619999989867 121.0
0.980000019073 -0.446999996901 -0.0649999976158 108.0
0.949999988079 -0.439999997616 -0.0630000010133 109.0
0.938000023365 -0.442000001669 -0.0619999989867 108.0
0.907999992371 -0.433999985456 -0.0610000006855 112.0
0.930999994278 -0.451999992132 -0.0619999989867 108.0
0.90499997139 -0.446000009775 -0.0610000006855 101.0
0.925999999046 -0.463999986649 -0.0619999989867 104.0
0.930999994278 -0.474000006914 -0.0630000010133 104.0
0.931999981403 -0.481000006199 -0.0630000010133 100.0
0.925999999046 -0.485000014305 -0.0630000010133 97.0
0.912000000477 -0.485000014305 -0.0619999989867 98.0
0.95300000906 -0.514999985695 -0.0649999976158 97.0
0.907000005245 -0.497000008821 -0.0619999989867 108.0
0.954999983311 -0.53100001812 -0.0649999976158 94.0
0.922999978065 0.528999984264 -0.0740000009537 1170.0
0.929000020027 0.524999976158 -0.0750000029802 1158.0
0.922999978065 0.513999998569 -0.0740000009537 1162.0
0.92199999094 0.505999982357 -0.0740000009537 1165.0
0.926999986172 0.500999987125 -0.0740000009537 1160.0
0.930999994278 0.495999991894 -0.0740000009537 1161.0
0.929000020027 0.488000005484 -0.0740000009537 1164.0
0.931999981403 0.481999993324 -0.0729999989271 1156.0
0.926999986172 0.472000002861 -0.0729999989271 1133.0
0.935000002384 0.469000011683 -0.0729999989271 1114.0
0.936999976635 0.462999999523 -0.0729999989271 1102.0
0.93900001049 0.456999987364 -0.0729999989271 1076.0
0.939999997616 0.449999988079 -0.0729999989271 1101.0
0.943000018597 0.444999992847 -0.0729999989271 1104.0
0.950999975204 0.441000014544 -0.0729999989271 1050.0
0.945999979973 0.432000011206 -0.0729999989271 1058.0
0.948000013828 0.425999999046 -0.0729999989271 1050.0
0.958000004292 0.423999994993 -0.0729999989271 1017.0
0.950999975204 0.41400000453 -0.0729999989271 999.0
0.955999970436 0.409000009298 -0.0729999989271 982.0
0.955999970436 0.402000010014 -0.0729999989271 959.0
0.952000021935 0.393999993801 -0.0719999969006 916.0
0.962999999523 0.391999989748 -0.0729999989271 868.0
0.963999986649 0.386000007391 -0.0729999989271 846.0
0.959999978542 0.377000004053 -0.0719999969006 818.0
0.964999973774 0.372000008821 -0.0719999969006 789.0
0.967999994755 0.36700001359 -0.0719999969006 768.0
0.962999999523 0.358000010252 -0.0719999969006 742.0
0.961000025272 0.351000010967 -0.0719999969006 696.0
0.964999973774 0.345999985933 -0.0719999969006 670.0
0.967000007629 0.340999990702 -0.0719999969006 617.0
0.961000025272 0.331999987364 -0.0710000023246 589.0
0.964999973774 0.326999992132 -0.0710000023246 560.0
0.961000025272 0.319999992847 -0.0710000023246 528.0
0.967999994755 0.314999997616 -0.0710000023246 500.0
0.95300000906 0.305000007153 -0.070000000298 471.0
0.954999983311 0.298999994993 -0.070000000298 423.0
0.958000004292 0.293999999762 -0.070000000298 408.0
0.973999977112 0.291999995708 -0.0710000023246 374.0
0.963999986649 0.282999992371 -0.070000000298 352.0
0.945999979973 0.272000014782 -0.0689999982715 317.0
0.938000023365 0.263999998569 -0.0680000036955 288.0
0.952000021935 0.261000007391 -0.0689999982715 258.0
0.944000005722 0.252999991179 -0.0680000036955 243.0
0.93900001049 0.246000006795 -0.0680000036955 210.0
0.902999997139 0.231000006199 -0.0649999976158 231.0
0.967000007629 0.241999998689 -0.070000000298 300.0
0.955999970436 0.232999995351 -0.0689999982715 276.0
0.945999979973 0.22499999404 -0.0680000036955 245.0
0.962000012398 0.223000004888 -0.0689999982715 202.0
0.920000016689 0.207000002265 -0.0659999996424 180.0
0.902999997139 0.197999998927 -0.0649999976158 177.0
0.869000017643 0.180000007153 -0.0619999989867 125.0
0.847999989986 0.171000003815 -0.0599999986589 117.0
0.827000021935 0.16099999845 -0.0590000003576 97.0
0.816999971867 0.155000001192 -0.0579999983311 81.0
0.768999993801 0.141000002623 -0.054999999702 73.0
0.500999987125 0.0799999982119 -0.035000000149 50.0
2.42600011826 -0.0930000022054 -0.166999995708 112.0
2.38800001144 -0.104999996722 -0.16400000453 207.0
2.42100000381 -0.119999997318 -0.165999993682 124.0
2.35700011253 -0.130999997258 -0.162000000477 167.0
2.30900001526 -0.141000002623 -0.158999994397 234.0
2.34599995613 -0.157000005245 -0.16099999845 96.0
2.3220000267 -0.209000006318 -0.158999994397 145.0
2.18400001526 -0.209000006318 -0.15000000596 137.0
1.07799994946 -0.108000002801 -0.0740000009537 125.0
0.985000014305 -0.104000002146 -0.0680000036955 151.0
1.00600004196 -0.112000003457 -0.0689999982715 154.0
0.999000012875 -0.116999998689 -0.0689999982715 155.0
0.981999993324 -0.120999999344 -0.0680000036955 156.0
0.995000004768 -0.12800000608 -0.0689999982715 156.0
0.977999985218 -0.131999999285 -0.0670000016689 157.0
0.98400002718 -0.137999996543 -0.0680000036955 152.0
0.977999985218 -0.143000006676 -0.0670000016689 158.0
1.0039999485 -0.152999997139 -0.0689999982715 149.0
0.980000019073 -0.155000001192 -0.0680000036955 153.0
0.973999977112 -0.159999996424 -0.0670000016689 156.0
0.980000019073 -0.166999995708 -0.0680000036955 155.0
0.967000007629 -0.170000001788 -0.0670000016689 154.0
0.989000022411 -0.180000007153 -0.0680000036955 156.0
0.977999985218 -0.184000000358 -0.0680000036955 158.0
0.964999973774 -0.187000006437 -0.0670000016689 160.0
0.967000007629 -0.194000005722 -0.0670000016689 150.0
0.971000015736 -0.20000000298 -0.0670000016689 157.0
0.962000012398 -0.203999996185 -0.0670000016689 161.0
0.958000004292 -0.209000006318 -0.0659999996424 154.0
0.97000002861 -0.217999994755 -0.0670000016689 157.0
0.952000021935 -0.218999996781 -0.0659999996424 153.0
0.95300000906 -0.22499999404 -0.0659999996424 154.0
0.955999970436 -0.231999993324 -0.0659999996424 153.0
0.975000023842 -0.243000000715 -0.0680000036955 151.0
0.961000025272 -0.245000004768 -0.0670000016689 152.0
0.966000020504 -0.252000004053 -0.0670000016689 149.0
0.950999975204 -0.254000008106 -0.0659999996424 149.0
0.972999989986 -0.266999989748 -0.0680000036955 150.0
0.966000020504 -0.270999997854 -0.0680000036955 146.0
0.957000017166 -0.273999989033 -0.0670000016689 139.0
0.941999971867 -0.275999993086 -0.0659999996424 144.0
0.963999986649 -0.28900000453 -0.0680000036955 138.0
0.948000013828 -0.289999991655 -0.0670000016689 144.0
0.939999997616 -0.293000012636 -0.0659999996424 138.0
0.966000020504 -0.307999998331 -0.0680000036955 140.0
0.958999991417 -0.312000006437 -0.0680000036955 140.0
0.931999981403 -0.308999985456 -0.0659999996424 131.0
0.972999989986 -0.328999996185 -0.0689999982715 132.0
0.962000012398 -0.331999987364 -0.0680000036955 130.0
0.941999971867 -0.331000000238 -0.0670000016689 132.0
0.938000023365 -0.33599999547 -0.0670000016689 131.0
0.958000004292 -0.34999999404 -0.0680000036955 134.0
0.93599998951 -0.347999989986 -0.0670000016689 127.0
0.917999982834 -0.347000002861 -0.0649999976158 121.0
0.958999991417 -0.370000004768 -0.0680000036955 123.0
0.953999996185 -0.374000012875 -0.0680000036955 118.0
0.955999970436 -0.381000012159 -0.0680000036955 125.0
0.934000015259 -0.379000008106 -0.0670000016689 122.0
0.975000023842 -0.402999997139 -0.070000000298 119.0
0.930999994278 -0.391000002623 -0.0670000016689 116.0
0.943000018597 -0.402999997139 -0.0680000036955 114.0
0.879999995232 -0.381999999285 -0.0640000030398 113.0
0.954999983311 -0.421000003815 -0.0689999982715 107.0
0.934000015259 -0.418999999762 -0.0680000036955 111.0
0.901000022888 -0.411000013351 -0.0649999976158 112.0
0.958999991417 -0.444000005722 -0.070000000298 113.0
0.933000028133 -0.43900001049 -0.0680000036955 113.0
0.907000005245 -0.433999985456 -0.0659999996424 107.0
0.933000028133 -0.45300000906 -0.0680000036955 102.0
0.957000017166 -0.472000002861 -0.070000000298 108.0
0.93599998951 -0.469000011683 -0.0689999982715 99.0
0.945999979973 -0.481000006199 -0.070000000298 101.0
0.912000000477 -0.470999985933 -0.0670000016689 102.0
0.922999978065 -0.483999997377 -0.0680000036955 95.0
0.913999974728 -0.486999988556 -0.0680000036955 92.0
0.93900001049 -0.507000029087 -0.070000000298 95.0
0.917999982834 -0.503000020981 -0.0689999982715 98.0
0.945999979973 -0.526000022888 -0.0710000023246 99.0
0.921000003815 0.527999997139 -0.0799999982119 1103.0
0.921000003815 0.521000027657 -0.0799999982119 1144.0
0.920000016689 0.513000011444 -0.0799999982119 1153.0
0.924000024796 0.507000029087 -0.0799999982119 1175.0
0.922999978065 0.5 -0.0790000036359 1195.0
0.927999973297 0.495000004768 -0.0799999982119 1205.0
0.925999999046 0.486999988556 -0.0790000036359 1221.0
0.934000015259 0.483000010252 -0.0799999982119 1230.0
0.931999981403 0.47499999404 -0.0790000036359 1235.0
0.926999986172 0.465999990702 -0.0790000036359 1273.0
0.931999981403 0.46099999547 -0.0790000036359 1271.0
0.935000002384 0.455000013113 -0.0790000036359 1299.0
0.939999997616 0.451000005007 -0.0790000036359 1314.0
0.93599998951 0.442000001669 -0.0780000016093 1329.0
0.943000018597 0.437999993563 -0.0790000036359 1340.0
0.949999988079 0.433999985456 -0.0790000036359 1369.0
0.941999971867 0.423999994993 -0.0780000016093 1373.0
0.950999975204 0.421000003815 -0.0790000036359 1382.0
0.947000026703 0.412000000477 -0.0780000016093 1376.0
0.947000026703 0.405000001192 -0.0780000016093 1383.0
0.95300000906 0.400999993086 -0.0780000016093 1357.0
0.950999975204 0.393999993801 -0.0780000016093 1364.0
0.958999991417 0.389999985695 -0.0780000016093 1353.0
0.961000025272 0.384000003338 -0.0780000016093 1354.0
0.958999991417 0.377000004053 -0.0780000016093 1375.0
0.959999978542 0.370999991894 -0.0780000016093 1385.0
0.954999983311 0.361999988556 -0.0769999995828 1384.0
0.966000020504 0.360000014305 -0.0780000016093 1362.0
0.958000004292 0.34999999404 -0.0769999995828 1348.0
0.962000012398 0.344999998808 -0.0769999995828 1380.0
0.96899998188 0.342000007629 -0.0780000016093 1357.0
0.967999994755 0.335000008345 -0.0780000016093 1366.0
0.964999973774 0.326999992132 -0.0769999995828 1381.0
0.976999998093 0.324999988079 -0.0780000016093 1381.0
0.975000023842 0.317999988794 -0.0780000016093 1371.0
0.976999998093 0.312000006437 -0.0780000016093 1343.0
0.976000010967 0.305000007153 -0.0769999995828 1355.0
0.981000006199 0.300999999046 -0.0780000016093 1347.0
0.981999993324 0.294999986887 -0.0780000016093 1324.0
0.980000019073 0.287999987602 -0.0769999995828 1301.0
0.985000014305 0.282999992371 -0.0780000016093 1308.0
0.987999975681 0.277999997139 -0.0780000016093 1301.0
0.991999983788 0.273000001907 -0.0780000016093 1258.0
0.995000004768 0.266999989748 -0.0780000016093 1223.0
0.989000022411 0.259000003338 -0.0769999995828 1199.0
0.992999970913 0.254000008106 -0.0769999995828 1169.0
0.994000017643 0.247999995947 -0.0769999995828 1111.0
0.992999970913 0.241999998689 -0.0769999995828 1074.0
0.994000017643 0.236000001431 -0.0769999995828 1017.0
0.999000012875 0.231000006199 -0.0769999995828 985.0
1.0039999485 0.225999996066 -0.0780000016093 955.0
1.00199997425 0.219999998808 -0.0769999995828 904.0
1.0039999485 0.21400000155 -0.0780000016093 867.0
1.00800001621 0.209000006318 -0.0780000016093 829.0
1.01800000668 0.204999998212 -0.0780000016093 787.0
1.01400005817 0.197999998927 -0.0780000016093 737.0
1.00600004196 0.189999997616 -0.0769999995828 696.0
1.00800001621 0.184000000358 -0.0769999995828 665.0
1.01199996471 0.179000005126 -0.0780000016093 633.0
1.01199996471 0.172999992967 -0.0769999995828 601.0
1.00600004196 0.165999993682 -0.0769999995828 566.0
1.00999999046 0.16099999845 -0.0769999995828 533.0
1.01600003242 0.156000003219 -0.0769999995828 508.0
1.01999998093 0.15000000596 -0.0780000016093 474.0
1.02199995518 0.144999995828 -0.0780000016093 441.0
1.01499998569 0.137999996543 -0.0769999995828 410.0
1.01100003719 0.130999997258 -0.0769999995828 381.0
1.03499996662 0.12800000608 -0.0790000036359 348.0
1.05999994278 0.125 -0.0799999982119 329.0
1.07299995422 0.119999997318 -0.0810000002384 307.0
1.06500005722 0.112999998033 -0.0810000002384 281.0
1.05099999905 0.105999998748 -0.0790000036359 262.0
1.05499994755 0.10000000149 -0.0799999982119 237.0
1.05999994278 0.0939999967813 -0.0799999982119 217.0
1.0759999752 0.0890000015497 -0.0810000002384 243.0
1.05999994278 0.0759999975562 -0.0799999982119 283.0
1.05999994278 0.070000000298 -0.0799999982119 271.0
1.05900001526 0.0640000030398 -0.0799999982119 251.0
1.09700000286 0.0469999983907 -0.082000002265 180.0
1.12699997425 0.0419999994338 -0.0850000008941 169.0
1.14100003242 0.0359999984503 -0.0850000008941 150.0
1.17200005054 0.01600000076 -0.0879999995232 105.0
1.16799998283 0.00999999977648 -0.0869999974966 101.0
1.22899997234 0.00300000002608 -0.0920000001788 67.0
2.43700003624 -0.0930000022054 -0.181999996305 114.0
2.40199995041 -0.105999998748 -0.179000005126 219.0
2.40000009537 -0.119000002742 -0.179000005126 121.0
2.34699988365 -0.129999995232 -0.17499999702 164.0
2.32699990273 -0.143000006676 -0.172999992967 235.0
2.34899997711 -0.157000005245 -0.17499999702 95.0
2.28999996185 -0.207000002265 -0.171000003815 142.0
2.17000007629 -0.208000004292 -0.162000000477 128.0
1.03499996662 -0.104000002146 -0.0769999995828 141.0
0.980000019073 -0.104000002146 -0.0729999989271 151.0
0.980000019073 -0.108999997377 -0.0729999989271 152.0
0.96899998188 -0.11400000006 -0.0719999969006 159.0
0.972000002861 -0.119999997318 -0.0729999989271 152.0
0.958999991417 -0.123999997973 -0.0719999969006 162.0
0.989000022411 -0.133000001311 -0.0740000009537 157.0
0.97000002861 -0.136999994516 -0.0729999989271 152.0
1.00199997425 -0.146999999881 -0.0750000029802 157.0
0.987999975681 -0.150999993086 -0.0740000009537 162.0
0.985000014305 -0.156000003219 -0.0740000009537 161.0
0.947000026703 -0.156000003219 -0.0710000023246 160.0
0.963999986649 -0.16400000453 -0.0719999969006 158.0
0.98400002718 -0.173999994993 -0.0740000009537 155.0
0.980000019073 -0.179000005126 -0.0729999989271 159.0
0.986999988556 -0.186000004411 -0.0740000009537 161.0
0.939999997616 -0.181999996305 -0.070000000298 158.0
0.966000020504 -0.193000003695 -0.0719999969006 151.0
0.98400002718 -0.202999994159 -0.0740000009537 155.0
0.987999975681 -0.209999993443 -0.0740000009537 154.0
0.977999985218 -0.21400000155 -0.0740000009537 154.0
0.967000007629 -0.216999992728 -0.0729999989271 158.0
0.963999986649 -0.222000002861 -0.0729999989271 159.0
0.985000014305 -0.232999995351 -0.0740000009537 160.0
0.967999994755 -0.234999999404 -0.0729999989271 153.0
0.945999979973 -0.236000001431 -0.0710000023246 150.0
0.989000022411 -0.252000004053 -0.0750000029802 153.0
0.971000015736 -0.254000008106 -0.0729999989271 152.0
0.953999996185 -0.254999995232 -0.0719999969006 148.0
0.972999989986 -0.266999989748 -0.0740000009537 150.0
0.962999999523 -0.270000010729 -0.0729999989271 146.0
0.958999991417 -0.27500000596 -0.0729999989271 139.0
0.947000026703 -0.277000010014 -0.0719999969006 137.0
0.959999978542 -0.287000000477 -0.0729999989271 144.0
0.966000020504 -0.294999986887 -0.0740000009537 140.0
0.934000015259 -0.291999995708 -0.0710000023246 138.0
0.978999972343 -0.312000006437 -0.0750000029802 139.0
0.961000025272 -0.312000006437 -0.0729999989271 139.0
0.952000021935 -0.316000014544 -0.0729999989271 137.0
0.949999988079 -0.321000009775 -0.0729999989271 135.0
0.962000012398 -0.331999987364 -0.0740000009537 133.0
0.930999994278 -0.326999992132 -0.0719999969006 135.0
0.940999984741 -0.337000012398 -0.0719999969006 134.0
0.966000020504 -0.352999985218 -0.0740000009537 128.0
0.924000024796 -0.342999994755 -0.0710000023246 132.0
0.944999992847 -0.358000010252 -0.0729999989271 122.0
0.967000007629 -0.372999995947 -0.0750000029802 122.0
0.944000005722 -0.370000004768 -0.0729999989271 124.0
0.941999971867 -0.375999987125 -0.0729999989271 117.0
0.90600001812 -0.368000000715 -0.0710000023246 116.0
0.963999986649 -0.398000001907 -0.0750000029802 122.0
0.925999999046 -0.388999998569 -0.0719999969006 114.0
0.916999995708 -0.391999989748 -0.0719999969006 108.0
0.961000025272 -0.418000012636 -0.0750000029802 107.0
0.907000005245 -0.40000000596 -0.0710000023246 109.0
0.930000007153 -0.418000012636 -0.0729999989271 113.0
0.944999992847 -0.430999994278 -0.0750000029802 107.0
0.910000026226 -0.42199999094 -0.0719999969006 110.0
0.948000013828 -0.446999996901 -0.0750000029802 107.0
0.933000028133 -0.446999996901 -0.0740000009537 105.0
0.930000007153 -0.451999992132 -0.0740000009537 104.0
0.93900001049 -0.463999986649 -0.0750000029802 114.0
0.941999971867 -0.472000002861 -0.0750000029802 95.0
0.97000002861 -0.493999987841 -0.0780000016093 97.0
0.919000029564 -0.47499999404 -0.0740000009537 97.0
0.927999973297 -0.486999988556 -0.0750000029802 95.0
0.871999979019 -0.463999986649 -0.070000000298 95.0
0.941999971867 -0.509000003338 -0.0759999975562 95.0
0.972999989986 -0.533999979496 -0.0790000036359 95.0
0.912999987602 -0.508000016212 -0.0740000009537 93.0
0.929000020027 0.532999992371 -0.0869999974966 626.0
0.925999999046 0.523999989033 -0.0869999974966 687.0
0.921000003815 0.513000011444 -0.0860000029206 725.0
0.927999973297 0.509999990463 -0.0860000029206 752.0
0.929000020027 0.503000020981 -0.0860000029206 783.0
0.929000020027 0.495999991894 -0.0860000029206 824.0
0.93599998951 0.49200001359 -0.0860000029206 851.0
0.943000018597 0.488000005484 -0.0860000029206 880.0
0.930000007153 0.474000006914 -0.0850000008941 898.0
0.930999994278 0.467999994755 -0.0850000008941 946.0
0.936999976635 0.463999986649 -0.0850000008941 983.0
0.938000023365 0.456999987364 -0.0850000008941 1009.0
0.944000005722 0.451999992132 -0.0850000008941 1044.0
0.940999984741 0.444000005722 -0.0850000008941 1079.0
0.944000005722 0.437999993563 -0.0850000008941 1130.0
0.947000026703 0.432999998331 -0.0850000008941 1170.0
0.944999992847 0.425000011921 -0.0839999988675 1196.0
0.949999988079 0.421000003815 -0.0850000008941 1207.0
0.949999988079 0.412999987602 -0.0839999988675 1231.0
0.947000026703 0.405999988317 -0.0839999988675 1239.0
0.950999975204 0.400999993086 -0.0839999988675 1275.0
0.953999996185 0.395000010729 -0.0839999988675 1282.0
0.950999975204 0.386999994516 -0.0839999988675 1297.0
0.953999996185 0.381999999285 -0.0839999988675 1318.0
0.958999991417 0.377000004053 -0.0839999988675 1357.0
0.959999978542 0.370999991894 -0.0839999988675 1388.0
0.958000004292 0.363999992609 -0.082999996841 1402.0
0.959999978542 0.358000010252 -0.082999996841 1412.0
0.959999978542 0.351000010967 -0.082999996841 1428.0
0.959999978542 0.344999998808 -0.082999996841 1483.0
0.97000002861 0.342000007629 -0.0839999988675 1492.0
0.972000002861 0.33599999547 -0.0839999988675 1546.0
0.967000007629 0.32800000906 -0.082999996841 1588.0
0.967999994755 0.321999996901 -0.082999996841 1634.0
0.971000015736 0.317000001669 -0.082999996841 1660.0
0.96899998188 0.310000002384 -0.082999996841 1695.0
0.972000002861 0.303999990225 -0.082999996841 1705.0
0.977999985218 0.300000011921 -0.082999996841 1762.0
0.975000023842 0.293000012636 -0.082999996841 1797.0
0.977999985218 0.287000000477 -0.082999996841 1811.0
0.98299998045 0.282999992371 -0.082999996841 1839.0
0.98299998045 0.275999993086 -0.082999996841 1893.0
0.985000014305 0.270999997854 -0.082999996841 1870.0
0.985000014305 0.264999985695 -0.082999996841 1864.0
0.989000022411 0.259000003338 -0.082999996841 1869.0
0.987999975681 0.252999991179 -0.082999996841 1883.0
0.989000022411 0.24699999392 -0.082999996841 1880.0
0.992999970913 0.241999998689 -0.082999996841 1819.0
0.995000004768 0.236000001431 -0.082999996841 1773.0
0.999000012875 0.231000006199 -0.082999996841 1766.0
0.998000025749 0.22499999404 -0.082999996841 1772.0
0.998000025749 0.218999996781 -0.082999996841 1685.0
1.0 0.212999999523 -0.082999996841 1608.0
0.998000025749 0.207000002265 -0.082999996841 1554.0
1.00600004196 0.202000007033 -0.082999996841 1511.0
1.00999999046 0.196999996901 -0.0839999988675 1506.0
1.00600004196 0.189999997616 -0.082999996841 1390.0
1.00600004196 0.184000000358 -0.082999996841 1354.0
1.01400005817 0.180000007153 -0.0839999988675 1333.0
1.01300001144 0.172999992967 -0.082999996841 1323.0
1.00999999046 0.166999995708 -0.082999996841 1287.0
1.01199996471 0.16099999845 -0.082999996841 1244.0
1.02300000191 0.157000005245 -0.0839999988675 1216.0
1.01800000668 0.15000000596 -0.082999996841 1199.0
1.01499998569 0.143999993801 -0.082999996841 1167.0
1.01900005341 0.137999996543 -0.082999996841 1143.0
1.01999998093 0.131999999285 -0.082999996841 1108.0
1.03100001812 0.12800000608 -0.0839999988675 1066.0
1.02900004387 0.122000001371 -0.0839999988675 1014.0
1.03199994564 0.115999996662 -0.0839999988675 988.0
1.02600002289 0.108999997377 -0.0839999988675 959.0
1.0340000391 0.104000002146 -0.0839999988675 941.0
1.03499996662 0.097999997437 -0.0839999988675 903.0
1.03699994087 0.0920000001788 -0.0839999988675 872.0
1.04100000858 0.0869999974966 -0.0839999988675 847.0
1.0490000248 0.0810000002384 -0.0850000008941 823.0
1.03600001335 0.0740000009537 -0.0839999988675 801.0
1.04299998283 0.0689999982715 -0.0850000008941 768.0
1.0490000248 0.0630000010133 -0.0850000008941 743.0
1.04999995232 0.0570000000298 -0.0850000008941 731.0
1.05200004578 0.0509999990463 -0.0850000008941 715.0
1.04999995232 0.0450000017881 -0.0850000008941 689.0
1.04799997807 0.0390000008047 -0.0850000008941 663.0
1.05099999905 0.0329999998212 -0.0850000008941 638.0
1.05400002003 0.0270000007004 -0.0850000008941 631.0
1.05099999905 0.0209999997169 -0.0850000008941 606.0
1.06099998951 0.0149999996647 -0.0860000029206 584.0
1.05499994755 0.00899999961257 -0.0850000008941 551.0
1.07700002193 0.00300000002608 -0.0869999974966 451.0
2.40400004387 -0.0920000001788 -0.193000003695 121.0
2.39400005341 -0.104999996722 -0.192000001669 211.0
2.43300008774 -0.120999999344 -0.194999992847 127.0
2.37800002098 -0.131999999285 -0.190999999642 170.0
2.31200003624 -0.142000004649 -0.186000004411 226.0
2.23699998856 -0.15000000596 -0.180000007153 85.0
2.30900001526 -0.208000004292 -0.185000002384 148.0
2.18499994278 -0.209999993443 -0.17499999702 121.0
1.04400002956 -0.104999996722 -0.0839999988675 133.0
0.976000010967 -0.103000000119 -0.0790000036359 157.0
0.981000006199 -0.109999999404 -0.0790000036359 153.0
0.980000019073 -0.115000002086 -0.0790000036359 149.0
0.986999988556 -0.122000001371 -0.0790000036359 156.0
0.987999975681 -0.12800000608 -0.0799999982119 151.0
0.980000019073 -0.131999999285 -0.0790000036359 156.0
0.955999970436 -0.135000005364 -0.0769999995828 165.0
0.986999988556 -0.144999995828 -0.0799999982119 151.0
0.96899998188 -0.148000001907 -0.0780000016093 163.0
0.987999975681 -0.157000005245 -0.0799999982119 159.0
0.976999998093 -0.16099999845 -0.0790000036359 152.0
0.95300000906 -0.162000000477 -0.0769999995828 159.0
0.971000015736 -0.171000003815 -0.0780000016093 155.0
0.977999985218 -0.178000003099 -0.0790000036359 161.0
0.961000025272 -0.180999994278 -0.0780000016093 162.0
0.972000002861 -0.188999995589 -0.0790000036359 162.0
0.972000002861 -0.194999992847 -0.0790000036359 157.0
0.948000013828 -0.194999992847 -0.0769999995828 151.0
0.941999971867 -0.20000000298 -0.0759999975562 150.0
0.963999986649 -0.21099999547 -0.0780000016093 156.0
0.958000004292 -0.215000003576 -0.0780000016093 155.0
0.990999996662 -0.229000002146 -0.0799999982119 152.0
0.991999983788 -0.234999999404 -0.0810000002384 151.0
0.962000012398 -0.233999997377 -0.0780000016093 148.0
0.964999973774 -0.240999996662 -0.0790000036359 147.0
0.939999997616 -0.239999994636 -0.0769999995828 150.0
0.985000014305 -0.25799998641 -0.0799999982119 152.0
0.962999999523 -0.25799998641 -0.0790000036359 157.0
0.972999989986 -0.266999989748 -0.0790000036359 153.0
0.943000018597 -0.263999998569 -0.0769999995828 149.0
0.962000012398 -0.275999993086 -0.0790000036359 142.0
0.953999996185 -0.280000001192 -0.0780000016093 145.0
0.963999986649 -0.28900000453 -0.0790000036359 139.0
0.957000017166 -0.293000012636 -0.0790000036359 140.0
0.944000005722 -0.294999986887 -0.0780000016093 143.0
0.975000023842 -0.31099998951 -0.0799999982119 138.0
0.977999985218 -0.317999988794 -0.0810000002384 140.0
0.936999976635 -0.31099998951 -0.0769999995828 134.0
0.93900001049 -0.317999988794 -0.0780000016093 132.0
0.92199999094 -0.317999988794 -0.0759999975562 128.0
0.976000010967 -0.342999994755 -0.0810000002384 131.0
0.967000007629 -0.347000002861 -0.0799999982119 126.0
0.930999994278 -0.340000003576 -0.0769999995828 134.0
0.939999997616 -0.349000006914 -0.0780000016093 126.0
0.953999996185 -0.361000001431 -0.0799999982119 128.0
0.947000026703 -0.365000009537 -0.0790000036359 124.0
0.958999991417 -0.377000004053 -0.0799999982119 122.0
0.930000007153 -0.370999991894 -0.0780000016093 118.0
0.944000005722 -0.384000003338 -0.0790000036359 114.0
0.941999971867 -0.388999998569 -0.0790000036359 114.0
0.920000016689 -0.386999994516 -0.0780000016093 122.0
0.934000015259 -0.398999989033 -0.0790000036359 117.0
0.933000028133 -0.405000001192 -0.0790000036359 108.0
0.912999987602 -0.402999997139 -0.0769999995828 113.0
0.949000000954 -0.425999999046 -0.0810000002384 108.0
0.908999979496 -0.414999991655 -0.0769999995828 118.0
0.920000016689 -0.426999986172 -0.0790000036359 106.0
0.953999996185 -0.449999988079 -0.082000002265 106.0
0.941999971867 -0.451000005007 -0.0810000002384 105.0
0.930999994278 -0.45300000906 -0.0799999982119 101.0
0.899999976158 -0.444000005722 -0.0769999995828 104.0
0.976000010967 -0.490000009537 -0.0839999988675 100.0
0.962000012398 -0.490000009537 -0.082999996841 102.0
0.926999986172 -0.479000002146 -0.0799999982119 97.0
0.917999982834 -0.481999993324 -0.0799999982119 95.0
0.912999987602 -0.486000001431 -0.0799999982119 95.0
0.924000024796 -0.499000012875 -0.0810000002384 100.0
0.916000008583 -0.503000020981 -0.0799999982119 94.0
0.903999984264 -0.504000008106 -0.0790000036359 92.0
0.947000026703 0.527999997139 -0.0939999967813 154.0
0.930999994278 0.504000008106 -0.0920000001788 212.0
0.955999970436 0.509999990463 -0.0939999967813 244.0
0.944999992847 0.488999992609 -0.0930000022054 348.0
0.913999974728 0.451999992132 -0.0890000015497 284.0
0.912000000477 0.444000005722 -0.0879999995232 324.0
0.922999978065 0.442999988794 -0.0890000015497 362.0
0.908999979496 0.428999990225 -0.0879999995232 409.0
0.912000000477 0.423999994993 -0.0879999995232 453.0
0.931999981403 0.425999999046 -0.0890000015497 491.0
0.934000015259 0.421000003815 -0.0890000015497 522.0
0.945999979973 0.418999999762 -0.0900000035763 560.0
0.943000018597 0.411000013351 -0.0900000035763 598.0
0.944000005722 0.404000014067 -0.0890000015497 641.0
0.947000026703 0.398999989033 -0.0900000035763 676.0
0.952000021935 0.395000010729 -0.0900000035763 712.0
0.961000025272 0.391000002623 -0.0900000035763 730.0
0.961000025272 0.384000003338 -0.0900000035763 779.0
0.954999983311 0.375999987125 -0.0890000015497 809.0
0.961000025272 0.370999991894 -0.0900000035763 860.0
0.962999999523 0.365999996662 -0.0900000035763 893.0
0.958000004292 0.356999993324 -0.0890000015497 906.0
0.967999994755 0.354000002146 -0.0900000035763 926.0
0.971000015736 0.349000006914 -0.0900000035763 971.0
0.972000002861 0.342999994755 -0.0900000035763 991.0
0.975000023842 0.337000012398 -0.0900000035763 1034.0
0.97000002861 0.328999996185 -0.0890000015497 1083.0
0.973999977112 0.324000000954 -0.0890000015497 1142.0
0.980000019073 0.319999992847 -0.0900000035763 1177.0
0.967000007629 0.308999985456 -0.0879999995232 1224.0
0.977999985218 0.305999994278 -0.0890000015497 1247.0
0.975000023842 0.298999994993 -0.0890000015497 1278.0
0.98400002718 0.296000003815 -0.0900000035763 1312.0
0.981000006199 0.28900000453 -0.0890000015497 1360.0
0.98299998045 0.282999992371 -0.0890000015497 1387.0
0.981999993324 0.275999993086 -0.0890000015497 1410.0
0.980000019073 0.270000010729 -0.0890000015497 1451.0
0.986000001431 0.264999985695 -0.0890000015497 1468.0
0.986999988556 0.259000003338 -0.0890000015497 1495.0
0.989000022411 0.252999991179 -0.0890000015497 1530.0
0.990000009537 0.24699999392 -0.0890000015497 1567.0
0.990000009537 0.240999996662 -0.0890000015497 1555.0
0.990999996662 0.236000001431 -0.0890000015497 1574.0
0.995000004768 0.230000004172 -0.0890000015497 1626.0
0.995999991894 0.22499999404 -0.0890000015497 1602.0
1.0 0.218999996781 -0.0890000015497 1504.0
0.996999979019 0.212999999523 -0.0890000015497 1483.0
0.999000012875 0.207000002265 -0.0890000015497 1506.0
1.00300002098 0.202000007033 -0.0890000015497 1490.0
1.00699996948 0.195999994874 -0.0890000015497 1495.0
1.00300002098 0.189999997616 -0.0890000015497 1428.0
1.00699996948 0.184000000358 -0.0890000015497 1401.0
1.00600004196 0.178000003099 -0.0890000015497 1413.0
1.01100003719 0.172999992967 -0.0890000015497 1450.0
1.01100003719 0.166999995708 -0.0890000015497 1452.0
1.00800001621 0.16099999845 -0.0890000015497 1446.0
1.01400005817 0.155000001192 -0.0890000015497 1405.0
1.01699995995 0.15000000596 -0.0890000015497 1388.0
1.01300001144 0.143000006676 -0.0890000015497 1377.0
1.01499998569 0.137999996543 -0.0890000015497 1361.0
1.02199995518 0.133000001311 -0.0900000035763 1320.0
1.02400004864 0.127000004053 -0.0900000035763 1275.0
1.02300000191 0.120999999344 -0.0890000015497 1232.0
1.02400004864 0.115000002086 -0.0890000015497 1226.0
1.02699995041 0.108999997377 -0.0900000035763 1177.0
1.02900004387 0.104000002146 -0.0900000035763 1157.0
1.03199994564 0.097999997437 -0.0900000035763 1120.0
1.03299999237 0.0920000001788 -0.0900000035763 1081.0
1.02999997139 0.0860000029206 -0.0900000035763 1085.0
1.03299999237 0.0799999982119 -0.0900000035763 1086.0
1.03199994564 0.0740000009537 -0.0900000035763 1069.0
1.0340000391 0.0680000036955 -0.0900000035763 1083.0
1.04400002956 0.0630000010133 -0.0909999981523 1068.0
1.03900003433 0.0560000017285 -0.0900000035763 1069.0
1.04400002956 0.0509999990463 -0.0900000035763 1051.0
1.04299998283 0.0450000017881 -0.0900000035763 1036.0
1.04499995708 0.0390000008047 -0.0909999981523 992.0
1.05200004578 0.0329999998212 -0.0909999981523 961.0
1.0490000248 0.0270000007004 -0.0909999981523 961.0
1.0490000248 0.0209999997169 -0.0909999981523 955.0
1.05499994755 0.0149999996647 -0.0909999981523 941.0
1.0490000248 0.00899999961257 -0.0909999981523 922.0
1.04400002956 0.00300000002608 -0.0900000035763 800.0
1.0870000124 -0.00300000002608 -0.0939999967813 285.0
2.38400006294 -0.104999996722 -0.204999998212 211.0
2.44099998474 -0.122000001371 -0.209999993443 125.0
2.36299991608 -0.130999997258 -0.202999994159 168.0
2.31500005722 -0.142000004649 -0.199000000954 210.0
2.32899999619 -0.209999993443 -0.201000005007 148.0
2.10299992561 -0.202000007033 -0.180999994278 120.0
1.02499997616 -0.103000000119 -0.0879999995232 135.0
0.96899998188 -0.103000000119 -0.0839999988675 148.0
0.975000023842 -0.108999997377 -0.0839999988675 150.0
0.973999977112 -0.11400000006 -0.0839999988675 149.0
0.976000010967 -0.119999997318 -0.0839999988675 152.0
0.994000017643 -0.128999993205 -0.0860000029206 152.0
0.987999975681 -0.134000003338 -0.0850000008941 152.0
0.949000000954 -0.134000003338 -0.082000002265 154.0
