ply
format ascii 1.0
element vertex 956
property float x
property float y
property float z
property float intensity
end_header
0.961000025272 -0.509999990463 0.273000001907 81.0
1.2460000515 -0.694000005722 0.358000010252 166.0
1.25999999046 -0.712000012398 0.363999992609 282.0
1.26600003242 -0.726999998093 0.36700001359 342.0
3.12299990654 1.64600002766 0.852999985218 100.0
3.22000002861 1.67100000381 0.878000020981 88.0
3.40100002289 1.73800003529 0.925000011921 90.0
3.51799988747 1.76999998093 0.953999996185 135.0
3.48699998856 1.72699999809 0.943000018597 125.0
3.58100008965 1.7460000515 0.966000020504 107.0
3.85199999809 1.78900003433 1.03199994564 97.0
3.85299992561 1.76100003719 1.02999997139 124.0
3.84200000763 1.72699999809 1.02499997616 116.0
3.85700011253 1.70500004292 1.02600002289 123.0
3.91000008583 1.70000004768 1.0379999876 118.0
3.94499993324 1.68599998951 1.04499995708 121.0
3.87199997902 1.62600004673 1.02300000191 118.0
3.8900001049 1.60599994659 1.02600002289 118.0
3.92100000381 1.5909999609 1.03199994564 118.0
3.94400000572 1.5720000267 1.03600001335 121.0
3.95000004768 1.54600000381 1.03499996662 115.0
3.90199995041 1.5 1.02100002766 127.0
3.90100002289 1.47200000286 1.01900005341 131.0
3.96799993515 1.47000002861 1.0340000391 122.0
3.93700003624 1.43099999428 1.02400004864 121.0
3.88000011444 1.38399994373 1.00800001621 120.0
3.94600009918 1.37999999523 1.02300000191 117.0
3.93600010872 1.35000002384 1.01900005341 118.0
3.9319999218 1.3220000267 1.01600003242 117.0
3.96700000763 1.30700004101 1.02300000191 118.0
3.9470000267 1.27400004864 1.01600003242 115.0
3.93099999428 1.24199998379 1.01100003719 112.0
3.97099995613 1.22899997234 1.01999998093 111.0
3.91400003433 1.18499994278 1.00300002098 112.0
1.00499999523 -0.107000000775 0.248999997973 95.0
1.0039999485 -0.112999998033 0.248999997973 350.0
1.0 -0.119000002742 0.247999995947 619.0
1.00100004673 -0.125 0.248999997973 163.0
0.999000012875 -0.129999995232 0.247999995947 100.0
0.987999975681 -0.135000005364 0.246000006795 102.0
0.985000014305 -0.140000000596 0.245000004768 103.0
0.994000017643 -0.148000001907 0.247999995947 99.0
0.981000006199 -0.151999995112 0.245000004768 101.0
1.00600004196 -0.162000000477 0.250999987125 97.0
0.953999996185 -0.158999994397 0.238999992609 98.0
0.971000015736 -0.167999997735 0.243000000715 100.0
1.00199997425 -0.179000005126 0.250999987125 109.0
0.996999979019 -0.184000000358 0.25 102.0
1.00199997425 -0.190999999642 0.250999987125 104.0
1.02999997139 -0.202999994159 0.259000003338 108.0
0.96899998188 -0.196999996901 0.244000002742 103.0
0.986000001431 -0.207000002265 0.247999995947 108.0
0.98299998045 -0.211999997497 0.247999995947 99.0
0.972000002861 -0.216000005603 0.245000004768 109.0
0.986000001431 -0.22499999404 0.248999997973 103.0
0.981999993324 -0.230000004172 0.248999997973 107.0
0.981999993324 -0.237000003457 0.248999997973 101.0
0.995000004768 -0.246000006795 0.252999991179 98.0
0.967000007629 -0.245000004768 0.246000006795 101.0
0.944999992847 -0.245000004768 0.239999994636 105.0
0.959999978542 -0.256000012159 0.245000004768 103.0
0.978999972343 -0.266999989748 0.25 101.0
1.03100001812 -0.287999987602 0.263999998569 105.0
0.976000010967 -0.279000014067 0.25 99.0
0.930000007153 -0.272000014782 0.238999992609 101.0
0.949000000954 -0.284000009298 0.244000002742 101.0
0.957000017166 -0.291999995708 0.246000006795 100.0
0.938000023365 -0.291999995708 0.241999998689 102.0
1.00100004673 -0.319000005722 0.259000003338 97.0
0.971000015736 -0.316000014544 0.250999987125 104.0
0.962999999523 -0.319999992847 0.25 91.0
0.967999994755 -0.32800000906 0.250999987125 98.0
0.961000025272 -0.331999987364 0.25 95.0
0.971000015736 -0.342000007629 0.252999991179 101.0
0.992999970913 -0.356999993324 0.259999990463 93.0
0.917999982834 -0.33599999547 0.239999994636 90.0
0.978999972343 -0.365000009537 0.256999999285 92.0
0.948000013828 -0.360000014305 0.248999997973 90.0
0.948000013828 -0.36700001359 0.25 97.0
0.948000013828 -0.374000012875 0.25 93.0
0.98299998045 -0.393999993801 0.259999990463 93.0
0.961000025272 -0.391999989748 0.254999995232 90.0
0.934000015259 -0.388000011444 0.247999995947 88.0
0.987999975681 -0.418000012636 0.263999998569 89.0
0.926999986172 -0.398000001907 0.247999995947 83.0
0.949999988079 -0.416000008583 0.254999995232 92.0
0.958000004292 -0.425999999046 0.256999999285 92.0
0.944999992847 -0.426999986172 0.254000008106 92.0
0.957000017166 -0.439999997616 0.259000003338 87.0
0.954999983311 -0.446999996901 0.259000003338 84.0
0.963999986649 -0.458000004292 0.261999994516 77.0
0.98400002718 -0.47499999404 0.268000006676 80.0
0.903999984264 -0.442999988794 0.24699999392 87.0
0.915000021458 -0.456000000238 0.25 89.0
0.967999994755 -0.490000009537 0.266000002623 83.0
0.935000002384 -0.479999989271 0.256999999285 87.0
0.978999972343 -0.510999977589 0.270999997854 85.0
0.90499997139 -0.486999988556 0.250999987125 88.0
0.903999984264 -0.493999987841 0.252000004053 86.0
1.0340000391 -0.583000004292 0.291000008583 118.0
1.03999996185 -0.59500002861 0.293000012636 124.0
3.132999897 1.64900004864 0.834999978542 104.0
3.25500011444 1.68700003624 0.865000009537 86.0
3.37800002098 1.72399997711 0.894999980927 106.0
3.48300004005 1.75 0.921000003815 135.0
3.49099993706 1.72699999809 0.920000016689 128.0
3.60599994659 1.75499999523 0.948000013828 99.0
3.74499988556 1.76600003242 0.980000019073 73.0
3.82299995422 1.77300000191 0.998000025749 105.0
3.8789999485 1.76999998093 1.00999999046 135.0
3.84400010109 1.72500002384 0.999000012875 120.0
3.89700007439 1.72000002861 1.00999999046 119.0
3.91599988937 1.70000004768 1.01300001144 115.0
3.867000103 1.64999997616 0.998000025749 123.0
3.89299988747 1.63300001621 1.00300002098 119.0
3.86599993706 1.59399998188 0.994000017643 125.0
3.91400003433 1.58500003815 1.0039999485 119.0
3.93099999428 1.56400001049 1.00600004196 115.0
3.91300010681 1.52999997139 1.0 113.0
3.88899993896 1.49300003052 0.991999983788 116.0
3.90700006485 1.47200000286 0.994000017643 118.0
3.87599992752 1.43400001526 0.985000014305 118.0
3.86199998856 1.40199995041 0.978999972343 118.0
3.93700003624 1.40199995041 0.995999991894 117.0
3.92600011826 1.3710000515 0.991999983788 120.0
3.90300011635 1.3370000124 0.985000014305 117.0
3.93400001526 1.32000005245 0.990999996662 115.0
3.98000001907 1.30900001526 1.00100004673 116.0
3.98300004005 1.2840000391 1.0 125.0
3.92499995232 1.23899996281 0.98400002718 115.0
3.94799995422 1.22000002861 0.987999975681 113.0
3.94000005722 1.19099998474 0.985000014305 110.0
0.987999975681 -0.104999996722 0.238999992609 96.0
1.02400004864 -0.115000002086 0.247999995947 106.0
1.01100003719 -0.119999997318 0.245000004768 106.0
1.00899994373 -0.126000002027 0.245000004768 101.0
0.987999975681 -0.128999993205 0.239999994636 100.0
0.980000019073 -0.133000001311 0.238000005484 103.0
1.02900004387 -0.146999999881 0.25 102.0
0.966000020504 -0.143000006676 0.234999999404 107.0
1.00499999523 -0.155000001192 0.245000004768 106.0
0.981999993324 -0.158000007272 0.238999992609 111.0
0.975000023842 -0.162000000477 0.238000005484 102.0
0.966000020504 -0.166999995708 0.236000001431 102.0
1.01100003719 -0.180999994278 0.24699999392 105.0
0.973999977112 -0.180000007153 0.238000005484 104.0
1.00199997425 -0.190999999642 0.245000004768 107.0
1.01400005817 -0.20000000298 0.247999995947 107.0
0.976000010967 -0.197999998927 0.238999992609 103.0
0.995000004768 -0.208000004292 0.244000002742 106.0
0.98400002718 -0.211999997497 0.241999998689 109.0
0.98299998045 -0.217999994755 0.241999998689 104.0
1.01600003242 -0.231999993324 0.25 113.0
0.958999991417 -0.22499999404 0.237000003457 104.0
0.964999973774 -0.231999993324 0.238000005484 103.0
0.963999986649 -0.238000005484 0.238999992609 106.0
0.98400002718 -0.248999997973 0.244000002742 102.0
0.962999999523 -0.25 0.238999992609 111.0
0.963999986649 -0.256000012159 0.239999994636 96.0
0.953999996185 -0.259999990463 0.237000003457 105.0
0.950999975204 -0.264999985695 0.237000003457 109.0
0.966000020504 -0.275999993086 0.240999996662 107.0
0.967000007629 -0.282000005245 0.241999998689 102.0
0.996999979019 -0.298000007868 0.25 100.0
0.966000020504 -0.293999999762 0.241999998689 102.0
0.933000028133 -0.289999991655 0.233999997377 98.0
0.961000025272 -0.305999994278 0.241999998689 98.0
0.950999975204 -0.308999985456 0.239999994636 102.0
0.945999979973 -0.312999993563 0.238999992609 99.0
0.941999971867 -0.317999988794 0.238000005484 102.0
0.949999988079 -0.32800000906 0.240999996662 101.0
0.967000007629 -0.340000003576 0.246000006795 99.0
0.972000002861 -0.347999989986 0.247999995947 100.0
0.97000002861 -0.354999989271 0.247999995947 98.0
0.976000010967 -0.363999992609 0.25 104.0
0.919000029564 -0.347999989986 0.234999999404 97.0
0.949000000954 -0.36700001359 0.244000002742 92.0
0.995999991894 -0.391999989748 0.256999999285 91.0
0.943000018597 -0.377999991179 0.243000000715 93.0
0.973999977112 -0.397000014782 0.252000004053 102.0
0.972000002861 -0.402999997139 0.252000004053 90.0
0.990000009537 -0.418000012636 0.256999999285 92.0
0.90600001812 -0.388999998569 0.236000001431 86.0
0.944999992847 -0.412999987602 0.24699999392 90.0
0.933000028133 -0.41400000453 0.244000002742 92.0
0.95300000906 -0.430999994278 0.25 91.0
0.967999994755 -0.444999992847 0.254999995232 86.0
0.898000001907 -0.418999999762 0.237000003457 91.0
0.893999993801 -0.423999994993 0.236000001431 82.0
0.920000016689 -0.442999988794 0.244000002742 84.0
0.920000016689 -0.449999988079 0.245000004768 83.0
0.930999994278 -0.462999999523 0.247999995947 84.0
0.966000020504 -0.488999992609 0.259000003338 82.0
0.936999976635 -0.481000006199 0.252000004053 88.0
0.876999974251 -0.456999987364 0.236000001431 88.0
0.907999992371 -0.479999989271 0.245000004768 83.0
0.930000007153 -0.5 0.252000004053 85.0
0.925999999046 -0.504999995232 0.252000004053 82.0
0.933000028133 -0.51700001955 0.254000008106 84.0
0.944000005722 -0.538999974728 0.259000003338 93.0
3.1099998951 1.63399994373 0.806999981403 104.0
3.25999999046 1.68700003624 0.84399998188 87.0
3.50300002098 1.78499996662 0.903999984264 106.0
3.4960000515 1.75300002098 0.899999976158 129.0
3.48799991608 1.72200000286 0.896000027657 124.0
3.50300002098 1.70299994946 0.897000014782 100.0
3.82299995422 1.79999995232 0.975000023842 80.0
3.85100007057 1.7840000391 0.978999972343 96.0
3.90000009537 1.77699995041 0.990000009537 123.0
3.88899993896 1.74300003052 0.98400002718 128.0
3.84699988365 1.69599997997 0.971000015736 119.0
3.81900000572 1.65499997139 0.962000012398 122.0
3.88000011444 1.65299999714 0.976000010967 117.0
3.88000011444 1.625 0.973999977112 128.0
3.85700011253 1.58800005913 0.966000020504 125.0
3.8900001049 1.57299995422 0.972000002861 120.0
3.89299988747 1.54700005054 0.971000015736 123.0
3.96000003815 1.54499995708 0.985000014305 117.0
3.90000009537 1.49500000477 0.96899998188 122.0
3.9470000267 1.48500001431 0.977999985218 125.0
3.89299988747 1.43799996376 0.962999999523 120.0
3.93400001526 1.42599999905 0.972000002861 113.0
3.95799994469 1.40699994564 0.976000010967 119.0
3.96799993515 1.38399994373 0.976999998093 118.0
3.95199990273 1.35099995136 0.971000015736 117.0
3.91700005531 1.31299996376 0.961000025272 115.0
3.9509999752 1.29799997807 0.967999994755 123.0
3.95700001717 1.27300000191 0.967999994755 122.0
3.92600011826 1.23699998856 0.958999991417 114.0
3.93000006676 1.21300005913 0.958000004292 113.0
3.97499990463 1.20000004768 0.967999994755 102.0
1.00300002098 -0.107000000775 0.236000001431 98.0
1.0 -0.112000003457 0.236000001431 106.0
1.00999999046 -0.119999997318 0.238000005484 102.0
1.03299999237 -0.12800000608 0.244000002742 104.0
0.990000009537 -0.128999993205 0.233999997377 105.0
0.958000004292 -0.129999995232 0.225999996066 107.0
0.981999993324 -0.140000000596 0.231999993324 101.0
0.977999985218 -0.144999995828 0.231999993324 105.0
0.975000023842 -0.15000000596 0.231000006199 111.0
1.01400005817 -0.163000002503 0.240999996662 107.0
0.978999972343 -0.163000002503 0.231999993324 106.0
0.972000002861 -0.167999997735 0.231000006199 109.0
0.991999983788 -0.177000001073 0.236000001431 105.0
0.976000010967 -0.180000007153 0.231999993324 110.0
1.00600004196 -0.192000001669 0.239999994636 113.0
0.972000002861 -0.190999999642 0.231999993324 110.0
0.976000010967 -0.197999998927 0.232999995351 105.0
0.967000007629 -0.202000007033 0.231000006199 108.0
0.994000017643 -0.21400000155 0.238000005484 113.0
0.976000010967 -0.216000005603 0.233999997377 107.0
0.940999984741 -0.21400000155 0.225999996066 109.0
0.990999996662 -0.231999993324 0.238000005484 111.0
0.962999999523 -0.231000006199 0.231999993324 106.0
0.940999984741 -0.231999993324 0.226999998093 106.0
0.986999988556 -0.25 0.238000005484 105.0
0.976999998093 -0.252999991179 0.236000001431 107.0
0.975000023842 -0.259000003338 0.236000001431 103.0
0.959999978542 -0.261000007391 0.232999995351 110.0
0.945999979973 -0.263000011444 0.230000004172 106.0
0.976000010967 -0.277999997139 0.237000003457 105.0
0.953999996185 -0.277999997139 0.231999993324 107.0
0.97000002861 -0.28900000453 0.237000003457 96.0
0.97000002861 -0.296000003815 0.237000003457 99.0
0.973999977112 -0.303000003099 0.238999992609 110.0
0.93900001049 -0.298000007868 0.230000004172 99.0
0.967000007629 -0.31400001049 0.238000005484 102.0
0.93599998951 -0.310000002384 0.230000004172 96.0
0.940999984741 -0.317999988794 0.231999993324 100.0
0.986000001431 -0.340000003576 0.244000002742 102.0
0.945999979973 -0.331999987364 0.233999997377 97.0
0.947000026703 -0.338999986649 0.234999999404 98.0
0.949000000954 -0.345999985933 0.236000001431 97.0
0.958000004292 -0.356000006199 0.238999992609 104.0
0.945999979973 -0.358000010252 0.236000001431 94.0
0.955999970436 -0.368999987841 0.238999992609 92.0
0.977999985218 -0.384999990463 0.246000006795 93.0
0.926999986172 -0.370999991894 0.232999995351 93.0
0.915000021458 -0.372000008821 0.231000006199 89.0
0.907999992371 -0.375999987125 0.229000002146 91.0
0.971000015736 -0.409999996424 0.246000006795 86.0
0.92199999094 -0.395000010729 0.233999997377 88.0
0.910000026226 -0.397000014782 0.231999993324 82.0
0.939999997616 -0.416999995708 0.239999994636 91.0
0.986999988556 -0.444999992847 0.252999991179 84.0
0.952000021935 -0.43599998951 0.244000002742 84.0
0.917999982834 -0.428000003099 0.236000001431 87.0
0.93900001049 -0.444999992847 0.241999998689 87.0
0.966000020504 -0.465000003576 0.25 77.0
0.930999994278 -0.455000013113 0.240999996662 82.0
0.936999976635 -0.465000003576 0.244000002742 86.0
0.930999994278 -0.469999998808 0.243000000715 88.0
0.916000008583 -0.469000011683 0.238999992609 88.0
0.90499997139 -0.470999985933 0.237000003457 86.0
0.898999989033 -0.47499999404 0.236000001431 84.0
0.911000013351 -0.488999992609 0.239999994636 85.0
0.916000008583 -0.499000012875 0.241999998689 84.0
0.958000004292 -0.52999997139 0.254999995232 88.0
0.952000021935 -0.535000026226 0.254000008106 89.0
0.888999998569 -0.505999982357 0.238000005484 88.0
3.07999992371 1.64100003242 0.77999997139 85.0
3.07299995422 1.61199998856 0.776000022888 106.0
3.11400008202 1.60899996758 0.783999979496 92.0
3.51200008392 1.78699994087 0.882000029087 96.0
3.52300000191 1.76400005817 0.883000016212 128.0
3.51600003242 1.73399996758 0.879000008106 122.0
3.57399988174 1.73500001431 0.89099997282 87.0
3.8029999733 1.78699994087 0.944000005722 78.0
3.80800008774 1.76100003719 0.943000018597 116.0
3.83999991417 1.74699997902 0.948000013828 117.0
3.87700009346 1.73500001431 0.954999983311 118.0
3.86999988556 1.70299994946 0.950999975204 124.0
3.85199999809 1.66700005531 0.944999992847 125.0
3.86100006104 1.64300000668 0.944999992847 118.0
3.87800002098 1.62199997902 0.947000026703 122.0
3.85400009155 1.58399999142 0.93900001049 116.0
3.882999897 1.56799995899 0.944000005722 124.0
3.91899991035 1.55499994755 0.950999975204 119.0
3.91700005531 1.52600002289 0.949000000954 125.0
3.92600011826 1.50300002098 0.949000000954 111.0
3.9279999733 1.47599995136 0.948000013828 129.0
3.97699999809 1.46700000763 0.958000004292 119.0
3.95499992371 1.43099999428 0.950999975204 119.0
3.93300008774 1.39600002766 0.944000005722 124.0
3.93799996376 1.3710000515 0.944000005722 121.0
3.96300005913 1.35300004482 0.948000013828 123.0
3.95900011063 1.32500004768 0.945999979973 113.0
3.9509999752 1.29600000381 0.941999971867 118.0
3.93600010872 1.26499998569 0.936999976635 112.0
4.00400018692 1.25999999046 0.952000021935 114.0
3.93799996376 1.21300005913 0.935000002384 112.0
3.95300006866 1.19200003147 0.936999976635 97.0
1.01600003242 -0.108000002801 0.232999995351 96.0
0.977999985218 -0.109999999404 0.22499999404 102.0
0.971000015736 -0.115000002086 0.223000004888 102.0
0.977999985218 -0.120999999344 0.22499999404 106.0
0.987999975681 -0.12800000608 0.226999998093 109.0
0.990999996662 -0.135000005364 0.228000000119 103.0
0.98299998045 -0.140000000596 0.225999996066 105.0
0.975000023842 -0.143999993801 0.22499999404 109.0
1.00100004673 -0.153999999166 0.231000006199 108.0
0.972999989986 -0.156000003219 0.22499999404 109.0
0.986000001431 -0.16400000453 0.228000000119 113.0
0.978999972343 -0.167999997735 0.226999998093 107.0
1.00800001621 -0.180000007153 0.233999997377 117.0
0.992999970913 -0.182999998331 0.230000004172 104.0
0.964999973774 -0.184000000358 0.224000006914 107.0
1.01499998569 -0.20000000298 0.236000001431 113.0
1.01699995995 -0.206000000238 0.237000003457 111.0
0.976999998093 -0.203999996185 0.228000000119 107.0
0.962000012398 -0.207000002265 0.224000006914 112.0
0.994000017643 -0.219999998808 0.231999993324 112.0
0.978999972343 -0.223000004888 0.229000002146 110.0
0.966000020504 -0.225999996066 0.225999996066 107.0
0.995000004768 -0.238999992609 0.232999995351 110.0
0.981000006199 -0.241999998689 0.230000004172 108.0
0.986999988556 -0.248999997973 0.231999993324 100.0
1.01499998569 -0.263000011444 0.238999992609 110.0
0.976999998093 -0.259000003338 0.230000004172 110.0
0.991999983788 -0.270000010729 0.233999997377 106.0
0.955999970436 -0.266000002623 0.225999996066 104.0
0.96899998188 -0.275999993086 0.229000002146 104.0
0.986999988556 -0.287999987602 0.233999997377 107.0
0.958000004292 -0.284999996424 0.228000000119 107.0
0.955999970436 -0.291000008583 0.228000000119 104.0
0.967999994755 -0.300999999046 0.231000006199 107.0
0.963999986649 -0.305999994278 0.230000004172 109.0
0.971000015736 -0.314999997616 0.231999993324 104.0
0.953999996185 -0.314999997616 0.229000002146 105.0
0.954999983311 -0.321999996901 0.230000004172 102.0
0.98400002718 -0.338999986649 0.237000003457 95.0
0.941999971867 -0.330000013113 0.226999998093 104.0
0.936999976635 -0.335000008345 0.225999996066 97.0
0.938000023365 -0.342000007629 0.226999998093 108.0
0.97000002861 -0.361000001431 0.236000001431 95.0
0.978999972343 -0.370999991894 0.238000005484 96.0
0.96899998188 -0.374000012875 0.236000001431 97.0
0.977999985218 -0.384000003338 0.238999992609 96.0
0.95300000906 -0.381000012159 0.232999995351 96.0
0.911000013351 -0.370000004768 0.224000006914 91.0
0.933000028133 -0.386000007391 0.229000002146 94.0
0.976000010967 -0.411000013351 0.240999996662 96.0
0.93900001049 -0.402000010014 0.231999993324 91.0
0.919000029564 -0.40000000596 0.228000000119 89.0
0.922999978065 -0.409000009298 0.229000002146 89.0
0.925999999046 -0.416999995708 0.231000006199 88.0
0.98400002718 -0.451000005007 0.246000006795 91.0
0.947000026703 -0.441000014544 0.237000003457 88.0
0.958000004292 -0.45300000906 0.240999996662 85.0
1.00699996948 -0.483999997377 0.254000008106 86.0
0.961000025272 -0.469000011683 0.243000000715 88.0
0.947000026703 -0.469999998808 0.239999994636 89.0
0.908999979496 -0.458000004292 0.231000006199 83.0
0.945999979973 -0.483999997377 0.240999996662 87.0
0.940999984741 -0.488999992609 0.239999994636 86.0
0.889999985695 -0.469000011683 0.228000000119 83.0
0.98400002718 -0.527999997139 0.252999991179 83.0
0.920000016689 -0.508000016212 0.238000005484 89.0
0.874000012875 -0.488999992609 0.226999998093 89.0
3.07899999619 1.63699996471 0.758000016212 92.0
3.11899995804 1.63399994373 0.76599997282 97.0
3.18899989128 1.64499998093 0.78100001812 87.0
3.49000000954 1.77300000191 0.852999985218 106.0
3.54800009727 1.77499997616 0.865000009537 120.0
3.54200005531 1.74399995804 0.861000001431 117.0
3.83299994469 1.82799994946 0.927999973297 83.0
3.89800000191 1.79999995232 0.93900001049 112.0
3.83899998665 1.74399995804 0.92199999094 133.0
3.85400009155 1.72300004959 0.924000024796 126.0
3.86500000954 1.69900000095 0.925000011921 124.0
3.85700011253 1.66700005531 0.920000016689 117.0
3.84599995613 1.63399994373 0.916000008583 125.0
3.85199999809 1.60899996758 0.915000021458 117.0
3.89400005341 1.59800004959 0.922999978065 121.0
3.90799999237 1.5759999752 0.925000011921 120.0
3.89100003242 1.54200005531 0.919000029564 121.0
3.91899991035 1.52499997616 0.924000024796 117.0
3.88800001144 1.48599994183 0.915000021458 115.0
3.92499995232 1.47300004959 0.92199999094 123.0
3.95799994469 1.45799994469 0.927999973297 115.0
3.88899993896 1.40600001812 0.910000026226 116.0
3.94099998474 1.39699995518 0.920000016689 119.0
3.98699998856 1.38699996471 0.930000007153 123.0
3.95700001717 1.34899997711 0.921000003815 116.0
3.91100001335 1.30700004101 0.908999979496 123.0
3.97399997711 1.30200004578 0.92199999094 115.0
3.92899990082 1.26100003719 0.910000026226 108.0
3.93600010872 1.23699998856 0.911000013351 108.0
3.93600010872 1.21099996567 0.908999979496 104.0
3.95700001717 1.19099998474 0.912999987602 96.0
1.0 -0.105999998748 0.223000004888 98.0
1.00100004673 -0.112000003457 0.224000006914 103.0
1.02199995518 -0.120999999344 0.228000000119 110.0
1.01199996471 -0.125 0.225999996066 100.0
0.978999972343 -0.127000004053 0.218999996781 101.0
1.02199995518 -0.138999998569 0.229000002146 109.0
0.972999989986 -0.137999996543 0.217999994755 111.0
1.00199997425 -0.148000001907 0.22499999404 105.0
1.0039999485 -0.155000001192 0.225999996066 111.0
0.998000025749 -0.159999996424 0.224000006914 112.0
1.01199996471 -0.167999997735 0.228000000119 109.0
0.994000017643 -0.171000003815 0.224000006914 110.0
0.994000017643 -0.177000001073 0.224000006914 114.0
0.996999979019 -0.184000000358 0.22499999404 110.0
1.00100004673 -0.190999999642 0.225999996066 110.0
0.964999973774 -0.189999997616 0.217999994755 110.0
0.981000006199 -0.199000000954 0.222000002861 111.0
0.995999991894 -0.208000004292 0.225999996066 108.0
1.01900005341 -0.218999996781 0.231000006199 106.0
0.992999970913 -0.219999998808 0.225999996066 104.0
0.990999996662 -0.22499999404 0.22499999404 114.0
0.980000019073 -0.229000002146 0.223000004888 112.0
0.995000004768 -0.238999992609 0.226999998093 113.0
0.971000015736 -0.238999992609 0.222000002861 108.0
0.962999999523 -0.243000000715 0.219999998808 111.0
0.985000014305 -0.254999995232 0.225999996066 106.0
0.976000010967 -0.259000003338 0.224000006914 116.0
0.976000010967 -0.264999985695 0.224000006914 109.0
1.01199996471 -0.280999988317 0.232999995351 114.0
0.961000025272 -0.273000001907 0.222000002861 105.0
0.958999991417 -0.279000014067 0.221000000834 107.0
0.953999996185 -0.284000009298 0.221000000834 108.0
1.01699995995 -0.308999985456 0.236000001431 107.0
0.962999999523 -0.298999994993 0.224000006914 104.0
0.949999988079 -0.300999999046 0.221000000834 105.0
0.975000023842 -0.314999997616 0.226999998093 106.0
0.972000002861 -0.321000009775 0.226999998093 99.0
0.954999983311 -0.321999996901 0.223000004888 104.0
0.944000005722 -0.324000000954 0.221000000834 99.0
0.978999972343 -0.342999994755 0.230000004172 97.0
0.944999992847 -0.337999999523 0.222000002861 106.0
0.964999973774 -0.351000010967 0.226999998093 107.0
0.949999988079 -0.352999985218 0.224000006914 95.0
0.933000028133 -0.351999998093 0.221000000834 103.0
0.927999973297 -0.356999993324 0.219999998808 99.0
0.948000013828 -0.370999991894 0.22499999404 97.0
0.935000002384 -0.372999995947 0.223000004888 95.0
0.934000015259 -0.379000008106 0.223000004888 97.0
0.957000017166 -0.395000010729 0.229000002146 92.0
0.958000004292 -0.402999997139 0.230000004172 87.0
0.990999996662 -0.423999994993 0.238999992609 88.0
0.944999992847 -0.411000013351 0.228000000119 90.0
0.939999997616 -0.416000008583 0.226999998093 93.0
0.976999998093 -0.43900001049 0.237000003457 88.0
0.954999983311 -0.437000006437 0.231999993324 88.0
0.98299998045 -0.456999987364 0.239999994636 93.0
0.915000021458 -0.432000011206 0.224000006914 85.0
0.934000015259 -0.448000013828 0.229000002146 89.0
0.933000028133 -0.455000013113 0.229000002146 83.0
0.875 -0.432999998331 0.215000003576 90.0
0.962000012398 -0.483999997377 0.238000005484 91.0
0.930999994278 -0.476000010967 0.231000006199 89.0
0.973999977112 -0.505999982357 0.241999998689 81.0
0.912000000477 -0.481000006199 0.226999998093 88.0
0.938000023365 -0.501999974251 0.234999999404 85.0
0.925000011921 -0.501999974251 0.231999993324 90.0
0.883000016212 -0.486999988556 0.222000002861 85.0
0.851000010967 -0.476000010967 0.215000003576 87.0
0.887000024319 -0.503000020981 0.224000006914 86.0
3.09299993515 1.64300000668 0.740999996662 95.0
3.12599992752 1.63499999046 0.745999991894 103.0
3.13599991798 1.61600005627 0.746999979019 84.0
3.50500011444 1.77799999714 0.833000004292 113.0
3.56399989128 1.77999997139 0.84500002861 109.0
3.52099990845 1.73099994659 0.832000017166 109.0
3.78600001335 1.83299994469 0.893000006676 75.0
3.85100007057 1.80499994755 0.903999984264 81.0
3.81100010872 1.75800001621 0.89200001955 114.0
3.86899995804 1.75499999523 0.903999984264 138.0
3.84500002861 1.7159999609 0.896000027657 122.0
3.85100007057 1.69000005722 0.894999980927 124.0
3.91700005531 1.69099998474 0.908999979496 123.0
3.86400008202 1.63900005817 0.894999980927 123.0
3.84100008011 1.60199999809 0.887000024319 116.0
3.90599989891 1.60099995136 0.901000022888 115.0
3.86299991608 1.55599999428 0.888999998569 104.0
3.90199995041 1.54400002956 0.896000027657 102.0
3.87599992752 1.50699996948 0.888000011444 98.0
3.97000002861 1.51499998569 0.907999992371 99.0
3.99799990654 1.49800002575 0.912999987602 108.0
3.91599988937 1.44000005722 0.893000006676 116.0
3.93499994278 1.41999995708 0.894999980927 120.0
3.90400004387 1.38300001621 0.887000024319 116.0
3.90899991989 1.35699999332 0.885999977589 120.0
3.89199995995 1.32500004768 0.880999982357 120.0
3.97600007057 1.32700002193 0.898999989033 115.0
3.93700003624 1.2879999876 0.888000011444 117.0
3.92100000381 1.25699996948 0.883000016212 120.0
3.992000103 1.25300002098 0.898000001907 110.0
3.91400003433 1.20299994946 0.879000008106 116.0
3.91599988937 1.1779999733 0.878000020981 94.0
1.01100003719 -0.107000000775 0.219999998808 91.0
1.01300001144 -0.11400000006 0.219999998808 105.0
1.01499998569 -0.119999997318 0.221000000834 106.0
1.02100002766 -0.127000004053 0.222000002861 108.0
0.98299998045 -0.12800000608 0.21400000155 102.0
1.00100004673 -0.136000007391 0.217999994755 103.0
1.01699995995 -0.143999993801 0.222000002861 104.0
1.0039999485 -0.148000001907 0.218999996781 111.0
0.998000025749 -0.153999999166 0.217999994755 109.0
0.963999986649 -0.153999999166 0.21099999547 108.0
0.967000007629 -0.159999996424 0.211999997497 112.0
0.985000014305 -0.168999999762 0.216000005603 107.0
0.995000004768 -0.177000001073 0.217999994755 102.0
1.0039999485 -0.185000002384 0.219999998808 105.0
0.966000020504 -0.184000000358 0.211999997497 111.0
0.967999994755 -0.189999997616 0.212999999523 112.0
1.01300001144 -0.204999998212 0.223000004888 113.0
0.949999988079 -0.197999998927 0.209000006318 105.0
0.962000012398 -0.206000000238 0.211999997497 112.0
0.999000012875 -0.221000000834 0.221000000834 114.0
0.973999977112 -0.221000000834 0.216000005603 113.0
0.976999998093 -0.228000000119 0.216000005603 111.0
0.981000006199 -0.234999999404 0.217999994755 111.0
0.995000004768 -0.245000004768 0.221000000834 107.0
0.961000025272 -0.241999998689 0.21400000155 108.0
0.967000007629 -0.25 0.215000003576 108.0
0.938000023365 -0.247999995947 0.209000006318 116.0
0.973999977112 -0.263999998569 0.217999994755 107.0
0.973999977112 -0.270000010729 0.217999994755 114.0
0.978999972343 -0.277999997139 0.219999998808 113.0
0.978999972343 -0.284999996424 0.219999998808 111.0
0.966000020504 -0.287000000477 0.216999992728 108.0
0.976000010967 -0.296000003815 0.219999998808 108.0
0.931999981403 -0.28900000453 0.209999993443 108.0
0.992999970913 -0.314999997616 0.22499999404 106.0
0.948000013828 -0.305999994278 0.215000003576 105.0
0.973999977112 -0.321999996901 0.221000000834 102.0
0.98299998045 -0.331000000238 0.224000006914 100.0
0.977999985218 -0.33599999547 0.223000004888 106.0
0.978999972343 -0.342999994755 0.224000006914 101.0
0.966000020504 -0.344999998808 0.221000000834 97.0
0.981000006199 -0.356999993324 0.22499999404 100.0
0.952000021935 -0.352999985218 0.218999996781 102.0
0.967999994755 -0.365999996662 0.223000004888 98.0
0.980000019073 -0.377000004053 0.225999996066 98.0
0.954999983311 -0.374000012875 0.221000000834 95.0
0.948000013828 -0.377999991179 0.219999998808 100.0
0.925000011921 -0.375 0.215000003576 95.0
0.987999975681 -0.407999992371 0.230000004172 95.0
0.933000028133 -0.391999989748 0.217999994755 101.0
0.967000007629 -0.412999987602 0.225999996066 89.0
0.929000020027 -0.404000014067 0.217999994755 89.0
0.958999991417 -0.423999994993 0.225999996066 92.0
0.902999997139 -0.405000001192 0.212999999523 93.0
0.940999984741 -0.430000007153 0.222000002861 88.0
0.920000016689 -0.426999986172 0.217999994755 89.0
0.930000007153 -0.43900001049 0.221000000834 82.0
0.96899998188 -0.465000003576 0.231000006199 80.0
0.92199999094 -0.449000000954 0.219999998808 88.0
0.915000021458 -0.45300000906 0.218999996781 87.0
0.944999992847 -0.47499999404 0.226999998093 88.0
0.908999979496 -0.463999986649 0.218999996781 87.0
0.958000004292 -0.497000008821 0.231999993324 91.0
0.919000029564 -0.483999997377 0.223000004888 90.0
0.92199999094 -0.493000000715 0.224000006914 87.0
0.948000013828 -0.514999985695 0.231000006199 88.0
0.952000021935 -0.523999989033 0.232999995351 87.0
0.85900002718 -0.479999989271 0.21099999547 88.0
0.943000018597 -0.535000026226 0.231999993324 87.0
2.67700004578 1.52999997139 0.630999982357 86.0
3.12800002098 1.63399994373 0.726000010967 92.0
3.15000009537 1.6210000515 0.728999972343 77.0
3.48699998856 1.76600003242 0.805000007153 118.0
3.5720000267 1.78199994564 0.822000026703 124.0
3.54600000381 1.74100005627 0.81400001049 109.0
3.55900001526 1.72000002861 0.814999997616 74.0
3.87700009346 1.84399998188 0.885999977589 76.0
3.97799992561 1.86199998856 0.907000005245 79.0
3.82800006866 1.76300001144 0.870999991894 117.0
3.85800004005 1.74800002575 0.875999987125 123.0
3.90199995041 1.73899996281 0.884000003338 127.0
3.84200000763 1.68400001526 0.867999970913 119.0
3.87199997902 1.66900002956 0.873000025749 124.0
3.87199997902 1.64100003242 0.870999991894 118.0
3.89299988747 1.62199997902 0.874000012875 110.0
3.882999897 1.59000003338 0.870000004768 85.0
3.86599993706 1.55499994755 0.864000022411 79.0
3.94400000572 1.47599995136 0.875 67.0
3.92300009727 1.44099998474 0.869000017643 89.0
3.91000008583 1.4090000391 0.864000022411 110.0
3.84100008011 1.35800004005 0.847000002861 117.0
3.89100003242 1.35000002384 0.856999993324 120.0
3.92300009727 1.33399999142 0.862999975681 120.0
3.9509999752 1.31700003147 0.867999970913 114.0
3.95799994469 1.29299998283 0.867999970913 123.0
3.9279999733 1.25699996948 0.860000014305 115.0
3.96499991417 1.24300003052 0.866999983788 111.0
3.94600009918 1.21099996567 0.861000001431 117.0
3.92300009727 1.1779999733 0.855000019073 101.0
0.998000025749 -0.105999998748 0.21099999547 92.0
1.00999999046 -0.112999998033 0.212999999523 107.0
1.01499998569 -0.119999997318 0.215000003576 102.0
0.986999988556 -0.122000001371 0.209000006318 105.0
0.990999996662 -0.128999993205 0.209999993443 107.0
1.01499998569 -0.137999996543 0.215000003576 113.0
1.00899994373 -0.143000006676 0.21400000155 111.0
0.989000022411 -0.145999997854 0.209999993443 108.0
0.992999970913 -0.152999997139 0.21099999547 110.0
0.995000004768 -0.158999994397 0.211999997497 116.0
0.980000019073 -0.162000000477 0.208000004292 115.0
0.986999988556 -0.168999999762 0.209999993443 110.0
0.991999983788 -0.175999999046 0.211999997497 111.0
0.986999988556 -0.180999994278 0.21099999547 110.0
0.989000022411 -0.187999993563 0.21099999547 107.0
0.994000017643 -0.194999992847 0.212999999523 111.0
1.00899994373 -0.203999996185 0.216000005603 112.0
0.976999998093 -0.203999996185 0.209000006318 113.0
0.935000002384 -0.20000000298 0.20000000298 107.0
0.98299998045 -0.216999992728 0.21099999547 112.0
0.972999989986 -0.221000000834 0.209000006318 117.0
0.995000004768 -0.231999993324 0.215000003576 114.0
0.977999985218 -0.233999997377 0.21099999547 113.0
0.971000015736 -0.238000005484 0.209999993443 111.0
0.981999993324 -0.24699999392 0.212999999523 112.0
0.93900001049 -0.241999998689 0.202999994159 110.0
0.995000004768 -0.263000011444 0.216000005603 101.0
0.967000007629 -0.261999994516 0.209999993443 104.0
0.948000013828 -0.263000011444 0.206000000238 116.0
0.957000017166 -0.272000014782 0.209000006318 109.0
0.978999972343 -0.284000009298 0.21400000155 108.0
0.93900001049 -0.277999997139 0.204999998212 110.0
0.955999970436 -0.289999991655 0.209000006318 105.0
0.964999973774 -0.298999994993 0.211999997497 110.0
0.955999970436 -0.301999986172 0.209999993443 109.0
0.985000014305 -0.317999988794 0.216999992728 109.0
1.00899994373 -0.333000004292 0.223000004888 100.0
0.96899998188 -0.326000005007 0.21400000155 103.0
0.940999984741 -0.323000013828 0.208000004292 107.0
0.97000002861 -0.338999986649 0.215000003576 105.0
0.944999992847 -0.337000012398 0.209999993443 99.0
0.967000007629 -0.351000010967 0.216000005603 105.0
0.961000025272 -0.356000006199 0.215000003576 106.0
0.939999997616 -0.354000002146 0.209999993443 97.0
0.933000028133 -0.358000010252 0.209000006318 98.0
0.941999971867 -0.368000000715 0.211999997497 103.0
0.949999988079 -0.377999991179 0.21400000155 95.0
0.961000025272 -0.389999985695 0.216999992728 96.0
0.912000000477 -0.375999987125 0.206000000238 95.0
0.980000019073 -0.411000013351 0.222000002861 89.0
0.95300000906 -0.407000005245 0.216999992728 94.0
0.980000019073 -0.425999999046 0.224000006914 93.0
0.939999997616 -0.414999991655 0.215000003576 91.0
0.927999973297 -0.416000008583 0.212999999523 92.0
0.925000011921 -0.42199999094 0.211999997497 88.0
0.976999998093 -0.45300000906 0.22499999404 94.0
0.935000002384 -0.441000014544 0.216000005603 92.0
0.938000023365 -0.449000000954 0.216999992728 91.0
0.952000021935 -0.462999999523 0.221000000834 96.0
0.973999977112 -0.481999993324 0.226999998093 94.0
0.955999970436 -0.479999989271 0.223000004888 90.0
0.912000000477 -0.465000003576 0.21400000155 89.0
0.878000020981 -0.453999996185 0.206000000238 82.0
0.936999976635 -0.493000000715 0.221000000834 88.0
1.00199997425 -0.535000026226 0.237000003457 81.0
0.927999973297 -0.503000020981 0.219999998808 87.0
0.935000002384 -0.514999985695 0.223000004888 83.0
0.967999994755 -0.540000021458 0.231000006199 84.0
0.874000012875 -0.495000004768 0.209000006318 85.0
3.06399989128 1.62300002575 0.691999971867 114.0
3.13800001144 1.63699996471 0.707000017166 92.0
3.32100009918 1.70599997044 0.745999991894 77.0
3.5680000782 1.80499994755 0.800000011921 108.0
3.52600002289 1.75600004196 0.787999987602 122.0
3.58999991417 1.76100003719 0.800000011921 102.0
3.79999995232 1.77699995041 0.841000020504 87.0
3.80200004578 1.74899995327 0.839999973774 119.0
3.80500006676 1.72200000286 0.837999999523 132.0
3.86100006104 1.71899998188 0.848999977112 131.0
3.83699989319 1.67999994755 0.842000007629 122.0
3.88199996948 1.67100000381 0.850000023842 130.0
3.83599996567 1.62399995327 0.837999999523 103.0
3.91499996185 1.4090000391 0.839999973774 86.0
3.95700001717 1.39800000191 0.847999989986 105.0
3.96900010109 1.375 0.848999977112 119.0
3.97199988365 1.34899997711 0.847999989986 114.0
3.95900011063 1.31799995899 0.84399998188 114.0
3.97300004959 1.29700005054 0.846000015736 117.0
3.95900011063 1.26600003242 0.842000007629 114.0
3.99099993706 1.25 0.847000002861 109.0
3.92700004578 1.20399999619 0.832000017166 119.0
3.92600011826 1.1779999733 0.830999970436 95.0
0.972000002861 -0.103000000119 0.199000000954 95.0
0.991999983788 -0.111000001431 0.203999996185 108.0
1.02400004864 -0.120999999344 0.209999993443 106.0
0.966000020504 -0.119000002742 0.197999998927 113.0
0.995999991894 -0.128999993205 0.204999998212 107.0
1.00100004673 -0.136000007391 0.206000000238 111.0
0.971000015736 -0.136999994516 0.20000000298 110.0
0.995000004768 -0.146999999881 0.204999998212 108.0
0.996999979019 -0.152999997139 0.206000000238 109.0
0.966000020504 -0.153999999166 0.199000000954 107.0
1.0 -0.165999993682 0.207000002265 104.0
1.00699996948 -0.172999992967 0.208000004292 110.0
1.0 -0.178000003099 0.207000002265 114.0
0.973999977112 -0.179000005126 0.202000007033 108.0
0.985000014305 -0.187000006437 0.203999996185 120.0
0.977999985218 -0.192000001669 0.202999994159 115.0
0.985000014305 -0.199000000954 0.204999998212 110.0
0.994000017643 -0.207000002265 0.207000002265 106.0
0.98299998045 -0.21099999547 0.204999998212 115.0
0.98299998045 -0.216999992728 0.204999998212 114.0
0.959999978542 -0.216999992728 0.20000000298 115.0
1.00699996948 -0.234999999404 0.21099999547 114.0
1.00899994373 -0.240999996662 0.21099999547 120.0
0.967999994755 -0.238000005484 0.202999994159 108.0
0.981000006199 -0.24699999392 0.206000000238 111.0
0.948000013828 -0.245000004768 0.199000000954 113.0
0.958999991417 -0.254000008106 0.202000007033 109.0
1.00499999523 -0.272000014782 0.211999997497 108.0
0.985000014305 -0.273000001907 0.208000004292 115.0
0.980000019073 -0.277999997139 0.208000004292 106.0
0.963999986649 -0.279000014067 0.203999996185 104.0
0.944000005722 -0.280000001192 0.20000000298 111.0
0.975000023842 -0.294999986887 0.207000002265 112.0
0.989000022411 -0.305999994278 0.21099999547 107.0
0.954999983311 -0.301999986172 0.203999996185 115.0
0.955999970436 -0.307999998331 0.203999996185 102.0
0.97000002861 -0.319000005722 0.208000004292 105.0
0.978999972343 -0.328999996185 0.209999993443 108.0
0.967000007629 -0.331000000238 0.208000004292 108.0
0.959999978542 -0.33599999547 0.207000002265 105.0
0.93900001049 -0.333999991417 0.202999994159 102.0
0.955999970436 -0.347000002861 0.207000002265 100.0
1.00199997425 -0.370999991894 0.216999992728 104.0
0.963999986649 -0.363000005484 0.209999993443 100.0
0.940999984741 -0.361000001431 0.204999998212 98.0
0.989000022411 -0.386999994516 0.216000005603 100.0
0.910000026226 -0.361999988556 0.199000000954 100.0
0.927999973297 -0.375999987125 0.202999994159 99.0
0.943000018597 -0.388000011444 0.207000002265 94.0
0.912999987602 -0.381999999285 0.201000005007 100.0
0.927999973297 -0.395999997854 0.204999998212 91.0
0.948000013828 -0.411000013351 0.209999993443 93.0
0.936999976635 -0.412999987602 0.208000004292 92.0
0.917999982834 -0.411000013351 0.203999996185 93.0
0.941999971867 -0.428999990225 0.209999993443 86.0
0.962000012398 -0.446000009775 0.215000003576 92.0
0.938000023365 -0.441000014544 0.209999993443 89.0
0.959999978542 -0.458999991417 0.216000005603 86.0
0.959999978542 -0.465999990702 0.216999992728 96.0
0.975000023842 -0.481000006199 0.221000000834 92.0
0.913999974728 -0.458000004292 0.207000002265 88.0
0.936999976635 -0.476999998093 0.212999999523 90.0
0.958999991417 -0.495999991894 0.218999996781 83.0
0.893000006676 -0.469000011683 0.203999996185 81.0
0.871999979019 -0.465000003576 0.20000000298 86.0
0.894999980927 -0.483999997377 0.206000000238 83.0
0.902000010014 -0.495000004768 0.208000004292 103.0
0.898000001907 -0.500999987125 0.208000004292 87.0
0.962000012398 -0.545000016689 0.224000006914 90.0
3.10299992561 1.64199995995 0.680000007153 102.0
3.19199991226 1.6629999876 0.697000026703 85.0
3.43600010872 1.76300001144 0.749000012875 79.0
3.50999999046 1.77300000191 0.763000011444 126.0
3.48900008202 1.73599994183 0.755999982357 122.0
3.51900005341 1.72300004959 0.760999977589 102.0
3.75200009346 1.77999997139 0.806999981403 75.0
3.79399991035 1.77199995518 0.814999997616 90.0
3.8069999218 1.74899995327 0.815999984741 133.0
3.86100006104 1.74500000477 0.824999988079 120.0
3.84500002861 1.70899999142 0.819999992847 118.0
3.85899996758 1.68700003624 0.820999979973 118.0
3.86800003052 1.6629999876 0.820999979973 105.0
3.95000004768 1.66999995708 0.837000012398 81.0
3.8900001049 1.39900004864 0.810000002384 69.0
3.94199991226 1.39100003242 0.819000005722 90.0
3.94199991226 1.36399996281 0.818000018597 106.0
3.93300008774 1.33399999142 0.814999997616 117.0
3.93000006676 1.30700004101 0.813000023365 121.0
3.9279999733 1.27999997139 0.81099998951 120.0
3.95499992371 1.26300001144 0.814999997616 112.0
3.97900009155 1.24399995804 0.819000005722 113.0
3.93000006676 1.20299994946 0.808000028133 117.0
3.92100000381 1.17499995232 0.805000007153 90.0
1.11199998856 -0.112000003457 0.221000000834 52.0
1.00800001621 -0.107000000775 0.20000000298 103.0
0.990999996662 -0.111000001431 0.196999996901 107.0
0.966000020504 -0.11400000006 0.192000001669 111.0
1.00199997425 -0.123999997973 0.20000000298 107.0
0.990999996662 -0.12800000608 0.197999998927 114.0
1.00199997425 -0.136000007391 0.20000000298 110.0
0.994000017643 -0.141000002623 0.199000000954 106.0
0.980000019073 -0.143999993801 0.195999994874 111.0
0.995999991894 -0.152999997139 0.199000000954 113.0
1.01300001144 -0.162000000477 0.202999994159 113.0
1.02100002766 -0.168999999762 0.204999998212 107.0
0.985000014305 -0.168999999762 0.197999998927 108.0
0.973999977112 -0.172999992967 0.195999994874 111.0
0.992999970913 -0.181999996305 0.20000000298 110.0
0.976000010967 -0.185000002384 0.195999994874 110.0
0.972999989986 -0.189999997616 0.195999994874 116.0
0.995999991894 -0.201000005007 0.201000005007 110.0
1.00100004673 -0.208000004292 0.202000007033 115.0
0.994000017643 -0.212999999523 0.201000005007 114.0
0.990000009537 -0.217999994755 0.201000005007 117.0
1.00100004673 -0.226999998093 0.202999994159 115.0
0.976999998093 -0.226999998093 0.197999998927 115.0
0.966000020504 -0.231000006199 0.195999994874 112.0
0.961000025272 -0.236000001431 0.195999994874 117.0
0.954999983311 -0.239999994636 0.194999992847 114.0
1.00999999046 -0.261000007391 0.206000000238 115.0
0.959999978542 -0.252999991179 0.195999994874 112.0
1.00300002098 -0.270999997854 0.206000000238 109.0
0.985000014305 -0.273000001907 0.202000007033 113.0
0.994000017643 -0.282000005245 0.203999996185 103.0
0.952000021935 -0.275999993086 0.195999994874 109.0
0.958999991417 -0.284000009298 0.197999998927 107.0
0.964999973774 -0.291999995708 0.199000000954 110.0
0.986000001431 -0.305000007153 0.203999996185 108.0
1.00300002098 -0.317000001669 0.208000004292 110.0
0.919000029564 -0.296000003815 0.190999999642 110.0
0.973999977112 -0.319999992847 0.202999994159 107.0
0.954999983311 -0.319999992847 0.199000000954 108.0
0.971000015736 -0.331999987364 0.202999994159 106.0
0.966000020504 -0.337000012398 0.202000007033 103.0
0.954999983311 -0.340000003576 0.20000000298 102.0
0.966000020504 -0.34999999404 0.202999994159 106.0
0.935000002384 -0.344999998808 0.196999996901 104.0
0.972000002861 -0.365999996662 0.204999998212 109.0
0.954999983311 -0.365999996662 0.202000007033 96.0
0.925000011921 -0.361000001431 0.195999994874 98.0
0.97000002861 -0.386000007391 0.206000000238 106.0
0.962000012398 -0.388999998569 0.204999998212 102.0
0.919000029564 -0.377999991179 0.195999994874 95.0
0.947000026703 -0.395999997854 0.202000007033 92.0
0.911000013351 -0.388000011444 0.194999992847 99.0
0.954999983311 -0.41400000453 0.204999998212 98.0
0.944000005722 -0.416000008583 0.202999994159 97.0
0.940999984741 -0.421000003815 0.202999994159 93.0
0.943000018597 -0.428999990225 0.203999996185 92.0
0.910000026226 -0.421000003815 0.196999996901 88.0
0.93900001049 -0.441000014544 0.203999996185 89.0
0.944000005722 -0.451000005007 0.206000000238 93.0
0.958999991417 -0.465999990702 0.209999993443 88.0
0.903999984264 -0.444999992847 0.197999998927 87.0
0.879999995232 -0.439999997616 0.193000003695 90.0
0.953999996185 -0.485000014305 0.21099999547 90.0
0.921000003815 -0.476000010967 0.203999996185 87.0
0.939999997616 -0.493000000715 0.209000006318 82.0
0.966000020504 -0.514999985695 0.215000003576 89.0
0.976999998093 -0.528999984264 0.218999996781 84.0
0.948000013828 -0.519999980927 0.212999999523 89.0
0.944999992847 -0.526000022888 0.212999999523 83.0
0.963999986649 -0.545000016689 0.217999994755 86.0
3.09599995613 1.63600003719 0.657000005245 102.0
3.16000008583 1.64400005341 0.669000029564 87.0
3.39299988747 1.73899996281 0.716000020504 90.0
3.56100010872 1.79700005054 0.75 118.0
3.5529999733 1.76499998569 0.746999979019 128.0
3.60199999809 1.76199996471 0.754999995232 91.0
3.90300011635 1.82000005245 0.811999976635 103.0
3.86800003052 1.77499997616 0.802999973297 128.0
3.91899991035 1.76900005341 0.811999976635 125.0
3.86400008202 1.7159999609 0.799000024796 122.0
3.84899997711 1.68099999428 0.794000029564 114.0
3.89400005341 1.67200005054 0.800999999046 92.0
4.00199985504 1.40999996662 0.805999994278 67.0
3.90799999237 1.35099995136 0.786000013351 102.0
3.88599991798 1.31700003147 0.77999997139 117.0
3.95000004768 1.31200003624 0.791999995708 116.0
3.93099999428 1.27999997139 0.787000000477 123.0
3.92600011826 1.25199997425 0.785000026226 116.0
3.91899991035 1.22399997711 0.782000005245 121.0
3.96600008011 1.21300005913 0.791000008583 116.0
3.96099996567 1.18499994278 0.787999987602 83.0
0.995999991894 -0.104999996722 0.192000001669 98.0
0.976999998093 -0.108999997377 0.187999993563 103.0
1.00100004673 -0.118000000715 0.193000003695 110.0
1.0 -0.123999997973 0.193000003695 112.0
0.987999975681 -0.12800000608 0.190999999642 109.0
0.958999991417 -0.129999995232 0.186000004411 113.0
0.994000017643 -0.140000000596 0.192000001669 107.0
1.01699995995 -0.15000000596 0.196999996901 110.0
0.985000014305 -0.150999993086 0.190999999642 108.0
0.962000012398 -0.152999997139 0.187000006437 114.0
0.98400002718 -0.163000002503 0.190999999642 112.0
0.981999993324 -0.167999997735 0.190999999642 111.0
1.00199997425 -0.178000003099 0.194999992847 112.0
1.02300000191 -0.187999993563 0.20000000298 113.0
0.985000014305 -0.187000006437 0.192000001669 119.0
1.01100003719 -0.197999998927 0.197999998927 113.0
0.98400002718 -0.197999998927 0.192000001669 107.0
1.00800001621 -0.209000006318 0.196999996901 112.0
0.995999991894 -0.212999999523 0.194999992847 117.0
0.995999991894 -0.218999996781 0.195999994874 110.0
0.948000013828 -0.21400000155 0.186000004411 122.0
0.962000012398 -0.224000006914 0.188999995589 111.0
0.964999973774 -0.230000004172 0.189999997616 121.0
0.959999978542 -0.234999999404 0.188999995589 116.0
0.945999979973 -0.237000003457 0.187000006437 120.0
0.998000025749 -0.256999999285 0.197999998927 114.0
0.949999988079 -0.250999987125 0.187999993563 107.0
0.95300000906 -0.256999999285 0.188999995589 112.0
0.955999970436 -0.263999998569 0.189999997616 111.0
0.973999977112 -0.27500000596 0.194000005722 108.0
0.962999999523 -0.279000014067 0.192000001669 114.0
0.978999972343 -0.289999991655 0.195999994874 107.0
0.95300000906 -0.287999987602 0.190999999642 109.0
0.958000004292 -0.296000003815 0.192000001669 111.0
0.986999988556 -0.31099998951 0.197999998927 110.0
0.995999991894 -0.321000009775 0.201000005007 112.0
0.944999992847 -0.310000002384 0.189999997616 104.0
0.980000019073 -0.32800000906 0.197999998927 110.0
0.964999973774 -0.330000013113 0.194999992847 113.0
0.967999994755 -0.337000012398 0.195999994874 109.0
0.955999970436 -0.340000003576 0.194000005722 110.0
0.964999973774 -0.349000006914 0.195999994874 103.0
0.95300000906 -0.351999998093 0.194000005722 102.0
0.978999972343 -0.368000000715 0.20000000298 104.0
0.943000018597 -0.361000001431 0.193000003695 106.0
0.949999988079 -0.370000004768 0.194999992847 97.0
0.919000029564 -0.363999992609 0.188999995589 99.0
0.939999997616 -0.379999995232 0.194000005722 96.0
0.92199999094 -0.379000008106 0.190999999642 99.0
0.935000002384 -0.391000002623 0.194000005722 93.0
