ply
format ascii 1.0
element vertex 921
property float x
property float y
property float z
property float intensity
end_header
0.919000029564 -0.328999996185 -0.195999994874 146.0
0.934000015259 -0.340999990702 -0.20000000298 145.0
0.934000015259 -0.347000002861 -0.20000000298 153.0
0.925000011921 -0.34999999404 -0.197999998927 141.0
0.894999980927 -0.344999998808 -0.192000001669 143.0
0.925999999046 -0.363999992609 -0.199000000954 145.0
0.911000013351 -0.363999992609 -0.196999996901 146.0
0.938000023365 -0.381000012159 -0.202999994159 149.0
0.919000029564 -0.379999995232 -0.199000000954 142.0
0.922999978065 -0.388999998569 -0.20000000298 140.0
0.898000001907 -0.384000003338 -0.194999992847 145.0
0.907999992371 -0.395000010729 -0.197999998927 143.0
0.883000016212 -0.391000002623 -0.193000003695 139.0
0.907000005245 -0.407999992371 -0.199000000954 138.0
0.901000022888 -0.412000000477 -0.197999998927 128.0
0.888999998569 -0.41400000453 -0.195999994874 139.0
0.901000022888 -0.425999999046 -0.199000000954 133.0
0.875999987125 -0.419999986887 -0.194000005722 130.0
0.92199999094 -0.449999988079 -0.203999996185 130.0
0.884999990463 -0.43900001049 -0.196999996901 130.0
0.896000027657 -0.451000005007 -0.20000000298 136.0
0.925999999046 -0.472999989986 -0.207000002265 130.0
0.888000011444 -0.46099999547 -0.199000000954 119.0
0.902999997139 -0.476000010967 -0.202999994159 121.0
0.876999974251 -0.469000011683 -0.197999998927 128.0
0.908999979496 -0.493999987841 -0.204999998212 121.0
0.911000013351 -0.501999974251 -0.206000000238 122.0
0.869000017643 -0.486000001431 -0.196999996901 128.0
0.85900002718 -0.488000005484 -0.195999994874 113.0
2.04500007629 1.1970000267 -0.495000004768 311.0
2.05100011826 1.18400001526 -0.495000004768 302.0
2.11500000954 1.20299994946 -0.509000003338 151.0
2.10899996758 1.18099999428 -0.504999995232 137.0
2.13800001144 1.17999994755 -0.510999977589 259.0
2.18799996376 1.19000005722 -0.521000027657 327.0
2.23300004005 1.19599997997 -0.52999997139 172.0
2.27999997139 1.20299994946 -0.540000021458 100.0
2.54999995232 1.20599997044 -0.592000007629 77.0
3.17700004578 1.29299998283 -0.721000015736 105.0
3.21799993515 1.28699994087 -0.728999972343 110.0
3.25500011444 1.27799999714 -0.735000014305 93.0
3.55500006676 1.10599994659 -0.783999979496 63.0
3.56299996376 1.08500003815 -0.785000026226 70.0
3.58500003815 1.06799995899 -0.787999987602 62.0
3.64899992943 0.992999970913 -0.79699999094 67.0
3.51999998093 0.935000002384 -0.768000006676 60.0
3.81599998474 0.361000001431 -0.809000015259 62.0
3.81299996376 0.338999986649 -0.808000028133 73.0
3.88199996948 0.321999996901 -0.822000026703 55.0
3.65199995041 0.280999988317 -0.773000001907 56.0
2.35899996758 -0.344000011683 -0.5 221.0
2.37599992752 -0.361000001431 -0.503000020981 261.0
2.33400011063 -0.368000000715 -0.495000004768 223.0
2.30200004578 -0.377000004053 -0.488000005484 196.0
2.29299998283 -0.389999985695 -0.486999988556 164.0
2.37400007248 -0.418000012636 -0.504000008106 88.0
1.06599998474 -0.192000001669 -0.225999996066 59.0
0.949000000954 -0.175999999046 -0.202000007033 132.0
0.955999970436 -0.184000000358 -0.202999994159 146.0
0.948000013828 -0.187999993563 -0.202000007033 150.0
0.952000021935 -0.194000005722 -0.202999994159 144.0
0.945999979973 -0.199000000954 -0.202000007033 152.0
0.96899998188 -0.209999993443 -0.207000002265 144.0
0.936999976635 -0.209000006318 -0.20000000298 146.0
0.985000014305 -0.225999996066 -0.21099999547 142.0
0.936999976635 -0.219999998808 -0.20000000298 146.0
0.944999992847 -0.228000000119 -0.202000007033 147.0
0.959999978542 -0.238000005484 -0.206000000238 149.0
0.976000010967 -0.247999995947 -0.209999993443 148.0
0.939999997616 -0.245000004768 -0.202000007033 151.0
0.958999991417 -0.256000012159 -0.207000002265 149.0
0.939999997616 -0.256999999285 -0.202999994159 139.0
0.936999976635 -0.261999994516 -0.202000007033 146.0
0.958999991417 -0.273999989033 -0.207000002265 151.0
0.954999983311 -0.279000014067 -0.207000002265 146.0
0.931999981403 -0.277999997139 -0.202000007033 151.0
0.925999999046 -0.282999992371 -0.201000005007 151.0
0.944000005722 -0.293999999762 -0.204999998212 153.0
0.944000005722 -0.300000011921 -0.204999998212 147.0
0.920000016689 -0.298999994993 -0.20000000298 155.0
0.944000005722 -0.312999993563 -0.206000000238 156.0
0.948000013828 -0.321000009775 -0.207000002265 144.0
0.897000014782 -0.308999985456 -0.195999994874 145.0
0.916999995708 -0.321999996901 -0.201000005007 149.0
0.919000029564 -0.330000013113 -0.202000007033 149.0
0.925000011921 -0.337999999523 -0.203999996185 142.0
0.933000028133 -0.347000002861 -0.206000000238 147.0
0.944999992847 -0.358999997377 -0.209000006318 148.0
0.883000016212 -0.340999990702 -0.194999992847 145.0
0.911000013351 -0.358000010252 -0.202000007033 149.0
0.898999989033 -0.360000014305 -0.20000000298 147.0
0.908999979496 -0.370000004768 -0.202000007033 142.0
0.902000010014 -0.374000012875 -0.201000005007 137.0
0.897000014782 -0.377999991179 -0.201000005007 140.0
0.90600001812 -0.388000011444 -0.202999994159 141.0
0.907999992371 -0.395999997854 -0.203999996185 145.0
0.908999979496 -0.402999997139 -0.204999998212 150.0
0.912999987602 -0.412000000477 -0.206000000238 129.0
0.898000001907 -0.411000013351 -0.202999994159 128.0
0.925000011921 -0.430999994278 -0.209999993443 137.0
0.880999982357 -0.416999995708 -0.20000000298 133.0
0.884000003338 -0.425000011921 -0.201000005007 133.0
0.873000025749 -0.425999999046 -0.199000000954 125.0
0.879000008106 -0.43599998951 -0.201000005007 137.0
0.902999997139 -0.455000013113 -0.207000002265 132.0
0.915000021458 -0.467999994755 -0.209999993443 130.0
0.920000016689 -0.479000002146 -0.211999997497 124.0
0.920000016689 -0.486000001431 -0.212999999523 123.0
0.879000008106 -0.470999985933 -0.203999996185 123.0
0.917999982834 -0.5 -0.21400000155 125.0
0.879000008106 -0.485000014305 -0.204999998212 122.0
0.865999996662 -0.485000014305 -0.202999994159 121.0
0.867999970913 -0.493999987841 -0.203999996185 121.0
2.04500007629 1.19900000095 -0.509000003338 298.0
2.06399989128 1.19200003147 -0.512000024319 312.0
2.11199998856 1.20200002193 -0.523000001907 169.0
2.11599993706 1.18700003624 -0.522000014782 141.0
2.14700007439 1.18700003624 -0.527999997139 251.0
2.17899990082 1.18599998951 -0.533999979496 330.0
2.23600006104 1.19900000095 -0.546000003815 180.0
2.28200006485 1.20500004292 -0.555999994278 98.0
3.25099992752 1.30099999905 -0.758000016212 108.0
3.23799991608 1.27300000191 -0.753000020981 93.0
3.63400006294 1.03699994087 -0.819000005722 60.0
3.55200004578 0.92199999094 -0.796000003815 61.0
3.56100010872 0.856999993324 -0.795000016689 67.0
3.74799990654 0.40000000596 -0.819000005722 57.0
3.86299991608 0.388999998569 -0.842999994755 60.0
3.79299998283 0.358999997377 -0.827000021935 60.0
3.77600002289 0.33599999547 -0.823000013828 61.0
3.79500007629 0.314999997616 -0.827000021935 67.0
2.34599995613 -0.342999994755 -0.510999977589 230.0
2.36299991608 -0.358999997377 -0.514999985695 255.0
2.33299994469 -0.368999987841 -0.509000003338 222.0
2.28399991989 -0.375 -0.499000012875 202.0
2.30999994278 -0.393000006676 -0.504999995232 152.0
0.98400002718 -0.182999998331 -0.215000003576 125.0
0.945999979973 -0.181999996305 -0.207000002265 137.0
0.922999978065 -0.182999998331 -0.202000007033 141.0
0.964999973774 -0.196999996901 -0.21099999547 144.0
0.962999999523 -0.202999994159 -0.21099999547 137.0
0.959999978542 -0.208000004292 -0.21099999547 140.0
0.949000000954 -0.211999997497 -0.209000006318 142.0
0.975000023842 -0.224000006914 -0.215000003576 135.0
0.944000005722 -0.222000002861 -0.208000004292 141.0
0.945999979973 -0.229000002146 -0.209000006318 149.0
0.933000028133 -0.231000006199 -0.206000000238 146.0
0.954999983311 -0.243000000715 -0.21099999547 144.0
0.938000023365 -0.244000002742 -0.208000004292 141.0
0.959999978542 -0.256000012159 -0.212999999523 143.0
0.931999981403 -0.254999995232 -0.207000002265 148.0
0.93599998951 -0.261999994516 -0.208000004292 151.0
0.949999988079 -0.272000014782 -0.21099999547 153.0
0.962000012398 -0.282000005245 -0.21400000155 148.0
0.96899998188 -0.289999991655 -0.216000005603 147.0
0.948000013828 -0.289999991655 -0.211999997497 145.0
0.935000002384 -0.291999995708 -0.209000006318 146.0
0.90600001812 -0.28900000453 -0.202999994159 152.0
0.929000020027 -0.301999986172 -0.208000004292 150.0
0.90600001812 -0.300999999046 -0.203999996185 147.0
0.925000011921 -0.312999993563 -0.208000004292 150.0
0.939999997616 -0.324999988079 -0.211999997497 148.0
0.925000011921 -0.326000005007 -0.209000006318 138.0
0.897000014782 -0.321999996901 -0.202999994159 150.0
0.920000016689 -0.337000012398 -0.208000004292 142.0
0.901000022888 -0.33599999547 -0.203999996185 143.0
0.929000020027 -0.352999985218 -0.21099999547 149.0
0.922999978065 -0.356999993324 -0.209999993443 151.0
0.949000000954 -0.374000012875 -0.216999992728 138.0
0.919000029564 -0.368000000715 -0.209999993443 143.0
0.930999994278 -0.379999995232 -0.212999999523 141.0
0.917999982834 -0.381000012159 -0.21099999547 139.0
0.921000003815 -0.388999998569 -0.211999997497 144.0
0.910000026226 -0.391000002623 -0.209999993443 141.0
0.907000005245 -0.395999997854 -0.209999993443 145.0
0.897000014782 -0.398000001907 -0.208000004292 146.0
0.916999995708 -0.41400000453 -0.212999999523 126.0
0.893000006676 -0.409999996424 -0.208000004292 137.0
0.870999991894 -0.405999988317 -0.202999994159 126.0
0.856000006199 -0.405000001192 -0.20000000298 140.0
0.901000022888 -0.433999985456 -0.21099999547 124.0
0.916000008583 -0.448000013828 -0.215000003576 132.0
0.912999987602 -0.453999996185 -0.215000003576 129.0
0.889999985695 -0.449000000954 -0.209999993443 128.0
0.901000022888 -0.462000012398 -0.212999999523 127.0
0.878000020981 -0.456999987364 -0.209000006318 132.0
0.888000011444 -0.469000011683 -0.21099999547 125.0
0.908999979496 -0.488000005484 -0.216999992728 128.0
0.847000002861 -0.46099999547 -0.202999994159 126.0
0.865999996662 -0.479000002146 -0.208000004292 122.0
0.893000006676 -0.500999987125 -0.215000003576 113.0
0.880999982357 -0.501999974251 -0.212999999523 126.0
2.05100011826 1.20399999619 -0.524999976158 305.0
2.05500006676 1.18900001049 -0.523999989033 314.0
2.132999897 1.2159999609 -0.542999982834 180.0
2.1099998951 1.18499994278 -0.535000026226 123.0
2.125 1.17599999905 -0.537000000477 230.0
2.16400003433 1.17999994755 -0.545000016689 330.0
2.22799992561 1.1970000267 -0.560000002384 189.0
2.26900005341 1.20000004768 -0.568000018597 99.0
3.22799992561 1.31700003147 -0.774999976158 113.0
3.18499994278 1.27600002289 -0.763000011444 123.0
3.29500007629 1.29700005054 -0.787000000477 93.0
2.34299993515 -0.342999994755 -0.524999976158 229.0
2.35299992561 -0.358000010252 -0.527000010014 254.0
2.30800008774 -0.365000009537 -0.518000006676 226.0
2.30100011826 -0.377999991179 -0.51700001955 205.0
2.28999996185 -0.389999985695 -0.513999998569 164.0
0.973999977112 -0.181999996305 -0.218999996781 134.0
0.949000000954 -0.182999998331 -0.212999999523 140.0
0.962000012398 -0.190999999642 -0.216999992728 138.0
0.972999989986 -0.199000000954 -0.218999996781 138.0
0.958000004292 -0.202000007033 -0.216000005603 135.0
0.924000024796 -0.20000000298 -0.209000006318 137.0
0.949000000954 -0.211999997497 -0.21400000155 140.0
0.962000012398 -0.221000000834 -0.217999994755 145.0
0.954999983311 -0.22499999404 -0.216000005603 144.0
0.949999988079 -0.230000004172 -0.215000003576 143.0
0.95300000906 -0.237000003457 -0.216000005603 144.0
0.950999975204 -0.241999998689 -0.216000005603 147.0
0.935000002384 -0.244000002742 -0.212999999523 150.0
0.93599998951 -0.25 -0.212999999523 145.0
0.938000023365 -0.256999999285 -0.21400000155 149.0
0.919000029564 -0.256999999285 -0.209999993443 148.0
0.940999984741 -0.268999993801 -0.215000003576 148.0
0.93900001049 -0.27500000596 -0.215000003576 145.0
0.933000028133 -0.279000014067 -0.21400000155 147.0
0.910000026226 -0.277999997139 -0.209000006318 145.0
0.936999976635 -0.293000012636 -0.216000005603 145.0
0.931999981403 -0.29699999094 -0.215000003576 142.0
0.916000008583 -0.298000007868 -0.21099999547 149.0
0.927999973297 -0.308999985456 -0.215000003576 153.0
0.936999976635 -0.317999988794 -0.216999992728 151.0
0.944999992847 -0.326999992132 -0.218999996781 151.0
0.93900001049 -0.331000000238 -0.217999994755 151.0
0.89200001955 -0.321000009775 -0.207000002265 150.0
0.954999983311 -0.34999999404 -0.223000004888 139.0
0.907999992371 -0.338999986649 -0.211999997497 146.0
0.925000011921 -0.351999998093 -0.216000005603 141.0
0.935000002384 -0.361999988556 -0.218999996781 143.0
0.907000005245 -0.356999993324 -0.212999999523 146.0
0.916999995708 -0.368000000715 -0.216000005603 139.0
0.92199999094 -0.377000004053 -0.216999992728 145.0
0.903999984264 -0.375 -0.212999999523 143.0
0.893999993801 -0.377999991179 -0.211999997497 141.0
0.943000018597 -0.405999988317 -0.224000006914 138.0
0.898000001907 -0.391999989748 -0.212999999523 141.0
0.913999974728 -0.405999988317 -0.217999994755 138.0
0.931999981403 -0.42199999094 -0.223000004888 130.0
0.84500002861 -0.388000011444 -0.202000007033 135.0
0.865999996662 -0.404000014067 -0.208000004292 129.0
0.860000014305 -0.407999992371 -0.207000002265 134.0
0.883000016212 -0.425000011921 -0.212999999523 129.0
0.898000001907 -0.439999997616 -0.216999992728 130.0
0.901000022888 -0.448000013828 -0.217999994755 122.0
0.880999982357 -0.444999992847 -0.21400000155 135.0
0.902999997139 -0.463999986649 -0.219999998808 125.0
0.902999997139 -0.470999985933 -0.221000000834 123.0
0.911000013351 -0.481999993324 -0.223000004888 131.0
0.916000008583 -0.49200001359 -0.22499999404 125.0
0.871999979019 -0.476000010967 -0.215000003576 125.0
0.875999987125 -0.485000014305 -0.216000005603 129.0
0.898999989033 -0.504999995232 -0.223000004888 117.0
0.888999998569 -0.507000029087 -0.221000000834 113.0
2.03500008583 1.19599997997 -0.536000013351 262.0
2.05500006676 1.19000005722 -0.538999974728 312.0
2.08999991417 1.19299995899 -0.546000003815 196.0
2.14400005341 1.20599997044 -0.559000015259 141.0
2.10700011253 1.16799998283 -0.54699999094 222.0
2.17300009727 1.18599998951 -0.563000023365 341.0
2.19099998474 1.1779999733 -0.565999984741 198.0
2.30100011826 1.21899998188 -0.592000007629 101.0
3.18300008774 1.27699995041 -0.782999992371 113.0
3.23200011253 1.27400004864 -0.794000029564 99.0
2.29600000381 -0.321999996901 -0.527999997139 106.0
2.34100008011 -0.342999994755 -0.538999974728 237.0
2.35899996758 -0.360000014305 -0.542999982834 257.0
2.30800008774 -0.365999996662 -0.532000005245 219.0
2.28399991989 -0.375999987125 -0.527000010014 201.0
2.30900001526 -0.393999993801 -0.532999992371 156.0
2.37400007248 -0.418999999762 -0.547999978065 59.0
0.98400002718 -0.184000000358 -0.226999998093 128.0
0.977999985218 -0.188999995589 -0.225999996066 140.0
0.961000025272 -0.190999999642 -0.222000002861 132.0
0.958999991417 -0.196999996901 -0.222000002861 136.0
0.944999992847 -0.20000000298 -0.218999996781 140.0
0.96899998188 -0.21099999547 -0.22499999404 133.0
0.977999985218 -0.218999996781 -0.226999998093 137.0
0.948000013828 -0.217999994755 -0.219999998808 138.0
0.95300000906 -0.22499999404 -0.222000002861 139.0
0.949000000954 -0.230000004172 -0.221000000834 142.0
0.959999978542 -0.238999992609 -0.224000006914 147.0
0.941999971867 -0.239999994636 -0.219999998808 145.0
0.96899998188 -0.252999991179 -0.226999998093 147.0
0.967000007629 -0.259000003338 -0.225999996066 149.0
0.949000000954 -0.259999990463 -0.222000002861 145.0
0.925999999046 -0.259999990463 -0.216999992728 152.0
0.92199999094 -0.263999998569 -0.216999992728 144.0
0.899999976158 -0.263999998569 -0.211999997497 146.0
0.935000002384 -0.280000001192 -0.219999998808 145.0
0.943000018597 -0.28900000453 -0.222000002861 145.0
0.961000025272 -0.300999999046 -0.226999998093 143.0
0.911000013351 -0.291000008583 -0.216000005603 145.0
0.930000007153 -0.303000003099 -0.221000000834 144.0
0.907000005245 -0.301999986172 -0.215000003576 145.0
0.948000013828 -0.321999996901 -0.22499999404 148.0
0.924000024796 -0.319999992847 -0.219999998808 143.0
0.93599998951 -0.330000013113 -0.223000004888 141.0
0.913999974728 -0.328999996185 -0.218999996781 149.0
0.921000003815 -0.337999999523 -0.219999998808 139.0
0.930999994278 -0.347999989986 -0.224000006914 139.0
0.933000028133 -0.354999989271 -0.224000006914 135.0
0.879000008106 -0.340000003576 -0.211999997497 140.0
0.898999989033 -0.354999989271 -0.216999992728 143.0
0.903999984264 -0.363000005484 -0.218999996781 135.0
0.902999997139 -0.368999987841 -0.218999996781 138.0
0.943000018597 -0.393000006676 -0.229000002146 134.0
0.917999982834 -0.388999998569 -0.223000004888 139.0
0.919000029564 -0.395999997854 -0.224000006914 135.0
0.913999974728 -0.40000000596 -0.223000004888 137.0
0.911000013351 -0.405000001192 -0.223000004888 135.0
0.861999988556 -0.389999985695 -0.211999997497 131.0
0.919000029564 -0.423000007868 -0.225999996066 140.0
0.870000004768 -0.407000005245 -0.215000003576 133.0
0.897000014782 -0.425999999046 -0.222000002861 133.0
0.888000011444 -0.428999990225 -0.219999998808 125.0
0.887000024319 -0.435000002384 -0.221000000834 126.0
0.853999972343 -0.425000011921 -0.212999999523 128.0
0.894999980927 -0.45300000906 -0.224000006914 122.0
0.894999980927 -0.460000008345 -0.224000006914 124.0
0.874000012875 -0.456000000238 -0.218999996781 130.0
0.856999993324 -0.453999996185 -0.216000005603 117.0
0.913999974728 -0.49200001359 -0.231000006199 125.0
0.89200001955 -0.486999988556 -0.225999996066 123.0
0.860000014305 -0.476999998093 -0.217999994755 122.0
0.887000024319 -0.499000012875 -0.225999996066 124.0
0.90499997139 -0.51700001955 -0.231000006199 122.0
2.02900004387 1.19400000572 -0.547999978065 258.0
2.06599998474 1.19900000095 -0.556999981403 325.0
2.09800004959 1.19900000095 -0.563000023365 211.0
2.117000103 1.19200003147 -0.565999984741 130.0
2.12800002098 1.18099999428 -0.566999971867 200.0
2.17600011826 1.18900001049 -0.578999996185 327.0
2.21199989319 1.19099998474 -0.586000025272 213.0
2.29999995232 1.22000002861 -0.60799998045 113.0
3.18099999428 1.27799999714 -0.804000020027 104.0
3.18700003624 1.25800001621 -0.804000020027 86.0
2.31200003624 -0.324999988079 -0.546000003815 119.0
2.35700011253 -0.345999985933 -0.556999981403 247.0
2.36599993706 -0.361000001431 -0.560000002384 256.0
2.30100011826 -0.365000009537 -0.545000016689 226.0
2.27699995041 -0.375 -0.538999974728 197.0
2.29500007629 -0.391999989748 -0.544000029564 154.0
2.54500007629 -0.451000005007 -0.603999972343 61.0
0.958999991417 -0.179000005126 -0.226999998093 126.0
0.961000025272 -0.185000002384 -0.228000000119 131.0
0.987999975681 -0.196999996901 -0.234999999404 132.0
0.980000019073 -0.201000005007 -0.232999995351 136.0
0.963999986649 -0.203999996185 -0.229000002146 134.0
0.95300000906 -0.207000002265 -0.226999998093 142.0
0.945999979973 -0.211999997497 -0.225999996066 143.0
0.958000004292 -0.219999998808 -0.229000002146 147.0
0.958999991417 -0.226999998093 -0.229000002146 139.0
0.947000026703 -0.230000004172 -0.226999998093 142.0
0.943000018597 -0.234999999404 -0.225999996066 140.0
0.940999984741 -0.239999994636 -0.225999996066 143.0
0.95300000906 -0.248999997973 -0.229000002146 147.0
0.925000011921 -0.247999995947 -0.222000002861 143.0
0.927999973297 -0.254999995232 -0.223000004888 137.0
0.947000026703 -0.266000002623 -0.228000000119 145.0
0.955999970436 -0.27500000596 -0.231000006199 134.0
0.90499997139 -0.266000002623 -0.218999996781 144.0
0.899999976158 -0.270000010729 -0.217999994755 143.0
0.949000000954 -0.291000008583 -0.230000004172 144.0
0.934000015259 -0.293000012636 -0.226999998093 137.0
0.92199999094 -0.294999986887 -0.224000006914 147.0
0.916000008583 -0.298999994993 -0.223000004888 148.0
0.944999992847 -0.314999997616 -0.230000004172 146.0
0.933000028133 -0.317000001669 -0.228000000119 140.0
0.915000021458 -0.317000001669 -0.224000006914 139.0
0.93599998951 -0.331000000238 -0.230000004172 136.0
0.947000026703 -0.340999990702 -0.232999995351 138.0
0.925999999046 -0.340000003576 -0.228000000119 134.0
0.902000010014 -0.337000012398 -0.222000002861 142.0
0.947000026703 -0.361000001431 -0.233999997377 147.0
0.910000026226 -0.352999985218 -0.22499999404 144.0
0.915000021458 -0.361999988556 -0.226999998093 144.0
0.898000001907 -0.361000001431 -0.223000004888 137.0
0.893000006676 -0.365999996662 -0.222000002861 138.0
0.893999993801 -0.372000008821 -0.223000004888 140.0
0.879999995232 -0.372999995947 -0.219999998808 140.0
0.924000024796 -0.398000001907 -0.231000006199 139.0
0.870999991894 -0.381999999285 -0.218999996781 128.0
0.898999989033 -0.400999993086 -0.225999996066 129.0
0.902999997139 -0.409000009298 -0.228000000119 128.0
0.879000008106 -0.405000001192 -0.222000002861 136.0
0.897000014782 -0.419999986887 -0.226999998093 126.0
0.907999992371 -0.432000011206 -0.231000006199 126.0
0.893000006676 -0.432000011206 -0.226999998093 133.0
0.907999992371 -0.446000009775 -0.231999993324 125.0
0.876999974251 -0.437000006437 -0.224000006914 129.0
0.893999993801 -0.45300000906 -0.230000004172 119.0
0.865999996662 -0.444999992847 -0.223000004888 127.0
0.919000029564 -0.479999989271 -0.237000003457 114.0
0.883000016212 -0.469000011683 -0.229000002146 122.0
0.880999982357 -0.47499999404 -0.229000002146 123.0
0.860000014305 -0.469999998808 -0.224000006914 125.0
0.885999977589 -0.49200001359 -0.231000006199 118.0
0.846000015736 -0.476000010967 -0.221000000834 113.0
0.869000017643 -0.497000008821 -0.228000000119 112.0
2.04299998283 1.20399999619 -0.565999984741 214.0
2.06100010872 1.1970000267 -0.569999992847 242.0
2.0759999752 1.18900001049 -0.572000026703 190.0
2.09299993515 1.17999994755 -0.574999988079 117.0
2.10700011253 1.17100000381 -0.577000021935 154.0
2.14199995995 1.17299997807 -0.583999991417 311.0
2.19799995422 1.18499994278 -0.597999989986 216.0
2.27500009537 1.20799994469 -0.616999983788 102.0
2.35199999809 -0.344999998808 -0.570999979973 251.0
2.35400009155 -0.360000014305 -0.572000026703 261.0
2.30999994278 -0.36700001359 -0.56099998951 213.0
2.30399990082 -0.379999995232 -0.560000002384 205.0
2.30100011826 -0.393999993801 -0.560000002384 149.0
0.989000022411 -0.185000002384 -0.240999996662 126.0
0.995000004768 -0.192000001669 -0.243000000715 134.0
0.958999991417 -0.190999999642 -0.233999997377 134.0
0.97000002861 -0.199000000954 -0.237000003457 130.0
0.954999983311 -0.202000007033 -0.232999995351 139.0
0.972999989986 -0.211999997497 -0.238000005484 139.0
0.949999988079 -0.212999999523 -0.232999995351 141.0
0.952000021935 -0.218999996781 -0.232999995351 136.0
0.940999984741 -0.223000004888 -0.231000006199 140.0
0.943000018597 -0.229000002146 -0.231999993324 139.0
0.95300000906 -0.238000005484 -0.233999997377 140.0
0.944000005722 -0.240999996662 -0.231999993324 141.0
0.941999971867 -0.24699999392 -0.231999993324 146.0
0.953999996185 -0.256000012159 -0.234999999404 145.0
0.922999978065 -0.252999991179 -0.228000000119 144.0
0.915000021458 -0.256999999285 -0.225999996066 145.0
0.944999992847 -0.272000014782 -0.233999997377 138.0
0.93900001049 -0.275999993086 -0.232999995351 141.0
0.933000028133 -0.280000001192 -0.231999993324 141.0
0.935000002384 -0.287000000477 -0.232999995351 149.0
0.934000015259 -0.293000012636 -0.232999995351 148.0
0.916999995708 -0.293999999762 -0.229000002146 146.0
0.925000011921 -0.301999986172 -0.231000006199 145.0
0.913999974728 -0.305000007153 -0.229000002146 139.0
0.95300000906 -0.324999988079 -0.238999992609 144.0
0.907000005245 -0.314999997616 -0.228000000119 140.0
0.902999997139 -0.319999992847 -0.226999998093 140.0
0.920000016689 -0.331999987364 -0.231999993324 134.0
0.912000000477 -0.33599999547 -0.230000004172 144.0
0.90499997139 -0.338999986649 -0.229000002146 138.0
0.930999994278 -0.354999989271 -0.236000001431 138.0
0.920000016689 -0.358000010252 -0.233999997377 140.0
0.913999974728 -0.361999988556 -0.232999995351 140.0
0.945999979973 -0.381000012159 -0.240999996662 133.0
0.925999999046 -0.379999995232 -0.237000003457 137.0
0.907999992371 -0.379000008106 -0.231999993324 139.0
0.901000022888 -0.381999999285 -0.231000006199 134.0
0.898000001907 -0.388000011444 -0.231000006199 134.0
0.925000011921 -0.405999988317 -0.238000005484 140.0
0.908999979496 -0.405999988317 -0.234999999404 134.0
0.938000023365 -0.425999999046 -0.243000000715 119.0
0.924000024796 -0.426999986172 -0.239999994636 132.0
0.916000008583 -0.430000007153 -0.238000005484 133.0
0.882000029087 -0.419999986887 -0.230000004172 132.0
0.861999988556 -0.416999995708 -0.22499999404 127.0
0.882000029087 -0.433999985456 -0.231000006199 124.0
0.861999988556 -0.430000007153 -0.225999996066 118.0
0.884000003338 -0.448000013828 -0.232999995351 127.0
0.929000020027 -0.479000002146 -0.246000006795 118.0
0.884000003338 -0.462999999523 -0.233999997377 127.0
0.879000008106 -0.467000007629 -0.233999997377 111.0
0.897000014782 -0.483999997377 -0.238999992609 123.0
0.912999987602 -0.500999987125 -0.244000002742 122.0
0.884999990463 -0.49200001359 -0.237000003457 128.0
0.842000007629 -0.47499999404 -0.225999996066 111.0
0.874000012875 -0.500999987125 -0.236000001431 115.0
2.02300000191 1.19400000572 -0.574999988079 109.0
2.00500011444 1.16700005531 -0.568000018597 138.0
1.99500000477 1.14300000668 -0.56400001049 132.0
2.0529999733 1.15999996662 -0.57800000906 126.0
2.10400009155 1.17100000381 -0.591000020504 132.0
2.14800000191 1.1779999733 -0.601000010967 274.0
2.19899988174 1.18700003624 -0.612999975681 224.0
2.30800008774 1.22699999809 -0.64200001955 120.0
2.34699988365 -0.331000000238 -0.583999991417 144.0
2.3599998951 -0.347000002861 -0.587999999523 257.0
2.35899996758 -0.361000001431 -0.587000012398 253.0
2.30200004578 -0.365999996662 -0.574000000954 227.0
2.3180000782 -0.38299998641 -0.57800000906 201.0
2.3259999752 -0.398000001907 -0.579999983311 150.0
0.953999996185 -0.179000005126 -0.238000005484 127.0
0.966000020504 -0.187000006437 -0.241999998689 135.0
0.952000021935 -0.189999997616 -0.238000005484 131.0
0.955999970436 -0.196999996901 -0.239999994636 130.0
0.95300000906 -0.202000007033 -0.238999992609 137.0
0.966000020504 -0.21099999547 -0.241999998689 141.0
0.920000016689 -0.206000000238 -0.231000006199 141.0
0.949999988079 -0.218999996781 -0.238999992609 137.0
0.964999973774 -0.229000002146 -0.243000000715 141.0
0.949999988079 -0.231000006199 -0.238999992609 131.0
0.957000017166 -0.238999992609 -0.240999996662 141.0
0.972999989986 -0.248999997973 -0.246000006795 136.0
0.92199999094 -0.241999998689 -0.232999995351 144.0
0.958999991417 -0.25799998641 -0.243000000715 142.0
0.924000024796 -0.254000008106 -0.233999997377 143.0
0.962999999523 -0.270999997854 -0.244000002742 133.0
0.957000017166 -0.275999993086 -0.243000000715 145.0
0.949000000954 -0.280000001192 -0.241999998689 152.0
0.938000023365 -0.282000005245 -0.238999992609 146.0
0.934000015259 -0.287000000477 -0.238999992609 136.0
0.912999987602 -0.287000000477 -0.232999995351 145.0
0.939999997616 -0.301999986172 -0.240999996662 145.0
0.925000011921 -0.303000003099 -0.237000003457 148.0
0.930999994278 -0.31099998951 -0.238999992609 147.0
0.930999994278 -0.317999988794 -0.239999994636 139.0
0.917999982834 -0.319000005722 -0.237000003457 143.0
0.934000015259 -0.331000000238 -0.240999996662 139.0
0.936999976635 -0.338999986649 -0.241999998689 139.0
0.875999987125 -0.321999996901 -0.226999998093 139.0
0.916000008583 -0.344000011683 -0.238000005484 141.0
0.913999974728 -0.349000006914 -0.238000005484 137.0
0.915000021458 -0.356000006199 -0.238000005484 139.0
0.93599998951 -0.370999991894 -0.244000002742 132.0
0.930000007153 -0.375 -0.243000000715 136.0
0.936999976635 -0.384999990463 -0.246000006795 139.0
0.899999976158 -0.375999987125 -0.236000001431 136.0
0.925000011921 -0.393000006676 -0.243000000715 131.0
0.925000011921 -0.40000000596 -0.244000002742 138.0
0.915000021458 -0.402000010014 -0.241999998689 133.0
0.916999995708 -0.409999996424 -0.243000000715 139.0
0.89200001955 -0.405000001192 -0.237000003457 136.0
0.90600001812 -0.418999999762 -0.240999996662 126.0
0.902000010014 -0.423999994993 -0.240999996662 118.0
0.902000010014 -0.430999994278 -0.241999998689 133.0
0.888000011444 -0.430999994278 -0.238000005484 121.0
0.893999993801 -0.441000014544 -0.240999996662 125.0
0.875 -0.437999993563 -0.236000001431 127.0
0.893000006676 -0.453999996185 -0.241999998689 128.0
0.870000004768 -0.449000000954 -0.236000001431 117.0
0.850000023842 -0.444999992847 -0.231000006199 125.0
0.876999974251 -0.467000007629 -0.238999992609 123.0
0.887000024319 -0.479000002146 -0.241999998689 126.0
0.913999974728 -0.501999974251 -0.250999987125 127.0
0.851999998093 -0.47499999404 -0.233999997377 114.0
0.85900002718 -0.485000014305 -0.237000003457 118.0
0.84500002861 -0.483999997377 -0.233999997377 113.0
1.91900002956 1.13499999046 -0.560000002384 114.0
1.96399998665 1.14400005341 -0.570999979973 138.0
2.01399993896 1.15600001812 -0.583999991417 137.0
2.07500004768 1.1740000248 -0.598999977112 137.0
2.11599993706 1.17900002003 -0.60900002718 164.0
2.15499997139 1.18299996853 -0.617999970913 323.0
2.21799993515 1.20000004768 -0.634999990463 245.0
2.27099990845 1.21000003815 -0.648000001907 125.0
2.33100008965 -0.328999996185 -0.59399998188 165.0
2.35500001907 -0.347000002861 -0.601000010967 278.0
2.33400011063 -0.358000010252 -0.596000015736 269.0
2.3259999752 -0.370999991894 -0.59399998188 226.0
2.29500007629 -0.379999995232 -0.587000012398 206.0
2.32899999619 -0.40000000596 -0.596000015736 150.0
0.964999973774 -0.180999994278 -0.24699999392 127.0
0.976999998093 -0.188999995589 -0.25 124.0
0.947000026703 -0.188999995589 -0.243000000715 138.0
0.959999978542 -0.197999998927 -0.246000006795 131.0
0.976000010967 -0.207000002265 -0.250999987125 129.0
0.954999983311 -0.209000006318 -0.246000006795 136.0
0.958000004292 -0.215000003576 -0.24699999392 135.0
0.962000012398 -0.222000002861 -0.247999995947 134.0
0.935000002384 -0.222000002861 -0.240999996662 138.0
0.908999979496 -0.221000000834 -0.234999999404 140.0
0.949000000954 -0.237000003457 -0.245000004768 142.0
0.958999991417 -0.246000006795 -0.247999995947 138.0
0.934000015259 -0.245000004768 -0.241999998689 138.0
0.944000005722 -0.254000008106 -0.245000004768 133.0
0.949000000954 -0.261000007391 -0.24699999392 137.0
0.927999973297 -0.261999994516 -0.241999998689 142.0
0.941999971867 -0.272000014782 -0.246000006795 146.0
0.944000005722 -0.279000014067 -0.246000006795 145.0
0.930000007153 -0.280999988317 -0.243000000715 146.0
0.93599998951 -0.287999987602 -0.245000004768 142.0
0.925000011921 -0.291000008583 -0.241999998689 152.0
0.945999979973 -0.303999990225 -0.247999995947 141.0
0.941999971867 -0.308999985456 -0.247999995947 144.0
0.913999974728 -0.305999994278 -0.240999996662 139.0
0.925999999046 -0.316000014544 -0.244000002742 139.0
0.935000002384 -0.326000005007 -0.24699999392 135.0
0.958000004292 -0.340999990702 -0.254000008106 139.0
0.940999984741 -0.340999990702 -0.25 142.0
0.893999993801 -0.330000013113 -0.238000005484 133.0
0.915000021458 -0.344000011683 -0.244000002742 139.0
0.93900001049 -0.360000014305 -0.25 138.0
0.912999987602 -0.356000006199 -0.244000002742 138.0
0.913999974728 -0.363000005484 -0.245000004768 141.0
0.898000001907 -0.363000005484 -0.240999996662 138.0
0.922999978065 -0.379999995232 -0.247999995947 135.0
0.933000028133 -0.389999985695 -0.250999987125 130.0
0.885999977589 -0.377000004053 -0.238999992609 136.0
0.893999993801 -0.386999994516 -0.241999998689 135.0
0.912000000477 -0.402000010014 -0.24699999392 134.0
0.888000011444 -0.398000001907 -0.240999996662 134.0
0.894999980927 -0.407000005245 -0.244000002742 127.0
0.90600001812 -0.418999999762 -0.24699999392 128.0
0.884000003338 -0.416000008583 -0.241999998689 126.0
0.916000008583 -0.437999993563 -0.250999987125 129.0
0.860000014305 -0.416999995708 -0.237000003457 116.0
0.930000007153 -0.458999991417 -0.256999999285 128.0
0.887000024319 -0.444000005722 -0.245000004768 134.0
0.874000012875 -0.444999992847 -0.241999998689 129.0
0.880999982357 -0.455000013113 -0.245000004768 120.0
0.847999989986 -0.444999992847 -0.236000001431 121.0
0.903999984264 -0.481999993324 -0.252999991179 119.0
0.852999985218 -0.46099999547 -0.238999992609 119.0
0.880999982357 -0.483999997377 -0.247999995947 121.0
0.861999988556 -0.481000006199 -0.243000000715 116.0
0.865000009537 -0.490000009537 -0.245000004768 118.0
0.842000007629 -0.483999997377 -0.238999992609 121.0
1.94200003147 1.14999997616 -0.579999983311 140.0
1.99500000477 1.16400003433 -0.59399998188 145.0
2.03800010681 1.17200005054 -0.605000019073 129.0
2.04600000381 1.1590000391 -0.605000019073 125.0
2.12800002098 1.18799996376 -0.628000020981 175.0
2.14899992943 1.18200004101 -0.632000029087 324.0
2.19899988174 1.19099998474 -0.644999980927 261.0
2.24099993706 1.19500005245 -0.65499997139 130.0
2.31500005722 -0.326999992132 -0.605000019073 142.0
2.35899996758 -0.347999989986 -0.616999983788 297.0
2.34500002861 -0.360000014305 -0.614000022411 272.0
2.3069999218 -0.368000000715 -0.603999972343 227.0
2.2990000248 -0.381000012159 -0.601999998093 197.0
2.33599996567 -0.400999993086 -0.611999988556 139.0
0.985000014305 -0.179000005126 -0.25799998641 90.0
0.963999986649 -0.180999994278 -0.252999991179 128.0
0.926999986172 -0.180000007153 -0.244000002742 131.0
0.967999994755 -0.194000005722 -0.254000008106 129.0
0.962999999523 -0.199000000954 -0.252999991179 132.0
0.971000015736 -0.207000002265 -0.256000012159 135.0
0.962000012398 -0.209999993443 -0.252999991179 134.0
0.971000015736 -0.218999996781 -0.256000012159 131.0
0.93900001049 -0.216999992728 -0.247999995947 134.0
0.935000002384 -0.222000002861 -0.24699999392 129.0
0.916000008583 -0.223000004888 -0.241999998689 140.0
0.975000023842 -0.244000002742 -0.259000003338 147.0
0.93900001049 -0.240999996662 -0.248999997973 135.0
0.92199999094 -0.243000000715 -0.245000004768 133.0
0.948000013828 -0.256000012159 -0.252000004053 141.0
0.947000026703 -0.261000007391 -0.252000004053 139.0
0.944000005722 -0.266999989748 -0.252000004053 142.0
0.939999997616 -0.272000014782 -0.250999987125 143.0
0.930999994278 -0.27500000596 -0.248999997973 141.0
0.958000004292 -0.28900000453 -0.256999999285 135.0
0.920000016689 -0.284000009298 -0.24699999392 141.0
0.95300000906 -0.300999999046 -0.256000012159 133.0
0.924000024796 -0.298000007868 -0.248999997973 145.0
0.912999987602 -0.300000011921 -0.246000006795 148.0
0.926999986172 -0.31099998951 -0.25 144.0
0.934000015259 -0.319999992847 -0.252999991179 138.0
0.930999994278 -0.324999988079 -0.252000004053 140.0
0.952000021935 -0.338999986649 -0.25799998641 137.0
0.920000016689 -0.333999991417 -0.25 136.0
0.920000016689 -0.340000003576 -0.25 134.0
0.915000021458 -0.344000011683 -0.25 144.0
0.912000000477 -0.34999999404 -0.248999997973 132.0
0.899999976158 -0.351000010967 -0.246000006795 136.0
0.902000010014 -0.358999997377 -0.247999995947 132.0
0.92199999094 -0.372999995947 -0.254000008106 138.0
0.912999987602 -0.375999987125 -0.252000004053 133.0
0.924000024796 -0.386999994516 -0.254999995232 131.0
0.889999985695 -0.379000008106 -0.246000006795 127.0
0.925999999046 -0.402000010014 -0.256999999285 136.0
0.908999979496 -0.400999993086 -0.252999991179 131.0
0.853999972343 -0.38299998641 -0.238000005484 137.0
0.90600001812 -0.412999987602 -0.252999991179 127.0
0.882000029087 -0.409000009298 -0.24699999392 124.0
0.883000016212 -0.416000008583 -0.247999995947 127.0
0.902999997139 -0.432999998331 -0.254000008106 124.0
0.907000005245 -0.442000001669 -0.256000012159 111.0
0.894999980927 -0.442999988794 -0.252999991179 121.0
0.874000012875 -0.43900001049 -0.247999995947 119.0
0.915000021458 -0.467000007629 -0.259999990463 121.0
0.862999975681 -0.446999996901 -0.246000006795 121.0
0.887000024319 -0.467000007629 -0.254000008106 119.0
0.879000008106 -0.469000011683 -0.252000004053 120.0
0.898000001907 -0.486999988556 -0.25799998641 117.0
0.888999998569 -0.490000009537 -0.256000012159 108.0
0.884999990463 -0.493999987841 -0.256000012159 113.0
0.870999991894 -0.493999987841 -0.252999991179 108.0
0.911000013351 -0.524999976158 -0.264999985695 113.0
1.93900001049 1.14999997616 -0.59399998188 150.0
1.97500002384 1.15400004387 -0.601999998093 141.0
2.08299994469 1.20000004768 -0.633000016212 130.0
2.10899996758 1.1970000267 -0.638999998569 138.0
2.13899993896 1.19599997997 -0.646000027657 167.0
2.15400004387 1.18599998951 -0.648999989033 320.0
2.18600010872 1.18599998951 -0.65600001812 276.0
2.2349998951 1.19400000572 -0.669000029564 133.0
2.31699991226 -0.32800000906 -0.620000004768 134.0
2.35800004005 -0.347999989986 -0.630999982357 309.0
2.33299994469 -0.358999997377 -0.625 284.0
2.30800008774 -0.368999987841 -0.619000017643 243.0
2.30599999428 -0.38299998641 -0.619000017643 208.0
2.3069999218 -0.397000014782 -0.619000017643 135.0
0.949000000954 -0.179000005126 -0.254999995232 121.0
0.989000022411 -0.192000001669 -0.266000002623 130.0
0.967999994755 -0.194000005722 -0.259999990463 123.0
0.976999998093 -0.202000007033 -0.263000011444 124.0
0.963999986649 -0.204999998212 -0.259999990463 131.0
0.926999986172 -0.202999994159 -0.25 130.0
0.961000025272 -0.216999992728 -0.259999990463 132.0
0.940999984741 -0.217999994755 -0.254999995232 130.0
0.948000013828 -0.225999996066 -0.256999999285 132.0
0.936999976635 -0.229000002146 -0.254000008106 137.0
0.941999971867 -0.236000001431 -0.256000012159 141.0
0.962999999523 -0.247999995947 -0.261999994516 138.0
0.912999987602 -0.239999994636 -0.247999995947 131.0
0.929000020027 -0.250999987125 -0.252999991179 144.0
0.933000028133 -0.25799998641 -0.254000008106 134.0
0.940999984741 -0.266000002623 -0.256999999285 136.0
0.92199999094 -0.266999989748 -0.252000004053 139.0
0.962000012398 -0.284999996424 -0.263999998569 137.0
0.926999986172 -0.280000001192 -0.254000008106 133.0
0.955999970436 -0.294999986887 -0.263000011444 135.0
0.936999976635 -0.296000003815 -0.25799998641 137.0
0.938000023365 -0.301999986172 -0.259000003338 135.0
0.941999971867 -0.310000002384 -0.259999990463 145.0
0.925000011921 -0.31099998951 -0.256000012159 134.0
0.941999971867 -0.323000013828 -0.261000007391 141.0
0.920000016689 -0.321999996901 -0.254999995232 146.0
0.940999984741 -0.335000008345 -0.261999994516 141.0
0.916999995708 -0.333000004292 -0.254999995232 126.0
0.917999982834 -0.340000003576 -0.256000012159 139.0
0.913999974728 -0.344999998808 -0.256000012159 136.0
0.902000010014 -0.345999985933 -0.252000004053 132.0
0.899999976158 -0.351999998093 -0.252999991179 138.0
0.915000021458 -0.365000009537 -0.256999999285 136.0
0.926999986172 -0.375999987125 -0.261000007391 133.0
0.915000021458 -0.377999991179 -0.25799998641 134.0
0.888999998569 -0.372999995947 -0.250999987125 134.0
0.896000027657 -0.38299998641 -0.254000008106 129.0
0.916999995708 -0.398999989033 -0.261000007391 125.0
0.902999997139 -0.398999989033 -0.256999999285 132.0
0.896000027657 -0.402999997139 -0.256000012159 134.0
0.870999991894 -0.398000001907 -0.248999997973 132.0
0.880999982357 -0.409000009298 -0.252999991179 128.0
0.93599998951 -0.442000001669 -0.268999993801 123.0
0.90600001812 -0.435000002384 -0.261000007391 123.0
0.873000025749 -0.425000011921 -0.252000004053 117.0
0.847999989986 -0.419999986887 -0.246000006795 119.0
0.887000024319 -0.446000009775 -0.25799998641 119.0
0.894999980927 -0.456999987364 -0.261000007391 122.0
0.885999977589 -0.460000008345 -0.259000003338 120.0
0.879000008106 -0.462999999523 -0.25799998641 118.0
0.90600001812 -0.485000014305 -0.266000002623 116.0
0.871999979019 -0.472999989986 -0.256999999285 115.0
0.84500002861 -0.465999990702 -0.25 114.0
0.913999974728 -0.512000024319 -0.270999997854 119.0
0.861999988556 -0.490000009537 -0.256000012159 110.0
0.873000025749 -0.503000020981 -0.259999990463 108.0
1.95200002193 1.15999996662 -0.611999988556 134.0
2.0 1.17100000381 -0.625 139.0
2.0720000267 1.19500005245 -0.644999980927 138.0
2.06599998474 1.1740000248 -0.64099997282 136.0
2.16799998283 1.21399998665 -0.670000016689 161.0
2.13700008392 1.17900002003 -0.658999979496 304.0
2.16899991035 1.1779999733 -0.666999995708 309.0
2.22199988365 1.18900001049 -0.680999994278 145.0
2.25699996948 1.18900001049 -0.68900001049 83.0
2.35500001907 -0.333999991417 -0.644999980927 132.0
2.34599995613 -0.347000002861 -0.643000006676 253.0
2.35299992561 -0.361999988556 -0.646000027657 254.0
2.29299998283 -0.36700001359 -0.629000008106 249.0
2.27900004387 -0.379000008106 -0.625999987125 202.0
2.31500005722 -0.398999989033 -0.635999977589 128.0
0.972000002861 -0.182999998331 -0.266999989748 130.0
0.959999978542 -0.187000006437 -0.263999998569 133.0
0.966000020504 -0.194000005722 -0.266000002623 124.0
0.963999986649 -0.20000000298 -0.266000002623 128.0
0.962999999523 -0.204999998212 -0.266000002623 127.0
0.950999975204 -0.209000006318 -0.263000011444 131.0
0.938000023365 -0.211999997497 -0.259000003338 138.0
0.975000023842 -0.225999996066 -0.270000010729 133.0
0.925000011921 -0.221000000834 -0.256999999285 128.0
0.941999971867 -0.231000006199 -0.261999994516 134.0
0.933000028133 -0.233999997377 -0.259000003338 140.0
0.962000012398 -0.247999995947 -0.268000006676 138.0
0.949999988079 -0.250999987125 -0.264999985695 138.0
0.939999997616 -0.254000008106 -0.261999994516 135.0
0.922999978065 -0.254999995232 -0.25799998641 138.0
0.917999982834 -0.259999990463 -0.256999999285 136.0
0.949000000954 -0.27500000596 -0.266000002623 135.0
0.933000028133 -0.277000010014 -0.261999994516 138.0
0.973999977112 -0.294999986887 -0.273999989033 138.0
0.934000015259 -0.28900000453 -0.263000011444 135.0
0.97000002861 -0.307000011206 -0.273000001907 136.0
0.935000002384 -0.301999986172 -0.263999998569 138.0
0.898999989033 -0.296000003815 -0.254000008106 134.0
0.926999986172 -0.312000006437 -0.261999994516 137.0
0.912000000477 -0.312999993563 -0.259000003338 132.0
0.95300000906 -0.333999991417 -0.270999997854 139.0
0.915000021458 -0.326999992132 -0.261000007391 142.0
0.922999978065 -0.33599999547 -0.263000011444 137.0
0.916999995708 -0.340000003576 -0.261999994516 139.0
0.898000001907 -0.338999986649 -0.256999999285 141.0
0.884000003338 -0.340000003576 -0.252999991179 137.0
0.944000005722 -0.370000004768 -0.270999997854 134.0
0.935000002384 -0.372999995947 -0.268999993801 135.0
0.873000025749 -0.354000002146 -0.252000004053 133.0
0.940999984741 -0.388999998569 -0.272000014782 125.0
0.89200001955 -0.375 -0.25799998641 132.0
0.889999985695 -0.381000012159 -0.25799998641 127.0
0.919000029564 -0.40000000596 -0.266999989748 128.0
0.887000024319 -0.391999989748 -0.259000003338 134.0
0.89099997282 -0.400999993086 -0.259999990463 131.0
0.915000021458 -0.418999999762 -0.268000006676 136.0
0.903999984264 -0.421000003815 -0.266000002623 137.0
0.90499997139 -0.428000003099 -0.266999989748 134.0
0.896000027657 -0.430999994278 -0.264999985695 122.0
0.878000020981 -0.428000003099 -0.259999990463 126.0
0.925000011921 -0.458999991417 -0.273999989033 127.0
0.882000029087 -0.444999992847 -0.261999994516 121.0
0.90499997139 -0.462999999523 -0.270000010729 118.0
0.888000011444 -0.462000012398 -0.266000002623 122.0
0.940999984741 -0.497000008821 -0.282000005245 119.0
0.884000003338 -0.472999989986 -0.266000002623 117.0
0.899999976158 -0.490000009537 -0.270999997854 122.0
0.884999990463 -0.488999992609 -0.268000006676 115.0
0.870000004768 -0.488000005484 -0.263999998569 118.0
0.888000011444 -0.505999982357 -0.270000010729 111.0
0.85900002718 -0.495999991894 -0.261999994516 114.0
1.96500003338 1.16900002956 -0.629999995232 136.0
1.99899995327 1.17200005054 -0.638999998569 150.0
2.05599999428 1.18799996376 -0.65499997139 137.0
2.09200000763 1.19099998474 -0.663999974728 132.0
2.12700009346 1.19299995899 -0.672999978065 152.0
2.14700007439 1.18599998951 -0.677999973297 280.0
2.17899990082 1.18599998951 -0.685000002384 322.0
2.2539999485 1.20799994469 -0.707000017166 160.0
2.31999993324 -0.330000013113 -0.649999976158 74.0
2.34899997711 -0.347999989986 -0.658999979496 127.0
2.3029999733 -0.354999989271 -0.647000014782 191.0
2.29200005531 -0.36700001359 -0.643999993801 233.0
2.31900000572 -0.386000007391 -0.652000010014 188.0
2.33200001717 -0.402000010014 -0.65600001812 116.0
1.04799997807 -0.192000001669 -0.294999986887 92.0
0.986999988556 -0.186000004411 -0.277999997139 125.0
0.972999989986 -0.189999997616 -0.273999989033 125.0
0.962999999523 -0.194000005722 -0.272000014782 126.0
0.944000005722 -0.195999994874 -0.266000002623 131.0
0.944999992847 -0.202000007033 -0.266999989748 126.0
0.93900001049 -0.206000000238 -0.266000002623 130.0
0.940999984741 -0.212999999523 -0.266000002623 127.0
0.961000025272 -0.223000004888 -0.272000014782 131.0
0.967999994755 -0.231000006199 -0.27500000596 132.0
0.95300000906 -0.233999997377 -0.270999997854 134.0
0.931999981403 -0.233999997377 -0.264999985695 139.0
0.950999975204 -0.245000004768 -0.270999997854 138.0
0.929000020027 -0.246000006795 -0.264999985695 134.0
0.93599998951 -0.252999991179 -0.266999989748 130.0
0.924000024796 -0.256000012159 -0.263999998569 137.0
0.925000011921 -0.261999994516 -0.264999985695 135.0
0.953999996185 -0.277000010014 -0.273999989033 135.0
0.925999999046 -0.27500000596 -0.266000002623 139.0
0.92199999094 -0.280000001192 -0.264999985695 143.0
0.949999988079 -0.294999986887 -0.273999989033 135.0
0.930000007153 -0.293999999762 -0.268000006676 133.0
0.944000005722 -0.305000007153 -0.273000001907 136.0
0.916999995708 -0.303000003099 -0.264999985695 133.0
0.955999970436 -0.321999996901 -0.277000010014 132.0
0.938000023365 -0.321999996901 -0.272000014782 137.0
0.925999999046 -0.324999988079 -0.268999993801 135.0
0.949999988079 -0.340000003576 -0.277000010014 136.0
0.929000020027 -0.338999986649 -0.270999997854 139.0
0.938000023365 -0.349000006914 -0.273999989033 132.0
0.92199999094 -0.349000006914 -0.270000010729 133.0
0.915000021458 -0.352999985218 -0.268000006676 135.0
0.912999987602 -0.358000010252 -0.268000006676 139.0
0.89200001955 -0.356000006199 -0.263000011444 130.0
0.893999993801 -0.363999992609 -0.263999998569 133.0
0.899999976158 -0.372999995947 -0.266000002623 139.0
0.90499997139 -0.381000012159 -0.268000006676 137.0
0.912000000477 -0.391000002623 -0.270999997854 150.0
0.893999993801 -0.389999985695 -0.266000002623 138.0
0.910000026226 -0.402999997139 -0.272000014782 130.0
0.879000008106 -0.395999997854 -0.263000011444 126.0
0.874000012875 -0.40000000596 -0.261999994516 130.0
0.89099997282 -0.414999991655 -0.268000006676 133.0
0.910000026226 -0.430999994278 -0.273999989033 139.0
0.869000017643 -0.418000012636 -0.261999994516 125.0
0.899999976158 -0.439999997616 -0.273000001907 123.0
0.884000003338 -0.43900001049 -0.268000006676 124.0
0.875999987125 -0.442000001669 -0.266999989748 120.0
0.908999979496 -0.465999990702 -0.277999997139 123.0
0.902999997139 -0.469999998808 -0.277000010014 121.0
0.855000019073 -0.451999992132 -0.261999994516 121.0
0.875 -0.469999998808 -0.268999993801 115.0
0.882000029087 -0.481000006199 -0.272000014782 123.0
0.861000001431 -0.476000010967 -0.266999989748 113.0
0.916000008583 -0.514999985695 -0.284000009298 108.0
0.861000001431 -0.490999996662 -0.268000006676 108.0
0.879999995232 -0.509000003338 -0.27500000596 100.0
1.94500005245 1.15999996662 -0.638000011444 153.0
1.98300004005 1.16499996185 -0.648000001907 147.0
2.06200003624 1.19299995899 -0.67199999094 143.0
2.09599995613 1.19500005245 -0.680999994278 132.0
2.12199997902 1.19200003147 -0.686999976635 151.0
2.117000103 1.17200005054 -0.683000028133 227.0
2.16700005531 1.18099999428 -0.697000026703 313.0
2.21300005913 1.18799996376 -0.709999978542 174.0
2.22900009155 1.17900002003 -0.712999999523 83.0
2.34899997711 -0.333999991417 -0.672999978065 81.0
2.31599998474 -0.344000011683 -0.665000021458 115.0
2.29600000381 -0.354999989271 -0.658999979496 109.0
2.27699995041 -0.365999996662 -0.653999984264 128.0
2.29699993134 -0.38299998641 -0.660000026226 103.0
2.22600007057 -0.384999990463 -0.639999985695 68.0
0.995999991894 -0.181999996305 -0.286000013351 98.0
0.945999979973 -0.179000005126 -0.272000014782 118.0
0.961000025272 -0.187999993563 -0.277000010014 127.0
0.98400002718 -0.197999998927 -0.284000009298 133.0
