ply
format ascii 1.0
element vertex 917
property float x
property float y
property float z
property float intensity
end_header
0.896000027657 -0.488999992609 -0.226999998093 83.0
0.850000023842 -0.470999985933 -0.216000005603 86.0
0.882000029087 -0.495999991894 -0.22499999404 88.0
0.873000025749 -0.499000012875 -0.223000004888 84.0
3.02600002289 1.65499997139 -0.805000007153 126.0
3.06699991226 1.65199995041 -0.813000023365 115.0
3.01900005341 1.60099995136 -0.797999978065 103.0
2.40599989891 -0.082000002265 -0.565999984741 200.0
2.38899993896 -0.0949999988079 -0.561999976635 252.0
2.36100006104 -0.108000002801 -0.555000007153 217.0
2.32699990273 -0.119999997318 -0.54699999094 197.0
2.31900000572 -0.133000001311 -0.545000016689 169.0
2.33599996567 -0.148000001907 -0.549000024796 111.0
2.27500009537 -0.184000000358 -0.535000026226 146.0
2.27699995041 -0.197999998927 -0.536000013351 205.0
1.53100001812 -0.141000002623 -0.360000014305 96.0
0.972999989986 -0.0939999967813 -0.229000002146 129.0
1.00999999046 -0.104000002146 -0.238000005484 133.0
0.987999975681 -0.107000000775 -0.232999995351 128.0
0.962999999523 -0.109999999404 -0.226999998093 126.0
0.948000013828 -0.11400000006 -0.223000004888 131.0
0.957000017166 -0.120999999344 -0.225999996066 133.0
0.990999996662 -0.130999997258 -0.233999997377 129.0
0.93599998951 -0.129999995232 -0.221000000834 130.0
0.97000002861 -0.140000000596 -0.229000002146 130.0
0.989000022411 -0.149000003934 -0.233999997377 133.0
0.962000012398 -0.150999993086 -0.226999998093 132.0
0.995000004768 -0.162000000477 -0.234999999404 133.0
0.971000015736 -0.16400000453 -0.230000004172 141.0
0.941999971867 -0.165000006557 -0.223000004888 137.0
0.971000015736 -0.175999999046 -0.230000004172 133.0
0.976999998093 -0.182999998331 -0.231999993324 131.0
0.967000007629 -0.187000006437 -0.229000002146 132.0
0.949999988079 -0.188999995589 -0.225999996066 130.0
0.976000010967 -0.20000000298 -0.231999993324 129.0
0.989000022411 -0.209000006318 -0.236000001431 127.0
0.962000012398 -0.209000006318 -0.229000002146 128.0
0.972000002861 -0.217999994755 -0.231999993324 128.0
0.939999997616 -0.216000005603 -0.224000006914 130.0
0.981999993324 -0.231999993324 -0.234999999404 129.0
0.96899998188 -0.234999999404 -0.231999993324 127.0
0.959999978542 -0.238999992609 -0.230000004172 128.0
0.933000028133 -0.238000005484 -0.224000006914 126.0
0.916999995708 -0.239999994636 -0.219999998808 129.0
0.929000020027 -0.248999997973 -0.223000004888 122.0
0.930000007153 -0.254999995232 -0.224000006914 128.0
0.959999978542 -0.270000010729 -0.231999993324 128.0
0.930000007153 -0.266999989748 -0.22499999404 118.0
0.962000012398 -0.282999992371 -0.232999995351 124.0
0.962999999523 -0.28900000453 -0.232999995351 119.0
0.903999984264 -0.277000010014 -0.218999996781 118.0
0.924000024796 -0.289999991655 -0.224000006914 117.0
0.975000023842 -0.312000006437 -0.237000003457 123.0
0.961000025272 -0.31400001049 -0.233999997377 124.0
0.954999983311 -0.317999988794 -0.232999995351 126.0
0.943000018597 -0.321000009775 -0.230000004172 115.0
0.950999975204 -0.330000013113 -0.232999995351 114.0
0.964999973774 -0.342000007629 -0.237000003457 109.0
0.93599998951 -0.337999999523 -0.230000004172 113.0
0.941999971867 -0.345999985933 -0.231999993324 107.0
0.921000003815 -0.344999998808 -0.226999998093 103.0
0.939999997616 -0.358000010252 -0.231999993324 112.0
0.930999994278 -0.361000001431 -0.230000004172 110.0
0.912999987602 -0.361000001431 -0.225999996066 107.0
0.958999991417 -0.386000007391 -0.238000005484 104.0
0.902999997139 -0.370000004768 -0.22499999404 102.0
0.952000021935 -0.397000014782 -0.238000005484 107.0
0.912999987602 -0.386999994516 -0.228000000119 104.0
0.930999994278 -0.402000010014 -0.232999995351 103.0
0.934000015259 -0.409999996424 -0.234999999404 100.0
0.897000014782 -0.40000000596 -0.225999996066 105.0
0.916000008583 -0.414999991655 -0.231000006199 97.0
0.971000015736 -0.448000013828 -0.246000006795 94.0
0.919000029564 -0.430999994278 -0.232999995351 89.0
0.90600001812 -0.430999994278 -0.230000004172 96.0
0.949999988079 -0.460000008345 -0.241999998689 102.0
0.936999976635 -0.460000008345 -0.238999992609 91.0
0.894999980927 -0.446999996901 -0.229000002146 85.0
0.93599998951 -0.47499999404 -0.239999994636 90.0
0.93599998951 -0.481999993324 -0.240999996662 88.0
0.893999993801 -0.467999994755 -0.231000006199 86.0
0.908999979496 -0.481999993324 -0.234999999404 85.0
0.907000005245 -0.488999992609 -0.234999999404 82.0
0.935000002384 -0.512000024319 -0.243000000715 91.0
0.879999995232 -0.488000005484 -0.230000004172 91.0
0.962000012398 -0.542999982834 -0.252000004053 89.0
0.913999974728 -0.523000001907 -0.239999994636 89.0
2.94600009918 1.61300003529 -0.804000020027 127.0
3.07100009918 1.65600001812 -0.836000025272 122.0
3.08500003815 1.63900005817 -0.837000012398 89.0
2.39599990845 -0.0810000002384 -0.57800000906 208.0
2.382999897 -0.0949999988079 -0.574999988079 256.0
2.34400010109 -0.107000000775 -0.565999984741 218.0
2.32500004768 -0.119999997318 -0.56099998951 201.0
2.32500004768 -0.134000003338 -0.56099998951 161.0
2.375 -0.150999993086 -0.573000013828 110.0
2.31599998474 -0.187999993563 -0.559000015259 161.0
2.27399992943 -0.197999998927 -0.549000024796 206.0
1.46800005436 -0.135000005364 -0.354999989271 96.0
0.967999994755 -0.0939999967813 -0.233999997377 129.0
0.964999973774 -0.0989999994636 -0.232999995351 127.0
0.972999989986 -0.105999998748 -0.234999999404 126.0
0.96899998188 -0.111000001431 -0.233999997377 128.0
0.967999994755 -0.116999998689 -0.233999997377 133.0
0.98400002718 -0.125 -0.238000005484 129.0
0.955999970436 -0.127000004053 -0.231000006199 134.0
0.986000001431 -0.136999994516 -0.238999992609 128.0
0.98299998045 -0.142000004649 -0.238000005484 127.0
0.961000025272 -0.144999995828 -0.232999995351 133.0
0.955999970436 -0.15000000596 -0.231999993324 133.0
0.973999977112 -0.158999994397 -0.236000001431 132.0
0.958999991417 -0.162000000477 -0.232999995351 133.0
0.971000015736 -0.170000001788 -0.236000001431 134.0
0.977999985218 -0.177000001073 -0.238000005484 127.0
0.945999979973 -0.177000001073 -0.230000004172 132.0
0.986000001431 -0.190999999642 -0.239999994636 135.0
0.958000004292 -0.190999999642 -0.233999997377 132.0
0.961000025272 -0.196999996901 -0.233999997377 133.0
0.952000021935 -0.202000007033 -0.232999995351 131.0
0.967999994755 -0.21099999547 -0.237000003457 133.0
0.943000018597 -0.21099999547 -0.231000006199 130.0
0.944000005722 -0.217999994755 -0.231000006199 129.0
0.952000021935 -0.22499999404 -0.233999997377 128.0
0.952000021935 -0.231000006199 -0.233999997377 128.0
0.938000023365 -0.233999997377 -0.231000006199 128.0
0.957000017166 -0.245000004768 -0.236000001431 122.0
0.912999987602 -0.238999992609 -0.22499999404 120.0
0.930000007153 -0.25 -0.230000004172 126.0
0.921000003815 -0.252999991179 -0.226999998093 126.0
0.952000021935 -0.268000006676 -0.234999999404 124.0
0.933000028133 -0.268000006676 -0.231000006199 121.0
0.958999991417 -0.282000005245 -0.238000005484 120.0
0.97000002861 -0.291999995708 -0.240999996662 124.0
0.930999994278 -0.286000013351 -0.231999993324 119.0
0.971000015736 -0.305000007153 -0.241999998689 114.0
0.992999970913 -0.319000005722 -0.247999995947 122.0
0.976000010967 -0.319000005722 -0.244000002742 121.0
0.940999984741 -0.31400001049 -0.236000001431 124.0
0.92199999094 -0.31400001049 -0.231000006199 117.0
0.93900001049 -0.326000005007 -0.236000001431 116.0
0.958999991417 -0.340000003576 -0.240999996662 106.0
0.966000020504 -0.349000006914 -0.244000002742 111.0
0.912999987602 -0.33599999547 -0.231000006199 113.0
0.925000011921 -0.347000002861 -0.233999997377 108.0
0.952000021935 -0.363999992609 -0.240999996662 100.0
0.962999999523 -0.375 -0.245000004768 102.0
0.897000014782 -0.354999989271 -0.228000000119 102.0
0.916000008583 -0.368999987841 -0.233999997377 101.0
0.902000010014 -0.370000004768 -0.230000004172 98.0
0.929000020027 -0.388000011444 -0.238000005484 104.0
0.913999974728 -0.388000011444 -0.234999999404 97.0
0.930999994278 -0.402000010014 -0.238999992609 103.0
0.912999987602 -0.400999993086 -0.234999999404 99.0
0.90600001812 -0.405000001192 -0.233999997377 103.0
0.907999992371 -0.412000000477 -0.234999999404 99.0
0.920000016689 -0.425000011921 -0.238999992609 98.0
0.907999992371 -0.425999999046 -0.236000001431 98.0
0.894999980927 -0.426999986172 -0.233999997377 95.0
0.922999978065 -0.446999996901 -0.240999996662 93.0
0.916999995708 -0.451000005007 -0.239999994636 93.0
0.901000022888 -0.449999988079 -0.237000003457 94.0
0.929000020027 -0.472000002861 -0.245000004768 92.0
0.869000017643 -0.448000013828 -0.230000004172 87.0
0.929000020027 -0.486000001431 -0.246000006795 82.0
0.916000008583 -0.486999988556 -0.243000000715 90.0
0.884999990463 -0.476999998093 -0.236000001431 87.0
0.864000022411 -0.472999989986 -0.231000006199 86.0
0.903999984264 -0.503000020981 -0.241999998689 93.0
0.867999970913 -0.490000009537 -0.232999995351 91.0
0.958999991417 -0.550000011921 -0.259000003338 90.0
3.04299998283 1.64400005341 -0.848999977112 95.0
2.38899993896 -0.0810000002384 -0.591000020504 213.0
2.382999897 -0.0949999988079 -0.588999986649 256.0
2.33999991417 -0.107000000775 -0.578999996185 210.0
2.32399988174 -0.119999997318 -0.574999988079 199.0
2.3180000782 -0.133000001311 -0.574000000954 163.0
2.27600002289 -0.143999993801 -0.563000023365 106.0
2.28500008583 -0.186000004411 -0.565999984741 175.0
2.27699995041 -0.197999998927 -0.56400001049 212.0
1.40299999714 -0.128999993205 -0.347000002861 97.0
0.98299998045 -0.0949999988079 -0.243000000715 129.0
0.962000012398 -0.0989999994636 -0.238000005484 127.0
1.00300002098 -0.108999997377 -0.247999995947 127.0
0.976000010967 -0.112000003457 -0.241999998689 128.0
0.943000018597 -0.11400000006 -0.233999997377 131.0
0.962999999523 -0.122000001371 -0.238999992609 134.0
0.967999994755 -0.128999993205 -0.239999994636 134.0
0.962999999523 -0.134000003338 -0.238999992609 126.0
0.977999985218 -0.142000004649 -0.243000000715 131.0
0.975000023842 -0.146999999881 -0.243000000715 130.0
0.977999985218 -0.153999999166 -0.243000000715 133.0
0.957000017166 -0.156000003219 -0.238000005484 131.0
0.941999971867 -0.158999994397 -0.234999999404 137.0
0.962000012398 -0.167999997735 -0.239999994636 136.0
0.963999986649 -0.17499999702 -0.240999996662 128.0
0.962999999523 -0.180000007153 -0.239999994636 132.0
0.95300000906 -0.184000000358 -0.238000005484 130.0
0.985000014305 -0.196999996901 -0.246000006795 131.0
0.935000002384 -0.192000001669 -0.233999997377 131.0
0.958999991417 -0.202999994159 -0.239999994636 132.0
0.98400002718 -0.215000003576 -0.24699999392 126.0
0.950999975204 -0.212999999523 -0.238999992609 125.0
0.949000000954 -0.218999996781 -0.238999992609 134.0
0.941999971867 -0.223000004888 -0.237000003457 131.0
0.93599998951 -0.228000000119 -0.236000001431 123.0
0.939999997616 -0.233999997377 -0.237000003457 126.0
0.931999981403 -0.238000005484 -0.234999999404 123.0
0.949000000954 -0.248999997973 -0.239999994636 120.0
0.961000025272 -0.25799998641 -0.243000000715 126.0
0.962999999523 -0.264999985695 -0.244000002742 129.0
0.939999997616 -0.264999985695 -0.238999992609 113.0
0.950999975204 -0.273999989033 -0.241999998689 121.0
0.930000007153 -0.273999989033 -0.237000003457 124.0
0.958999991417 -0.28900000453 -0.245000004768 123.0
0.958999991417 -0.294999986887 -0.245000004768 118.0
0.93599998951 -0.293999999762 -0.238999992609 111.0
0.977999985218 -0.31400001049 -0.25 118.0
0.958999991417 -0.31400001049 -0.246000006795 116.0
0.912000000477 -0.305000007153 -0.233999997377 111.0
0.949999988079 -0.324000000954 -0.244000002742 112.0
0.930999994278 -0.324000000954 -0.239999994636 120.0
0.948000013828 -0.33599999547 -0.245000004768 109.0
0.925000011921 -0.333999991417 -0.238999992609 108.0
0.927999973297 -0.342000007629 -0.239999994636 113.0
0.922999978065 -0.345999985933 -0.238999992609 101.0
0.943000018597 -0.361000001431 -0.245000004768 104.0
0.947000026703 -0.368999987841 -0.24699999392 113.0
0.930999994278 -0.368999987841 -0.243000000715 109.0
0.898999989033 -0.363000005484 -0.234999999404 101.0
0.901000022888 -0.370000004768 -0.236000001431 105.0
0.925000011921 -0.386999994516 -0.243000000715 100.0
0.922999978065 -0.391999989748 -0.243000000715 105.0
0.929000020027 -0.402000010014 -0.245000004768 102.0
0.959999978542 -0.423000007868 -0.254000008106 99.0
0.941999971867 -0.421000003815 -0.25 96.0
0.899999976158 -0.409000009298 -0.238999992609 95.0
0.931999981403 -0.430999994278 -0.247999995947 100.0
0.888999998569 -0.418000012636 -0.237000003457 91.0
0.865999996662 -0.412999987602 -0.231999993324 99.0
0.935000002384 -0.453999996185 -0.250999987125 97.0
0.936999976635 -0.462000012398 -0.252000004053 100.0
0.967999994755 -0.485000014305 -0.261000007391 95.0
0.876999974251 -0.446000009775 -0.237000003457 89.0
0.851999998093 -0.439999997616 -0.231000006199 81.0
0.943000018597 -0.495000004768 -0.256000012159 88.0
0.853999972343 -0.455000013113 -0.232999995351 80.0
0.936999976635 -0.507000029087 -0.256000012159 81.0
0.901000022888 -0.495000004768 -0.24699999392 84.0
0.938000023365 -0.523000001907 -0.25799998641 88.0
0.871999979019 -0.493000000715 -0.239999994636 85.0
0.852999985218 -0.488999992609 -0.236000001431 85.0
2.38800001144 -0.0810000002384 -0.606000006199 212.0
2.39100003242 -0.0960000008345 -0.606999993324 259.0
2.34999990463 -0.108000002801 -0.596000015736 217.0
2.3069999218 -0.119000002742 -0.584999978542 205.0
2.32999992371 -0.134000003338 -0.591000020504 164.0
2.31500005722 -0.146999999881 -0.587000012398 107.0
2.27800011635 -0.185000002384 -0.57800000906 188.0
2.27500009537 -0.199000000954 -0.57800000906 209.0
1.35699999332 -0.125 -0.344999998808 93.0
0.995999991894 -0.097000002861 -0.252999991179 124.0
0.97000002861 -0.10000000149 -0.246000006795 124.0
0.973999977112 -0.105999998748 -0.247999995947 129.0
0.972000002861 -0.112000003457 -0.24699999392 124.0
0.973999977112 -0.118000000715 -0.247999995947 133.0
0.981000006199 -0.125 -0.25 136.0
0.989000022411 -0.131999999285 -0.252000004053 124.0
0.98400002718 -0.136999994516 -0.250999987125 127.0
0.975000023842 -0.142000004649 -0.247999995947 128.0
0.975000023842 -0.146999999881 -0.248999997973 123.0
0.952000021935 -0.15000000596 -0.243000000715 131.0
0.957000017166 -0.156000003219 -0.244000002742 134.0
0.972999989986 -0.165000006557 -0.248999997973 129.0
0.991999983788 -0.173999994993 -0.254000008106 123.0
0.957000017166 -0.173999994993 -0.245000004768 122.0
0.976000010967 -0.182999998331 -0.25 129.0
0.972999989986 -0.188999995589 -0.248999997973 134.0
0.958000004292 -0.192000001669 -0.246000006795 130.0
0.950999975204 -0.195999994874 -0.244000002742 129.0
0.976999998093 -0.208000004292 -0.250999987125 124.0
0.949000000954 -0.207000002265 -0.244000002742 129.0
0.981999993324 -0.221000000834 -0.252999991179 126.0
0.929000020027 -0.215000003576 -0.238999992609 131.0
0.961000025272 -0.228000000119 -0.247999995947 127.0
0.958000004292 -0.233999997377 -0.247999995947 125.0
0.936999976635 -0.233999997377 -0.241999998689 119.0
0.916999995708 -0.234999999404 -0.237000003457 125.0
0.966000020504 -0.254000008106 -0.250999987125 119.0
0.945999979973 -0.254999995232 -0.245000004768 121.0
0.949999988079 -0.261999994516 -0.24699999392 112.0
0.931999981403 -0.263000011444 -0.241999998689 126.0
0.961000025272 -0.277000010014 -0.25 122.0
0.935000002384 -0.275999993086 -0.244000002742 123.0
0.921000003815 -0.277999997139 -0.240999996662 116.0
0.911000013351 -0.280999988317 -0.238999992609 116.0
0.948000013828 -0.298999994993 -0.248999997973 110.0
0.913999974728 -0.293999999762 -0.239999994636 114.0
0.98400002718 -0.323000013828 -0.259000003338 114.0
0.949999988079 -0.317999988794 -0.25 116.0
0.944999992847 -0.323000013828 -0.248999997973 111.0
0.934000015259 -0.324999988079 -0.24699999392 109.0
0.93900001049 -0.333000004292 -0.248999997973 115.0
0.949000000954 -0.344000011683 -0.252000004053 103.0
0.950999975204 -0.351000010967 -0.252999991179 111.0
0.952000021935 -0.358000010252 -0.252999991179 116.0
0.919000029564 -0.351999998093 -0.245000004768 104.0
0.950999975204 -0.370999991894 -0.254000008106 108.0
0.976999998093 -0.388000011444 -0.261999994516 104.0
0.93599998951 -0.379000008106 -0.250999987125 104.0
0.903999984264 -0.372000008821 -0.243000000715 104.0
0.93599998951 -0.391999989748 -0.252000004053 100.0
0.958999991417 -0.409000009298 -0.259000003338 104.0
0.920000016689 -0.398000001907 -0.248999997973 102.0
0.920000016689 -0.405000001192 -0.25 102.0
0.926999986172 -0.414999991655 -0.252000004053 100.0
0.949000000954 -0.432000011206 -0.259000003338 102.0
0.90499997139 -0.418999999762 -0.24699999392 99.0
0.907999992371 -0.426999986172 -0.248999997973 94.0
0.917999982834 -0.43900001049 -0.252000004053 91.0
0.944000005722 -0.458999991417 -0.259999990463 90.0
0.93599998951 -0.462000012398 -0.25799998641 95.0
0.912000000477 -0.456999987364 -0.252000004053 89.0
0.936999976635 -0.477999985218 -0.259999990463 83.0
0.944999992847 -0.488999992609 -0.263000011444 91.0
0.967999994755 -0.509000003338 -0.270000010729 83.0
0.919000029564 -0.490000009537 -0.256999999285 89.0
0.898000001907 -0.486000001431 -0.252000004053 85.0
0.887000024319 -0.486999988556 -0.248999997973 92.0
0.898000001907 -0.500999987125 -0.252999991179 89.0
0.880999982357 -0.499000012875 -0.248999997973 85.0
0.930999994278 -0.535000026226 -0.263999998569 84.0
2.40100002289 -0.082000002265 -0.624000012875 241.0
2.38000011444 -0.0949999988079 -0.619000017643 281.0
2.32100009918 -0.107000000775 -0.602999985218 221.0
2.30800008774 -0.119999997318 -0.600000023842 206.0
2.31299996376 -0.134000003338 -0.601000010967 164.0
2.30200004578 -0.146999999881 -0.597999989986 111.0
2.27099990845 -0.185000002384 -0.591000020504 202.0
2.25 -0.196999996901 -0.586000025272 212.0
1.29999995232 -0.119999997318 -0.337999999523 93.0
0.98299998045 -0.0960000008345 -0.256000012159 127.0
0.973999977112 -0.101000003517 -0.252999991179 127.0
0.986999988556 -0.108000002801 -0.256999999285 126.0
0.977999985218 -0.112999998033 -0.254999995232 123.0
0.976000010967 -0.118000000715 -0.254000008106 132.0
0.964999973774 -0.123000003397 -0.252000004053 129.0
0.955999970436 -0.127000004053 -0.248999997973 122.0
0.936999976635 -0.129999995232 -0.244000002742 122.0
0.978999972343 -0.142000004649 -0.256000012159 133.0
0.975000023842 -0.148000001907 -0.254999995232 124.0
0.990000009537 -0.156000003219 -0.259000003338 133.0
0.978999972343 -0.159999996424 -0.256000012159 131.0
1.00300002098 -0.170000001788 -0.261999994516 134.0
0.991999983788 -0.173999994993 -0.259999990463 124.0
0.972000002861 -0.177000001073 -0.254999995232 132.0
0.980000019073 -0.184000000358 -0.256999999285 122.0
0.976999998093 -0.189999997616 -0.256999999285 130.0
0.978999972343 -0.195999994874 -0.256999999285 124.0
0.940999984741 -0.194000005722 -0.24699999392 128.0
0.952000021935 -0.202000007033 -0.250999987125 131.0
0.972999989986 -0.212999999523 -0.256000012159 124.0
0.938000023365 -0.21099999547 -0.247999995947 126.0
0.986999988556 -0.228000000119 -0.261000007391 124.0
0.955999970436 -0.226999998093 -0.252999991179 118.0
0.955999970436 -0.232999995351 -0.252999991179 121.0
0.958000004292 -0.239999994636 -0.254000008106 122.0
0.930999994278 -0.238999992609 -0.24699999392 124.0
0.959999978542 -0.252999991179 -0.254999995232 119.0
0.934000015259 -0.252000004053 -0.247999995947 123.0
0.925000011921 -0.254999995232 -0.246000006795 125.0
0.957000017166 -0.270000010729 -0.254999995232 116.0
0.938000023365 -0.270999997854 -0.250999987125 118.0
0.934000015259 -0.275999993086 -0.25 118.0
0.944000005722 -0.284999996424 -0.252999991179 117.0
0.96899998188 -0.298999994993 -0.259999990463 116.0
0.930000007153 -0.293000012636 -0.25 114.0
0.966000020504 -0.31099998951 -0.259999990463 118.0
0.952000021935 -0.312999993563 -0.256999999285 114.0
0.929000020027 -0.312000006437 -0.250999987125 116.0
0.963999986649 -0.330000013113 -0.261000007391 111.0
0.944000005722 -0.328999996185 -0.256000012159 116.0
0.921000003815 -0.32800000906 -0.25 108.0
0.954999983311 -0.345999985933 -0.259999990463 111.0
0.903999984264 -0.333999991417 -0.246000006795 108.0
0.949999988079 -0.358000010252 -0.259000003338 110.0
0.922999978065 -0.354000002146 -0.252000004053 99.0
0.947000026703 -0.370000004768 -0.259000003338 107.0
0.967999994755 -0.384999990463 -0.266000002623 107.0
0.948000013828 -0.384000003338 -0.261000007391 110.0
0.910000026226 -0.375 -0.250999987125 95.0
0.929000020027 -0.388999998569 -0.256999999285 98.0
0.944999992847 -0.402999997139 -0.261999994516 97.0
0.940999984741 -0.407999992371 -0.261000007391 92.0
0.930999994278 -0.411000013351 -0.259000003338 95.0
0.919000029564 -0.412999987602 -0.256000012159 96.0
0.96899998188 -0.442000001669 -0.270999997854 96.0
0.912999987602 -0.423000007868 -0.256000012159 89.0
0.90600001812 -0.426999986172 -0.254000008106 93.0
0.930999994278 -0.446000009775 -0.261999994516 91.0
0.927999973297 -0.451999992132 -0.261999994516 94.0
0.912000000477 -0.451000005007 -0.25799998641 86.0
0.898000001907 -0.451000005007 -0.254000008106 92.0
0.921000003815 -0.469999998808 -0.261999994516 95.0
0.899999976158 -0.465999990702 -0.256000012159 90.0
0.952000021935 -0.500999987125 -0.272000014782 91.0
0.901000022888 -0.481000006199 -0.25799998641 84.0
0.902000010014 -0.488999992609 -0.259000003338 85.0
0.962999999523 -0.538999974728 -0.279000014067 85.0
0.963999986649 -0.54699999094 -0.280000001192 84.0
0.827000021935 -0.476000010967 -0.240999996662 101.0
2.39400005341 -0.082000002265 -0.637000024319 257.0
2.37199997902 -0.0949999988079 -0.630999982357 294.0
2.35400009155 -0.108000002801 -0.625999987125 223.0
2.31900000572 -0.120999999344 -0.616999983788 207.0
2.34599995613 -0.136000007391 -0.625 167.0
2.31999993324 -0.148000001907 -0.617999970913 94.0
2.27300000191 -0.185000002384 -0.606000006199 211.0
2.27300000191 -0.199000000954 -0.606000006199 208.0
1.24100005627 -0.115000002086 -0.331000000238 94.0
0.958000004292 -0.0930000022054 -0.254999995232 124.0
0.967000007629 -0.10000000149 -0.25799998641 122.0
0.972000002861 -0.105999998748 -0.259000003338 121.0
0.981000006199 -0.112999998033 -0.261999994516 127.0
0.958000004292 -0.115999996662 -0.254999995232 123.0
0.97000002861 -0.123999997973 -0.259000003338 125.0
0.981000006199 -0.130999997258 -0.261999994516 121.0
0.95300000906 -0.133000001311 -0.254999995232 125.0
0.991999983788 -0.143999993801 -0.264999985695 126.0
0.961000025272 -0.145999997854 -0.256999999285 126.0
0.931999981403 -0.146999999881 -0.248999997973 127.0
0.989000022411 -0.162000000477 -0.264999985695 128.0
0.957000017166 -0.163000002503 -0.256999999285 121.0
0.962999999523 -0.168999999762 -0.25799998641 131.0
0.972000002861 -0.177000001073 -0.261000007391 128.0
0.953999996185 -0.180000007153 -0.256000012159 130.0
0.933000028133 -0.180999994278 -0.250999987125 127.0
0.967999994755 -0.194000005722 -0.259999990463 123.0
0.93599998951 -0.193000003695 -0.252000004053 130.0
0.980000019073 -0.209000006318 -0.263999998569 127.0
1.00100004673 -0.219999998808 -0.270000010729 124.0
0.964999973774 -0.217999994755 -0.261000007391 131.0
0.962999999523 -0.223000004888 -0.259999990463 120.0
0.981000006199 -0.233999997377 -0.266000002623 123.0
0.95300000906 -0.232999995351 -0.25799998641 119.0
0.978999972343 -0.246000006795 -0.266000002623 128.0
0.936999976635 -0.240999996662 -0.254999995232 120.0
0.958000004292 -0.252000004053 -0.261000007391 124.0
0.912999987602 -0.246000006795 -0.248999997973 128.0
0.924000024796 -0.254999995232 -0.252000004053 124.0
0.953999996185 -0.270000010729 -0.261000007391 114.0
0.931999981403 -0.270000010729 -0.254999995232 122.0
0.961000025272 -0.284999996424 -0.263000011444 118.0
0.958000004292 -0.289999991655 -0.263000011444 119.0
0.949999988079 -0.293999999762 -0.261000007391 121.0
0.958999991417 -0.303000003099 -0.263999998569 121.0
0.948000013828 -0.305999994278 -0.261000007391 116.0
0.947000026703 -0.312000006437 -0.261000007391 106.0
0.936999976635 -0.314999997616 -0.259000003338 114.0
0.93599998951 -0.321000009775 -0.259000003338 114.0
0.894999980927 -0.312999993563 -0.247999995947 111.0
0.962000012398 -0.342999994755 -0.266999989748 109.0
0.916999995708 -0.333000004292 -0.254999995232 115.0
0.933000028133 -0.344999998808 -0.259999990463 102.0
0.927999973297 -0.34999999404 -0.259000003338 112.0
0.922999978065 -0.354000002146 -0.25799998641 99.0
0.930000007153 -0.363999992609 -0.261000007391 105.0
0.921000003815 -0.36700001359 -0.259000003338 103.0
0.943000018597 -0.381999999285 -0.266000002623 103.0
0.888000011444 -0.365999996662 -0.250999987125 99.0
0.941999971867 -0.395999997854 -0.266000002623 100.0
0.910000026226 -0.388999998569 -0.25799998641 100.0
0.907999992371 -0.395000010729 -0.25799998641 104.0
0.916999995708 -0.405000001192 -0.261000007391 93.0
0.898000001907 -0.402999997139 -0.256000012159 98.0
0.896000027657 -0.409000009298 -0.256000012159 97.0
0.913999974728 -0.425000011921 -0.261999994516 92.0
0.930999994278 -0.43900001049 -0.268000006676 89.0
0.901000022888 -0.432000011206 -0.259999990463 89.0
0.907999992371 -0.442999988794 -0.261999994516 94.0
0.939999997616 -0.465000003576 -0.272000014782 87.0
0.927999973297 -0.467000007629 -0.270000010729 93.0
0.93599998951 -0.477999985218 -0.273000001907 84.0
0.869000017643 -0.451000005007 -0.254000008106 91.0
0.861999988556 -0.453999996185 -0.252000004053 86.0
0.921000003815 -0.493000000715 -0.270000010729 87.0
0.887000024319 -0.481999993324 -0.261000007391 84.0
0.910000026226 -0.501999974251 -0.268999993801 85.0
0.897000014782 -0.501999974251 -0.266000002623 87.0
0.912999987602 -0.518999993801 -0.270999997854 104.0
0.92199999094 -0.532000005245 -0.27500000596 98.0
2.47499990463 -0.070000000298 -0.674000024796 84.0
2.37700009346 -0.082000002265 -0.648000001907 274.0
2.38599991798 -0.0960000008345 -0.649999976158 301.0
2.34599995613 -0.108000002801 -0.638999998569 236.0
2.3180000782 -0.120999999344 -0.632000029087 214.0
2.3029999733 -0.134000003338 -0.628000020981 164.0
2.35700011253 -0.150999993086 -0.64200001955 88.0
2.27900004387 -0.186000004411 -0.621999979019 217.0
2.25999999046 -0.197999998927 -0.616999983788 194.0
1.22099995613 -0.112999998033 -0.333000004292 96.0
0.971000015736 -0.0949999988079 -0.264999985695 123.0
0.980000019073 -0.101999998093 -0.266999989748 127.0
0.964999973774 -0.105999998748 -0.263000011444 118.0
0.971000015736 -0.112000003457 -0.264999985695 129.0
1.0039999485 -0.122000001371 -0.273999989033 120.0
0.97000002861 -0.123999997973 -0.264999985695 120.0
0.990999996662 -0.133000001311 -0.270999997854 121.0
0.975000023842 -0.136000007391 -0.266999989748 128.0
0.980000019073 -0.143000006676 -0.268000006676 123.0
0.981999993324 -0.149000003934 -0.268999993801 126.0
0.958999991417 -0.150999993086 -0.263000011444 125.0
0.961000025272 -0.158000007272 -0.263999998569 127.0
0.959999978542 -0.163000002503 -0.263000011444 127.0
0.995999991894 -0.175999999046 -0.273999989033 128.0
0.967999994755 -0.177000001073 -0.266000002623 129.0
0.949999988079 -0.179000005126 -0.261000007391 124.0
0.992999970913 -0.194000005722 -0.273000001907 122.0
0.955999970436 -0.192000001669 -0.263999998569 123.0
0.945999979973 -0.195999994874 -0.261000007391 123.0
0.964999973774 -0.206000000238 -0.266000002623 125.0
0.936999976635 -0.206000000238 -0.259000003338 125.0
0.938000023365 -0.211999997497 -0.259999990463 126.0
0.947000026703 -0.219999998808 -0.261999994516 126.0
0.995999991894 -0.238000005484 -0.275999993086 127.0
0.950999975204 -0.232999995351 -0.263999998569 124.0
0.972999989986 -0.244000002742 -0.270000010729 125.0
0.949999988079 -0.245000004768 -0.263999998569 120.0
0.959999978542 -0.252999991179 -0.268000006676 122.0
0.947000026703 -0.256000012159 -0.263999998569 122.0
0.962000012398 -0.266000002623 -0.268999993801 120.0
0.921000003815 -0.261000007391 -0.256999999285 121.0
0.966000020504 -0.280000001192 -0.270000010729 119.0
0.944999992847 -0.280000001192 -0.264999985695 111.0
0.934000015259 -0.282999992371 -0.261999994516 113.0
0.944999992847 -0.293000012636 -0.266000002623 119.0
0.947000026703 -0.300000011921 -0.266999989748 114.0
0.967000007629 -0.312000006437 -0.273000001907 124.0
0.940999984741 -0.310000002384 -0.266000002623 116.0
0.929000020027 -0.312000006437 -0.263000011444 114.0
0.888000011444 -0.305000007153 -0.252000004053 116.0
0.962000012398 -0.337000012398 -0.273000001907 123.0
0.922999978065 -0.328999996185 -0.263000011444 126.0
0.910000026226 -0.331000000238 -0.259000003338 117.0
0.958000004292 -0.354999989271 -0.273999989033 106.0
0.926999986172 -0.34999999404 -0.264999985695 104.0
0.922999978065 -0.354999989271 -0.264999985695 104.0
0.938000023365 -0.36700001359 -0.268999993801 102.0
0.902999997139 -0.360000014305 -0.259999990463 107.0
0.929000020027 -0.377000004053 -0.268000006676 106.0
0.972999989986 -0.402000010014 -0.280999988317 107.0
0.947000026703 -0.398999989033 -0.273999989033 91.0
0.938000023365 -0.400999993086 -0.272000014782 99.0
0.921000003815 -0.400999993086 -0.268000006676 102.0
0.917999982834 -0.405999988317 -0.268000006676 94.0
0.89099997282 -0.400999993086 -0.259999990463 95.0
0.893000006676 -0.407999992371 -0.261999994516 96.0
0.925000011921 -0.430999994278 -0.272000014782 93.0
0.927999973297 -0.43900001049 -0.273000001907 90.0
0.938000023365 -0.451000005007 -0.277000010014 87.0
0.916000008583 -0.446999996901 -0.270999997854 85.0
0.90600001812 -0.449000000954 -0.268999993801 86.0
0.954999983311 -0.481000006199 -0.284000009298 96.0
0.954999983311 -0.488999992609 -0.284999996424 88.0
0.930000007153 -0.483000010252 -0.277999997139 84.0
0.944000005722 -0.499000012875 -0.282999992371 89.0
0.939999997616 -0.504000008106 -0.282999992371 93.0
0.893000006676 -0.486000001431 -0.268999993801 87.0
0.879000008106 -0.486000001431 -0.266000002623 90.0
0.842000007629 -0.472000002861 -0.254999995232 86.0
0.941999971867 -0.537000000477 -0.287000000477 87.0
0.916000008583 -0.528999984264 -0.280000001192 86.0
2.4240000248 -0.0689999982715 -0.675999999046 81.0
2.36999988556 -0.0810000002384 -0.660000026226 187.0
2.36500000954 -0.0949999988079 -0.658999979496 219.0
2.33699989319 -0.108000002801 -0.652000010014 233.0
2.30500006676 -0.119999997318 -0.643000006676 220.0
2.31599998474 -0.135000005364 -0.646000027657 171.0
2.34500002861 -0.15000000596 -0.653999984264 84.0
2.34999990463 -0.179000005126 -0.65600001812 64.0
2.29200005531 -0.187999993563 -0.639999985695 219.0
2.27399992943 -0.20000000298 -0.634999990463 201.0
1.1740000248 -0.108999997377 -0.32800000906 99.0
0.991999983788 -0.097000002861 -0.277000010014 123.0
0.97000002861 -0.101000003517 -0.270999997854 120.0
0.964999973774 -0.105999998748 -0.268999993801 123.0
0.962999999523 -0.112000003457 -0.268999993801 125.0
0.994000017643 -0.120999999344 -0.277999997139 130.0
0.977999985218 -0.125 -0.273999989033 122.0
0.985000014305 -0.131999999285 -0.275999993086 127.0
0.981999993324 -0.136999994516 -0.27500000596 123.0
0.989000022411 -0.144999995828 -0.277000010014 128.0
0.958000004292 -0.145999997854 -0.268000006676 123.0
0.962000012398 -0.151999995112 -0.270000010729 129.0
0.972999989986 -0.159999996424 -0.273000001907 122.0
0.945999979973 -0.16099999845 -0.266000002623 125.0
0.996999979019 -0.175999999046 -0.280000001192 131.0
0.961000025272 -0.175999999046 -0.270000010729 128.0
0.940999984741 -0.178000003099 -0.264999985695 125.0
0.971000015736 -0.188999995589 -0.273999989033 122.0
0.967999994755 -0.194999992847 -0.273000001907 130.0
0.963999986649 -0.20000000298 -0.272000014782 128.0
0.97000002861 -0.207000002265 -0.273999989033 127.0
0.976000010967 -0.215000003576 -0.275999993086 128.0
0.96899998188 -0.218999996781 -0.273999989033 119.0
1.02100002766 -0.238000005484 -0.28900000453 121.0
0.930000007153 -0.222000002861 -0.263999998569 125.0
0.97000002861 -0.238000005484 -0.27500000596 118.0
0.926999986172 -0.232999995351 -0.263999998569 121.0
0.926999986172 -0.238999992609 -0.263999998569 122.0
0.93900001049 -0.247999995947 -0.268000006676 117.0
0.955999970436 -0.259000003338 -0.273000001907 126.0
0.967000007629 -0.268000006676 -0.275999993086 119.0
0.934000015259 -0.264999985695 -0.266999989748 115.0
0.964999973774 -0.280000001192 -0.277000010014 118.0
0.941999971867 -0.280000001192 -0.270000010729 116.0
0.93599998951 -0.284000009298 -0.268999993801 123.0
0.972000002861 -0.300999999046 -0.280000001192 125.0
0.966000020504 -0.305999994278 -0.279000014067 123.0
0.941999971867 -0.305000007153 -0.272000014782 129.0
0.953999996185 -0.314999997616 -0.275999993086 115.0
0.884000003338 -0.298000007868 -0.256000012159 119.0
0.916999995708 -0.314999997616 -0.266000002623 120.0
0.92199999094 -0.323000013828 -0.268000006676 114.0
0.927999973297 -0.331999987364 -0.270000010729 115.0
0.962000012398 -0.351000010967 -0.280999988317 120.0
0.940999984741 -0.349000006914 -0.27500000596 110.0
0.92199999094 -0.349000006914 -0.270000010729 105.0
0.93900001049 -0.361999988556 -0.27500000596 108.0
0.944000005722 -0.370999991894 -0.277999997139 108.0
0.894999980927 -0.358000010252 -0.263999998569 99.0
0.978999972343 -0.398999989033 -0.28900000453 105.0
0.921000003815 -0.381000012159 -0.272000014782 104.0
0.89099997282 -0.375 -0.263999998569 103.0
0.898999989033 -0.384999990463 -0.266999989748 110.0
0.930000007153 -0.405000001192 -0.277000010014 94.0
0.893000006676 -0.395999997854 -0.266000002623 89.0
0.896000027657 -0.404000014067 -0.268000006676 97.0
0.926999986172 -0.425000011921 -0.277999997139 92.0
0.880999982357 -0.409999996424 -0.264999985695 98.0
0.880999982357 -0.416999995708 -0.266000002623 92.0
0.894999980927 -0.430999994278 -0.270000010729 89.0
0.938000023365 -0.458999991417 -0.284000009298 86.0
0.916000008583 -0.455000013113 -0.277999997139 94.0
0.945999979973 -0.477999985218 -0.287999987602 86.0
0.93900001049 -0.481000006199 -0.287000000477 89.0
0.915000021458 -0.476999998093 -0.280000001192 84.0
0.907000005245 -0.479999989271 -0.277999997139 89.0
0.913999974728 -0.490999996662 -0.282000005245 82.0
1.00499999523 -0.549000024796 -0.310000002384 91.0
0.887000024319 -0.490999996662 -0.27500000596 83.0
0.898000001907 -0.504999995232 -0.279000014067 95.0
0.927999973297 -0.528999984264 -0.28900000453 83.0
2.36199998856 -0.0810000002384 -0.672999978065 100.0
2.37700009346 -0.0960000008345 -0.677999973297 128.0
2.31900000572 -0.107000000775 -0.661000013351 194.0
2.31500005722 -0.120999999344 -0.660000026226 209.0
2.32299995422 -0.135000005364 -0.662999987602 143.0
2.38000011444 -0.152999997139 -0.679000020027 77.0
2.30399990082 -0.17499999702 -0.657000005245 78.0
2.29200005531 -0.187999993563 -0.653999984264 244.0
2.26300001144 -0.199000000954 -0.646000027657 196.0
1.20200002193 -0.111000001431 -0.342999994755 95.0
0.964999973774 -0.0949999988079 -0.27500000596 116.0
0.98400002718 -0.101999998093 -0.280999988317 114.0
0.96899998188 -0.107000000775 -0.277000010014 126.0
0.975000023842 -0.112999998033 -0.279000014067 119.0
0.966000020504 -0.118000000715 -0.275999993086 122.0
0.925999999046 -0.119000002742 -0.264999985695 130.0
0.962999999523 -0.128999993205 -0.27500000596 125.0
0.967000007629 -0.136000007391 -0.277000010014 121.0
0.957000017166 -0.140000000596 -0.273999989033 120.0
0.966000020504 -0.146999999881 -0.277000010014 122.0
0.954999983311 -0.150999993086 -0.273999989033 123.0
0.972999989986 -0.159999996424 -0.279000014067 127.0
0.962000012398 -0.16400000453 -0.275999993086 120.0
0.934000015259 -0.165000006557 -0.268999993801 125.0
0.944000005722 -0.172999992967 -0.270999997854 121.0
0.953999996185 -0.180000007153 -0.27500000596 127.0
0.944999992847 -0.184000000358 -0.272000014782 120.0
0.966000020504 -0.194999992847 -0.279000014067 125.0
0.95300000906 -0.197999998927 -0.27500000596 127.0
0.964999973774 -0.207000002265 -0.279000014067 115.0
0.933000028133 -0.204999998212 -0.270000010729 120.0
0.954999983311 -0.216000005603 -0.277000010014 124.0
0.987999975681 -0.230000004172 -0.286000013351 126.0
0.941999971867 -0.22499999404 -0.273000001907 119.0
0.940999984741 -0.231000006199 -0.273000001907 124.0
0.98400002718 -0.247999995947 -0.286000013351 119.0
0.943000018597 -0.244000002742 -0.27500000596 113.0
0.964999973774 -0.256000012159 -0.280999988317 119.0
0.949999988079 -0.25799998641 -0.277000010014 119.0
0.977999985218 -0.272000014782 -0.286000013351 113.0
0.978999972343 -0.277999997139 -0.287000000477 120.0
0.940999984741 -0.273999989033 -0.275999993086 115.0
0.924000024796 -0.27500000596 -0.270999997854 123.0
0.972000002861 -0.296000003815 -0.286000013351 118.0
0.916999995708 -0.284999996424 -0.270000010729 111.0
0.945999979973 -0.300000011921 -0.279000014067 116.0
0.929000020027 -0.300999999046 -0.273999989033 122.0
0.967000007629 -0.319999992847 -0.286000013351 121.0
0.96899998188 -0.326999992132 -0.287000000477 117.0
0.950999975204 -0.32800000906 -0.282000005245 114.0
0.938000023365 -0.328999996185 -0.279000014067 119.0
0.935000002384 -0.335000008345 -0.279000014067 123.0
0.929000020027 -0.338999986649 -0.277000010014 117.0
0.95300000906 -0.354999989271 -0.284999996424 110.0
0.958999991417 -0.363999992609 -0.287999987602 100.0
0.908999979496 -0.351000010967 -0.273000001907 107.0
0.939999997616 -0.370000004768 -0.282999992371 98.0
0.933000028133 -0.374000012875 -0.280999988317 94.0
0.940999984741 -0.384000003338 -0.284000009298 94.0
0.893000006676 -0.370000004768 -0.270000010729 101.0
0.929000020027 -0.391999989748 -0.282000005245 102.0
0.944000005722 -0.405999988317 -0.287000000477 100.0
0.912000000477 -0.398000001907 -0.277999997139 96.0
0.917999982834 -0.407999992371 -0.280000001192 91.0
0.957000017166 -0.432999998331 -0.293000012636 96.0
0.903999984264 -0.414999991655 -0.277000010014 92.0
0.911000013351 -0.425000011921 -0.280000001192 90.0
0.902000010014 -0.428000003099 -0.277999997139 95.0
0.894999980927 -0.432000011206 -0.277000010014 86.0
0.917999982834 -0.449999988079 -0.284999996424 90.0
0.920000016689 -0.458000004292 -0.286000013351 83.0
0.887000024319 -0.449000000954 -0.275999993086 89.0
0.903999984264 -0.463999986649 -0.282000005245 100.0
0.929000020027 -0.485000014305 -0.291000008583 90.0
0.90600001812 -0.479999989271 -0.284999996424 90.0
0.866999983788 -0.465999990702 -0.273000001907 90.0
0.852999985218 -0.465999990702 -0.270000010729 94.0
0.883000016212 -0.497000008821 -0.280999988317 90.0
0.860000014305 -0.490999996662 -0.273999989033 91.0
2.33400011063 -0.0810000002384 -0.680000007153 102.0
2.382999897 -0.097000002861 -0.694999992847 102.0
2.33999991417 -0.108999997377 -0.681999981403 79.0
2.31100010872 -0.120999999344 -0.674000024796 79.0
2.32399988174 -0.136000007391 -0.677999973297 66.0
2.27200007439 -0.187000006437 -0.662999987602 189.0
2.24399995804 -0.197999998927 -0.65499997139 141.0
1.06700003147 -0.0989999994636 -0.31099998951 101.0
0.986000001431 -0.097000002861 -0.287999987602 119.0
0.971000015736 -0.101000003517 -0.282999992371 119.0
0.981000006199 -0.108000002801 -0.286000013351 119.0
0.973999977112 -0.112999998033 -0.284000009298 120.0
0.957000017166 -0.116999998689 -0.279000014067 124.0
0.990999996662 -0.127000004053 -0.289999991655 122.0
0.999000012875 -0.134000003338 -0.291999995708 124.0
0.98400002718 -0.137999996543 -0.287999987602 111.0
0.935000002384 -0.136999994516 -0.273999989033 118.0
0.972999989986 -0.149000003934 -0.284999996424 124.0
0.961000025272 -0.152999997139 -0.282000005245 114.0
0.959999978542 -0.158000007272 -0.282000005245 128.0
0.987999975681 -0.168999999762 -0.289999991655 121.0
0.976000010967 -0.172999992967 -0.287000000477 124.0
0.971000015736 -0.178000003099 -0.286000013351 120.0
0.947000026703 -0.179000005126 -0.279000014067 124.0
0.944999992847 -0.185000002384 -0.279000014067 123.0
0.976000010967 -0.196999996901 -0.287999987602 121.0
0.991999983788 -0.206000000238 -0.293000012636 118.0
0.950999975204 -0.203999996185 -0.280999988317 120.0
0.935000002384 -0.206000000238 -0.277000010014 119.0
0.925000011921 -0.209999993443 -0.273999989033 118.0
0.957000017166 -0.223000004888 -0.284000009298 120.0
0.93599998951 -0.224000006914 -0.277999997139 120.0
0.925000011921 -0.226999998093 -0.27500000596 113.0
0.926999986172 -0.233999997377 -0.275999993086 119.0
0.957000017166 -0.247999995947 -0.284999996424 114.0
0.948000013828 -0.250999987125 -0.282999992371 114.0
0.954999983311 -0.259000003338 -0.284999996424 115.0
0.949000000954 -0.263999998569 -0.284000009298 116.0
0.966000020504 -0.27500000596 -0.28900000453 114.0
0.985000014305 -0.287000000477 -0.294999986887 109.0
0.990000009537 -0.294999986887 -0.29699999094 115.0
0.981999993324 -0.298999994993 -0.294999986887 122.0
0.948000013828 -0.294999986887 -0.284999996424 120.0
0.943000018597 -0.300000011921 -0.284999996424 120.0
0.958999991417 -0.31099998951 -0.289999991655 125.0
0.924000024796 -0.305999994278 -0.280000001192 127.0
0.949000000954 -0.321000009775 -0.287999987602 127.0
0.975000023842 -0.33599999547 -0.296000003815 122.0
0.921000003815 -0.324000000954 -0.280000001192 121.0
0.92199999094 -0.331000000238 -0.280999988317 116.0
0.897000014782 -0.32800000906 -0.273999989033 111.0
0.944999992847 -0.351999998093 -0.28900000453 103.0
0.922999978065 -0.34999999404 -0.282999992371 103.0
0.953999996185 -0.368999987841 -0.293000012636 101.0
0.911000013351 -0.358999997377 -0.280000001192 105.0
0.899999976158 -0.361000001431 -0.277000010014 97.0
0.938000023365 -0.38299998641 -0.289999991655 98.0
0.919000029564 -0.381999999285 -0.284999996424 98.0
0.921000003815 -0.388999998569 -0.286000013351 100.0
0.897000014782 -0.386000007391 -0.279000014067 95.0
0.898000001907 -0.393000006676 -0.280000001192 87.0
0.862999975681 -0.384000003338 -0.270000010729 95.0
0.876999974251 -0.395999997854 -0.273999989033 89.0
0.887000024319 -0.407999992371 -0.277999997139 91.0
0.947000026703 -0.442999988794 -0.298000007868 88.0
0.959999978542 -0.456999987364 -0.303000003099 94.0
0.95300000906 -0.46099999547 -0.300999999046 92.0
0.930000007153 -0.456999987364 -0.294999986887 84.0
0.930999994278 -0.463999986649 -0.296000003815 85.0
0.867999970913 -0.439999997616 -0.277000010014 86.0
0.931999981403 -0.479999989271 -0.298000007868 89.0
0.920000016689 -0.481000006199 -0.294999986887 86.0
0.963999986649 -0.512000024319 -0.310000002384 88.0
0.876999974251 -0.472999989986 -0.282999992371 82.0
0.920000016689 -0.504000008106 -0.29699999094 93.0
0.939999997616 -0.523000001907 -0.305000007153 89.0
0.915000021458 -0.51599997282 -0.298000007868 89.0
0.830999970436 -0.481999993324 -0.272000014782 90.0
2.34999990463 -0.0810000002384 -0.699999988079 92.0
2.3789999485 -0.097000002861 -0.708000004292 96.0
2.30999994278 -0.107000000775 -0.688000023365 71.0
2.28399991989 -0.119999997318 -0.680000007153 61.0
2.32800006866 -0.178000003099 -0.694000005722 56.0
2.25200009346 -0.185000002384 -0.67199999094 91.0
2.18899989128 -0.193000003695 -0.652999997139 71.0
1.02400004864 -0.0949999988079 -0.305000007153 105.0
0.976999998093 -0.0960000008345 -0.291000008583 114.0
0.96899998188 -0.101000003517 -0.28900000453 121.0
0.941999971867 -0.104000002146 -0.280999988317 122.0
0.967999994755 -0.112999998033 -0.28900000453 118.0
0.958999991417 -0.116999998689 -0.286000013351 122.0
0.981999993324 -0.126000002027 -0.293000012636 123.0
0.962000012398 -0.128999993205 -0.287000000477 121.0
0.976000010967 -0.136999994516 -0.291999995708 121.0
0.967000007629 -0.142000004649 -0.28900000453 119.0
0.958000004292 -0.146999999881 -0.287000000477 124.0
0.985000014305 -0.157000005245 -0.294999986887 116.0
1.02199995518 -0.168999999762 -0.307000011206 117.0
0.97000002861 -0.165999993682 -0.291000008583 114.0
0.962999999523 -0.171000003815 -0.28900000453 115.0
0.958000004292 -0.175999999046 -0.287999987602 117.0
0.966000020504 -0.182999998331 -0.291000008583 128.0
0.955999970436 -0.187000006437 -0.287999987602 118.0
0.962000012398 -0.194999992847 -0.289999991655 113.0
0.975000023842 -0.202999994159 -0.293999999762 117.0
0.958000004292 -0.206000000238 -0.28900000453 113.0
0.981000006199 -0.216999992728 -0.296000003815 119.0
0.954999983311 -0.216999992728 -0.28900000453 118.0
0.938000023365 -0.218999996781 -0.284000009298 113.0
0.941999971867 -0.225999996066 -0.286000013351 115.0
0.941999971867 -0.231999993324 -0.286000013351 120.0
0.949000000954 -0.239999994636 -0.28900000453 114.0
0.957000017166 -0.247999995947 -0.291000008583 112.0
0.933000028133 -0.247999995947 -0.284000009298 118.0
0.944999992847 -0.256999999285 -0.287999987602 108.0
0.954999983311 -0.266000002623 -0.291999995708 113.0
0.967000007629 -0.275999993086 -0.296000003815 114.0
0.910000026226 -0.264999985695 -0.279000014067 108.0
0.945999979973 -0.282000005245 -0.289999991655 106.0
0.947000026703 -0.28900000453 -0.291000008583 122.0
0.912000000477 -0.284000009298 -0.280999988317 125.0
0.952000021935 -0.303000003099 -0.293000012636 117.0
0.919000029564 -0.298999994993 -0.284000009298 116.0
0.924000024796 -0.307000011206 -0.286000013351 115.0
0.95300000906 -0.323000013828 -0.294999986887 122.0
0.908999979496 -0.31400001049 -0.282000005245 122.0
0.957000017166 -0.337000012398 -0.29699999094 114.0
0.916999995708 -0.328999996185 -0.284999996424 120.0
0.90600001812 -0.331999987364 -0.282999992371 108.0
0.90600001812 -0.337999999523 -0.282999992371 106.0
0.922999978065 -0.351000010967 -0.28900000453 97.0
0.961000025272 -0.372000008821 -0.301999986172 97.0
0.966000020504 -0.381999999285 -0.303999990225 99.0
0.912999987602 -0.36700001359 -0.287999987602 101.0
0.916000008583 -0.374000012875 -0.28900000453 99.0
0.894999980927 -0.372000008821 -0.282999992371 97.0
0.939999997616 -0.398000001907 -0.298000007868 98.0
0.90499997139 -0.389999985695 -0.287999987602 94.0
0.927999973297 -0.407000005245 -0.296000003815 101.0
0.949000000954 -0.423000007868 -0.303000003099 94.0
0.949999988079 -0.430999994278 -0.303999990225 98.0
0.947000026703 -0.43599998951 -0.303999990225 90.0
0.926999986172 -0.433999985456 -0.298000007868 80.0
0.927999973297 -0.442000001669 -0.298999994993 86.0
0.894999980927 -0.432999998331 -0.28900000453 87.0
0.924000024796 -0.455000013113 -0.300000011921 86.0
0.943000018597 -0.470999985933 -0.305999994278 88.0
0.915000021458 -0.465000003576 -0.298000007868 82.0
0.915000021458 -0.472000002861 -0.298999994993 84.0
0.898000001907 -0.469999998808 -0.293999999762 82.0
0.90499997139 -0.481000006199 -0.29699999094 83.0
0.833999991417 -0.449999988079 -0.27500000596 85.0
0.975000023842 -0.535000026226 -0.321999996901 85.0
0.852999985218 -0.47499999404 -0.282999992371 89.0
0.948000013828 -0.536000013351 -0.314999997616 95.0
0.861999988556 -0.493999987841 -0.287000000477 94.0
0.907999992371 -0.528999984264 -0.303999990225 85.0
2.3069999218 -0.0799999982119 -0.702000021935 71.0
2.36400008202 -0.0960000008345 -0.71899998188 77.0
2.28900003433 -0.107000000775 -0.695999979973 68.0
2.31200003624 -0.122000001371 -0.703999996185 60.0
2.28299999237 -0.187999993563 -0.695999979973 70.0
2.24499988556 -0.199000000954 -0.684000015259 66.0
1.01400005817 -0.0939999967813 -0.308999985456 105.0
0.996999979019 -0.097999997437 -0.303999990225 108.0
0.961000025272 -0.101000003517 -0.293000012636 118.0
0.973999977112 -0.108000002801 -0.29699999094 118.0
0.963999986649 -0.112000003457 -0.293999999762 124.0
0.944000005722 -0.115999996662 -0.287999987602 123.0
0.972000002861 -0.125 -0.29699999094 120.0
0.995999991894 -0.134000003338 -0.303999990225 117.0
0.986000001431 -0.138999998569 -0.300999999046 118.0
0.964999973774 -0.142000004649 -0.294999986887 121.0
0.949000000954 -0.144999995828 -0.289999991655 120.0
0.950999975204 -0.150999993086 -0.291000008583 123.0
0.930000007153 -0.153999999166 -0.284999996424 124.0
0.958000004292 -0.16400000453 -0.293999999762 114.0
0.931999981403 -0.165999993682 -0.286000013351 119.0
0.967000007629 -0.178000003099 -0.29699999094 117.0
0.93900001049 -0.178000003099 -0.28900000453 118.0
0.949000000954 -0.186000004411 -0.291999995708 119.0
0.948000013828 -0.192000001669 -0.291999995708 121.0
0.935000002384 -0.194999992847 -0.287999987602 116.0
0.978999972343 -0.21099999547 -0.301999986172 115.0
0.940999984741 -0.208000004292 -0.291000008583 119.0
0.952000021935 -0.216999992728 -0.293999999762 120.0
