ply
format ascii 1.0
element vertex 932
property float x
property float y
property float z
property float intensity
end_header
0.861000001431 -0.435000002384 0.230000004172 1350.0
0.855000019073 -0.437999993563 0.229000002146 1352.0
0.864000022411 -0.449999988079 0.231999993324 1381.0
0.860000014305 -0.455000013113 0.231999993324 1371.0
0.855000019073 -0.458999991417 0.231999993324 1383.0
0.861999988556 -0.469999998808 0.233999997377 1398.0
0.855000019073 -0.472999989986 0.232999995351 1399.0
0.855000019073 -0.479999989271 0.232999995351 1410.0
0.856999993324 -0.488999992609 0.234999999404 1364.0
1.7159999609 1.01499998569 0.453999996185 211.0
1.69500005245 0.987999975681 0.446999996901 92.0
1.99500000477 1.1289999485 0.523999989033 132.0
2.04800009727 1.14300000668 0.536000013351 235.0
2.04500007629 1.12399995327 0.533999979496 309.0
2.03999996185 1.10500001907 0.53100001812 302.0
2.03699994087 1.08599996567 0.528999984264 306.0
2.07100009918 1.08800005913 0.536000013351 280.0
2.06100010872 1.06599998474 0.532000005245 175.0
2.0759999752 1.05700004101 0.535000026226 116.0
2.17700004578 1.09200000763 0.559000015259 177.0
2.15000009537 1.06099998951 0.550999999046 278.0
2.17199993134 1.05599999428 0.555000007153 165.0
2.4509999752 1.09800004959 0.619000017643 71.0
3.1779999733 1.15199995041 0.783999979496 65.0
3.24300003052 1.15299999714 0.799000024796 88.0
3.2990000248 1.14999997616 0.81099998951 75.0
3.65400004387 1.24899995327 0.898000001907 74.0
3.70499992371 1.24199998379 0.908999979496 108.0
3.72799992561 1.22500002384 0.912999987602 110.0
3.82899999619 1.23199999332 0.93599998951 91.0
4.07600021362 1.25800001621 0.994000017643 65.0
4.10200023651 1.23899996281 0.999000012875 73.0
4.11199998856 1.21399998665 1.0 97.0
4.07399988174 1.17700004578 0.989000022411 111.0
4.06699991226 1.14800000191 0.986000001431 111.0
4.09999990463 1.13100004196 0.992999970913 108.0
4.10300016403 1.10500001907 0.991999983788 107.0
4.07600021362 1.0720000267 0.985000014305 109.0
4.04199981689 1.03699994087 0.975000023842 102.0
4.07999992371 1.02100002766 0.98299998045 92.0
4.15500020981 1.01400005817 1.0 71.0
4.11999988556 0.978999972343 0.990999996662 62.0
4.11600017548 0.901000022888 0.986999988556 64.0
4.07700014114 0.866999983788 0.976000010967 69.0
4.13999986649 0.855000019073 0.990000009537 92.0
4.11000013351 0.823000013828 0.981999993324 101.0
4.12300014496 0.800000011921 0.985000014305 113.0
4.15799999237 0.78100001812 0.991999983788 101.0
4.125 0.75 0.98400002718 107.0
4.08300018311 0.717000007629 0.972999989986 108.0
4.07999992371 0.691999971867 0.971000015736 109.0
4.15500020981 0.679000020027 0.987999975681 108.0
4.09100008011 0.643999993801 0.972999989986 107.0
4.08099985123 0.617999970913 0.96899998188 105.0
4.1139998436 0.597999989986 0.976999998093 85.0
0.897000014782 -0.0790000036359 0.21099999547 1229.0
0.910000026226 -0.0860000029206 0.21400000155 1326.0
0.90600001812 -0.0909999981523 0.212999999523 1321.0
0.910000026226 -0.0960000008345 0.21400000155 1365.0
0.907999992371 -0.101999998093 0.21400000155 1315.0
0.907000005245 -0.107000000775 0.21400000155 1301.0
0.90600001812 -0.112000003457 0.21400000155 1313.0
0.90499997139 -0.118000000715 0.21400000155 1344.0
0.903999984264 -0.123000003397 0.212999999523 1358.0
0.90499997139 -0.12800000608 0.21400000155 1334.0
0.90499997139 -0.134000003338 0.21400000155 1339.0
0.901000022888 -0.138999998569 0.212999999523 1347.0
0.901000022888 -0.143999993801 0.212999999523 1370.0
0.898999989033 -0.149000003934 0.212999999523 1359.0
0.902999997139 -0.155000001192 0.21400000155 1366.0
0.897000014782 -0.159999996424 0.212999999523 1394.0
0.896000027657 -0.165000006557 0.212999999523 1402.0
0.898999989033 -0.171000003815 0.21400000155 1405.0
0.898999989033 -0.177000001073 0.21400000155 1361.0
0.89099997282 -0.180999994278 0.212999999523 1357.0
0.898000001907 -0.187000006437 0.215000003576 1370.0
0.896000027657 -0.193000003695 0.21400000155 1385.0
0.893000006676 -0.196999996901 0.21400000155 1353.0
0.897000014782 -0.203999996185 0.215000003576 1344.0
0.893000006676 -0.209000006318 0.21400000155 1347.0
0.889999985695 -0.21400000155 0.21400000155 1358.0
0.888000011444 -0.218999996781 0.21400000155 1390.0
0.889999985695 -0.22499999404 0.215000003576 1394.0
0.893000006676 -0.231000006199 0.216000005603 1368.0
0.888000011444 -0.236000001431 0.215000003576 1399.0
0.893000006676 -0.243000000715 0.216000005603 1412.0
0.888000011444 -0.24699999392 0.216000005603 1392.0
0.896000027657 -0.254999995232 0.217999994755 1393.0
0.887000024319 -0.25799998641 0.216000005603 1399.0
0.884000003338 -0.263000011444 0.216000005603 1392.0
0.887000024319 -0.270000010729 0.216999992728 1397.0
0.885999977589 -0.27500000596 0.216999992728 1434.0
0.880999982357 -0.280000001192 0.216000005603 1424.0
0.888999998569 -0.287999987602 0.217999994755 1421.0
0.879999995232 -0.291000008583 0.216999992728 1432.0
0.883000016212 -0.298000007868 0.217999994755 1420.0
0.876999974251 -0.301999986172 0.216999992728 1462.0
0.880999982357 -0.308999985456 0.217999994755 1453.0
0.878000020981 -0.31400001049 0.217999994755 1453.0
0.874000012875 -0.317999988794 0.216999992728 1477.0
0.882000029087 -0.32800000906 0.219999998808 1451.0
0.871999979019 -0.330000013113 0.217999994755 1430.0
0.880999982357 -0.340000003576 0.219999998808 1408.0
0.879000008106 -0.344999998808 0.219999998808 1406.0
0.870999991894 -0.347999989986 0.218999996781 1398.0
0.874000012875 -0.354999989271 0.219999998808 1397.0
0.879000008106 -0.363999992609 0.222000002861 1395.0
0.870999991894 -0.36700001359 0.219999998808 1394.0
0.870999991894 -0.372999995947 0.221000000834 1405.0
0.866999983788 -0.377999991179 0.219999998808 1414.0
0.870000004768 -0.386000007391 0.222000002861 1430.0
0.870000004768 -0.391999989748 0.222000002861 1418.0
0.866999983788 -0.397000014782 0.222000002861 1417.0
0.862999975681 -0.402000010014 0.222000002861 1404.0
0.865999996662 -0.409999996424 0.223000004888 1384.0
0.870000004768 -0.418000012636 0.22499999404 1350.0
0.869000017643 -0.423999994993 0.22499999404 1361.0
0.862999975681 -0.428000003099 0.224000006914 1373.0
0.861000001431 -0.433999985456 0.224000006914 1367.0
0.865999996662 -0.444000005722 0.225999996066 1387.0
0.864000022411 -0.449000000954 0.225999996066 1402.0
0.856999993324 -0.451999992132 0.22499999404 1406.0
0.856999993324 -0.458999991417 0.225999996066 1398.0
0.85799998045 -0.467000007629 0.226999998093 1385.0
0.856999993324 -0.474000006914 0.226999998093 1379.0
0.856999993324 -0.481000006199 0.228000000119 1371.0
0.856000006199 -0.486999988556 0.229000002146 1371.0
1.73500001431 1.02499997616 0.446999996901 195.0
2.02200007439 1.14300000668 0.51700001955 154.0
2.06900000572 1.15299999714 0.527000010014 271.0
2.05500006676 1.12800002098 0.522000014782 304.0
2.05100011826 1.10899996758 0.519999980927 297.0
2.05100011826 1.09200000763 0.518000006676 311.0
2.04299998283 1.07099997997 0.514999985695 280.0
2.04200005531 1.05499994755 0.513000011444 170.0
2.10700011253 1.0720000267 0.527999997139 129.0
2.18499994278 1.09399998188 0.54699999094 193.0
2.15899991989 1.06400001049 0.538999974728 279.0
2.18700003624 1.06099998951 0.544000029564 154.0
3.23399996758 1.14800000191 0.776000022888 87.0
3.35599994659 1.16900002956 0.804000020027 71.0
3.63199996948 1.24000000954 0.869000017643 79.0
3.6210000515 1.2120000124 0.865000009537 112.0
3.75 1.23000001907 0.893999993801 108.0
3.71600008011 1.19400000572 0.884999990463 86.0
4.04400014877 1.19299995899 0.957000017166 108.0
4.05399990082 1.16900002956 0.958000004292 114.0
4.04400014877 1.13999998569 0.954999983311 107.0
4.04799985886 1.11500000954 0.953999996185 106.0
4.07100009918 1.09599995613 0.958999991417 104.0
4.08199977875 1.0720000267 0.959999978542 99.0
4.02899980545 1.03299999237 0.945999979973 87.0
4.14799976349 1.03699994087 0.972999989986 65.0
4.22100019455 0.870000004768 0.98299998045 63.0
4.12900018692 0.825999975204 0.961000025272 86.0
4.14400005341 0.802999973297 0.963999986649 96.0
4.12400007248 0.773999989033 0.958000004292 108.0
4.11199998856 0.746999979019 0.954999983311 107.0
4.0640001297 0.712999999523 0.943000018597 103.0
4.0689997673 0.68900001049 0.943000018597 105.0
4.09499979019 0.669000029564 0.949000000954 99.0
4.04799985886 0.635999977589 0.936999976635 101.0
4.07899999619 0.616999983788 0.944000005722 105.0
4.09000015259 0.59399998188 0.945999979973 82.0
0.894999980927 -0.0790000036359 0.204999998212 1241.0
0.913999974728 -0.0860000029206 0.209000006318 1346.0
0.90499997139 -0.0900000035763 0.207000002265 1320.0
0.908999979496 -0.0960000008345 0.208000004292 1349.0
0.910000026226 -0.101999998093 0.209000006318 1340.0
0.903999984264 -0.105999998748 0.207000002265 1316.0
0.903999984264 -0.112000003457 0.208000004292 1323.0
0.899999976158 -0.116999998689 0.207000002265 1364.0
0.90499997139 -0.123000003397 0.208000004292 1374.0
0.907999992371 -0.128999993205 0.209000006318 1348.0
0.90600001812 -0.134000003338 0.209000006318 1348.0
0.902999997139 -0.138999998569 0.208000004292 1346.0
0.896000027657 -0.143000006676 0.207000002265 1382.0
0.894999980927 -0.148000001907 0.207000002265 1364.0
0.898999989033 -0.153999999166 0.208000004292 1362.0
0.898999989033 -0.159999996424 0.208000004292 1397.0
0.898000001907 -0.165000006557 0.208000004292 1405.0
0.901000022888 -0.171000003815 0.209000006318 1413.0
0.896000027657 -0.175999999046 0.208000004292 1381.0
0.897000014782 -0.181999996305 0.209000006318 1366.0
0.893999993801 -0.186000004411 0.208000004292 1373.0
0.893000006676 -0.192000001669 0.208000004292 1398.0
0.896000027657 -0.197999998927 0.209000006318 1404.0
0.896000027657 -0.203999996185 0.209000006318 1389.0
0.896000027657 -0.209000006318 0.209999993443 1367.0
0.89099997282 -0.21400000155 0.209000006318 1387.0
0.893000006676 -0.219999998808 0.209999993443 1377.0
0.889999985695 -0.22499999404 0.209000006318 1393.0
0.893999993801 -0.231000006199 0.209999993443 1389.0
0.888999998569 -0.236000001431 0.209000006318 1386.0
0.888999998569 -0.240999996662 0.209999993443 1402.0
0.884999990463 -0.246000006795 0.209000006318 1392.0
0.888000011444 -0.252000004053 0.209999993443 1387.0
0.882000029087 -0.256000012159 0.209000006318 1428.0
0.884000003338 -0.263000011444 0.209999993443 1390.0
0.884000003338 -0.268999993801 0.209999993443 1380.0
0.879000008106 -0.273000001907 0.209000006318 1424.0
0.876999974251 -0.277999997139 0.209000006318 1436.0
0.883000016212 -0.286000013351 0.21099999547 1406.0
0.879999995232 -0.291000008583 0.21099999547 1401.0
0.878000020981 -0.296000003815 0.21099999547 1433.0
0.879999995232 -0.303000003099 0.211999997497 1440.0
0.880999982357 -0.308999985456 0.211999997497 1462.0
0.884000003338 -0.316000014544 0.212999999523 1412.0
0.879000008106 -0.319999992847 0.212999999523 1426.0
0.880999982357 -0.326999992132 0.21400000155 1450.0
0.880999982357 -0.333000004292 0.21400000155 1432.0
0.876999974251 -0.337999999523 0.21400000155 1404.0
0.875999987125 -0.344000011683 0.21400000155 1379.0
0.874000012875 -0.349000006914 0.21400000155 1414.0
0.879000008106 -0.356999993324 0.215000003576 1406.0
0.873000025749 -0.361000001431 0.215000003576 1392.0
0.869000017643 -0.365000009537 0.21400000155 1386.0
0.866999983788 -0.370999991894 0.21400000155 1388.0
0.870999991894 -0.379000008106 0.216000005603 1394.0
0.874000012875 -0.386999994516 0.216999992728 1398.0
0.875 -0.393999993801 0.217999994755 1405.0
0.869000017643 -0.397000014782 0.216999992728 1382.0
0.870999991894 -0.405000001192 0.217999994755 1388.0
0.861999988556 -0.407000005245 0.216000005603 1389.0
0.865000009537 -0.414999991655 0.217999994755 1379.0
0.862999975681 -0.421000003815 0.217999994755 1396.0
0.861999988556 -0.426999986172 0.217999994755 1384.0
0.855000019073 -0.430000007153 0.216999992728 1386.0
0.862999975681 -0.441000014544 0.219999998808 1389.0
0.867999970913 -0.451000005007 0.222000002861 1385.0
0.856999993324 -0.451999992132 0.218999996781 1378.0
0.853999972343 -0.456999987364 0.218999996781 1395.0
0.853999972343 -0.463999986649 0.219999998808 1384.0
0.853999972343 -0.470999985933 0.221000000834 1423.0
0.85900002718 -0.481000006199 0.223000004888 1387.0
0.850000023842 -0.483000010252 0.221000000834 1381.0
1.74199998379 1.02699995041 0.437000006437 186.0
1.98500001431 1.12000000477 0.493999987841 110.0
2.03399991989 1.13100004196 0.504000008106 188.0
2.05399990082 1.125 0.508000016212 286.0
2.0569999218 1.11099994183 0.507000029087 298.0
2.04800009727 1.08899998665 0.503000020981 297.0
2.04200005531 1.06900000572 0.500999987125 271.0
2.05900001526 1.06200003624 0.504000008106 152.0
2.08500003815 1.05900001526 0.508000016212 128.0
2.17499995232 1.0870000124 0.528999984264 205.0
2.15000009537 1.05799996853 0.522000014782 275.0
2.17100000381 1.05200004578 0.526000022888 149.0
2.29099988937 1.09200000763 0.552999973297 78.0
2.49699997902 1.11600005627 0.597999989986 71.0
3.18899989128 1.13100004196 0.744000017643 84.0
3.24799990654 1.1289999485 0.757000029087 76.0
3.757999897 1.28199994564 0.875 85.0
3.72199988365 1.24399995804 0.865000009537 112.0
3.71499991417 1.21700000763 0.861999988556 106.0
3.78900003433 1.2159999609 0.878000020981 79.0
4.12099981308 1.24100005627 0.950999975204 73.0
3.96600008011 1.16799998283 0.912999987602 97.0
4.05200004578 1.16700005531 0.931999981403 101.0
4.10500001907 1.15600001812 0.943000018597 106.0
4.13100004196 1.13699996471 0.948000013828 97.0
4.10300016403 1.10300004482 0.939999997616 95.0
4.06799983978 1.06700003147 0.930999994278 74.0
4.17299985886 0.808000028133 0.944000005722 80.0
4.11999988556 0.772000014782 0.931999981403 83.0
4.15899991989 0.754000008106 0.939999997616 83.0
4.18400001526 0.73299998045 0.944999992847 86.0
4.19099998474 0.708999991417 0.945999979973 86.0
4.21600008011 0.688000023365 0.950999975204 82.0
4.18499994278 0.657000005245 0.943000018597 71.0
4.20599985123 0.634999990463 0.947000026703 70.0
4.15199995041 0.601999998093 0.934000015259 70.0
0.888000011444 -0.0780000016093 0.196999996901 1235.0
0.90499997139 -0.0850000008941 0.202000007033 1337.0
0.911000013351 -0.0909999981523 0.202999994159 1322.0
0.910000026226 -0.0960000008345 0.202999994159 1356.0
0.907999992371 -0.101999998093 0.202999994159 1370.0
0.902999997139 -0.105999998748 0.202000007033 1340.0
0.912000000477 -0.112999998033 0.203999996185 1340.0
0.899999976158 -0.116999998689 0.201000005007 1362.0
0.902000010014 -0.122000001371 0.202000007033 1384.0
0.90600001812 -0.12800000608 0.202999994159 1364.0
0.90600001812 -0.134000003338 0.202999994159 1361.0
0.903999984264 -0.138999998569 0.202999994159 1358.0
0.898000001907 -0.143000006676 0.202000007033 1383.0
0.903999984264 -0.15000000596 0.202999994159 1389.0
0.90499997139 -0.155000001192 0.203999996185 1377.0
0.902000010014 -0.159999996424 0.202999994159 1390.0
0.902000010014 -0.165999993682 0.202999994159 1408.0
0.898999989033 -0.171000003815 0.202999994159 1431.0
0.898999989033 -0.175999999046 0.202999994159 1383.0
0.898999989033 -0.181999996305 0.202999994159 1372.0
0.89200001955 -0.186000004411 0.202000007033 1397.0
0.894999980927 -0.192000001669 0.202999994159 1418.0
0.89200001955 -0.196999996901 0.202999994159 1425.0
0.898000001907 -0.203999996185 0.203999996185 1400.0
0.893999993801 -0.209000006318 0.203999996185 1380.0
0.89099997282 -0.212999999523 0.202999994159 1398.0
0.888000011444 -0.217999994755 0.202999994159 1385.0
0.888999998569 -0.224000006914 0.202999994159 1378.0
0.884999990463 -0.229000002146 0.202999994159 1392.0
0.888000011444 -0.234999999404 0.203999996185 1384.0
0.888999998569 -0.240999996662 0.203999996185 1406.0
0.888000011444 -0.246000006795 0.203999996185 1409.0
0.884999990463 -0.250999987125 0.203999996185 1403.0
0.888999998569 -0.25799998641 0.204999998212 1428.0
0.887000024319 -0.263000011444 0.204999998212 1422.0
0.882000029087 -0.268000006676 0.203999996185 1387.0
0.883000016212 -0.273999989033 0.204999998212 1419.0
0.879999995232 -0.279000014067 0.203999996185 1449.0
0.879000008106 -0.284000009298 0.204999998212 1443.0
0.882000029087 -0.291000008583 0.206000000238 1426.0
0.879999995232 -0.296000003815 0.206000000238 1428.0
0.871999979019 -0.298999994993 0.203999996185 1427.0
0.874000012875 -0.305999994278 0.204999998212 1466.0
0.873000025749 -0.31099998951 0.204999998212 1429.0
0.882000029087 -0.321000009775 0.208000004292 1416.0
0.871999979019 -0.323000013828 0.206000000238 1470.0
0.879999995232 -0.331999987364 0.208000004292 1470.0
0.883000016212 -0.340000003576 0.209000006318 1468.0
0.874000012875 -0.342000007629 0.207000002265 1406.0
0.874000012875 -0.349000006914 0.208000004292 1409.0
0.869000017643 -0.351999998093 0.207000002265 1404.0
0.871999979019 -0.360000014305 0.209000006318 1407.0
0.873000025749 -0.36700001359 0.209000006318 1398.0
0.870000004768 -0.372000008821 0.209000006318 1386.0
0.870000004768 -0.377999991179 0.209999993443 1379.0
0.870000004768 -0.384000003338 0.209999993443 1397.0
0.867999970913 -0.389999985695 0.209999993443 1393.0
0.861999988556 -0.393999993801 0.209000006318 1412.0
0.861999988556 -0.40000000596 0.209999993443 1414.0
0.866999983788 -0.409000009298 0.211999997497 1400.0
0.867999970913 -0.416000008583 0.211999997497 1406.0
0.861999988556 -0.419999986887 0.211999997497 1364.0
0.861999988556 -0.426999986172 0.211999997497 1386.0
0.861000001431 -0.432999998331 0.212999999523 1394.0
0.855000019073 -0.437000006437 0.211999997497 1369.0
0.861000001431 -0.446000009775 0.21400000155 1373.0
0.85900002718 -0.451999992132 0.21400000155 1368.0
0.852999985218 -0.456000000238 0.212999999523 1383.0
0.851999998093 -0.462000012398 0.212999999523 1373.0
0.860000014305 -0.474000006914 0.216000005603 1407.0
0.85900002718 -0.479999989271 0.216999992728 1385.0
0.848999977112 -0.481999993324 0.215000003576 1365.0
1.7460000515 1.02799999714 0.425999999046 173.0
2.02399992943 1.14100003242 0.488999992609 131.0
2.03299999237 1.1289999485 0.490000009537 231.0
2.03600001335 1.11399996281 0.488999992609 308.0
2.04800009727 1.10399997234 0.490999996662 308.0
2.05800008774 1.09200000763 0.49200001359 295.0
2.04500007629 1.07000005245 0.486999988556 262.0
2.03600001335 1.0490000248 0.483999997377 141.0
2.12700009346 1.07799994946 0.504000008106 119.0
2.17000007629 1.08299994469 0.513000011444 228.0
2.15499997139 1.05900001526 0.508000016212 269.0
2.17000007629 1.04999995232 0.510999977589 146.0
2.57800006866 1.14999997616 0.600000023842 73.0
3.2349998951 1.14499998093 0.73400002718 80.0
3.32100009918 1.15400004387 0.753000020981 70.0
3.67300009727 1.25100004673 0.830999970436 82.0
3.76999998093 1.25800001621 0.851999998093 80.0
3.75200009346 1.22800004482 0.846000015736 78.0
3.73000001907 1.19599997997 0.839999973774 66.0
4.21000003815 1.26600003242 0.944000005722 66.0
4.19600009918 1.23399996758 0.939999997616 73.0
4.19799995422 1.20799994469 0.93900001049 78.0
4.19899988174 1.18099999428 0.938000023365 71.0
4.22399997711 1.16100001335 0.941999971867 74.0
4.29799985886 0.777999997139 0.944000005722 59.0
4.32399988174 0.757000029087 0.949999988079 59.0
4.242000103 0.716000020504 0.930999994278 60.0
4.28700017929 0.67199999094 0.93900001049 66.0
4.27099990845 0.643999993801 0.935000002384 60.0
0.89099997282 -0.0780000016093 0.193000003695 1235.0
0.90600001812 -0.0850000008941 0.195999994874 1340.0
0.907999992371 -0.0909999981523 0.196999996901 1327.0
0.90499997139 -0.0960000008345 0.195999994874 1349.0
0.90600001812 -0.101000003517 0.196999996901 1359.0
0.90499997139 -0.105999998748 0.196999996901 1349.0
0.907000005245 -0.112000003457 0.196999996901 1332.0
0.902999997139 -0.116999998689 0.195999994874 1349.0
0.903999984264 -0.122000001371 0.196999996901 1387.0
0.902000010014 -0.12800000608 0.196999996901 1381.0
0.899999976158 -0.133000001311 0.195999994874 1381.0
0.90600001812 -0.138999998569 0.197999998927 1373.0
0.898000001907 -0.143000006676 0.195999994874 1395.0
0.898000001907 -0.149000003934 0.195999994874 1399.0
0.90499997139 -0.155000001192 0.197999998927 1384.0
0.898000001907 -0.158999994397 0.196999996901 1379.0
0.902999997139 -0.165999993682 0.197999998927 1393.0
0.901000022888 -0.171000003815 0.197999998927 1416.0
0.893000006676 -0.17499999702 0.195999994874 1390.0
0.896000027657 -0.180999994278 0.196999996901 1377.0
0.894999980927 -0.186000004411 0.196999996901 1392.0
0.899999976158 -0.193000003695 0.197999998927 1423.0
0.89200001955 -0.196999996901 0.196999996901 1437.0
0.893999993801 -0.202999994159 0.197999998927 1416.0
0.893000006676 -0.208000004292 0.197999998927 1393.0
0.889999985695 -0.212999999523 0.196999996901 1413.0
0.89200001955 -0.218999996781 0.197999998927 1388.0
0.889999985695 -0.224000006914 0.197999998927 1388.0
0.888999998569 -0.229000002146 0.197999998927 1384.0
0.887000024319 -0.233999997377 0.197999998927 1408.0
0.888999998569 -0.240999996662 0.197999998927 1403.0
0.89200001955 -0.24699999392 0.20000000298 1419.0
0.887000024319 -0.250999987125 0.199000000954 1394.0
0.885999977589 -0.256999999285 0.199000000954 1398.0
0.880999982357 -0.261000007391 0.197999998927 1418.0
0.883000016212 -0.266999989748 0.199000000954 1395.0
0.876999974251 -0.270999997854 0.197999998927 1392.0
0.887000024319 -0.280999988317 0.20000000298 1435.0
0.887000024319 -0.286000013351 0.201000005007 1430.0
0.883000016212 -0.291000008583 0.20000000298 1425.0
0.879000008106 -0.296000003815 0.20000000298 1424.0
0.876999974251 -0.300999999046 0.20000000298 1427.0
0.880999982357 -0.307999998331 0.201000005007 1442.0
0.878000020981 -0.312999993563 0.201000005007 1443.0
0.875999987125 -0.317999988794 0.201000005007 1437.0
0.874000012875 -0.323000013828 0.201000005007 1450.0
0.873000025749 -0.328999996185 0.201000005007 1460.0
0.871999979019 -0.335000008345 0.201000005007 1466.0
0.874000012875 -0.342000007629 0.202000007033 1434.0
0.878000020981 -0.349000006914 0.202999994159 1466.0
0.873000025749 -0.354000002146 0.202999994159 1425.0
0.875 -0.361000001431 0.202999994159 1394.0
0.870000004768 -0.365000009537 0.202999994159 1403.0
0.870000004768 -0.370999991894 0.202999994159 1410.0
0.876999974251 -0.381000012159 0.204999998212 1389.0
0.869000017643 -0.384000003338 0.203999996185 1385.0
0.865999996662 -0.388999998569 0.203999996185 1383.0
0.866999983788 -0.395999997854 0.204999998212 1445.0
0.864000022411 -0.40000000596 0.203999996185 1412.0
0.865999996662 -0.407999992371 0.206000000238 1387.0
0.862999975681 -0.412999987602 0.204999998212 1342.0
0.862999975681 -0.419999986887 0.206000000238 1348.0
0.862999975681 -0.426999986172 0.207000002265 1353.0
0.862999975681 -0.432999998331 0.207000002265 1367.0
0.861999988556 -0.439999997616 0.208000004292 1339.0
0.85799998045 -0.444000005722 0.207000002265 1366.0
0.85799998045 -0.451000005007 0.208000004292 1367.0
0.85900002718 -0.458999991417 0.209000006318 1386.0
0.851000010967 -0.46099999547 0.207000002265 1381.0
0.856999993324 -0.472000002861 0.209999993443 1398.0
0.85900002718 -0.479999989271 0.21099999547 1363.0
0.856999993324 -0.486000001431 0.21099999547 1366.0
1.70000004768 1.0 0.402000010014 149.0
2.02900004387 1.1590000391 0.477999985218 103.0
2.04800009727 1.15299999714 0.481000006199 211.0
2.03200006485 1.12699997425 0.476000010967 298.0
2.04399991035 1.11699998379 0.476999998093 309.0
2.03699994087 1.09700000286 0.474000006914 297.0
2.05800008774 1.0909999609 0.477999985218 299.0
2.02900004387 1.05900001526 0.469999998808 261.0
2.04699993134 1.0529999733 0.472999989986 133.0
2.09299993515 1.05999994278 0.481999993324 136.0
2.17700004578 1.08500003815 0.5 247.0
2.13700008392 1.0490000248 0.490000009537 250.0
2.16899991035 1.04799997807 0.495999991894 127.0
3.89899992943 1.29999995232 0.856000006199 63.0
4.09399986267 1.33800005913 0.898000001907 65.0
4.11899995804 1.21000003815 0.896000027657 67.0
4.14200019836 1.19000005722 0.899999976158 68.0
4.242000103 1.19099998474 0.921000003815 61.0
4.26000022888 1.16900002956 0.924000024796 63.0
4.23400020599 0.76599997282 0.903999984264 59.0
4.27099990845 0.745999991894 0.912000000477 54.0
4.26499986649 0.71899998188 0.910000026226 59.0
4.26000022888 0.693000018597 0.907999992371 60.0
4.41300010681 0.690999984741 0.939999997616 54.0
4.32000017166 0.651000022888 0.920000016689 56.0
4.35400009155 0.629000008106 0.925999999046 59.0
0.893000006676 -0.0790000036359 0.187999993563 1232.0
0.910000026226 -0.0850000008941 0.192000001669 1350.0
0.910000026226 -0.0909999981523 0.192000001669 1324.0
0.903999984264 -0.0960000008345 0.190999999642 1330.0
0.901000022888 -0.101000003517 0.189999997616 1361.0
0.907999992371 -0.107000000775 0.192000001669 1347.0
0.912999987602 -0.112999998033 0.193000003695 1343.0
0.90600001812 -0.116999998689 0.192000001669 1356.0
0.899999976158 -0.122000001371 0.189999997616 1385.0
0.90600001812 -0.12800000608 0.192000001669 1408.0
0.902999997139 -0.133000001311 0.190999999642 1377.0
0.897000014782 -0.137999996543 0.189999997616 1350.0
0.902999997139 -0.143999993801 0.192000001669 1376.0
0.896000027657 -0.148000001907 0.189999997616 1400.0
0.903999984264 -0.155000001192 0.192000001669 1381.0
0.898999989033 -0.158999994397 0.190999999642 1366.0
0.893999993801 -0.16400000453 0.190999999642 1379.0
0.896000027657 -0.170000001788 0.190999999642 1404.0
0.898000001907 -0.175999999046 0.192000001669 1393.0
0.893000006676 -0.180000007153 0.190999999642 1406.0
0.896000027657 -0.186000004411 0.192000001669 1397.0
0.889999985695 -0.190999999642 0.190999999642 1417.0
0.887000024319 -0.194999992847 0.189999997616 1438.0
0.889999985695 -0.202000007033 0.190999999642 1403.0
0.89200001955 -0.208000004292 0.192000001669 1392.0
0.89200001955 -0.212999999523 0.192000001669 1420.0
0.893000006676 -0.218999996781 0.193000003695 1403.0
0.89099997282 -0.224000006914 0.193000003695 1393.0
0.884999990463 -0.228000000119 0.190999999642 1409.0
0.89200001955 -0.236000001431 0.193000003695 1416.0
0.882000029087 -0.238999992609 0.190999999642 1397.0
0.889999985695 -0.24699999392 0.194000005722 1423.0
0.888999998569 -0.252000004053 0.193000003695 1423.0
0.883000016212 -0.256000012159 0.193000003695 1400.0
0.885999977589 -0.263000011444 0.194000005722 1413.0
0.879999995232 -0.266999989748 0.193000003695 1404.0
0.884000003338 -0.273000001907 0.194000005722 1371.0
0.879999995232 -0.277999997139 0.193000003695 1410.0
0.888000011444 -0.287000000477 0.194999992847 1413.0
0.884000003338 -0.291000008583 0.194999992847 1429.0
0.876999974251 -0.294999986887 0.194000005722 1422.0
0.880999982357 -0.301999986172 0.194999992847 1423.0
0.878000020981 -0.307000011206 0.194999992847 1449.0
0.876999974251 -0.312000006437 0.194999992847 1428.0
0.879000008106 -0.319000005722 0.195999994874 1420.0
0.876999974251 -0.324000000954 0.195999994874 1426.0
0.875 -0.330000013113 0.195999994874 1441.0
0.871999979019 -0.335000008345 0.194999992847 1464.0
0.873000025749 -0.340999990702 0.195999994874 1466.0
0.874000012875 -0.347999989986 0.196999996901 1461.0
0.870999991894 -0.352999985218 0.195999994874 1467.0
0.867999970913 -0.358000010252 0.195999994874 1426.0
0.866999983788 -0.363000005484 0.195999994874 1432.0
0.867999970913 -0.370000004768 0.196999996901 1420.0
0.865000009537 -0.375 0.196999996901 1412.0
0.861999988556 -0.379999995232 0.196999996901 1405.0
0.870999991894 -0.389999985695 0.199000000954 1378.0
0.869000017643 -0.395999997854 0.199000000954 1398.0
0.861999988556 -0.398999989033 0.197999998927 1399.0
0.861999988556 -0.405999988317 0.199000000954 1368.0
0.862999975681 -0.412999987602 0.20000000298 1327.0
0.860000014305 -0.418000012636 0.199000000954 1334.0
0.856000006199 -0.423000007868 0.199000000954 1368.0
0.861000001431 -0.432000011206 0.201000005007 1357.0
0.864000022411 -0.439999997616 0.202000007033 1366.0
0.852999985218 -0.441000014544 0.20000000298 1367.0
0.85799998045 -0.451000005007 0.202000007033 1373.0
0.855000019073 -0.456000000238 0.202000007033 1370.0
0.856999993324 -0.463999986649 0.202999994159 1380.0
0.851000010967 -0.467999994755 0.202000007033 1373.0
0.856000006199 -0.476999998093 0.203999996185 1401.0
0.852999985218 -0.483000010252 0.203999996185 1380.0
1.72699999809 1.01400005817 0.397000014782 140.0
2.00999999046 1.14699995518 0.460000008345 85.0
2.06599998474 1.16100001335 0.470999985933 143.0
2.04399991035 1.13199996948 0.463999986649 226.0
2.04399991035 1.11500000954 0.462999999523 301.0
2.05900001526 1.10699999332 0.465000003576 299.0
2.04600000381 1.08299994469 0.46099999547 284.0
2.02200007439 1.05400002003 0.453999996185 235.0
2.06900000572 1.06299996376 0.463999986649 111.0
2.12700009346 1.0759999752 0.47499999404 124.0
2.16100001335 1.0759999752 0.481999993324 233.0
2.15700006485 1.05799996853 0.479999989271 209.0
2.17899990082 1.05200004578 0.483999997377 97.0
4.32600021362 1.29799997807 0.916000008583 61.0
4.16300010681 1.22200000286 0.879999995232 60.0
4.34399986267 1.24699997902 0.916999995708 59.0
0.837999999523 0.187999993563 0.172999992967 66.0
0.783999979496 0.171000003815 0.16099999845 70.0
0.777999997139 0.150999993086 0.158999994397 108.0
0.676999986172 0.127000004053 0.137999996543 118.0
0.601999998093 0.108999997377 0.123000003397 127.0
0.404000014067 0.0710000023246 0.0810000002384 100.0
0.666000008583 0.112999998033 0.136000007391 157.0
0.56099998951 0.0920000001788 0.11400000006 116.0
0.634000003338 0.10000000149 0.128999993205 138.0
0.726000010967 0.109999999404 0.148000001907 196.0
0.758000016212 0.109999999404 0.153999999166 220.0
0.860000014305 0.115000002086 0.17499999702 253.0
0.865000009537 0.109999999404 0.175999999046 255.0
0.89200001955 -0.0780000016093 0.181999996305 1230.0
0.90600001812 -0.0850000008941 0.185000002384 1334.0
0.90499997139 -0.0900000035763 0.185000002384 1325.0
0.90600001812 -0.0960000008345 0.185000002384 1325.0
0.902999997139 -0.101000003517 0.185000002384 1361.0
0.90499997139 -0.105999998748 0.185000002384 1356.0
0.902999997139 -0.111000001431 0.185000002384 1344.0
0.899999976158 -0.115999996662 0.185000002384 1365.0
0.903999984264 -0.122000001371 0.186000004411 1368.0
0.902999997139 -0.12800000608 0.186000004411 1410.0
0.902999997139 -0.133000001311 0.186000004411 1382.0
0.898999989033 -0.137999996543 0.185000002384 1369.0
0.902000010014 -0.143999993801 0.186000004411 1386.0
0.902000010014 -0.149000003934 0.186000004411 1393.0
0.898999989033 -0.153999999166 0.186000004411 1391.0
0.898999989033 -0.158999994397 0.186000004411 1370.0
0.893999993801 -0.16400000453 0.185000002384 1369.0
0.893000006676 -0.168999999762 0.185000002384 1416.0
0.897000014782 -0.17499999702 0.186000004411 1405.0
0.885999977589 -0.179000005126 0.184000000358 1391.0
0.893999993801 -0.186000004411 0.186000004411 1380.0
0.896000027657 -0.192000001669 0.186000004411 1395.0
0.89099997282 -0.195999994874 0.186000004411 1412.0
0.889999985695 -0.201000005007 0.186000004411 1399.0
0.893999993801 -0.208000004292 0.187000006437 1384.0
0.889999985695 -0.211999997497 0.186000004411 1410.0
0.889999985695 -0.217999994755 0.187000006437 1406.0
0.887000024319 -0.223000004888 0.186000004411 1399.0
0.888000011444 -0.229000002146 0.187000006437 1426.0
0.888000011444 -0.233999997377 0.187000006437 1418.0
0.884999990463 -0.238999992609 0.187000006437 1415.0
0.888000011444 -0.246000006795 0.187999993563 1430.0
0.887000024319 -0.250999987125 0.187000006437 1447.0
0.885999977589 -0.256000012159 0.187999993563 1402.0
0.884999990463 -0.261999994516 0.187999993563 1424.0
0.884999990463 -0.268000006676 0.187999993563 1411.0
0.880999982357 -0.272000014782 0.187999993563 1395.0
0.879999995232 -0.277999997139 0.187999993563 1398.0
0.883000016212 -0.284000009298 0.188999995589 1410.0
0.883000016212 -0.289999991655 0.188999995589 1433.0
0.884999990463 -0.29699999094 0.189999997616 1430.0
0.882000029087 -0.301999986172 0.188999995589 1422.0
0.875999987125 -0.305999994278 0.188999995589 1427.0
0.871999979019 -0.310000002384 0.187999993563 1436.0
0.878000020981 -0.317999988794 0.189999997616 1400.0
0.870000004768 -0.321000009775 0.187999993563 1406.0
0.873000025749 -0.328999996185 0.188999995589 1406.0
0.875999987125 -0.33599999547 0.189999997616 1448.0
0.871999979019 -0.340000003576 0.189999997616 1445.0
0.870999991894 -0.345999985933 0.189999997616 1439.0
0.870000004768 -0.351999998093 0.190999999642 1440.0
0.870999991894 -0.358000010252 0.190999999642 1446.0
0.865000009537 -0.361999988556 0.189999997616 1448.0
0.866999983788 -0.368999987841 0.190999999642 1430.0
0.865000009537 -0.375 0.190999999642 1414.0
0.861999988556 -0.379999995232 0.190999999642 1384.0
0.862999975681 -0.386000007391 0.192000001669 1384.0
0.866999983788 -0.393999993801 0.193000003695 1398.0
0.867999970913 -0.402000010014 0.194000005722 1379.0
0.864000022411 -0.405999988317 0.194000005722 1386.0
0.862999975681 -0.412000000477 0.194000005722 1361.0
0.865999996662 -0.421000003815 0.194999992847 1366.0
0.864000022411 -0.425999999046 0.194999992847 1377.0
0.856999993324 -0.428999990225 0.194000005722 1384.0
0.860000014305 -0.437000006437 0.194999992847 1395.0
0.861999988556 -0.444999992847 0.196999996901 1397.0
0.856999993324 -0.449000000954 0.195999994874 1395.0
0.855000019073 -0.455000013113 0.195999994874 1378.0
0.856000006199 -0.462999999523 0.196999996901 1400.0
0.856000006199 -0.469999998808 0.197999998927 1407.0
0.852999985218 -0.47499999404 0.196999996901 1388.0
0.852999985218 -0.481999993324 0.197999998927 1404.0
1.96399998665 1.10300004482 0.433999985456 109.0
2.08200001717 1.15199995041 0.458999991417 217.0
2.0490000248 1.11600005627 0.449999988079 255.0
2.04699993134 1.09899997711 0.449000000954 232.0
2.06100010872 1.09000003338 0.449999988079 221.0
2.05599999428 1.07099997997 0.448000013828 172.0
2.03800010681 1.04600000381 0.442999988794 90.0
2.08599996567 1.05400002003 0.451999992132 91.0
2.17700004578 1.08299994469 0.470999985933 165.0
2.13100004196 1.04400002956 0.460000008345 133.0
2.18000006676 1.04999995232 0.469000011683 77.0
0.690999984741 0.233999997377 0.141000002623 94.0
0.736000001431 0.245000004768 0.15000000596 125.0
0.76599997282 0.25 0.156000003219 151.0
0.768999993801 0.246000006795 0.156000003219 205.0
0.804000020027 0.250999987125 0.163000002503 236.0
0.805999994278 0.24699999392 0.16400000453 270.0
0.790000021458 0.237000003457 0.159999996424 208.0
0.700999975204 0.206000000238 0.142000004649 196.0
0.723999977112 0.208000004292 0.145999997854 211.0
0.745000004768 0.209000006318 0.15000000596 244.0
0.760999977589 0.209000006318 0.152999997139 262.0
0.819000005722 0.218999996781 0.165000006557 282.0
0.802999973297 0.209999993443 0.16099999845 310.0
0.819999992847 0.209000006318 0.165000006557 332.0
0.828999996185 0.206000000238 0.165999993682 357.0
0.842999994755 0.203999996185 0.168999999762 386.0
0.827000021935 0.194999992847 0.165999993682 412.0
0.834999978542 0.192000001669 0.166999995708 447.0
0.837000012398 0.187000006437 0.166999995708 468.0
0.833999991417 0.181999996305 0.166999995708 488.0
0.815999984741 0.172999992967 0.163000002503 509.0
0.823000013828 0.168999999762 0.16400000453 543.0
0.825999975204 0.165000006557 0.16400000453 570.0
0.833999991417 0.16099999845 0.165999993682 593.0
0.818000018597 0.152999997139 0.163000002503 616.0
0.82800000906 0.15000000596 0.16400000453 647.0
0.833999991417 0.145999997854 0.165999993682 647.0
0.828999996185 0.140000000596 0.165000006557 674.0
0.811999976635 0.131999999285 0.16099999845 683.0
0.825999975204 0.129999995232 0.16400000453 713.0
0.832000017166 0.126000002027 0.165000006557 709.0
0.81400001049 0.118000000715 0.16099999845 728.0
0.814999997616 0.11400000006 0.16099999845 741.0
0.832000017166 0.111000001431 0.165000006557 738.0
0.842999994755 0.107000000775 0.166999995708 671.0
0.917999982834 0.111000001431 0.181999996305 423.0
0.89200001955 -0.0780000016093 0.177000001073 1221.0
0.911000013351 -0.0850000008941 0.180999994278 1348.0
0.911000013351 -0.0909999981523 0.180999994278 1330.0
0.902999997139 -0.0949999988079 0.179000005126 1316.0
0.902999997139 -0.101000003517 0.180000007153 1341.0
0.908999979496 -0.107000000775 0.180999994278 1358.0
0.899999976158 -0.111000001431 0.179000005126 1314.0
0.899999976158 -0.115999996662 0.179000005126 1351.0
0.902000010014 -0.122000001371 0.180000007153 1367.0
0.899999976158 -0.127000004053 0.180000007153 1409.0
0.901000022888 -0.131999999285 0.180000007153 1388.0
0.902000010014 -0.137999996543 0.180000007153 1371.0
0.901000022888 -0.143000006676 0.180000007153 1370.0
0.894999980927 -0.148000001907 0.179000005126 1381.0
0.896000027657 -0.152999997139 0.180000007153 1387.0
0.897000014782 -0.158999994397 0.180000007153 1361.0
0.898999989033 -0.165000006557 0.180999994278 1362.0
0.897000014782 -0.170000001788 0.180000007153 1391.0
0.897000014782 -0.17499999702 0.180999994278 1400.0
0.893000006676 -0.180000007153 0.180000007153 1394.0
0.894999980927 -0.186000004411 0.180999994278 1389.0
0.89200001955 -0.190999999642 0.180000007153 1377.0
0.893000006676 -0.195999994874 0.180999994278 1398.0
0.888999998569 -0.201000005007 0.180000007153 1417.0
0.888999998569 -0.206000000238 0.180000007153 1386.0
0.884999990463 -0.21099999547 0.180000007153 1411.0
0.889999985695 -0.217999994755 0.180999994278 1406.0
0.89200001955 -0.224000006914 0.181999996305 1397.0
0.887000024319 -0.228000000119 0.180999994278 1415.0
0.884999990463 -0.232999995351 0.180999994278 1436.0
0.887000024319 -0.239999994636 0.180999994278 1425.0
0.887000024319 -0.245000004768 0.181999996305 1417.0
0.888999998569 -0.250999987125 0.181999996305 1400.0
0.884000003338 -0.256000012159 0.181999996305 1409.0
0.885999977589 -0.261999994516 0.181999996305 1410.0
0.885999977589 -0.268000006676 0.182999998331 1415.0
0.882000029087 -0.272000014782 0.181999996305 1392.0
0.880999982357 -0.277999997139 0.181999996305 1386.0
0.874000012875 -0.280999988317 0.180999994278 1426.0
0.879999995232 -0.28900000453 0.182999998331 1440.0
0.875999987125 -0.293999999762 0.181999996305 1435.0
0.875 -0.298999994993 0.181999996305 1435.0
0.876999974251 -0.305999994278 0.182999998331 1428.0
0.869000017643 -0.308999985456 0.181999996305 1429.0
0.880999982357 -0.319000005722 0.185000002384 1412.0
0.876999974251 -0.323000013828 0.184000000358 1416.0
0.879000008106 -0.330000013113 0.185000002384 1406.0
0.878000020981 -0.33599999547 0.185000002384 1422.0
0.869000017643 -0.338999986649 0.184000000358 1430.0
0.869000017643 -0.344999998808 0.184000000358 1423.0
0.870000004768 -0.351000010967 0.185000002384 1408.0
0.870999991894 -0.358000010252 0.185000002384 1419.0
0.869000017643 -0.363000005484 0.185000002384 1411.0
0.867999970913 -0.368999987841 0.186000004411 1460.0
0.866999983788 -0.375 0.186000004411 1438.0
0.867999970913 -0.381999999285 0.187000006437 1414.0
0.860000014305 -0.384999990463 0.186000004411 1401.0
0.862999975681 -0.391999989748 0.187000006437 1417.0
0.860000014305 -0.397000014782 0.186000004411 1406.0
0.862999975681 -0.405000001192 0.187999993563 1401.0
0.862999975681 -0.412000000477 0.187999993563 1409.0
0.861000001431 -0.416999995708 0.187999993563 1418.0
0.862999975681 -0.425000011921 0.188999995589 1411.0
0.856999993324 -0.428000003099 0.187999993563 1394.0
0.860000014305 -0.437000006437 0.189999997616 1415.0
0.856000006199 -0.442000001669 0.188999995589 1442.0
0.85799998045 -0.449999988079 0.189999997616 1424.0
0.852999985218 -0.453999996185 0.189999997616 1387.0
0.861999988556 -0.465999990702 0.192000001669 1424.0
0.852999985218 -0.467999994755 0.190999999642 1446.0
0.856000006199 -0.476000010967 0.192000001669 1386.0
0.852999985218 -0.481999993324 0.192000001669 1397.0
1.67200005054 0.978999972343 0.361000001431 114.0
2.03200006485 1.15600001812 0.43599998951 82.0
2.04299998283 1.14600002766 0.437999993563 128.0
2.09699988365 1.15799999237 0.448000013828 179.0
2.08299994469 1.13399994373 0.444000005722 168.0
2.0680000782 1.10899996758 0.43900001049 154.0
2.06599998474 1.0909999609 0.437999993563 165.0
2.06100010872 1.0720000267 0.435000002384 124.0
2.10100007057 1.05999994278 0.442000001669 76.0
2.14599990845 1.06599998474 0.449999988079 131.0
2.06699991226 1.01100003719 0.432000011206 100.0
0.894999980927 0.409999996424 0.184000000358 88.0
0.930999994278 0.412999987602 0.189999997616 131.0
0.860000014305 0.368999987841 0.17499999702 219.0
0.842000007629 0.349000006914 0.170000001788 183.0
0.85900002718 0.34999999404 0.173999994993 206.0
0.85799998045 0.344000011683 0.172999992967 231.0
0.84399998188 0.331999987364 0.170000001788 283.0
0.833999991417 0.321999996901 0.167999997735 332.0
0.847999989986 0.321999996901 0.170000001788 354.0
0.827000021935 0.307999998331 0.165000006557 390.0
0.833000004292 0.305000007153 0.165999993682 422.0
0.837999999523 0.300999999046 0.166999995708 450.0
0.84399998188 0.29699999094 0.167999997735 489.0
0.823000013828 0.284000009298 0.163000002503 516.0
0.827000021935 0.280000001192 0.16400000453 565.0
0.829999983311 0.275999993086 0.16400000453 588.0
0.82800000906 0.270000010729 0.16400000453 618.0
0.834999978542 0.266000002623 0.165000006557 663.0
0.824999988079 0.25799998641 0.163000002503 682.0
0.824999988079 0.252000004053 0.162000000477 704.0
0.828999996185 0.247999995947 0.163000002503 722.0
0.816999971867 0.238999992609 0.159999996424 750.0
0.832000017166 0.238000005484 0.163000002503 786.0
0.832000017166 0.232999995351 0.163000002503 818.0
0.833999991417 0.228000000119 0.163000002503 830.0
0.820999979973 0.219999998808 0.159999996424 857.0
0.837999999523 0.218999996781 0.163000002503 886.0
0.830999970436 0.211999997497 0.162000000477 911.0
0.822000026703 0.203999996185 0.159999996424 930.0
0.822000026703 0.199000000954 0.159999996424 946.0
0.819999992847 0.194000005722 0.158999994397 976.0
0.823000013828 0.188999995589 0.159999996424 987.0
0.822000026703 0.184000000358 0.158999994397 1002.0
0.82800000906 0.180000007153 0.159999996424 1029.0
0.820999979973 0.172999992967 0.158999994397 1043.0
0.824000000954 0.168999999762 0.158999994397 1047.0
0.820999979973 0.16400000453 0.158999994397 1074.0
0.822000026703 0.158999994397 0.158999994397 1078.0
0.824999988079 0.153999999166 0.158999994397 1095.0
0.824000000954 0.149000003934 0.158999994397 1116.0
0.816999971867 0.143000006676 0.157000005245 1109.0
0.822000026703 0.138999998569 0.158000007272 1121.0
0.819999992847 0.134000003338 0.158000007272 1118.0
0.824000000954 0.128999993205 0.158000007272 1133.0
0.823000013828 0.123999997973 0.158000007272 1132.0
0.813000023365 0.118000000715 0.156000003219 1144.0
0.819000005722 0.11400000006 0.157000005245 1165.0
0.820999979973 0.108999997377 0.157000005245 1154.0
0.842999994755 0.107000000775 0.162000000477 972.0
0.917999982834 0.111000001431 0.175999999046 477.0
0.893999993801 -0.0780000016093 0.172000005841 1240.0
0.898999989033 -0.0839999988675 0.172999992967 1371.0
0.908999979496 -0.0909999981523 0.17499999702 1337.0
0.907000005245 -0.0960000008345 0.17499999702 1333.0
0.907999992371 -0.101000003517 0.17499999702 1337.0
0.90499997139 -0.105999998748 0.17499999702 1364.0
0.902000010014 -0.111000001431 0.173999994993 1332.0
0.899999976158 -0.115999996662 0.173999994993 1356.0
0.898000001907 -0.120999999344 0.173999994993 1360.0
0.899999976158 -0.127000004053 0.173999994993 1416.0
0.902999997139 -0.133000001311 0.17499999702 1413.0
0.901000022888 -0.137999996543 0.17499999702 1406.0
0.898000001907 -0.143000006676 0.173999994993 1397.0
0.896000027657 -0.148000001907 0.173999994993 1404.0
0.894999980927 -0.152999997139 0.173999994993 1383.0
0.899999976158 -0.158999994397 0.17499999702 1397.0
0.894999980927 -0.16400000453 0.173999994993 1369.0
0.896000027657 -0.168999999762 0.17499999702 1395.0
0.894999980927 -0.17499999702 0.17499999702 1417.0
0.898000001907 -0.180999994278 0.17499999702 1402.0
0.89200001955 -0.185000002384 0.17499999702 1400.0
0.888999998569 -0.189999997616 0.173999994993 1389.0
0.896000027657 -0.196999996901 0.175999999046 1393.0
0.893000006676 -0.202000007033 0.17499999702 1401.0
0.888999998569 -0.206000000238 0.17499999702 1396.0
0.893000006676 -0.212999999523 0.175999999046 1408.0
0.888999998569 -0.216999992728 0.17499999702 1418.0
0.888999998569 -0.223000004888 0.175999999046 1417.0
0.885999977589 -0.228000000119 0.17499999702 1431.0
0.885999977589 -0.232999995351 0.17499999702 1414.0
0.89200001955 -0.240999996662 0.177000001073 1437.0
0.889999985695 -0.246000006795 0.177000001073 1420.0
0.885999977589 -0.25 0.175999999046 1400.0
0.879999995232 -0.254000008106 0.17499999702 1430.0
0.879000008106 -0.259999990463 0.17499999702 1410.0
0.888999998569 -0.268000006676 0.178000003099 1420.0
0.879999995232 -0.270999997854 0.175999999046 1428.0
0.879999995232 -0.277000010014 0.177000001073 1419.0
0.884000003338 -0.284000009298 0.178000003099 1411.0
0.876999974251 -0.287999987602 0.177000001073 1453.0
0.875999987125 -0.293000012636 0.177000001073 1439.0
0.876999974251 -0.298999994993 0.177000001073 1447.0
0.880999982357 -0.307000011206 0.178000003099 1439.0
0.875 -0.31099998951 0.178000003099 1447.0
0.874000012875 -0.316000014544 0.178000003099 1454.0
0.875999987125 -0.323000013828 0.178000003099 1442.0
0.874000012875 -0.32800000906 0.178000003099 1434.0
0.875999987125 -0.335000008345 0.179000005126 1424.0
0.867999970913 -0.337999999523 0.178000003099 1447.0
0.869000017643 -0.344000011683 0.179000005126 1441.0
0.869000017643 -0.351000010967 0.179000005126 1420.0
0.867999970913 -0.356000006199 0.179000005126 1418.0
0.866999983788 -0.361999988556 0.179000005126 1413.0
0.873000025749 -0.370999991894 0.180999994278 1442.0
0.870999991894 -0.375999987125 0.180999994278 1457.0
0.865999996662 -0.381000012159 0.180999994278 1464.0
0.865999996662 -0.386999994516 0.180999994278 1446.0
0.866999983788 -0.393999993801 0.181999996305 1430.0
0.862999975681 -0.398000001907 0.180999994278 1426.0
0.865000009537 -0.405999988317 0.181999996305 1431.0
0.865999996662 -0.412999987602 0.182999998331 1420.0
0.860000014305 -0.416000008583 0.181999996305 1401.0
0.85799998045 -0.42199999094 0.181999996305 1430.0
0.860000014305 -0.430000007153 0.182999998331 1453.0
0.860000014305 -0.43599998951 0.184000000358 1451.0
0.856999993324 -0.442000001669 0.184000000358 1454.0
0.85900002718 -0.449000000954 0.185000002384 1468.0
0.853999972343 -0.453999996185 0.184000000358 1452.0
0.851000010967 -0.458999991417 0.184000000358 1458.0
0.855000019073 -0.467999994755 0.186000004411 1446.0
0.852999985218 -0.474000006914 0.186000004411 1424.0
0.850000023842 -0.479000002146 0.186000004411 1416.0
1.77900004387 0.995999991894 0.368999987841 93.0
1.94000005722 1.07000005245 0.400999993086 134.0
1.73800003529 0.944999992847 0.358000010252 132.0
1.68599998951 0.902999997139 0.345999985933 132.0
1.47399997711 0.777000010014 0.301999986172 128.0
1.13900005817 0.591000020504 0.231999993324 147.0
0.962000012398 0.49200001359 0.194999992847 190.0
0.989000022411 0.497999995947 0.20000000298 188.0
1.02900004387 0.509999990463 0.208000004292 220.0
0.936999976635 0.456999987364 0.187999993563 254.0
0.875999987125 0.421000003815 0.17499999702 314.0
0.84399998188 0.398999989033 0.167999997735 361.0
0.842000007629 0.391999989748 0.167999997735 418.0
0.846000015736 0.386999994516 0.167999997735 462.0
0.841000020504 0.379000008106 0.166999995708 532.0
0.824999988079 0.365000009537 0.163000002503 562.0
0.828999996185 0.361000001431 0.16400000453 597.0
0.832000017166 0.356000006199 0.16400000453 635.0
0.84399998188 0.356000006199 0.165999993682 675.0
0.833999991417 0.344999998808 0.163000002503 691.0
0.84500002861 0.344000011683 0.165000006557 724.0
0.828999996185 0.331999987364 0.162000000477 773.0
0.824999988079 0.324000000954 0.16099999845 798.0
0.828999996185 0.319999992847 0.16099999845 828.0
0.829999983311 0.314999997616 0.16099999845 849.0
0.824000000954 0.307000011206 0.159999996424 867.0
0.82800000906 0.301999986172 0.159999996424 900.0
0.82800000906 0.29699999094 0.159999996424 918.0
0.824999988079 0.289999991655 0.158999994397 939.0
0.825999975204 0.284999996424 0.158999994397 952.0
0.825999975204 0.280000001192 0.158999994397 978.0
0.823000013828 0.273000001907 0.158000007272 1004.0
0.818000018597 0.266000002623 0.156000003219 1026.0
0.824999988079 0.263000011444 0.158000007272 1057.0
0.82800000906 0.25799998641 0.158000007272 1090.0
0.828999996185 0.252999991179 0.158000007272 1107.0
