ply
format ascii 1.0
element vertex 929
property float x
property float y
property float z
property float intensity
end_header
0.971000015736 -0.266000002623 0.097999997437 104.0
0.980000019073 -0.273999989033 0.0989999994636 105.0
1.00199997425 -0.287000000477 0.101999998093 104.0
1.00300002098 -0.293999999762 0.101999998093 102.0
0.976999998093 -0.291999995708 0.10000000149 99.0
1.01300001144 -0.310000002384 0.104000002146 104.0
0.980000019073 -0.305999994278 0.10000000149 91.0
1.00899994373 -0.321999996901 0.104000002146 101.0
0.998000025749 -0.324000000954 0.103000000119 98.0
1.01300001144 -0.33599999547 0.104000002146 94.0
0.986000001431 -0.333000004292 0.101999998093 91.0
0.95300000906 -0.32800000906 0.0989999994636 95.0
0.971000015736 -0.340999990702 0.101000003517 88.0
0.987999975681 -0.354000002146 0.103000000119 87.0
0.958999991417 -0.34999999404 0.10000000149 89.0
1.03100001812 -0.384000003338 0.108000002801 86.0
0.995999991894 -0.377000004053 0.104000002146 84.0
0.976000010967 -0.375999987125 0.101999998093 87.0
0.98299998045 -0.384999990463 0.103000000119 89.0
0.934000015259 -0.372999995947 0.097999997437 83.0
0.972999989986 -0.395000010729 0.103000000119 80.0
0.916000008583 -0.377999991179 0.097000002861 83.0
0.96899998188 -0.407000005245 0.103000000119 84.0
1.00199997425 -0.428000003099 0.107000000775 81.0
0.972999989986 -0.423000007868 0.104000002146 82.0
0.949999988079 -0.418999999762 0.101999998093 78.0
0.991999983788 -0.444999992847 0.105999998748 77.0
0.958000004292 -0.437000006437 0.103000000119 75.0
1.0529999733 -0.488999992609 0.11400000006 73.0
0.972999989986 -0.458000004292 0.104999996722 78.0
0.936999976635 -0.449000000954 0.101999998093 73.0
0.995999991894 -0.485000014305 0.108000002801 78.0
0.986000001431 -0.486999988556 0.108000002801 79.0
0.90600001812 -0.453999996185 0.0989999994636 76.0
0.967000007629 -0.5 0.107000000775 78.0
1.05200004578 -0.552999973297 0.115999996662 77.0
3.67700004578 2.1210000515 0.375999987125 110.0
3.68700003624 2.09500002861 0.375999987125 103.0
3.74000000954 2.09500002861 0.379999995232 106.0
3.64299988747 2.01099991798 0.368999987841 112.0
3.6970000267 2.01099991798 0.374000012875 110.0
3.7460000515 2.00699996948 0.377999991179 113.0
3.70000004768 1.95299994946 0.372000008821 107.0
3.72600007057 1.93799996376 0.374000012875 111.0
3.69799995422 1.89400005341 0.370000004768 105.0
3.69499993324 1.86399996281 0.368999987841 105.0
3.69899988174 1.8370000124 0.368000000715 110.0
3.77900004387 1.84800004959 0.375 112.0
3.72099995613 1.79200005531 0.368999987841 111.0
3.7460000515 1.77600002289 0.370000004768 107.0
3.78200006485 1.76499998569 0.372999995947 116.0
3.77399992943 1.73300004005 0.372000008821 115.0
3.74499988556 1.69200003147 0.368000000715 106.0
3.73099994659 1.65799999237 0.365999996662 111.0
3.75099992752 1.63999998569 0.36700001359 111.0
3.81999993324 1.64300000668 0.372999995947 105.0
3.89499998093 1.64800000191 0.379999995232 78.0
2.39299988747 0.158000007272 0.221000000834 206.0
2.375 0.143000006676 0.218999996781 270.0
2.35199999809 0.12800000608 0.216999992728 227.0
2.32399988174 0.112999998033 0.21400000155 198.0
2.31699991226 0.10000000149 0.21400000155 173.0
2.29999995232 0.0860000029206 0.211999997497 96.0
2.40000009537 0.0480000004172 0.222000002861 83.0
2.3029999733 0.0320000015199 0.212999999523 228.0
2.27999997139 0.0189999993891 0.21099999547 208.0
1.69099998474 0.00499999988824 0.156000003219 87.0
1.00699996948 -0.0010000000475 0.0920000001788 128.0
0.995999991894 -0.00700000021607 0.0909999981523 132.0
1.01300001144 -0.0130000002682 0.0930000022054 132.0
1.01699995995 -0.0189999993891 0.0930000022054 134.0
1.00499999523 -0.0240000002086 0.0920000001788 131.0
0.971000015736 -0.0289999991655 0.0890000015497 134.0
0.996999979019 -0.0359999984503 0.0909999981523 135.0
0.98400002718 -0.0410000011325 0.0900000035763 131.0
1.01699995995 -0.0480000004172 0.0930000022054 131.0
0.976999998093 -0.0520000010729 0.0890000015497 134.0
0.994000017643 -0.0579999983311 0.0909999981523 131.0
0.980000019073 -0.0630000010133 0.0900000035763 136.0
1.02900004387 -0.0719999969006 0.0949999988079 131.0
1.02900004387 -0.0780000016093 0.0949999988079 136.0
0.994000017643 -0.0810000002384 0.0909999981523 133.0
0.996999979019 -0.0869999974966 0.0920000001788 133.0
1.00899994373 -0.0939999967813 0.0930000022054 131.0
0.971000015736 -0.0960000008345 0.0890000015497 133.0
0.995999991894 -0.104999996722 0.0920000001788 131.0
0.992999970913 -0.109999999404 0.0920000001788 133.0
0.980000019073 -0.11400000006 0.0900000035763 129.0
0.992999970913 -0.122000001371 0.0920000001788 135.0
0.981000006199 -0.126000002027 0.0909999981523 138.0
0.995999991894 -0.134000003338 0.0920000001788 135.0
1.00300002098 -0.141000002623 0.0930000022054 132.0
1.00300002098 -0.146999999881 0.0930000022054 129.0
1.0039999485 -0.152999997139 0.0930000022054 122.0
0.986000001431 -0.156000003219 0.0920000001788 130.0
0.976000010967 -0.159999996424 0.0909999981523 125.0
0.963999986649 -0.16400000453 0.0900000035763 125.0
0.985000014305 -0.172999992967 0.0920000001788 128.0
0.97000002861 -0.175999999046 0.0909999981523 122.0
1.00999999046 -0.189999997616 0.0939999967813 118.0
1.01800000668 -0.196999996901 0.0949999988079 119.0
0.998000025749 -0.199000000954 0.0939999967813 117.0
0.991999983788 -0.203999996185 0.0930000022054 121.0
0.989000022411 -0.209999993443 0.0930000022054 120.0
0.990999996662 -0.216000005603 0.0930000022054 116.0
0.990000009537 -0.222000002861 0.0930000022054 118.0
0.95300000906 -0.218999996781 0.0900000035763 116.0
0.977999985218 -0.231000006199 0.0920000001788 114.0
1.00300002098 -0.243000000715 0.0949999988079 111.0
0.966000020504 -0.239999994636 0.0920000001788 102.0
0.945999979973 -0.240999996662 0.0900000035763 111.0
0.996999979019 -0.259999990463 0.0949999988079 109.0
0.985000014305 -0.263000011444 0.0939999967813 109.0
0.973999977112 -0.266000002623 0.0930000022054 107.0
1.01800000668 -0.284999996424 0.097000002861 103.0
0.978999972343 -0.280000001192 0.0939999967813 104.0
0.973999977112 -0.284999996424 0.0930000022054 99.0
0.981000006199 -0.293000012636 0.0939999967813 98.0
0.996999979019 -0.303999990225 0.0960000008345 101.0
0.992999970913 -0.310000002384 0.0960000008345 97.0
0.98299998045 -0.312999993563 0.0949999988079 96.0
1.00899994373 -0.32800000906 0.097999997437 97.0
0.962000012398 -0.319000005722 0.0930000022054 99.0
1.01800000668 -0.344000011683 0.0989999994636 92.0
0.995000004768 -0.342999994755 0.097000002861 94.0
0.981999993324 -0.344999998808 0.0960000008345 85.0
0.964999973774 -0.344999998808 0.0939999967813 98.0
0.98299998045 -0.358999997377 0.0960000008345 89.0
0.954999983311 -0.354999989271 0.0939999967813 90.0
0.97000002861 -0.36700001359 0.0949999988079 88.0
0.981999993324 -0.377999991179 0.097000002861 91.0
0.944999992847 -0.370000004768 0.0930000022054 83.0
0.962000012398 -0.384000003338 0.0949999988079 83.0
0.995999991894 -0.404000014067 0.0989999994636 82.0
0.995999991894 -0.412000000477 0.0989999994636 86.0
0.955999970436 -0.402000010014 0.0960000008345 83.0
1.01800000668 -0.435000002384 0.101999998093 83.0
0.981999993324 -0.425999999046 0.0989999994636 78.0
0.991999983788 -0.437999993563 0.10000000149 75.0
0.96899998188 -0.435000002384 0.097999997437 76.0
0.938000023365 -0.428000003099 0.0949999988079 76.0
0.952000021935 -0.441000014544 0.097000002861 75.0
0.96899998188 -0.456000000238 0.0989999994636 81.0
0.92199999094 -0.441000014544 0.0939999967813 71.0
0.973999977112 -0.472999989986 0.10000000149 75.0
0.972999989986 -0.481000006199 0.10000000149 78.0
0.944999992847 -0.474000006914 0.097000002861 76.0
0.925000011921 -0.470999985933 0.0960000008345 73.0
1.05099999905 -0.544000029564 0.108999997377 75.0
0.975000023842 -0.510999977589 0.101000003517 74.0
0.921000003815 -0.490999996662 0.0960000008345 80.0
0.878000020981 -0.474000006914 0.0920000001788 87.0
1.01400005817 -0.564999997616 0.107000000775 78.0
3.67000007629 2.11500000954 0.351000010967 109.0
3.65300011635 2.07500004768 0.347999989986 106.0
3.6930000782 2.06699991226 0.351000010967 103.0
3.6930000782 2.03699994087 0.34999999404 104.0
3.73699998856 2.03099989891 0.352999985218 103.0
3.73900008202 2.00200009346 0.352999985218 109.0
3.77300000191 1.99000000954 0.354999989271 109.0
3.71099996567 1.92900002003 0.347999989986 105.0
3.72900009155 1.9090000391 0.349000006914 105.0
3.70199990273 1.86600005627 0.345999985933 98.0
3.82500004768 1.89900004864 0.356999993324 105.0
3.81999993324 1.86800003052 0.354999989271 106.0
3.81100010872 1.83399999142 0.354000002146 103.0
3.78600001335 1.79400002956 0.34999999404 107.0
3.75999999046 1.75300002098 0.347000002861 103.0
3.85100007057 1.76699995995 0.354999989271 104.0
3.77600002289 1.70500004292 0.347000002861 109.0
3.79299998283 1.68499994278 0.347999989986 101.0
3.81299996376 1.66600000858 0.349000006914 115.0
3.76200008392 1.61699998379 0.344000011683 106.0
2.38400006294 0.157000005245 0.206000000238 217.0
2.36800003052 0.143000006676 0.204999998212 275.0
2.34999990463 0.12800000608 0.202999994159 224.0
2.30599999428 0.112000003457 0.199000000954 196.0
2.3220000267 0.10000000149 0.201000005007 166.0
2.32100009918 0.0860000029206 0.201000005007 99.0
2.42899990082 0.0480000004172 0.209999993443 106.0
2.29699993134 0.0320000015199 0.199000000954 233.0
2.28900003433 0.0189999993891 0.197999998927 205.0
1.57099997997 0.00499999988824 0.135000005364 85.0
1.00499999523 -0.0010000000475 0.0860000029206 137.0
0.998000025749 -0.00700000021607 0.0850000008941 137.0
0.989000022411 -0.0130000002682 0.0850000008941 137.0
0.994000017643 -0.0179999992251 0.0850000008941 135.0
1.01100003719 -0.0240000002086 0.0869999974966 132.0
1.01199996471 -0.0299999993294 0.0869999974966 133.0
0.972999989986 -0.035000000149 0.082999996841 136.0
0.986000001431 -0.0410000011325 0.0839999988675 135.0
0.999000012875 -0.0469999983907 0.0860000029206 137.0
0.981000006199 -0.0520000010729 0.0839999988675 139.0
1.02699995041 -0.0599999986589 0.0879999995232 138.0
1.01100003719 -0.0649999976158 0.0869999974966 145.0
0.994000017643 -0.070000000298 0.0850000008941 138.0
1.00300002098 -0.0759999975562 0.0860000029206 138.0
1.00499999523 -0.082000002265 0.0860000029206 134.0
0.991999983788 -0.0869999974966 0.0850000008941 135.0
0.999000012875 -0.0930000022054 0.0860000029206 132.0
1.01100003719 -0.10000000149 0.0869999974966 135.0
0.97000002861 -0.101999998093 0.0839999988675 139.0
0.990999996662 -0.109999999404 0.0860000029206 134.0
0.995999991894 -0.115999996662 0.0860000029206 133.0
1.00899994373 -0.123999997973 0.0869999974966 127.0
1.02400004864 -0.131999999285 0.0890000015497 127.0
0.989000022411 -0.133000001311 0.0860000029206 130.0
1.02199995518 -0.143000006676 0.0890000015497 132.0
1.00999999046 -0.148000001907 0.0879999995232 126.0
0.976999998093 -0.148000001907 0.0850000008941 130.0
0.986999988556 -0.156000003219 0.0860000029206 129.0
0.981999993324 -0.16099999845 0.0860000029206 125.0
0.977999985218 -0.165999993682 0.0850000008941 124.0
1.0039999485 -0.175999999046 0.0879999995232 121.0
0.967000007629 -0.175999999046 0.0850000008941 129.0
0.981999993324 -0.184000000358 0.0860000029206 124.0
0.998000025749 -0.193000003695 0.0879999995232 117.0
0.985000014305 -0.196999996901 0.0860000029206 115.0
0.986999988556 -0.202999994159 0.0869999974966 118.0
0.973999977112 -0.206000000238 0.0860000029206 122.0
1.00100004673 -0.217999994755 0.0879999995232 117.0
1.02900004387 -0.231000006199 0.0909999981523 119.0
0.989000022411 -0.228000000119 0.0869999974966 118.0
0.996999979019 -0.234999999404 0.0879999995232 113.0
1.01499998569 -0.246000006795 0.0900000035763 112.0
1.00499999523 -0.25 0.0890000015497 112.0
0.97000002861 -0.24699999392 0.0860000029206 108.0
0.994000017643 -0.259000003338 0.0890000015497 110.0
0.975000023842 -0.259999990463 0.0869999974966 109.0
0.98299998045 -0.268999993801 0.0879999995232 105.0
0.981999993324 -0.27500000596 0.0879999995232 105.0
0.962000012398 -0.27500000596 0.0860000029206 101.0
0.962999999523 -0.282000005245 0.0869999974966 101.0
1.00699996948 -0.300999999046 0.0909999981523 100.0
1.00999999046 -0.307999998331 0.0909999981523 102.0
0.955999970436 -0.298000007868 0.0860000029206 104.0
0.989000022411 -0.314999997616 0.0900000035763 102.0
0.958000004292 -0.31099998951 0.0869999974966 99.0
0.976999998093 -0.324000000954 0.0890000015497 94.0
0.962999999523 -0.324999988079 0.0879999995232 98.0
0.98400002718 -0.338999986649 0.0900000035763 88.0
0.957000017166 -0.33599999547 0.0879999995232 93.0
1.0039999485 -0.360000014305 0.0920000001788 92.0
0.994000017643 -0.361999988556 0.0909999981523 98.0
0.947000026703 -0.351999998093 0.0869999974966 87.0
0.963999986649 -0.363999992609 0.0890000015497 88.0
0.945999979973 -0.363999992609 0.0879999995232 91.0
0.989000022411 -0.388000011444 0.0920000001788 90.0
0.958999991417 -0.381999999285 0.0890000015497 88.0
0.927999973297 -0.375999987125 0.0860000029206 84.0
0.978999972343 -0.404000014067 0.0909999981523 87.0
0.963999986649 -0.405000001192 0.0900000035763 81.0
0.96899998188 -0.41400000453 0.0909999981523 79.0
0.96899998188 -0.421000003815 0.0909999981523 79.0
0.987999975681 -0.43599998951 0.0930000022054 86.0
1.01900005341 -0.456999987364 0.097000002861 83.0
0.944000005722 -0.430000007153 0.0900000035763 80.0
1.00600004196 -0.467000007629 0.0960000008345 82.0
1.01100003719 -0.476000010967 0.097000002861 74.0
0.985000014305 -0.470999985933 0.0939999967813 80.0
0.915000021458 -0.444000005722 0.0879999995232 71.0
0.985000014305 -0.486000001431 0.0949999988079 77.0
0.990000009537 -0.495999991894 0.0960000008345 76.0
0.989000022411 -0.503000020981 0.0960000008345 74.0
0.95300000906 -0.49200001359 0.0930000022054 74.0
0.952000021935 -0.499000012875 0.0930000022054 77.0
0.894999980927 -0.476000010967 0.0879999995232 81.0
0.967999994755 -0.523000001907 0.0949999988079 82.0
1.07099997997 -0.597000002861 0.105999998748 79.0
3.77900004387 2.17700004578 0.337000012398 79.0
3.7539999485 2.13100004196 0.333000004292 81.0
3.79800009727 2.125 0.33599999547 81.0
3.67300009727 2.02500009537 0.324000000954 85.0
3.72600007057 2.02399992943 0.32800000906 84.0
3.79999995232 2.0039999485 0.333000004292 81.0
3.82299995422 1.98599994183 0.333999991417 77.0
3.78399991989 1.93599998951 0.330000013113 78.0
3.71900010109 1.87399995327 0.324000000954 74.0
3.83899998665 1.90499997139 0.333000004292 79.0
3.80599999428 1.85899996758 0.330000013113 76.0
3.82699990273 1.8409999609 0.331000000238 83.0
3.87299990654 1.83399999142 0.333999991417 81.0
3.86199998856 1.79999995232 0.331999987364 77.0
3.9509999752 1.81200003624 0.338999986649 76.0
3.91599988937 1.76699995995 0.33599999547 80.0
3.85700011253 1.71300005913 0.330000013113 71.0
3.80500006676 1.66199994087 0.324999988079 80.0
3.83100008965 1.64600002766 0.326000005007 78.0
2.36999988556 0.170000001788 0.190999999642 65.0
2.40700006485 0.158999994397 0.194000005722 221.0
2.37700009346 0.143000006676 0.192000001669 278.0
2.35700011253 0.12800000608 0.189999997616 225.0
2.31299996376 0.112000003457 0.187000006437 195.0
2.30900001526 0.0989999994636 0.186000004411 168.0
2.32899999619 0.0860000029206 0.187999993563 96.0
2.40499997139 0.0480000004172 0.194000005722 97.0
2.28099989891 0.0320000015199 0.184000000358 237.0
2.28800010681 0.0189999993891 0.185000002384 201.0
1.47800004482 0.00400000018999 0.119000002742 83.0
1.00499999523 -0.0010000000475 0.0799999982119 134.0
1.0039999485 -0.00700000021607 0.0799999982119 133.0
0.989000022411 -0.0130000002682 0.0790000036359 135.0
0.998000025749 -0.0179999992251 0.0799999982119 136.0
1.00800001621 -0.0240000002086 0.0799999982119 141.0
0.987999975681 -0.0299999993294 0.0790000036359 139.0
0.980000019073 -0.035000000149 0.0780000016093 138.0
0.992999970913 -0.0410000011325 0.0790000036359 139.0
1.00600004196 -0.0480000004172 0.0799999982119 142.0
0.987999975681 -0.0520000010729 0.0790000036359 140.0
1.00300002098 -0.0590000003576 0.0799999982119 133.0
0.994000017643 -0.0640000030398 0.0799999982119 136.0
0.985000014305 -0.0689999982715 0.0790000036359 141.0
0.992999970913 -0.0750000029802 0.0799999982119 130.0
0.986999988556 -0.0810000002384 0.0790000036359 132.0
0.976000010967 -0.0850000008941 0.0780000016093 139.0
1.01600003242 -0.0949999988079 0.082000002265 130.0
0.972000002861 -0.0960000008345 0.0780000016093 133.0
0.977999985218 -0.103000000119 0.0790000036359 127.0
0.977999985218 -0.108000002801 0.0790000036359 130.0
0.990000009537 -0.115999996662 0.0799999982119 129.0
1.00100004673 -0.123000003397 0.0810000002384 129.0
0.995000004768 -0.12800000608 0.0799999982119 126.0
0.995999991894 -0.134000003338 0.0810000002384 130.0
0.990999996662 -0.138999998569 0.0799999982119 130.0
0.995999991894 -0.144999995828 0.0810000002384 128.0
1.0039999485 -0.152999997139 0.082000002265 131.0
0.991999983788 -0.157000005245 0.0810000002384 130.0
1.00600004196 -0.165000006557 0.082000002265 130.0
0.973999977112 -0.165000006557 0.0790000036359 132.0
0.952000021935 -0.166999995708 0.0780000016093 127.0
0.990000009537 -0.180000007153 0.0810000002384 129.0
1.00300002098 -0.187999993563 0.082000002265 125.0
0.986000001431 -0.190999999642 0.0810000002384 125.0
1.00100004673 -0.20000000298 0.082000002265 123.0
0.985000014305 -0.202999994159 0.0810000002384 123.0
0.995000004768 -0.21099999547 0.082000002265 122.0
0.990999996662 -0.216000005603 0.082000002265 123.0
0.972000002861 -0.216999992728 0.0799999982119 121.0
0.976999998093 -0.22499999404 0.0810000002384 114.0
0.98299998045 -0.231999993324 0.0810000002384 116.0
1.03499996662 -0.250999987125 0.0860000029206 111.0
0.98400002718 -0.244000002742 0.082000002265 119.0
0.98400002718 -0.25 0.082000002265 113.0
0.990999996662 -0.25799998641 0.082000002265 117.0
0.963999986649 -0.25799998641 0.0799999982119 109.0
0.96899998188 -0.264999985695 0.0810000002384 106.0
0.977999985218 -0.273999989033 0.082000002265 109.0
1.00999999046 -0.28900000453 0.0850000008941 109.0
0.980000019073 -0.287000000477 0.082000002265 102.0
0.971000015736 -0.289999991655 0.082000002265 103.0
0.964999973774 -0.293999999762 0.0810000002384 94.0
0.991999983788 -0.308999985456 0.0839999988675 96.0
0.986000001431 -0.31400001049 0.082999996841 97.0
0.990999996662 -0.321999996901 0.0839999988675 96.0
0.990999996662 -0.32800000906 0.0839999988675 90.0
0.992999970913 -0.335000008345 0.0839999988675 89.0
1.00100004673 -0.344999998808 0.0850000008941 92.0
0.98400002718 -0.344999998808 0.0839999988675 92.0
0.996999979019 -0.356999993324 0.0850000008941 89.0
0.97000002861 -0.352999985218 0.082999996841 87.0
0.991999983788 -0.368000000715 0.0850000008941 86.0
1.00199997425 -0.379000008106 0.0860000029206 85.0
0.97000002861 -0.372999995947 0.0839999988675 87.0
0.990000009537 -0.388000011444 0.0860000029206 86.0
0.992999970913 -0.395999997854 0.0860000029206 85.0
0.972000002861 -0.393999993801 0.0850000008941 84.0
1.01100003719 -0.425000011921 0.0890000015497 83.0
0.978999972343 -0.418000012636 0.0860000029206 81.0
0.959999978542 -0.416999995708 0.0839999988675 78.0
0.996999979019 -0.439999997616 0.0879999995232 76.0
0.971000015736 -0.43599998951 0.0860000029206 79.0
0.98400002718 -0.449000000954 0.0869999974966 77.0
0.989000022411 -0.458000004292 0.0879999995232 75.0
1.01100003719 -0.476000010967 0.0900000035763 80.0
0.998000025749 -0.476999998093 0.0890000015497 73.0
0.986000001431 -0.479000002146 0.0890000015497 74.0
1.03299999237 -0.509999990463 0.0930000022054 80.0
0.919000029564 -0.460000008345 0.082999996841 73.0
0.907999992371 -0.46099999547 0.082000002265 73.0
0.97000002861 -0.500999987125 0.0879999995232 76.0
1.10500001907 -0.579999983311 0.101000003517 84.0
0.976000010967 -0.519999980927 0.0890000015497 79.0
3.72699999809 2.14599990845 0.307000011206 79.0
3.90400004387 2.02699995041 0.316000014544 76.0
3.85800004005 1.97300004959 0.312000006437 71.0
3.79099988937 1.85099995136 0.303999990225 71.0
3.96700000763 1.90699994564 0.317999988794 69.0
3.89499998093 1.81400001049 0.31099998951 79.0
3.98300004005 1.8259999752 0.317000001669 75.0
3.86500000954 1.74300003052 0.307000011206 69.0
3.84400010109 1.70599997044 0.305000007153 75.0
3.94899988174 1.72399997711 0.312000006437 74.0
3.94600009918 1.69400000572 0.31099998951 65.0
2.39400005341 0.158000007272 0.179000005126 244.0
2.382999897 0.143000006676 0.178000003099 281.0
2.34899997711 0.12800000608 0.175999999046 220.0
2.32299995422 0.112999998033 0.173999994993 196.0
2.3029999733 0.0989999994636 0.172000005841 161.0
2.34999990463 0.0869999974966 0.175999999046 86.0
2.3710000515 0.0469999983907 0.178000003099 85.0
2.28399991989 0.0320000015199 0.171000003815 232.0
2.26600003242 0.0189999993891 0.170000001788 198.0
1.47300004959 0.00400000018999 0.109999999404 86.0
1.00499999523 -0.0010000000475 0.0740000009537 135.0
1.01699995995 -0.00700000021607 0.0750000029802 133.0
1.0 -0.0130000002682 0.0740000009537 135.0
0.991999983788 -0.0179999992251 0.0729999989271 140.0
1.00100004673 -0.0240000002086 0.0740000009537 140.0
0.977999985218 -0.0289999991655 0.0719999969006 136.0
0.976999998093 -0.035000000149 0.0719999969006 134.0
1.00600004196 -0.0419999994338 0.0750000029802 142.0
0.990000009537 -0.0469999983907 0.0729999989271 141.0
1.01999998093 -0.0540000014007 0.0759999975562 145.0
1.02300000191 -0.0599999986589 0.0759999975562 140.0
1.00800001621 -0.0649999976158 0.0750000029802 137.0
1.01699995995 -0.0719999969006 0.0759999975562 137.0
0.992999970913 -0.0750000029802 0.0740000009537 134.0
0.990999996662 -0.0810000002384 0.0740000009537 137.0
1.01300001144 -0.0890000015497 0.0759999975562 131.0
1.00199997425 -0.0939999967813 0.0750000029802 137.0
0.976999998093 -0.097000002861 0.0729999989271 143.0
1.00499999523 -0.105999998748 0.0750000029802 139.0
0.980000019073 -0.108999997377 0.0729999989271 134.0
0.990999996662 -0.115999996662 0.0740000009537 137.0
0.990000009537 -0.120999999344 0.0740000009537 133.0
1.02499997616 -0.131999999285 0.0769999995828 133.0
0.989000022411 -0.133000001311 0.0740000009537 136.0
0.996999979019 -0.140000000596 0.0750000029802 128.0
0.986000001431 -0.143999993801 0.0740000009537 133.0
1.00800001621 -0.152999997139 0.0759999975562 128.0
0.981000006199 -0.155000001192 0.0740000009537 132.0
1.01100003719 -0.165999993682 0.0759999975562 128.0
0.976999998093 -0.165999993682 0.0740000009537 132.0
1.0039999485 -0.175999999046 0.0759999975562 128.0
0.971000015736 -0.175999999046 0.0740000009537 129.0
0.98299998045 -0.184000000358 0.0750000029802 122.0
0.987999975681 -0.190999999642 0.0750000029802 123.0
0.990999996662 -0.197999998927 0.0750000029802 123.0
0.986999988556 -0.202999994159 0.0750000029802 116.0
1.00800001621 -0.212999999523 0.0769999995828 124.0
1.01600003242 -0.221000000834 0.0780000016093 124.0
0.986000001431 -0.221000000834 0.0750000029802 116.0
0.987999975681 -0.226999998093 0.0759999975562 119.0
0.981999993324 -0.231999993324 0.0750000029802 114.0
0.963999986649 -0.232999995351 0.0740000009537 112.0
0.985000014305 -0.245000004768 0.0759999975562 111.0
0.990999996662 -0.252000004053 0.0759999975562 115.0
1.00100004673 -0.261000007391 0.0769999995828 116.0
0.98299998045 -0.261999994516 0.0759999975562 105.0
0.939999997616 -0.256999999285 0.0729999989271 108.0
0.981999993324 -0.273999989033 0.0759999975562 108.0
0.97000002861 -0.277000010014 0.0750000029802 103.0
0.995000004768 -0.291000008583 0.0780000016093 105.0
0.966000020504 -0.28900000453 0.0750000029802 99.0
0.989000022411 -0.301999986172 0.0769999995828 102.0
0.98299998045 -0.305999994278 0.0769999995828 100.0
0.981999993324 -0.312000006437 0.0769999995828 94.0
0.973999977112 -0.316000014544 0.0769999995828 97.0
1.02400004864 -0.338999986649 0.0810000002384 97.0
1.00699996948 -0.340000003576 0.0799999982119 92.0
0.938000023365 -0.323000013828 0.0740000009537 92.0
0.985000014305 -0.345999985933 0.0780000016093 94.0
0.963999986649 -0.344999998808 0.0769999995828 89.0
0.966000020504 -0.351999998093 0.0769999995828 92.0
0.986000001431 -0.365999996662 0.0790000036359 83.0
0.943000018597 -0.356000006199 0.0750000029802 84.0
0.991999983788 -0.381999999285 0.0799999982119 95.0
0.994000017643 -0.388999998569 0.0799999982119 81.0
0.925999999046 -0.368999987841 0.0750000029802 80.0
0.995999991894 -0.404000014067 0.0810000002384 83.0
0.994000017643 -0.409999996424 0.0810000002384 84.0
0.990000009537 -0.416000008583 0.0810000002384 81.0
0.980000019073 -0.418000012636 0.0799999982119 84.0
0.981000006199 -0.425999999046 0.0799999982119 78.0
0.994000017643 -0.437999993563 0.0810000002384 83.0
1.02300000191 -0.458999991417 0.0839999988675 83.0
0.985000014305 -0.449000000954 0.0810000002384 78.0
0.994000017643 -0.46099999547 0.082000002265 74.0
1.0 -0.470999985933 0.082999996841 73.0
0.958999991417 -0.458000004292 0.0799999982119 76.0
0.934000015259 -0.45300000906 0.0780000016093 76.0
1.00199997425 -0.493999987841 0.0839999988675 76.0
0.948000013828 -0.474000006914 0.0790000036359 77.0
0.927999973297 -0.472000002861 0.0780000016093 81.0
0.98299998045 -0.508000016212 0.082999996841 74.0
0.995000004768 -0.522000014782 0.0839999988675 72.0
0.987999975681 -0.526000022888 0.0839999988675 78.0
0.978999972343 -0.528999984264 0.0839999988675 79.0
0.954999983311 -0.523000001907 0.082000002265 83.0
0.995999991894 -0.554000020027 0.0860000029206 75.0
0.866999983788 0.497999995947 0.0640000030398 426.0
0.856999993324 0.485000014305 0.0630000010133 419.0
0.884000003338 0.493000000715 0.0649999976158 414.0
0.867999970913 0.476999998093 0.0640000030398 439.0
0.870000004768 0.470999985933 0.0640000030398 438.0
0.869000017643 0.463999986649 0.0640000030398 456.0
0.866999983788 0.456000000238 0.0630000010133 446.0
0.876999974251 0.453999996185 0.0640000030398 418.0
0.884000003338 0.451000005007 0.0640000030398 407.0
0.867999970913 0.43599998951 0.0630000010133 390.0
0.879999995232 0.435000002384 0.0640000030398 393.0
0.887000024319 0.432000011206 0.0640000030398 405.0
0.893000006676 0.428999990225 0.0640000030398 425.0
0.888999998569 0.419999986887 0.0640000030398 430.0
0.893000006676 0.414999991655 0.0640000030398 426.0
0.885999977589 0.405999988317 0.0630000010133 431.0
0.899999976158 0.405000001192 0.0640000030398 424.0
0.901000022888 0.398999989033 0.0640000030398 425.0
0.902000010014 0.393000006676 0.0640000030398 424.0
0.907999992371 0.388999998569 0.0640000030398 411.0
0.930000007153 0.391999989748 0.0659999996424 412.0
0.957000017166 0.397000014782 0.0680000036955 417.0
0.958000004292 0.389999985695 0.0680000036955 397.0
0.948000013828 0.379999995232 0.0670000016689 377.0
0.973999977112 0.384000003338 0.0689999982715 341.0
0.958000004292 0.370999991894 0.0670000016689 351.0
0.98299998045 0.372999995947 0.0689999982715 332.0
0.987999975681 0.368999987841 0.0689999982715 294.0
0.98400002718 0.361000001431 0.0689999982715 277.0
0.995999991894 0.358000010252 0.070000000298 256.0
0.996999979019 0.351999998093 0.070000000298 236.0
1.01800000668 0.352999985218 0.0710000023246 232.0
0.999000012875 0.338999986649 0.070000000298 268.0
1.01499998569 0.337999999523 0.0710000023246 197.0
1.01600003242 0.324999988079 0.0710000023246 266.0
1.0379999876 0.326000005007 0.0719999969006 239.0
0.995999991894 0.305999994278 0.0689999982715 217.0
1.00600004196 0.303000003099 0.070000000298 189.0
0.987999975681 0.277999997139 0.0680000036955 149.0
2.41300010681 0.172999992967 0.166999995708 85.0
2.40499997139 0.158000007272 0.165999993682 249.0
2.3900001049 0.143999993801 0.165000006557 286.0
2.34400010109 0.127000004053 0.162000000477 222.0
2.31399989128 0.112000003457 0.159999996424 197.0
2.29699993134 0.097999997437 0.158999994397 164.0
2.32800006866 0.0860000029206 0.16099999845 86.0
2.42199993134 0.0480000004172 0.167999997735 116.0
2.28900003433 0.0320000015199 0.158000007272 245.0
2.28600001335 0.0189999993891 0.158000007272 198.0
1.39699995518 0.00400000018999 0.0960000008345 87.0
1.02999997139 -0.0010000000475 0.070000000298 135.0
0.999000012875 -0.00700000021607 0.0680000036955 131.0
1.02799999714 -0.0130000002682 0.070000000298 139.0
0.98400002718 -0.0179999992251 0.0670000016689 146.0
0.98299998045 -0.0240000002086 0.0670000016689 141.0
0.989000022411 -0.0299999993294 0.0670000016689 141.0
0.994000017643 -0.035000000149 0.0680000036955 141.0
0.990999996662 -0.0410000011325 0.0680000036955 138.0
1.0039999485 -0.0469999983907 0.0689999982715 139.0
1.00199997425 -0.0529999993742 0.0689999982715 140.0
0.981000006199 -0.0579999983311 0.0670000016689 144.0
0.994000017643 -0.0640000030398 0.0680000036955 146.0
1.02199995518 -0.0719999969006 0.070000000298 141.0
1.01199996471 -0.0769999995828 0.0689999982715 142.0
0.994000017643 -0.0810000002384 0.0680000036955 141.0
0.985000014305 -0.0860000029206 0.0680000036955 138.0
0.973999977112 -0.0909999981523 0.0670000016689 138.0
1.00100004673 -0.0989999994636 0.0689999982715 133.0
0.999000012875 -0.104999996722 0.0689999982715 132.0
0.97000002861 -0.107000000775 0.0670000016689 130.0
0.975000023842 -0.11400000006 0.0670000016689 135.0
0.990999996662 -0.120999999344 0.0680000036955 132.0
1.01400005817 -0.129999995232 0.070000000298 133.0
1.01400005817 -0.136000007391 0.070000000298 131.0
0.986999988556 -0.137999996543 0.0680000036955 133.0
0.994000017643 -0.144999995828 0.0689999982715 134.0
0.972000002861 -0.146999999881 0.0670000016689 134.0
0.981000006199 -0.155000001192 0.0680000036955 128.0
0.96899998188 -0.158999994397 0.0670000016689 135.0
0.975000023842 -0.165000006557 0.0680000036955 134.0
1.01999998093 -0.179000005126 0.0710000023246 125.0
1.00999999046 -0.182999998331 0.0710000023246 129.0
0.995000004768 -0.187000006437 0.070000000298 121.0
0.996999979019 -0.193000003695 0.070000000298 119.0
0.989000022411 -0.196999996901 0.0689999982715 119.0
0.996999979019 -0.204999998212 0.070000000298 121.0
0.987999975681 -0.209000006318 0.070000000298 123.0
0.989000022411 -0.215000003576 0.070000000298 117.0
1.01600003242 -0.226999998093 0.0719999969006 116.0
1.00300002098 -0.231000006199 0.0710000023246 115.0
0.972000002861 -0.229000002146 0.0689999982715 115.0
0.950999975204 -0.230000004172 0.0670000016689 118.0
0.962999999523 -0.238999992609 0.0680000036955 111.0
0.958000004292 -0.244000002742 0.0680000036955 109.0
0.985000014305 -0.256999999285 0.070000000298 112.0
0.97000002861 -0.259000003338 0.0689999982715 115.0
0.966000020504 -0.263999998569 0.0689999982715 105.0
1.00300002098 -0.280000001192 0.0719999969006 109.0
0.962000012398 -0.27500000596 0.0689999982715 101.0
1.01400005817 -0.296000003815 0.0729999989271 103.0
0.990999996662 -0.296000003815 0.0710000023246 106.0
0.995000004768 -0.303999990225 0.0719999969006 97.0
0.980000019073 -0.305000007153 0.0710000023246 101.0
0.971000015736 -0.308999985456 0.070000000298 95.0
0.980000019073 -0.317999988794 0.0710000023246 97.0
1.01600003242 -0.33599999547 0.0740000009537 98.0
0.967000007629 -0.326000005007 0.0710000023246 96.0
0.940999984741 -0.324000000954 0.0689999982715 98.0
1.0 -0.351000010967 0.0729999989271 92.0
0.981000006199 -0.351000010967 0.0719999969006 93.0
0.98400002718 -0.358000010252 0.0719999969006 84.0
0.986999988556 -0.365999996662 0.0729999989271 86.0
1.01300001144 -0.38299998641 0.0750000029802 86.0
1.0379999876 -0.398999989033 0.0769999995828 86.0
0.954999983311 -0.374000012875 0.0710000023246 91.0
0.939999997616 -0.374000012875 0.070000000298 83.0
0.967999994755 -0.391999989748 0.0719999969006 80.0
0.978999972343 -0.404000014067 0.0729999989271 79.0
0.967999994755 -0.405999988317 0.0729999989271 81.0
0.962999999523 -0.411000013351 0.0719999969006 82.0
0.966000020504 -0.418999999762 0.0729999989271 82.0
0.964999973774 -0.425999999046 0.0729999989271 81.0
1.00300002098 -0.449999988079 0.0759999975562 79.0
0.936999976635 -0.426999986172 0.0710000023246 77.0
0.916999995708 -0.423999994993 0.070000000298 74.0
0.976999998093 -0.458999991417 0.0750000029802 78.0
0.950999975204 -0.453999996185 0.0729999989271 84.0
1.06700003147 -0.518000006676 0.082000002265 75.0
0.941999971867 -0.463999986649 0.0729999989271 73.0
0.998000025749 -0.5 0.0769999995828 76.0
1.0 -0.508000016212 0.0780000016093 76.0
0.963999986649 -0.497000008821 0.0750000029802 76.0
0.955999970436 -0.500999987125 0.0750000029802 72.0
1.05900001526 -0.572000026703 0.0839999988675 77.0
1.00600004196 -0.550999999046 0.0799999982119 81.0
0.894999980927 0.513999998569 0.0610000006855 1197.0
0.896000027657 0.507000029087 0.0599999986589 1168.0
0.898000001907 0.500999987125 0.0599999986589 1175.0
0.888999998569 0.488999992609 0.0599999986589 1227.0
0.894999980927 0.485000014305 0.0599999986589 1248.0
0.899999976158 0.479999989271 0.0599999986589 1299.0
0.907999992371 0.476999998093 0.0599999986589 1310.0
0.908999979496 0.470999985933 0.0599999986589 1260.0
0.912000000477 0.465000003576 0.0599999986589 1223.0
0.911000013351 0.458000004292 0.0599999986589 1207.0
0.912000000477 0.451000005007 0.0599999986589 1214.0
0.916000008583 0.446000009775 0.0599999986589 1283.0
0.915000021458 0.43900001049 0.0599999986589 1348.0
0.920000016689 0.433999985456 0.0599999986589 1376.0
0.920000016689 0.428000003099 0.0599999986589 1381.0
0.922999978065 0.42199999094 0.0599999986589 1406.0
0.925000011921 0.416000008583 0.0599999986589 1415.0
0.930000007153 0.412000000477 0.0610000006855 1446.0
0.934000015259 0.407000005245 0.0610000006855 1456.0
0.933000028133 0.40000000596 0.0610000006855 1451.0
0.936999976635 0.395000010729 0.0610000006855 1431.0
0.938000023365 0.388999998569 0.0610000006855 1448.0
0.93900001049 0.381999999285 0.0610000006855 1424.0
0.945999979973 0.379000008106 0.0610000006855 1347.0
0.947000026703 0.372999995947 0.0610000006855 1347.0
0.944999992847 0.365000009537 0.0610000006855 1358.0
0.952000021935 0.361999988556 0.0610000006855 1360.0
0.949000000954 0.354000002146 0.0610000006855 1273.0
0.955999970436 0.34999999404 0.0610000006855 1225.0
0.961000025272 0.345999985933 0.0610000006855 1206.0
0.958999991417 0.337999999523 0.0610000006855 1174.0
0.958999991417 0.331999987364 0.0610000006855 1142.0
0.964999973774 0.32800000906 0.0610000006855 1103.0
0.963999986649 0.321000009775 0.0610000006855 1045.0
0.972000002861 0.317000001669 0.0619999989867 1010.0
0.975000023842 0.312000006437 0.0619999989867 955.0
0.971000015736 0.303999990225 0.0610000006855 904.0
0.981000006199 0.300999999046 0.0619999989867 888.0
0.98400002718 0.296000003815 0.0619999989867 854.0
0.98299998045 0.28900000453 0.0619999989867 854.0
0.98400002718 0.282999992371 0.0619999989867 843.0
0.986999988556 0.277999997139 0.0619999989867 797.0
0.996999979019 0.273999989033 0.0630000010133 740.0
0.995999991894 0.268000006676 0.0630000010133 699.0
0.989000022411 0.259999990463 0.0619999989867 673.0
1.00199997425 0.256999999285 0.0630000010133 658.0
1.0039999485 0.250999987125 0.0630000010133 624.0
1.00699996948 0.246000006795 0.0630000010133 594.0
1.01400005817 0.240999996662 0.0640000030398 567.0
1.01199996471 0.234999999404 0.0630000010133 533.0
1.00800001621 0.228000000119 0.0630000010133 505.0
1.01499998569 0.223000004888 0.0630000010133 474.0
1.01999998093 0.217999994755 0.0640000030398 445.0
1.02600002289 0.212999999523 0.0640000030398 408.0
1.0379999876 0.209000006318 0.0649999976158 391.0
1.03900003433 0.202999994159 0.0649999976158 356.0
1.04100000858 0.196999996901 0.0649999976158 332.0
1.05599999428 0.194000005722 0.0659999996424 316.0
1.05200004578 0.187000006437 0.0659999996424 296.0
1.0379999876 0.178000003099 0.0649999976158 262.0
1.06400001049 0.175999999046 0.0659999996424 240.0
1.0529999733 0.167999997735 0.0659999996424 221.0
1.07099997997 0.165000006557 0.0670000016689 185.0
1.07899999619 0.159999996424 0.0670000016689 201.0
1.0720000267 0.140000000596 0.0670000016689 173.0
2.48300004005 0.178000003099 0.157000005245 85.0
2.3789999485 0.157000005245 0.15000000596 262.0
2.38199996948 0.143000006676 0.150999993086 296.0
2.36199998856 0.12800000608 0.149000003934 221.0
2.30100011826 0.112000003457 0.144999995828 198.0
2.31900000572 0.0989999994636 0.146999999881 160.0
2.29600000381 0.0850000008941 0.144999995828 88.0
2.40700006485 0.0469999983907 0.151999995112 126.0
2.28900003433 0.0320000015199 0.144999995828 249.0
2.28200006485 0.0189999993891 0.144999995828 190.0
1.36800003052 0.00400000018999 0.0860000029206 95.0
1.01199996471 -0.0010000000475 0.0630000010133 138.0
1.0039999485 -0.00700000021607 0.0630000010133 138.0
0.995000004768 -0.0130000002682 0.0619999989867 140.0
0.995999991894 -0.0179999992251 0.0619999989867 144.0
0.995000004768 -0.0240000002086 0.0619999989867 142.0
1.02400004864 -0.0309999994934 0.0640000030398 141.0
0.994000017643 -0.0359999984503 0.0619999989867 142.0
1.00499999523 -0.0419999994338 0.0630000010133 140.0
0.999000012875 -0.0469999983907 0.0630000010133 147.0
0.98299998045 -0.0520000010729 0.0619999989867 147.0
1.01699995995 -0.0599999986589 0.0640000030398 143.0
1.00499999523 -0.0649999976158 0.0630000010133 141.0
1.00699996948 -0.0710000023246 0.0630000010133 144.0
1.00600004196 -0.0769999995828 0.0630000010133 144.0
0.975000023842 -0.0799999982119 0.0610000006855 141.0
1.00300002098 -0.0879999995232 0.0630000010133 141.0
0.98400002718 -0.0920000001788 0.0619999989867 131.0
0.996999979019 -0.0989999994636 0.0630000010133 137.0
0.994000017643 -0.104000002146 0.0630000010133 137.0
0.992999970913 -0.109999999404 0.0630000010133 135.0
0.98299998045 -0.115000002086 0.0619999989867 132.0
0.962000012398 -0.118000000715 0.0610000006855 132.0
0.989000022411 -0.127000004053 0.0630000010133 129.0
0.985000014305 -0.131999999285 0.0619999989867 133.0
1.00899994373 -0.141000002623 0.0640000030398 134.0
0.971000015736 -0.142000004649 0.0619999989867 131.0
0.976999998093 -0.148000001907 0.0619999989867 133.0
0.977999985218 -0.153999999166 0.0619999989867 136.0
0.981999993324 -0.16099999845 0.0630000010133 135.0
0.976000010967 -0.165000006557 0.0619999989867 136.0
0.995999991894 -0.17499999702 0.0640000030398 130.0
0.952000021935 -0.172999992967 0.0610000006855 125.0
0.976000010967 -0.182999998331 0.0630000010133 126.0
0.989000022411 -0.190999999642 0.0630000010133 123.0
0.96899998188 -0.193000003695 0.0619999989867 118.0
0.986999988556 -0.202999994159 0.0640000030398 123.0
0.990999996662 -0.209999993443 0.0640000030398 128.0
0.957000017166 -0.208000004292 0.0619999989867 124.0
0.986999988556 -0.221000000834 0.0640000030398 123.0
0.980000019073 -0.22499999404 0.0630000010133 119.0
0.981999993324 -0.231999993324 0.0640000030398 114.0
0.998000025749 -0.241999998689 0.0649999976158 115.0
0.976000010967 -0.241999998689 0.0640000030398 107.0
0.98299998045 -0.25 0.0640000030398 113.0
0.987999975681 -0.25799998641 0.0649999976158 110.0
0.975000023842 -0.259999990463 0.0640000030398 112.0
0.97000002861 -0.264999985695 0.0640000030398 113.0
0.978999972343 -0.273999989033 0.0640000030398 108.0
1.00300002098 -0.287000000477 0.0659999996424 107.0
1.0039999485 -0.293000012636 0.0659999996424 106.0
0.981999993324 -0.293000012636 0.0649999976158 105.0
0.955999970436 -0.291000008583 0.0630000010133 98.0
0.976000010967 -0.303999990225 0.0649999976158 93.0
1.02699995041 -0.326999992132 0.0680000036955 99.0
0.992999970913 -0.321999996901 0.0659999996424 96.0
0.949000000954 -0.31400001049 0.0630000010133 98.0
0.976999998093 -0.330000013113 0.0649999976158 99.0
0.949999988079 -0.326999992132 0.0640000030398 96.0
0.966000020504 -0.338999986649 0.0649999976158 92.0
0.977999985218 -0.34999999404 0.0659999996424 88.0
0.981000006199 -0.356999993324 0.0659999996424 87.0
0.898000001907 -0.333000004292 0.0610000006855 89.0
0.973999977112 -0.368000000715 0.0659999996424 91.0
0.98400002718 -0.379000008106 0.0670000016689 92.0
0.977999985218 -0.38299998641 0.0670000016689 87.0
1.03299999237 -0.412000000477 0.0710000023246 84.0
1.00499999523 -0.407000005245 0.0689999982715 85.0
0.986000001431 -0.407000005245 0.0680000036955 89.0
1.00100004673 -0.419999986887 0.0689999982715 82.0
0.971000015736 -0.41400000453 0.0670000016689 78.0
0.911000013351 -0.395000010729 0.0630000010133 90.0
0.925000011921 -0.407000005245 0.0640000030398 77.0
0.977999985218 -0.437999993563 0.0680000036955 80.0
0.957000017166 -0.43599998951 0.0670000016689 80.0
1.00899994373 -0.467000007629 0.0710000023246 77.0
1.02400004864 -0.481999993324 0.0719999969006 76.0
0.962000012398 -0.458999991417 0.0680000036955 82.0
1.02199995518 -0.495999991894 0.0719999969006 79.0
0.963999986649 -0.47499999404 0.0680000036955 77.0
0.929000020027 -0.465000003576 0.0659999996424 79.0
0.972000002861 -0.493999987841 0.0689999982715 78.0
0.980000019073 -0.505999982357 0.070000000298 80.0
1.01300001144 -0.538999974728 0.0729999989271 78.0
0.93900001049 -0.522000014782 0.0680000036955 75.0
0.89099997282 0.510999977589 0.0540000014007 1493.0
0.89200001955 0.504999995232 0.0540000014007 1469.0
0.894999980927 0.499000012875 0.0540000014007 1528.0
0.894999980927 0.49200001359 0.0540000014007 1520.0
0.898000001907 0.486000001431 0.0540000014007 1542.0
0.903999984264 0.481999993324 0.054999999702 1609.0
0.902999997139 0.474000006914 0.0540000014007 1653.0
0.90600001812 0.469000011683 0.0540000014007 1621.0
0.910000026226 0.463999986649 0.054999999702 1617.0
0.913999974728 0.458999991417 0.054999999702 1606.0
0.912999987602 0.451000005007 0.0540000014007 1593.0
0.916000008583 0.446000009775 0.054999999702 1628.0
0.913999974728 0.437999993563 0.0540000014007 1689.0
0.915000021458 0.432000011206 0.0540000014007 1739.0
0.92199999094 0.428000003099 0.054999999702 1769.0
0.925000011921 0.423000007868 0.054999999702 1814.0
0.927999973297 0.418000012636 0.054999999702 1875.0
0.930000007153 0.412000000477 0.054999999702 1927.0
0.930999994278 0.405000001192 0.054999999702 1916.0
0.930999994278 0.398999989033 0.054999999702 1903.0
0.930999994278 0.391999989748 0.054999999702 1894.0
0.936999976635 0.388000011444 0.054999999702 1870.0
0.93599998951 0.381000012159 0.054999999702 1829.0
0.943000018597 0.377000004053 0.054999999702 1819.0
0.944000005722 0.370999991894 0.054999999702 1871.0
0.943000018597 0.365000009537 0.054999999702 1848.0
0.949999988079 0.361000001431 0.054999999702 1782.0
0.950999975204 0.354999989271 0.054999999702 1730.0
0.949999988079 0.347999989986 0.054999999702 1683.0
0.953999996185 0.342999994755 0.054999999702 1699.0
0.954999983311 0.337000012398 0.054999999702 1632.0
0.958000004292 0.331999987364 0.054999999702 1603.0
0.963999986649 0.326999992132 0.054999999702 1550.0
0.962000012398 0.319999992847 0.054999999702 1502.0
0.964999973774 0.314999997616 0.054999999702 1430.0
0.96899998188 0.310000002384 0.0560000017285 1396.0
0.96899998188 0.303999990225 0.0560000017285 1358.0
0.977999985218 0.300000011921 0.0560000017285 1338.0
0.980000019073 0.293999999762 0.0560000017285 1319.0
0.978999972343 0.287999987602 0.0560000017285 1319.0
0.98299998045 0.282999992371 0.0560000017285 1319.0
0.981000006199 0.275999993086 0.0560000017285 1303.0
0.985000014305 0.270999997854 0.0560000017285 1249.0
0.98299998045 0.263999998569 0.0560000017285 1180.0
0.989000022411 0.259999990463 0.0560000017285 1164.0
0.995999991894 0.256000012159 0.0570000000298 1158.0
0.992999970913 0.248999997973 0.0560000017285 1158.0
0.991999983788 0.241999998689 0.0560000017285 1126.0
0.995999991894 0.237000003457 0.0560000017285 1082.0
1.00300002098 0.232999995351 0.0570000000298 1073.0
1.01100003719 0.228000000119 0.0570000000298 1041.0
1.00800001621 0.221000000834 0.0570000000298 1021.0
1.00300002098 0.21400000155 0.0570000000298 1010.0
1.00499999523 0.209000006318 0.0570000000298 988.0
1.01499998569 0.204999998212 0.0570000000298 954.0
1.01499998569 0.197999998927 0.0570000000298 948.0
1.01400005817 0.192000001669 0.0570000000298 916.0
1.01999998093 0.187000006437 0.0579999983311 891.0
1.02100002766 0.180999994278 0.0579999983311 857.0
1.02499997616 0.175999999046 0.0579999983311 820.0
1.02400004864 0.170000001788 0.0579999983311 801.0
1.02600002289 0.16400000453 0.0579999983311 767.0
1.03299999237 0.158999994397 0.0579999983311 729.0
1.03199994564 0.152999997139 0.0579999983311 712.0
1.04299998283 0.148000001907 0.0590000003576 663.0
1.03699994087 0.141000002623 0.0579999983311 639.0
1.0379999876 0.135000005364 0.0579999983311 594.0
1.05099999905 0.130999997258 0.0590000003576 509.0
2.45000004768 0.17499999702 0.141000002623 98.0
2.39599990845 0.157000005245 0.137999996543 273.0
2.382999897 0.143000006676 0.136999994516 308.0
2.35299992561 0.12800000608 0.135000005364 221.0
2.31599998474 0.112000003457 0.133000001311 188.0
2.31100010872 0.0989999994636 0.133000001311 159.0
2.31399989128 0.0850000008941 0.133000001311 82.0
2.54800009727 0.0649999976158 0.146999999881 48.0
2.43899989128 0.0480000004172 0.140000000596 128.0
2.29399991035 0.0320000015199 0.131999999285 249.0
2.26600003242 0.0179999992251 0.129999995232 191.0
1.37300002575 0.00400000018999 0.0780000016093 95.0
0.994000017643 -0.0010000000475 0.0560000017285 137.0
0.994000017643 -0.00700000021607 0.0560000017285 136.0
1.01499998569 -0.0130000002682 0.0570000000298 141.0
1.00699996948 -0.0189999993891 0.0570000000298 141.0
0.995000004768 -0.0240000002086 0.0560000017285 143.0
0.999000012875 -0.0299999993294 0.0570000000298 144.0
1.00100004673 -0.0359999984503 0.0570000000298 145.0
0.977999985218 -0.0410000011325 0.0560000017285 150.0
0.996999979019 -0.0469999983907 0.0570000000298 146.0
0.994000017643 -0.0529999993742 0.0570000000298 139.0
0.998000025749 -0.0590000003576 0.0570000000298 142.0
0.967000007629 -0.0619999989867 0.054999999702 142.0
0.986999988556 -0.0689999982715 0.0560000017285 148.0
1.02400004864 -0.0780000016093 0.0579999983311 147.0
0.981000006199 -0.0799999982119 0.0560000017285 145.0
0.995000004768 -0.0869999974966 0.0570000000298 140.0
0.986000001431 -0.0920000001788 0.0560000017285 135.0
0.992999970913 -0.0989999994636 0.0570000000298 132.0
1.01499998569 -0.107000000775 0.0579999983311 129.0
0.976999998093 -0.108000002801 0.0560000017285 140.0
1.00100004673 -0.116999998689 0.0570000000298 133.0
0.98400002718 -0.119999997318 0.0570000000298 137.0
0.976000010967 -0.125 0.0560000017285 138.0
0.995000004768 -0.133000001311 0.0570000000298 130.0
1.00100004673 -0.140000000596 0.0579999983311 135.0
0.972000002861 -0.142000004649 0.0560000017285 132.0
1.01100003719 -0.152999997139 0.0579999983311 131.0
0.999000012875 -0.158000007272 0.0579999983311 137.0
0.996999979019 -0.163000002503 0.0579999983311 129.0
1.02100002766 -0.172999992967 0.0590000003576 135.0
0.977999985218 -0.172000005841 0.0570000000298 136.0
0.981000006199 -0.178000003099 0.0570000000298 131.0
1.00499999523 -0.187999993563 0.0590000003576 123.0
0.980000019073 -0.189999997616 0.0570000000298 120.0
0.990000009537 -0.197999998927 0.0579999983311 123.0
0.990000009537 -0.202999994159 0.0579999983311 123.0
0.991999983788 -0.209999993443 0.0579999983311 127.0
0.987999975681 -0.215000003576 0.0579999983311 125.0
0.98299998045 -0.219999998808 0.0579999983311 127.0
0.986000001431 -0.226999998093 0.0579999983311 116.0
1.0039999485 -0.237000003457 0.0590000003576 113.0
0.975000023842 -0.236000001431 0.0579999983311 116.0
0.966000020504 -0.239999994636 0.0570000000298 118.0
0.981999993324 -0.25 0.0579999983311 113.0
0.976999998093 -0.254999995232 0.0579999983311 117.0
0.96899998188 -0.259000003338 0.0579999983311 113.0
1.01100003719 -0.275999993086 0.0599999986589 111.0
0.971000015736 -0.270999997854 0.0579999983311 101.0
0.996999979019 -0.284999996424 0.0599999986589 108.0
1.00199997425 -0.293000012636 0.0599999986589 104.0
0.977999985218 -0.291999995708 0.0590000003576 102.0
1.00999999046 -0.307999998331 0.0610000006855 103.0
0.998000025749 -0.31099998951 0.0599999986589 98.0
0.967000007629 -0.307000011206 0.0579999983311 96.0
1.0 -0.324000000954 0.0610000006855 101.0
0.98299998045 -0.324999988079 0.0599999986589 98.0
0.96899998188 -0.326999992132 0.0590000003576 96.0
0.995999991894 -0.342999994755 0.0610000006855 99.0
0.975000023842 -0.342000007629 0.0599999986589 88.0
0.962000012398 -0.344000011683 0.0590000003576 90.0
0.991999983788 -0.361000001431 0.0610000006855 90.0
0.995999991894 -0.368999987841 0.0610000006855 89.0
1.00899994373 -0.381000012159 0.0619999989867 94.0
0.967000007629 -0.372000008821 0.0599999986589 87.0
