ply
format ascii 1.0
element vertex 912
property float x
property float y
property float z
property float intensity
end_header
0.142000004649 0.0579999983311 0.00600000005215 75.0
0.0869999974966 0.035000000149 0.00300000002608 61.0
0.568000018597 0.223000004888 0.0289999991655 118.0
0.538999974728 0.208000004292 0.0270000007004 110.0
0.219999998808 0.082000002265 0.00999999977648 70.0
0.264999985695 0.097000002861 0.0120000001043 71.0
0.0450000017881 0.01600000076 0.0010000000475 57.0
0.207000002265 0.0729999989271 0.00899999961257 69.0
0.569000005722 0.196999996901 0.0289999991655 97.0
0.259999990463 0.0879999995232 0.0120000001043 63.0
0.266999989748 0.0890000015497 0.0120000001043 70.0
0.556999981403 0.181999996305 0.0280000008643 87.0
0.314999997616 0.101000003517 0.0149999996647 64.0
0.312999993563 0.097999997437 0.0149999996647 65.0
0.273000001907 0.0839999988675 0.0130000002682 73.0
0.182999998331 0.054999999702 0.00800000037998 56.0
4.82499980927 1.41799998283 0.254000008106 53.0
4.85400009155 1.39600002766 0.256000012159 53.0
0.112999998033 0.0320000015199 0.00400000018999 56.0
4.79500007629 1.31799995899 0.252000004053 54.0
0.185000002384 0.0500000007451 0.00800000037998 56.0
0.035000000149 0.00899999961257 0.0 56.0
0.961000025272 0.229000002146 0.0489999987185 113.0
0.913999974728 -0.0010000000475 0.0460000000894 1658.0
0.90600001812 -0.00600000005215 0.0460000000894 1724.0
0.908999979496 -0.0109999999404 0.0460000000894 1667.0
0.911000013351 -0.0170000009239 0.0460000000894 1620.0
0.911000013351 -0.0219999998808 0.0460000000894 1669.0
0.90600001812 -0.0270000007004 0.0460000000894 1664.0
0.908999979496 -0.0320000015199 0.0460000000894 1635.0
0.907000005245 -0.0370000004768 0.0460000000894 1627.0
0.902999997139 -0.0419999994338 0.0460000000894 1652.0
0.902999997139 -0.0480000004172 0.0460000000894 1638.0
0.898999989033 -0.0529999993742 0.0460000000894 1616.0
0.907000005245 -0.0579999983311 0.0460000000894 1613.0
0.907000005245 -0.0630000010133 0.0460000000894 1617.0
0.907999992371 -0.0689999982715 0.0460000000894 1601.0
0.903999984264 -0.0740000009537 0.0460000000894 1612.0
0.902000010014 -0.0790000036359 0.0460000000894 1589.0
0.898999989033 -0.0839999988675 0.0460000000894 1605.0
0.902000010014 -0.0890000015497 0.0460000000894 1601.0
0.899999976158 -0.0939999967813 0.0460000000894 1615.0
0.901000022888 -0.10000000149 0.0460000000894 1639.0
0.899999976158 -0.104999996722 0.0460000000894 1655.0
0.903999984264 -0.109999999404 0.0469999983907 1641.0
0.898000001907 -0.115000002086 0.0460000000894 1636.0
0.901000022888 -0.120999999344 0.0460000000894 1635.0
0.896000027657 -0.125 0.0460000000894 1638.0
0.898999989033 -0.130999997258 0.0460000000894 1647.0
0.899999976158 -0.136000007391 0.0469999983907 1624.0
0.899999976158 -0.142000004649 0.0469999983907 1623.0
0.902000010014 -0.146999999881 0.0469999983907 1627.0
0.898999989033 -0.151999995112 0.0469999983907 1635.0
0.901000022888 -0.158000007272 0.0469999983907 1614.0
0.897000014782 -0.162000000477 0.0469999983907 1594.0
0.898999989033 -0.167999997735 0.0469999983907 1591.0
0.896000027657 -0.172999992967 0.0469999983907 1592.0
0.899999976158 -0.179000005126 0.0469999983907 1592.0
0.903999984264 -0.185000002384 0.0469999983907 1591.0
0.902000010014 -0.189999997616 0.0469999983907 1598.0
0.898000001907 -0.194999992847 0.0469999983907 1601.0
0.902000010014 -0.201000005007 0.0480000004172 1613.0
0.894999980927 -0.204999998212 0.0469999983907 1609.0
0.89099997282 -0.209999993443 0.0469999983907 1622.0
0.896000027657 -0.216000005603 0.0469999983907 1609.0
0.894999980927 -0.222000002861 0.0480000004172 1587.0
0.893000006676 -0.226999998093 0.0469999983907 1587.0
0.899999976158 -0.233999997377 0.0480000004172 1598.0
0.897000014782 -0.238999992609 0.0480000004172 1592.0
0.893000006676 -0.243000000715 0.0480000004172 1606.0
0.896000027657 -0.25 0.0480000004172 1599.0
0.896000027657 -0.256000012159 0.0480000004172 1611.0
0.887000024319 -0.259000003338 0.0480000004172 1594.0
0.893999993801 -0.266000002623 0.0480000004172 1553.0
0.89099997282 -0.270999997854 0.0480000004172 1549.0
0.893000006676 -0.277999997139 0.0480000004172 1555.0
0.894999980927 -0.284000009298 0.0489999987185 1538.0
0.894999980927 -0.289999991655 0.0489999987185 1539.0
0.89200001955 -0.294999986887 0.0489999987185 1587.0
0.893999993801 -0.300999999046 0.0489999987185 1596.0
0.89200001955 -0.305999994278 0.0489999987185 1594.0
0.893999993801 -0.312999993563 0.0489999987185 1572.0
0.893000006676 -0.319000005722 0.0489999987185 1580.0
0.89099997282 -0.324000000954 0.0489999987185 1576.0
0.896000027657 -0.331999987364 0.0500000007451 1582.0
0.894999980927 -0.337999999523 0.0500000007451 1512.0
0.893000006676 -0.342999994755 0.0500000007451 1538.0
0.888000011444 -0.347000002861 0.0489999987185 1553.0
0.894999980927 -0.356000006199 0.0500000007451 1573.0
0.888000011444 -0.358999997377 0.0500000007451 1550.0
0.89200001955 -0.36700001359 0.0500000007451 1519.0
0.888999998569 -0.372000008821 0.0500000007451 1531.0
0.884000003338 -0.375999987125 0.0500000007451 1504.0
0.888000011444 -0.384000003338 0.0500000007451 1475.0
0.884999990463 -0.389999985695 0.0500000007451 1506.0
0.889999985695 -0.398000001907 0.0509999990463 1521.0
0.888000011444 -0.404000014067 0.0509999990463 1508.0
0.888000011444 -0.409999996424 0.0509999990463 1502.0
0.888000011444 -0.416999995708 0.0509999990463 1533.0
0.888000011444 -0.423000007868 0.0509999990463 1523.0
0.89099997282 -0.432000011206 0.0520000010729 1517.0
0.882000029087 -0.433999985456 0.0509999990463 1517.0
0.884000003338 -0.442000001669 0.0509999990463 1484.0
0.882000029087 -0.446999996901 0.0520000010729 1489.0
0.888000011444 -0.456999987364 0.0520000010729 1495.0
0.888000011444 -0.463999986649 0.0520000010729 1476.0
0.887000024319 -0.470999985933 0.0520000010729 1479.0
0.89200001955 -0.479999989271 0.0529999993742 1493.0
0.89099997282 -0.486999988556 0.0529999993742 1479.0
0.883000016212 -0.490000009537 0.0529999993742 1493.0
3.77900004387 1.7009999752 0.181999996305 69.0
3.96399998665 1.64199995995 0.188999995589 71.0
4.03999996185 1.64499998093 0.192000001669 78.0
4.06599998474 1.62800002098 0.193000003695 65.0
4.00500011444 1.57500004768 0.189999997616 68.0
4.07299995422 1.57400000095 0.193000003695 69.0
3.98099994659 1.51100003719 0.187999993563 66.0
4.10200023651 1.52900004387 0.194000005722 63.0
4.07000017166 1.49000000954 0.192000001669 66.0
4.0609998703 1.45899999142 0.190999999642 70.0
4.03499984741 1.42299997807 0.189999997616 66.0
4.08900022507 1.41400003433 0.192000001669 62.0
4.20699977875 1.42700004578 0.197999998927 68.0
3.99699997902 1.33000004292 0.187000006437 69.0
4.08099985123 1.33099997044 0.190999999642 64.0
4.0689997673 1.29999995232 0.189999997616 66.0
4.02400016785 1.25999999046 0.187999993563 61.0
4.09600019455 1.25600004196 0.190999999642 64.0
4.07000017166 1.22200000286 0.189999997616 61.0
4.10099983215 1.20500004292 0.190999999642 62.0
4.19299983978 1.20500004292 0.194999992847 60.0
4.16900014877 1.17200005054 0.194000005722 67.0
4.02400016785 1.10599994659 0.187000006437 64.0
4.02699995041 1.08099997044 0.187000006437 59.0
4.03700017929 1.05900001526 0.187999993563 66.0
0.912999987602 -0.0010000000475 0.0410000011325 1653.0
0.907999992371 -0.00600000005215 0.0410000011325 1711.0
0.90499997139 -0.0109999999404 0.0410000011325 1690.0
0.90600001812 -0.0170000009239 0.0410000011325 1687.0
0.907999992371 -0.0219999998808 0.0410000011325 1708.0
0.90499997139 -0.0270000007004 0.0410000011325 1679.0
0.90499997139 -0.0320000015199 0.0410000011325 1652.0
0.90600001812 -0.0370000004768 0.0410000011325 1635.0
0.90499997139 -0.0430000014603 0.0410000011325 1661.0
0.901000022888 -0.0480000004172 0.0410000011325 1641.0
0.910000026226 -0.0529999993742 0.0410000011325 1607.0
0.899999976158 -0.0579999983311 0.0410000011325 1622.0
0.902000010014 -0.0630000010133 0.0410000011325 1621.0
0.901000022888 -0.0680000036955 0.0410000011325 1574.0
0.901000022888 -0.0729999989271 0.0410000011325 1596.0
0.907000005245 -0.0790000036359 0.0410000011325 1605.0
0.899999976158 -0.0839999988675 0.0410000011325 1611.0
0.901000022888 -0.0890000015497 0.0410000011325 1609.0
0.902999997139 -0.0949999988079 0.0410000011325 1610.0
0.902000010014 -0.10000000149 0.0410000011325 1637.0
0.902999997139 -0.104999996722 0.0410000011325 1651.0
0.902000010014 -0.109999999404 0.0410000011325 1666.0
0.902000010014 -0.115000002086 0.0410000011325 1681.0
0.902000010014 -0.120999999344 0.0410000011325 1665.0
0.90499997139 -0.126000002027 0.0419999994338 1668.0
0.898000001907 -0.130999997258 0.0410000011325 1664.0
0.902999997139 -0.136999994516 0.0419999994338 1660.0
0.902000010014 -0.142000004649 0.0419999994338 1667.0
0.901000022888 -0.146999999881 0.0419999994338 1663.0
0.898000001907 -0.151999995112 0.0410000011325 1656.0
0.902999997139 -0.158000007272 0.0419999994338 1633.0
0.898999989033 -0.163000002503 0.0419999994338 1617.0
0.902999997139 -0.168999999762 0.0419999994338 1618.0
0.89200001955 -0.172000005841 0.0410000011325 1609.0
0.898999989033 -0.179000005126 0.0419999994338 1598.0
0.90499997139 -0.186000004411 0.0419999994338 1613.0
0.901000022888 -0.189999997616 0.0419999994338 1615.0
0.897000014782 -0.194999992847 0.0419999994338 1621.0
0.897000014782 -0.20000000298 0.0419999994338 1620.0
0.898000001907 -0.206000000238 0.0419999994338 1636.0
0.898000001907 -0.21099999547 0.0419999994338 1649.0
0.897000014782 -0.216999992728 0.0419999994338 1634.0
0.896000027657 -0.222000002861 0.0419999994338 1630.0
0.897000014782 -0.228000000119 0.0419999994338 1594.0
0.89200001955 -0.231999993324 0.0419999994338 1619.0
0.901000022888 -0.239999994636 0.0430000014603 1613.0
0.896000027657 -0.244000002742 0.0430000014603 1610.0
0.897000014782 -0.25 0.0430000014603 1622.0
0.889999985695 -0.254000008106 0.0419999994338 1616.0
0.894999980927 -0.261000007391 0.0430000014603 1608.0
0.888999998569 -0.264999985695 0.0430000014603 1579.0
0.898000001907 -0.273000001907 0.0430000014603 1570.0
0.894999980927 -0.277999997139 0.0430000014603 1570.0
0.893000006676 -0.282999992371 0.0430000014603 1553.0
0.89200001955 -0.28900000453 0.0430000014603 1572.0
0.889999985695 -0.293999999762 0.0430000014603 1566.0
0.888999998569 -0.298999994993 0.0430000014603 1597.0
0.889999985695 -0.305999994278 0.0430000014603 1598.0
0.894999980927 -0.312999993563 0.0439999997616 1611.0
0.888999998569 -0.317000001669 0.0439999997616 1597.0
0.893000006676 -0.324000000954 0.0439999997616 1598.0
0.883000016212 -0.326999992132 0.0430000014603 1600.0
0.888000011444 -0.335000008345 0.0439999997616 1539.0
0.889999985695 -0.342000007629 0.0439999997616 1554.0
0.888999998569 -0.347000002861 0.0439999997616 1600.0
0.89200001955 -0.354000002146 0.0439999997616 1570.0
0.884999990463 -0.358000010252 0.0439999997616 1568.0
0.893999993801 -0.368000000715 0.0450000017881 1525.0
0.885999977589 -0.370999991894 0.0439999997616 1527.0
0.888999998569 -0.377999991179 0.0450000017881 1525.0
0.893000006676 -0.386000007391 0.0450000017881 1517.0
0.888999998569 -0.391000002623 0.0450000017881 1520.0
0.893000006676 -0.398999989033 0.0450000017881 1532.0
0.885999977589 -0.402000010014 0.0450000017881 1544.0
0.888999998569 -0.409999996424 0.0450000017881 1526.0
0.885999977589 -0.416000008583 0.0450000017881 1537.0
0.888000011444 -0.423000007868 0.0460000000894 1543.0
0.884999990463 -0.428999990225 0.0460000000894 1540.0
0.884000003338 -0.435000002384 0.0460000000894 1516.0
0.880999982357 -0.439999997616 0.0460000000894 1497.0
0.887000024319 -0.449999988079 0.0460000000894 1511.0
0.880999982357 -0.453999996185 0.0460000000894 1503.0
0.888999998569 -0.465000003576 0.0469999983907 1478.0
0.880999982357 -0.467999994755 0.0460000000894 1500.0
0.888000011444 -0.477999985218 0.0469999983907 1499.0
0.879999995232 -0.481000006199 0.0469999983907 1489.0
0.882000029087 -0.488999992609 0.0469999983907 1498.0
3.5150001049 1.60699999332 0.146999999881 67.0
3.64899992943 1.61500000954 0.151999995112 71.0
4.03399991989 1.66999995708 0.166999995708 73.0
3.98900008202 1.62399995327 0.165000006557 85.0
3.91899991035 1.56799995899 0.162000000477 72.0
3.9960000515 1.57099997997 0.165000006557 73.0
4.05000019073 1.56500005722 0.166999995708 74.0
4.01300001144 1.52300000191 0.165000006557 76.0
4.0720000267 1.51699995995 0.167999997735 69.0
4.03100013733 1.47500002384 0.165999993682 71.0
4.01300001144 1.44099998474 0.165000006557 69.0
3.99499988556 1.40799999237 0.16400000453 67.0
4.0640001297 1.37800002098 0.165999993682 68.0
4.09200000763 1.36099994183 0.166999995708 69.0
4.0689997673 1.32700002193 0.165999993682 71.0
4.02899980545 1.28699994087 0.16400000453 64.0
4.04699993134 1.26699995995 0.165000006557 64.0
4.08099985123 1.25100004673 0.165999993682 64.0
4.03900003433 1.2120000124 0.16400000453 69.0
4.05900001526 1.19200003147 0.165000006557 65.0
4.08699989319 1.1740000248 0.165999993682 63.0
4.09700012207 1.15100002289 0.165999993682 67.0
3.97099995613 1.0909999609 0.16099999845 73.0
4.00899982452 1.0759999752 0.163000002503 67.0
4.02500009537 1.05499994755 0.163000002503 73.0
3.97900009155 1.01800000668 0.16099999845 66.0
0.907000005245 -0.0010000000475 0.035000000149 1654.0
0.90600001812 -0.00600000005215 0.035000000149 1721.0
0.907999992371 -0.0109999999404 0.0359999984503 1701.0
0.907999992371 -0.0170000009239 0.0359999984503 1661.0
0.907999992371 -0.0219999998808 0.0359999984503 1688.0
0.901000022888 -0.0270000007004 0.035000000149 1684.0
0.90600001812 -0.0320000015199 0.0359999984503 1640.0
0.90499997139 -0.0370000004768 0.0359999984503 1629.0
0.901000022888 -0.0419999994338 0.035000000149 1652.0
0.902000010014 -0.0480000004172 0.0359999984503 1621.0
0.902999997139 -0.0529999993742 0.0359999984503 1590.0
0.899999976158 -0.0579999983311 0.035000000149 1601.0
0.898000001907 -0.0630000010133 0.035000000149 1588.0
0.899999976158 -0.0680000036955 0.0359999984503 1564.0
0.903999984264 -0.0740000009537 0.0359999984503 1570.0
0.90499997139 -0.0790000036359 0.0359999984503 1576.0
0.902000010014 -0.0839999988675 0.0359999984503 1588.0
0.894999980927 -0.0890000015497 0.0359999984503 1581.0
0.898999989033 -0.0939999967813 0.0359999984503 1570.0
0.90499997139 -0.10000000149 0.0359999984503 1603.0
0.907999992371 -0.105999998748 0.0359999984503 1629.0
0.903999984264 -0.109999999404 0.0359999984503 1664.0
0.897000014782 -0.115000002086 0.0359999984503 1679.0
0.897000014782 -0.119999997318 0.0359999984503 1660.0
0.902000010014 -0.126000002027 0.0359999984503 1665.0
0.901000022888 -0.130999997258 0.0359999984503 1658.0
0.902999997139 -0.136999994516 0.0359999984503 1668.0
0.898000001907 -0.141000002623 0.0359999984503 1661.0
0.899999976158 -0.146999999881 0.0359999984503 1666.0
0.898999989033 -0.151999995112 0.0359999984503 1665.0
0.898999989033 -0.157000005245 0.0359999984503 1666.0
0.897000014782 -0.162000000477 0.0359999984503 1629.0
0.898000001907 -0.167999997735 0.0359999984503 1636.0
0.899999976158 -0.173999994993 0.0370000004768 1627.0
0.897000014782 -0.179000005126 0.0359999984503 1590.0
0.897000014782 -0.184000000358 0.0370000004768 1612.0
0.898999989033 -0.189999997616 0.0370000004768 1624.0
0.901000022888 -0.195999994874 0.0370000004768 1630.0
0.894999980927 -0.20000000298 0.0370000004768 1628.0
0.894999980927 -0.204999998212 0.0370000004768 1652.0
0.898999989033 -0.211999997497 0.0370000004768 1665.0
0.898999989033 -0.216999992728 0.0370000004768 1667.0
0.897000014782 -0.222000002861 0.0370000004768 1651.0
0.898000001907 -0.228000000119 0.0370000004768 1631.0
0.893999993801 -0.232999995351 0.0370000004768 1649.0
0.893000006676 -0.238000005484 0.0370000004768 1619.0
0.896000027657 -0.244000002742 0.0370000004768 1619.0
0.894999980927 -0.25 0.0370000004768 1626.0
0.89099997282 -0.254000008106 0.0370000004768 1643.0
0.896000027657 -0.261000007391 0.0379999987781 1630.0
0.893000006676 -0.266000002623 0.0370000004768 1600.0
0.893000006676 -0.272000014782 0.0379999987781 1607.0
0.888999998569 -0.275999993086 0.0370000004768 1602.0
0.889999985695 -0.282000005245 0.0379999987781 1597.0
0.894999980927 -0.289999991655 0.0379999987781 1587.0
0.889999985695 -0.293999999762 0.0379999987781 1590.0
0.889999985695 -0.300000011921 0.0379999987781 1597.0
0.893000006676 -0.307000011206 0.0379999987781 1614.0
0.893999993801 -0.312999993563 0.0379999987781 1612.0
0.893000006676 -0.319000005722 0.0379999987781 1623.0
0.893000006676 -0.324999988079 0.0379999987781 1611.0
0.89200001955 -0.330000013113 0.0379999987781 1619.0
0.885999977589 -0.333999991417 0.0379999987781 1563.0
0.893999993801 -0.342999994755 0.0390000008047 1577.0
0.887000024319 -0.345999985933 0.0390000008047 1594.0
0.889999985695 -0.354000002146 0.0390000008047 1589.0
0.893999993801 -0.361999988556 0.0390000008047 1563.0
0.889999985695 -0.365999996662 0.0390000008047 1541.0
0.882000029087 -0.368999987841 0.0390000008047 1550.0
0.887000024319 -0.377999991179 0.0390000008047 1536.0
0.888999998569 -0.384999990463 0.0390000008047 1525.0
0.888000011444 -0.391000002623 0.0390000008047 1540.0
0.887000024319 -0.397000014782 0.0399999991059 1545.0
0.884000003338 -0.402000010014 0.0390000008047 1543.0
0.889999985695 -0.411000013351 0.0399999991059 1528.0
0.888000011444 -0.416999995708 0.0399999991059 1550.0
0.888999998569 -0.423999994993 0.0399999991059 1565.0
0.884999990463 -0.428000003099 0.0399999991059 1560.0
0.888999998569 -0.437000006437 0.0399999991059 1541.0
0.883000016212 -0.441000014544 0.0399999991059 1539.0
0.884999990463 -0.449000000954 0.0399999991059 1524.0
0.89099997282 -0.458999991417 0.0410000011325 1500.0
0.888000011444 -0.463999986649 0.0410000011325 1506.0
0.884000003338 -0.469000011683 0.0410000011325 1510.0
0.884000003338 -0.476000010967 0.0410000011325 1505.0
0.888000011444 -0.485000014305 0.0410000011325 1508.0
0.884000003338 -0.490000009537 0.0410000011325 1524.0
2.49499988556 1.3710000515 0.0900000035763 84.0
2.78399991989 1.39800000191 0.10000000149 82.0
3.05800008774 1.44299995899 0.108999997377 84.0
3.58500003815 1.63900005817 0.12800000608 78.0
3.61199998856 1.625 0.12800000608 94.0
3.60800004005 1.59700000286 0.12800000608 86.0
3.9319999218 1.62800002098 0.138999998569 82.0
3.95000004768 1.60699999332 0.138999998569 104.0
3.94499993324 1.57799994946 0.138999998569 96.0
3.96900010109 1.55999994278 0.140000000596 93.0
3.96499991417 1.53100001812 0.138999998569 85.0
3.95000004768 1.49800002575 0.138999998569 87.0
4.01800012589 1.49699997902 0.141000002623 96.0
3.99900007248 1.4620000124 0.140000000596 94.0
3.98699998856 1.43099999428 0.138999998569 87.0
3.93300008774 1.38600003719 0.136999994516 82.0
3.94499993324 1.36399996281 0.137999996543 87.0
4.01200008392 1.36000001431 0.140000000596 85.0
3.92600011826 1.30499994755 0.136999994516 87.0
3.96700000763 1.29299998283 0.137999996543 91.0
4.00500011444 1.27900004387 0.138999998569 85.0
4.01700019836 1.25699996948 0.140000000596 88.0
4.04600000381 1.24000000954 0.141000002623 89.0
4.03200006485 1.21000003815 0.140000000596 92.0
3.99099993706 1.17200005054 0.137999996543 83.0
4.03200006485 1.15799999237 0.140000000596 85.0
3.98200011253 1.11899995804 0.137999996543 93.0
4.00400018692 1.09899997711 0.138999998569 106.0
4.04799985886 1.08599996567 0.140000000596 101.0
4.03000020981 1.05599999428 0.138999998569 107.0
4.01300001144 1.02699995041 0.138999998569 84.0
0.912000000477 -0.0010000000475 0.0299999993294 1698.0
0.907000005245 -0.00600000005215 0.0299999993294 1753.0
0.90600001812 -0.0109999999404 0.0299999993294 1690.0
0.907000005245 -0.0170000009239 0.0299999993294 1643.0
0.907999992371 -0.0219999998808 0.0299999993294 1701.0
0.90499997139 -0.0270000007004 0.0299999993294 1678.0
0.899999976158 -0.0320000015199 0.0299999993294 1626.0
0.90499997139 -0.0370000004768 0.0299999993294 1639.0
0.902999997139 -0.0419999994338 0.0299999993294 1653.0
0.902000010014 -0.0480000004172 0.0299999993294 1620.0
0.902999997139 -0.0529999993742 0.0299999993294 1599.0
0.902999997139 -0.0579999983311 0.0299999993294 1638.0
0.902999997139 -0.0630000010133 0.0299999993294 1609.0
0.902000010014 -0.0680000036955 0.0299999993294 1577.0
0.907000005245 -0.0740000009537 0.0309999994934 1587.0
0.898000001907 -0.0780000016093 0.0299999993294 1573.0
0.903999984264 -0.0839999988675 0.0309999994934 1586.0
0.901000022888 -0.0890000015497 0.0309999994934 1567.0
0.897000014782 -0.0939999967813 0.0299999993294 1550.0
0.90600001812 -0.10000000149 0.0309999994934 1584.0
0.898000001907 -0.104000002146 0.0309999994934 1636.0
0.902000010014 -0.109999999404 0.0309999994934 1649.0
0.898999989033 -0.115000002086 0.0309999994934 1662.0
0.903999984264 -0.120999999344 0.0309999994934 1640.0
0.897000014782 -0.125 0.0309999994934 1652.0
0.903999984264 -0.131999999285 0.0309999994934 1655.0
0.902000010014 -0.136999994516 0.0309999994934 1653.0
0.899999976158 -0.142000004649 0.0309999994934 1630.0
0.896000027657 -0.145999997854 0.0309999994934 1631.0
0.899999976158 -0.151999995112 0.0309999994934 1660.0
0.898999989033 -0.157000005245 0.0309999994934 1655.0
0.902000010014 -0.163000002503 0.0309999994934 1647.0
0.893000006676 -0.166999995708 0.0309999994934 1669.0
0.898999989033 -0.172999992967 0.0309999994934 1657.0
0.898000001907 -0.179000005126 0.0309999994934 1616.0
0.899999976158 -0.184000000358 0.0309999994934 1616.0
0.898000001907 -0.188999995589 0.0309999994934 1611.0
0.902000010014 -0.195999994874 0.0320000015199 1632.0
0.893999993801 -0.20000000298 0.0309999994934 1651.0
0.898000001907 -0.206000000238 0.0320000015199 1652.0
0.894999980927 -0.21099999547 0.0320000015199 1656.0
0.893999993801 -0.216000005603 0.0320000015199 1672.0
0.896000027657 -0.222000002861 0.0320000015199 1663.0
0.897000014782 -0.228000000119 0.0320000015199 1655.0
0.89099997282 -0.231999993324 0.0320000015199 1659.0
0.898999989033 -0.238999992609 0.0320000015199 1637.0
0.894999980927 -0.244000002742 0.0320000015199 1658.0
0.89200001955 -0.248999997973 0.0320000015199 1649.0
0.894999980927 -0.254999995232 0.0320000015199 1634.0
0.893999993801 -0.261000007391 0.0320000015199 1625.0
0.89200001955 -0.266000002623 0.0320000015199 1624.0
0.89099997282 -0.270999997854 0.0320000015199 1623.0
0.894999980927 -0.277999997139 0.0320000015199 1614.0
0.893000006676 -0.282999992371 0.0320000015199 1596.0
0.888000011444 -0.287000000477 0.0320000015199 1601.0
0.893999993801 -0.294999986887 0.0329999998212 1585.0
0.893000006676 -0.300999999046 0.0329999998212 1613.0
0.889999985695 -0.305999994278 0.0329999998212 1607.0
0.89200001955 -0.312000006437 0.0329999998212 1596.0
0.89099997282 -0.317999988794 0.0329999998212 1654.0
0.893000006676 -0.324000000954 0.0329999998212 1639.0
0.888000011444 -0.32800000906 0.0329999998212 1626.0
0.896000027657 -0.337999999523 0.0329999998212 1574.0
0.893999993801 -0.342999994755 0.0329999998212 1606.0
0.884999990463 -0.345999985933 0.0329999998212 1608.0
0.889999985695 -0.354000002146 0.0329999998212 1593.0
0.888999998569 -0.360000014305 0.0329999998212 1568.0
0.887000024319 -0.365000009537 0.0329999998212 1559.0
0.89200001955 -0.372999995947 0.0340000018477 1571.0
0.89099997282 -0.379000008106 0.0340000018477 1542.0
0.887000024319 -0.384000003338 0.0340000018477 1539.0
0.888999998569 -0.391000002623 0.0340000018477 1553.0
0.89200001955 -0.398999989033 0.0340000018477 1589.0
0.882000029087 -0.400999993086 0.0340000018477 1565.0
0.888999998569 -0.411000013351 0.0340000018477 1569.0
0.884999990463 -0.414999991655 0.0340000018477 1560.0
0.880999982357 -0.419999986887 0.0340000018477 1572.0
0.888000011444 -0.430000007153 0.035000000149 1561.0
0.888000011444 -0.437000006437 0.035000000149 1570.0
0.888000011444 -0.442999988794 0.035000000149 1551.0
0.883000016212 -0.448000013828 0.035000000149 1542.0
0.885999977589 -0.456000000238 0.035000000149 1523.0
0.888000011444 -0.463999986649 0.035000000149 1518.0
0.882000029087 -0.467999994755 0.035000000149 1529.0
0.888999998569 -0.479000002146 0.0359999984503 1531.0
0.878000020981 -0.479999989271 0.035000000149 1536.0
0.883000016212 -0.488999992609 0.0359999984503 1535.0
3.1930000782 1.50600004196 0.0939999967813 98.0
3.53699994087 1.61600005627 0.104000002146 89.0
3.54399991035 1.59399998188 0.104000002146 113.0
3.58800005913 1.58800005913 0.104999996722 118.0
3.61199998856 1.5720000267 0.104999996722 98.0
3.98300004005 1.67700004578 0.115999996662 70.0
3.95900011063 1.63900005817 0.115000002086 111.0
3.92100000381 1.59500002861 0.11400000006 143.0
3.93899989128 1.57500004768 0.11400000006 130.0
3.96099996567 1.55700004101 0.115000002086 128.0
3.93799996376 1.51999998093 0.11400000006 116.0
4.0 1.51699995995 0.115999996662 116.0
3.91599988937 1.45799994469 0.112999998033 117.0
3.95799994469 1.4470000267 0.11400000006 118.0
3.96799993515 1.4240000248 0.115000002086 115.0
3.96000003815 1.39499998093 0.11400000006 120.0
3.95399999619 1.36600005627 0.11400000006 113.0
3.99799990654 1.35500001907 0.115000002086 114.0
3.94099998474 1.30999994278 0.112999998033 112.0
3.9430000782 1.28499996662 0.112999998033 116.0
3.99799990654 1.27600002289 0.115000002086 109.0
3.98399996758 1.2460000515 0.115000002086 113.0
4.00699996948 1.22800004482 0.115000002086 114.0
4.02400016785 1.20700001717 0.115999996662 109.0
3.98699998856 1.16999995708 0.11400000006 118.0
3.93700003624 1.13100004196 0.112999998033 113.0
4.03599977493 1.13399994373 0.115999996662 117.0
3.97199988365 1.09000003338 0.11400000006 138.0
3.9960000515 1.0720000267 0.11400000006 124.0
3.9960000515 1.04700005054 0.11400000006 140.0
3.99499988556 1.02199995518 0.11400000006 116.0
0.908999979496 -0.0010000000475 0.0250000003725 1703.0
0.90499997139 -0.00600000005215 0.0250000003725 1760.0
0.901000022888 -0.0109999999404 0.0250000003725 1697.0
0.902999997139 -0.0170000009239 0.0250000003725 1648.0
0.90499997139 -0.0219999998808 0.0250000003725 1712.0
0.902999997139 -0.0270000007004 0.0250000003725 1712.0
0.903999984264 -0.0320000015199 0.0250000003725 1670.0
0.898999989033 -0.0370000004768 0.0250000003725 1652.0
0.901000022888 -0.0419999994338 0.0250000003725 1647.0
0.90600001812 -0.0480000004172 0.0250000003725 1623.0
0.898999989033 -0.0529999993742 0.0250000003725 1600.0
0.908999979496 -0.0579999983311 0.0250000003725 1635.0
0.907000005245 -0.0640000030398 0.0250000003725 1632.0
0.902999997139 -0.0680000036955 0.0250000003725 1608.0
0.902999997139 -0.0740000009537 0.0250000003725 1607.0
0.903999984264 -0.0790000036359 0.0250000003725 1613.0
0.898999989033 -0.0839999988675 0.0250000003725 1608.0
0.898000001907 -0.0890000015497 0.0250000003725 1593.0
0.902999997139 -0.0949999988079 0.0250000003725 1580.0
0.908999979496 -0.101000003517 0.0260000005364 1592.0
0.901000022888 -0.104999996722 0.0250000003725 1661.0
0.896000027657 -0.108999997377 0.0250000003725 1676.0
0.899999976158 -0.115000002086 0.0260000005364 1656.0
0.903999984264 -0.120999999344 0.0260000005364 1657.0
0.898999989033 -0.126000002027 0.0260000005364 1669.0
0.902999997139 -0.130999997258 0.0260000005364 1667.0
0.898000001907 -0.136000007391 0.0260000005364 1669.0
0.898000001907 -0.141000002623 0.0260000005364 1658.0
0.893999993801 -0.145999997854 0.0260000005364 1648.0
0.89200001955 -0.150999993086 0.0260000005364 1639.0
0.897000014782 -0.157000005245 0.0260000005364 1644.0
0.898000001907 -0.163000002503 0.0260000005364 1640.0
0.896000027657 -0.167999997735 0.0260000005364 1641.0
0.896000027657 -0.172999992967 0.0260000005364 1654.0
0.888999998569 -0.177000001073 0.0260000005364 1627.0
0.89200001955 -0.182999998331 0.0260000005364 1621.0
0.894999980927 -0.188999995589 0.0260000005364 1624.0
0.894999980927 -0.194000005722 0.0260000005364 1635.0
0.893000006676 -0.199000000954 0.0260000005364 1657.0
0.898999989033 -0.206000000238 0.0260000005364 1664.0
0.893999993801 -0.21099999547 0.0260000005364 1685.0
0.893999993801 -0.216000005603 0.0260000005364 1686.0
0.896000027657 -0.222000002861 0.0260000005364 1682.0
0.896000027657 -0.226999998093 0.0260000005364 1682.0
0.893999993801 -0.232999995351 0.0260000005364 1678.0
0.894999980927 -0.238000005484 0.0270000007004 1671.0
0.893000006676 -0.244000002742 0.0270000007004 1673.0
0.893999993801 -0.248999997973 0.0270000007004 1663.0
0.893999993801 -0.254999995232 0.0270000007004 1667.0
0.893000006676 -0.259999990463 0.0270000007004 1649.0
0.89200001955 -0.266000002623 0.0270000007004 1629.0
0.89099997282 -0.270999997854 0.0270000007004 1648.0
0.896000027657 -0.277999997139 0.0270000007004 1632.0
0.894999980927 -0.284000009298 0.0270000007004 1606.0
0.89200001955 -0.28900000453 0.0270000007004 1612.0
0.889999985695 -0.293999999762 0.0270000007004 1587.0
0.89099997282 -0.300000011921 0.0270000007004 1605.0
0.89200001955 -0.305999994278 0.0270000007004 1600.0
0.893999993801 -0.312999993563 0.0270000007004 1598.0
0.888999998569 -0.317000001669 0.0270000007004 1643.0
0.888000011444 -0.323000013828 0.0270000007004 1674.0
0.880999982357 -0.326000005007 0.0270000007004 1638.0
0.893000006676 -0.337000012398 0.0280000008643 1566.0
0.893000006676 -0.342999994755 0.0280000008643 1607.0
0.89099997282 -0.347999989986 0.0280000008643 1611.0
0.888999998569 -0.352999985218 0.0280000008643 1581.0
0.889999985695 -0.360000014305 0.0280000008643 1588.0
0.888999998569 -0.365999996662 0.0280000008643 1583.0
0.888999998569 -0.372000008821 0.0280000008643 1571.0
0.888000011444 -0.377999991179 0.0280000008643 1575.0
0.888999998569 -0.384999990463 0.0280000008643 1557.0
0.888000011444 -0.391000002623 0.0280000008643 1565.0
0.885999977589 -0.395999997854 0.0280000008643 1598.0
0.882000029087 -0.400999993086 0.0280000008643 1591.0
0.888999998569 -0.411000013351 0.0289999991655 1571.0
0.888000011444 -0.416999995708 0.0289999991655 1580.0
0.883000016212 -0.421000003815 0.0289999991655 1596.0
0.884000003338 -0.428000003099 0.0289999991655 1605.0
0.883000016212 -0.433999985456 0.0289999991655 1577.0
0.882000029087 -0.439999997616 0.0289999991655 1546.0
0.889999985695 -0.451000005007 0.0289999991655 1552.0
0.887000024319 -0.456000000238 0.0289999991655 1543.0
0.882000029087 -0.46099999547 0.0289999991655 1544.0
0.880999982357 -0.467000007629 0.0289999991655 1548.0
0.885999977589 -0.476999998093 0.0299999993294 1562.0
0.884000003338 -0.483000010252 0.0299999993294 1566.0
0.888999998569 -0.493000000715 0.0299999993294 1531.0
3.1819999218 1.50100004673 0.0729999989271 104.0
3.26600003242 1.51600003242 0.0750000029802 84.0
3.58200001717 1.63699996471 0.082999996841 88.0
3.53600001335 1.59000003338 0.0810000002384 121.0
3.58400011063 1.58500003815 0.082000002265 123.0
3.63000011444 1.57899999619 0.082999996841 99.0
3.96799993515 1.66999995708 0.0909999981523 86.0
3.93899989128 1.62999999523 0.0900000035763 132.0
3.88100004196 1.57899999619 0.0890000015497 151.0
3.90799999237 1.56299996376 0.0900000035763 142.0
3.93499994278 1.54600000381 0.0900000035763 136.0
3.92300009727 1.51400005817 0.0900000035763 126.0
3.9279999733 1.48899996281 0.0900000035763 124.0
3.97799992561 1.48099994659 0.0909999981523 116.0
3.92600011826 1.43499994278 0.0900000035763 122.0
3.9849998951 1.42999994755 0.0909999981523 120.0
3.95600008965 1.39300000668 0.0900000035763 124.0
4.00400018692 1.38300001621 0.0909999981523 124.0
3.96000003815 1.34200000763 0.0900000035763 123.0
4.0 1.32899999619 0.0909999981523 125.0
3.96900010109 1.29299998283 0.0900000035763 127.0
3.93099999428 1.25499999523 0.0890000015497 121.0
3.94199991226 1.23300004005 0.0900000035763 118.0
3.95600008965 1.2120000124 0.0900000035763 118.0
3.99900007248 1.19900000095 0.0909999981523 127.0
3.97499990463 1.16700005531 0.0900000035763 116.0
4.03000020981 1.15699994564 0.0920000001788 121.0
3.9509999752 1.10899996758 0.0900000035763 128.0
3.99399995804 1.09599995613 0.0909999981523 133.0
4.01300001144 1.0759999752 0.0909999981523 130.0
3.97399997711 1.04100000858 0.0900000035763 142.0
3.992000103 1.02100002766 0.0909999981523 119.0
0.908999979496 -0.0010000000475 0.019999999553 1750.0
0.90600001812 -0.00600000005215 0.019999999553 1793.0
0.902000010014 -0.0109999999404 0.019999999553 1743.0
0.901000022888 -0.0170000009239 0.019999999553 1685.0
0.907000005245 -0.0219999998808 0.019999999553 1705.0
0.899999976158 -0.0270000007004 0.019999999553 1755.0
0.901000022888 -0.0320000015199 0.019999999553 1699.0
0.902000010014 -0.0370000004768 0.019999999553 1697.0
0.898999989033 -0.0419999994338 0.019999999553 1672.0
0.902000010014 -0.0480000004172 0.019999999553 1652.0
0.899999976158 -0.0529999993742 0.019999999553 1638.0
0.90600001812 -0.0579999983311 0.019999999553 1653.0
0.901000022888 -0.0630000010133 0.019999999553 1647.0
0.90499997139 -0.0689999982715 0.019999999553 1617.0
0.901000022888 -0.0740000009537 0.019999999553 1636.0
0.901000022888 -0.0790000036359 0.019999999553 1633.0
0.902999997139 -0.0839999988675 0.019999999553 1633.0
0.896000027657 -0.0890000015497 0.019999999553 1621.0
0.897000014782 -0.0939999967813 0.019999999553 1597.0
0.902000010014 -0.10000000149 0.019999999553 1600.0
0.901000022888 -0.104999996722 0.019999999553 1658.0
0.898999989033 -0.109999999404 0.019999999553 1704.0
0.898999989033 -0.115000002086 0.019999999553 1672.0
0.896000027657 -0.119999997318 0.019999999553 1661.0
0.896000027657 -0.125 0.019999999553 1690.0
0.899999976158 -0.130999997258 0.019999999553 1690.0
0.902000010014 -0.136999994516 0.0209999997169 1682.0
0.898000001907 -0.141000002623 0.019999999553 1676.0
0.894999980927 -0.145999997854 0.019999999553 1660.0
0.897000014782 -0.151999995112 0.0209999997169 1663.0
0.898999989033 -0.157000005245 0.0209999997169 1655.0
0.897000014782 -0.162000000477 0.0209999997169 1656.0
0.896000027657 -0.167999997735 0.0209999997169 1650.0
0.896000027657 -0.172999992967 0.0209999997169 1645.0
0.89200001955 -0.177000001073 0.0209999997169 1633.0
0.89099997282 -0.182999998331 0.0209999997169 1637.0
0.901000022888 -0.189999997616 0.0209999997169 1638.0
0.897000014782 -0.194999992847 0.0209999997169 1637.0
0.898000001907 -0.20000000298 0.0209999997169 1676.0
0.898999989033 -0.206000000238 0.0209999997169 1673.0
0.899999976158 -0.211999997497 0.0209999997169 1699.0
0.893000006676 -0.216000005603 0.0209999997169 1694.0
0.893000006676 -0.221000000834 0.0209999997169 1712.0
0.893000006676 -0.226999998093 0.0209999997169 1706.0
0.893999993801 -0.232999995351 0.0209999997169 1705.0
0.893999993801 -0.238000005484 0.0209999997169 1684.0
0.898000001907 -0.245000004768 0.0209999997169 1695.0
0.893000006676 -0.248999997973 0.0209999997169 1677.0
0.889999985695 -0.254000008106 0.0209999997169 1681.0
0.89200001955 -0.259999990463 0.0209999997169 1672.0
0.89099997282 -0.264999985695 0.0209999997169 1646.0
0.89200001955 -0.270999997854 0.0219999998808 1654.0
0.889999985695 -0.277000010014 0.0219999998808 1663.0
0.888999998569 -0.282000005245 0.0219999998808 1649.0
0.89099997282 -0.287999987602 0.0219999998808 1650.0
0.893999993801 -0.294999986887 0.0219999998808 1612.0
0.893999993801 -0.300999999046 0.0219999998808 1621.0
0.888999998569 -0.305000007153 0.0219999998808 1627.0
0.893000006676 -0.312999993563 0.0219999998808 1606.0
0.889999985695 -0.317000001669 0.0219999998808 1623.0
0.898999989033 -0.326999992132 0.0219999998808 1670.0
0.888000011444 -0.32800000906 0.0219999998808 1657.0
0.889999985695 -0.335000008345 0.0219999998808 1583.0
0.888999998569 -0.340999990702 0.0219999998808 1625.0
0.887000024319 -0.345999985933 0.0219999998808 1593.0
0.885999977589 -0.351999998093 0.0219999998808 1582.0
0.893999993801 -0.361999988556 0.0230000000447 1607.0
0.887000024319 -0.365000009537 0.0230000000447 1600.0
0.889999985695 -0.372000008821 0.0230000000447 1588.0
0.884999990463 -0.377000004053 0.0230000000447 1585.0
0.885999977589 -0.38299998641 0.0230000000447 1590.0
0.887000024319 -0.389999985695 0.0230000000447 1597.0
0.888000011444 -0.397000014782 0.0230000000447 1599.0
0.89200001955 -0.405000001192 0.0230000000447 1618.0
0.883000016212 -0.407999992371 0.0230000000447 1588.0
0.884000003338 -0.41400000453 0.0230000000447 1591.0
0.888999998569 -0.423000007868 0.0230000000447 1605.0
0.884000003338 -0.428000003099 0.0230000000447 1609.0
0.885999977589 -0.435000002384 0.0230000000447 1589.0
0.880999982357 -0.439999997616 0.0230000000447 1575.0
0.887000024319 -0.449999988079 0.0240000002086 1582.0
0.882000029087 -0.453999996185 0.0240000002086 1587.0
0.883000016212 -0.46099999547 0.0240000002086 1564.0
0.887000024319 -0.470999985933 0.0240000002086 1559.0
0.882000029087 -0.474000006914 0.0240000002086 1582.0
0.884000003338 -0.483000010252 0.0240000002086 1570.0
0.883000016212 -0.490000009537 0.0240000002086 1566.0
3.18899989128 1.5039999485 0.0529999993742 103.0
3.50200009346 1.60000002384 0.0590000003576 97.0
3.57899999619 1.60899996758 0.0599999986589 117.0
3.58400011063 1.58500003815 0.0599999986589 115.0
3.73000001907 1.62300002575 0.0630000010133 99.0
3.89199995995 1.66499996185 0.0649999976158 88.0
3.9430000782 1.6590000391 0.0659999996424 100.0
3.89199995995 1.61000001431 0.0649999976158 162.0
3.88800001144 1.58099997044 0.0649999976158 178.0
3.90000009537 1.55900001526 0.0649999976158 162.0
3.96799993515 1.55900001526 0.0670000016689 137.0
3.98000001907 1.53600001335 0.0670000016689 121.0
3.93300008774 1.49100005627 0.0659999996424 137.0
3.93899989128 1.4659999609 0.0659999996424 130.0
3.98200011253 1.45500004292 0.0670000016689 132.0
3.92899990082 1.40999996662 0.0659999996424 134.0
3.92899990082 1.38300001621 0.0659999996424 133.0
3.99900007248 1.38199996948 0.0670000016689 125.0
3.92300009727 1.32899999619 0.0659999996424 128.0
3.99799990654 1.32799994946 0.0670000016689 137.0
3.95300006866 1.28699994087 0.0659999996424 135.0
3.94899988174 1.25999999046 0.0659999996424 132.0
3.99000000954 1.24699997902 0.0670000016689 137.0
3.99699997902 1.22399997711 0.0670000016689 129.0
3.9470000267 1.18299996853 0.0659999996424 134.0
3.95000004768 1.1590000391 0.0659999996424 140.0
3.97199988365 1.13999998569 0.0670000016689 136.0
3.99399995804 1.1210000515 0.0670000016689 138.0
3.98099994659 1.09200000763 0.0670000016689 135.0
3.98600006104 1.06900000572 0.0670000016689 135.0
3.98799991608 1.04400002956 0.0670000016689 152.0
3.96199989319 1.01300001144 0.0659999996424 120.0
4.43300008774 1.05099999905 0.0750000029802 60.0
4.56699991226 1.05499994755 0.0769999995828 54.0
4.53700017929 1.01999998093 0.0769999995828 51.0
0.911000013351 -0.0010000000475 0.0149999996647 1713.0
0.90600001812 -0.00600000005215 0.0149999996647 1772.0
0.902000010014 -0.0109999999404 0.0149999996647 1780.0
0.90499997139 -0.0170000009239 0.0149999996647 1715.0
0.908999979496 -0.0219999998808 0.0149999996647 1733.0
0.903999984264 -0.0270000007004 0.0149999996647 1791.0
0.903999984264 -0.0320000015199 0.0149999996647 1751.0
0.90600001812 -0.0379999987781 0.0149999996647 1711.0
0.899999976158 -0.0419999994338 0.0149999996647 1699.0
0.902999997139 -0.0480000004172 0.0149999996647 1658.0
0.896000027657 -0.0520000010729 0.0149999996647 1649.0
0.902999997139 -0.0579999983311 0.0149999996647 1638.0
0.907000005245 -0.0640000030398 0.0149999996647 1635.0
0.897000014782 -0.0680000036955 0.0149999996647 1642.0
0.90499997139 -0.0740000009537 0.0149999996647 1655.0
0.907999992371 -0.0790000036359 0.0149999996647 1639.0
0.898999989033 -0.0839999988675 0.0149999996647 1644.0
0.899999976158 -0.0890000015497 0.0149999996647 1656.0
0.898000001907 -0.0939999967813 0.0149999996647 1626.0
0.901000022888 -0.10000000149 0.0149999996647 1628.0
0.902000010014 -0.104999996722 0.0149999996647 1690.0
0.896000027657 -0.108999997377 0.0149999996647 1688.0
0.902999997139 -0.115999996662 0.0149999996647 1686.0
0.897000014782 -0.119999997318 0.0149999996647 1707.0
0.901000022888 -0.126000002027 0.0149999996647 1714.0
0.898000001907 -0.130999997258 0.0149999996647 1717.0
0.898000001907 -0.136000007391 0.0149999996647 1689.0
0.894999980927 -0.141000002623 0.0149999996647 1687.0
0.897000014782 -0.145999997854 0.0149999996647 1690.0
0.896000027657 -0.151999995112 0.0149999996647 1692.0
0.899999976158 -0.158000007272 0.0149999996647 1674.0
0.903999984264 -0.16400000453 0.01600000076 1660.0
0.898000001907 -0.167999997735 0.0149999996647 1672.0
0.893999993801 -0.172999992967 0.0149999996647 1668.0
0.89099997282 -0.177000001073 0.0149999996647 1648.0
0.896000027657 -0.184000000358 0.01600000076 1634.0
0.899999976158 -0.189999997616 0.01600000076 1652.0
0.89200001955 -0.194000005722 0.01600000076 1642.0
0.897000014782 -0.20000000298 0.01600000076 1685.0
0.894999980927 -0.204999998212 0.01600000076 1675.0
0.901000022888 -0.211999997497 0.01600000076 1684.0
0.894999980927 -0.216000005603 0.01600000076 1683.0
0.89099997282 -0.221000000834 0.01600000076 1711.0
0.894999980927 -0.226999998093 0.01600000076 1720.0
0.893999993801 -0.232999995351 0.01600000076 1702.0
0.893000006676 -0.238000005484 0.01600000076 1694.0
0.894999980927 -0.244000002742 0.01600000076 1695.0
0.896000027657 -0.25 0.01600000076 1677.0
0.89099997282 -0.254000008106 0.01600000076 1691.0
0.893999993801 -0.261000007391 0.01600000076 1687.0
0.893000006676 -0.266000002623 0.01600000076 1680.0
0.889999985695 -0.270999997854 0.01600000076 1673.0
0.893999993801 -0.277999997139 0.01600000076 1669.0
0.893999993801 -0.284000009298 0.01600000076 1676.0
0.894999980927 -0.289999991655 0.01600000076 1671.0
0.889999985695 -0.293999999762 0.01600000076 1642.0
0.89200001955 -0.300000011921 0.0170000009239 1635.0
0.888000011444 -0.305000007153 0.01600000076 1613.0
0.888999998569 -0.31099998951 0.0170000009239 1610.0
0.893999993801 -0.319000005722 0.0170000009239 1611.0
0.888999998569 -0.323000013828 0.0170000009239 1644.0
0.884000003338 -0.326999992132 0.0170000009239 1615.0
0.888999998569 -0.335000008345 0.0170000009239 1578.0
0.89200001955 -0.342000007629 0.0170000009239 1608.0
0.888999998569 -0.347000002861 0.0170000009239 1590.0
0.888999998569 -0.352999985218 0.0170000009239 1606.0
0.888000011444 -0.358999997377 0.0170000009239 1620.0
0.884000003338 -0.363999992609 0.0170000009239 1602.0
0.889999985695 -0.372000008821 0.0170000009239 1594.0
0.883000016212 -0.375999987125 0.0170000009239 1613.0
0.885999977589 -0.38299998641 0.0170000009239 1596.0
0.888000011444 -0.389999985695 0.0170000009239 1627.0
0.880999982357 -0.393999993801 0.0170000009239 1620.0
0.888000011444 -0.402999997139 0.0179999992251 1620.0
0.888000011444 -0.409999996424 0.0179999992251 1597.0
0.887000024319 -0.416000008583 0.0179999992251 1629.0
0.888999998569 -0.423999994993 0.0179999992251 1637.0
0.882000029087 -0.426999986172 0.0179999992251 1625.0
0.883000016212 -0.433999985456 0.0179999992251 1591.0
0.885999977589 -0.442000001669 0.0179999992251 1587.0
0.880999982357 -0.446000009775 0.0179999992251 1622.0
0.879000008106 -0.451999992132 0.0179999992251 1585.0
0.880999982357 -0.460000008345 0.0179999992251 1587.0
0.879999995232 -0.465999990702 0.0179999992251 1576.0
0.885999977589 -0.476999998093 0.0179999992251 1586.0
0.885999977589 -0.483999997377 0.0179999992251 1597.0
0.879999995232 -0.488000005484 0.0179999992251 1592.0
3.19499993324 1.50600004196 0.0340000018477 95.0
3.29399991035 1.52900004387 0.035000000149 78.0
3.56399989128 1.62800002098 0.0379999987781 96.0
3.59100008011 1.61399996281 0.0379999987781 124.0
3.58699989319 1.58599996567 0.0379999987781 115.0
3.73099994659 1.62300002575 0.0399999991059 99.0
3.875 1.65799999237 0.0410000011325 95.0
3.93600010872 1.65600001812 0.0419999994338 114.0
3.90000009537 1.61300003529 0.0410000011325 178.0
3.90199995041 1.5870000124 0.0410000011325 199.0
3.9470000267 1.57799994946 0.0419999994338 183.0
3.9279999733 1.54299998283 0.0419999994338 145.0
3.92899990082 1.51600003242 0.0419999994338 136.0
3.95900011063 1.50100004673 0.0419999994338 141.0
3.89400005341 1.44900000095 0.0419999994338 132.0
3.96000003815 1.4470000267 0.0419999994338 145.0
3.9849998951 1.42900002003 0.0430000014603 141.0
4.007999897 1.41100001335 0.0430000014603 142.0
3.94199991226 1.36099994183 0.0419999994338 141.0
3.9849998951 1.35000002384 0.0430000014603 142.0
3.95799994469 1.31500005722 0.0419999994338 140.0
3.96300005913 1.29100000858 0.0430000014603 149.0
3.96600008011 1.26600003242 0.0430000014603 140.0
3.95799994469 1.23699998856 0.0430000014603 147.0
3.98000001907 1.21899998188 0.0430000014603 148.0
4.0110001564 1.20200002193 0.0430000014603 150.0
3.97300004959 1.16499996185 0.0430000014603 155.0
4.02199983597 1.15400004387 0.0430000014603 155.0
3.97099995613 1.11500000954 0.0430000014603 156.0
4.0 1.09700000286 0.0430000014603 144.0
3.98300004005 1.06799995899 0.0430000014603 144.0
4.00699996948 1.0490000248 0.0430000014603 154.0
4.00199985504 1.02300000191 0.0439999997616 121.0
4.1859998703 1.04400002956 0.0460000000894 69.0
4.44199991226 1.08000004292 0.0489999987185 68.0
4.46600008011 1.05900001526 0.0489999987185 69.0
4.44999980927 1.02699995041 0.0489999987185 70.0
4.45800018311 1.00199997425 0.0489999987185 60.0
4.61000013351 1.00800001621 0.0509999990463 61.0
4.60699987411 0.978999972343 0.0509999990463 64.0
4.56199979782 0.941999971867 0.0500000007451 63.0
4.59299993515 0.921000003815 0.0509999990463 64.0
4.60900020599 0.896000027657 0.0509999990463 62.0
4.59100008011 0.865000009537 0.0509999990463 59.0
4.60300016403 0.839999973774 0.0509999990463 60.0
4.64400005341 0.819000005722 0.0520000010729 63.0
4.67500019073 0.79699999094 0.0520000010729 53.0
4.68300008774 0.769999980927 0.0520000010729 53.0
4.63899993896 0.736000001431 0.0520000010729 61.0
4.73099994659 0.722000002861 0.0529999993742 57.0
4.75899982452 0.699000000954 0.0540000014007 53.0
4.77099990845 0.67199999094 0.0540000014007 54.0
4.71199989319 0.635999977589 0.0529999993742 56.0
4.66900014877 0.602999985218 0.0529999993742 57.0
4.77799987793 0.588999986649 0.0540000014007 53.0
4.83500003815 0.568000018597 0.054999999702 53.0
4.71700000763 0.526000022888 0.0540000014007 48.0
4.80100011826 0.508000016212 0.054999999702 58.0
4.78700017929 0.477999985218 0.054999999702 54.0
4.91499996185 0.462000012398 0.0560000017285 61.0
0.908999979496 -0.0010000000475 0.00899999961257 1679.0
0.911000013351 -0.00600000005215 0.00899999961257 1754.0
0.902000010014 -0.0109999999404 0.00899999961257 1804.0
0.898000001907 -0.0170000009239 0.00899999961257 1745.0
0.907999992371 -0.0219999998808 0.00999999977648 1719.0
0.903999984264 -0.0270000007004 0.00899999961257 1815.0
0.902000010014 -0.0320000015199 0.00899999961257 1800.0
0.896000027657 -0.0370000004768 0.00899999961257 1729.0
0.90600001812 -0.0430000014603 0.00999999977648 1718.0
0.901000022888 -0.0480000004172 0.00999999977648 1661.0
0.907000005245 -0.0529999993742 0.00999999977648 1667.0
0.903999984264 -0.0579999983311 0.00999999977648 1657.0
0.902999997139 -0.0630000010133 0.00999999977648 1680.0
0.902000010014 -0.0680000036955 0.00999999977648 1652.0
0.902000010014 -0.0740000009537 0.00999999977648 1674.0
0.894999980927 -0.0780000016093 0.00999999977648 1673.0
0.907000005245 -0.0850000008941 0.00999999977648 1679.0
0.898999989033 -0.0890000015497 0.00999999977648 1691.0
0.898999989033 -0.0939999967813 0.00999999977648 1662.0
0.897000014782 -0.0989999994636 0.00999999977648 1635.0
0.901000022888 -0.104999996722 0.00999999977648 1689.0
0.894999980927 -0.108999997377 0.00999999977648 1727.0
0.903999984264 -0.115999996662 0.00999999977648 1706.0
0.897000014782 -0.119999997318 0.00999999977648 1729.0
0.898000001907 -0.126000002027 0.00999999977648 1728.0
0.902000010014 -0.130999997258 0.00999999977648 1716.0
0.893999993801 -0.135000005364 0.00999999977648 1731.0
0.896000027657 -0.141000002623 0.00999999977648 1698.0
0.894999980927 -0.145999997854 0.00999999977648 1709.0
0.893999993801 -0.150999993086 0.00999999977648 1688.0
0.894999980927 -0.157000005245 0.00999999977648 1675.0
0.897000014782 -0.162000000477 0.00999999977648 1666.0
0.893000006676 -0.166999995708 0.00999999977648 1691.0
0.896000027657 -0.172999992967 0.00999999977648 1688.0
0.896000027657 -0.178000003099 0.00999999977648 1670.0
0.89200001955 -0.182999998331 0.00999999977648 1660.0
0.899999976158 -0.189999997616 0.00999999977648 1667.0
0.898000001907 -0.194999992847 0.00999999977648 1666.0
0.898000001907 -0.20000000298 0.00999999977648 1681.0
0.894999980927 -0.204999998212 0.00999999977648 1678.0
