ply
format ascii 1.0
element vertex 934
property float x
property float y
property float z
property float intensity
end_header
4.46000003815 1.9129999876 -1.4090000391 193.0
4.48600006104 1.89100003242 -1.4129999876 186.0
0.0170000009239 0.00700000021607 -0.00400000018999 186.0
4.49100017548 1.82700002193 -1.40799999237 188.0
4.51499986649 1.80499994755 -1.4129999876 170.0
4.507999897 1.76900005341 -1.40699994564 181.0
4.52400016785 1.74399995804 -1.4090000391 168.0
4.54500007629 1.71899998188 -1.4129999876 169.0
4.507999897 1.6740000248 -1.39800000191 169.0
4.54400014877 1.65499997139 -1.40600001812 164.0
4.55900001526 1.6289999485 -1.40799999237 163.0
4.5640001297 1.59899997711 -1.40699994564 156.0
4.58599996567 1.57500004768 -1.41100001335 161.0
4.59299993515 1.54600000381 -1.41100001335 157.0
4.59600019455 1.51600003242 -1.4090000391 148.0
4.59999990463 1.48599994183 -1.40699994564 154.0
4.61499977112 1.45899999142 -1.4090000391 147.0
4.61100006104 1.42700004578 -1.40600001812 151.0
4.64799976349 1.40799999237 -1.41499996185 144.0
4.66499996185 1.38199996948 -1.41700005531 146.0
4.65600013733 1.34899997711 -1.41199994087 147.0
4.617000103 1.30700004101 -1.39800000191 138.0
4.65999984741 1.2879999876 -1.4090000391 142.0
4.64900016785 1.25499999523 -1.40400004387 151.0
4.68400001526 1.23399996758 -1.41199994087 155.0
4.69600009918 1.20700001717 -1.41400003433 151.0
4.71700000763 1.18200004101 -1.41799998283 140.0
4.71400022507 1.15100002289 -1.41499996185 143.0
4.73400020599 1.125 -1.41900002956 138.0
4.72300004959 1.09300005436 -1.41400003433 140.0
4.7610001564 1.07099997997 -1.4240000248 131.0
4.73000001907 1.0340000391 -1.4129999876 132.0
4.74800014496 1.00800001621 -1.41600000858 131.0
4.76499986649 0.981999993324 -1.41999995708 130.0
4.78399991989 0.955999970436 -1.4240000248 122.0
4.77099990845 0.924000024796 -1.41799998283 129.0
4.78999996185 0.897000014782 -1.42200005054 127.0
0.00499999988824 0.00200000009499 -0.0010000000475 121.0
4.77799987793 0.836000025272 -1.41600000858 117.0
4.80200004578 0.810000002384 -1.42100000381 121.0
4.79899978638 0.77999997139 -1.41900002956 126.0
4.79400014877 0.75 -1.41700005531 122.0
4.8029999733 0.722000002861 -1.41799998283 121.0
4.82600021362 0.695999979973 -1.42299997807 115.0
4.8189997673 0.666000008583 -1.41999995708 118.0
4.8060002327 0.634999990463 -1.41499996185 123.0
4.82999992371 0.60900002718 -1.42100000381 117.0
4.84600019455 0.580999970436 -1.42499995232 120.0
4.82700014114 0.550000011921 -1.41799998283 116.0
4.83500003815 0.521000027657 -1.41999995708 117.0
4.82399988174 0.490999996662 -1.41499996185 113.0
4.83500003815 0.462999999523 -1.41799998283 110.0
4.83900022507 0.433999985456 -1.41799998283 105.0
0.00899999961257 0.00200000009499 -0.00200000009499 103.0
4.82899999619 0.375999987125 -1.41400003433 98.0
4.85300016403 0.347999989986 -1.41999995708 97.0
4.8639998436 0.319999992847 -1.42299997807 99.0
4.85799980164 0.291000008583 -1.41999995708 96.0
4.85500001907 0.261999994516 -1.41900002956 90.0
4.83799982071 0.231999993324 -1.4129999876 89.0
4.8029999733 0.201000005007 -1.40299999714 91.0
4.87699985504 0.17499999702 -1.4240000248 89.0
4.85500001907 0.145999997854 -1.41700005531 88.0
4.85699987411 0.116999998689 -1.41700005531 87.0
4.87200021744 0.0879999995232 -1.42200005054 84.0
0.0450000017881 0.00200000009499 -0.0120000001043 87.0
4.87300014496 0.0299999993294 -1.42100000381 95.0
4.87799978256 0.0010000000475 -1.42299997807 84.0
0.0280000008643 0.00200000009499 -0.00700000021607 86.0
4.86800003052 -0.054999999702 -1.41900002956 86.0
0.522000014782 -0.00700000021607 -0.150999993086 137.0
0.961000025272 -0.019999999553 -0.279000014067 963.0
0.972000002861 -0.0260000005364 -0.282999992371 1162.0
0.972000002861 -0.0320000015199 -0.282999992371 1170.0
0.97000002861 -0.0379999987781 -0.282000005245 1170.0
0.971000015736 -0.0430000014603 -0.282000005245 1188.0
0.963999986649 -0.0489999987185 -0.280000001192 1192.0
0.966000020504 -0.054999999702 -0.280999988317 1196.0
0.966000020504 -0.0599999986589 -0.280999988317 1193.0
0.958000004292 -0.0649999976158 -0.279000014067 1198.0
0.959999978542 -0.0710000023246 -0.280000001192 1222.0
0.962000012398 -0.0769999995828 -0.280000001192 1223.0
0.955999970436 -0.082000002265 -0.279000014067 1218.0
0.961000025272 -0.0890000015497 -0.280000001192 1220.0
0.955999970436 -0.0939999967813 -0.279000014067 1224.0
0.95300000906 -0.0989999994636 -0.277999997139 1169.0
0.856999993324 -0.0939999967813 -0.25 428.0
0.674000024796 -0.0769999995828 -0.196999996901 210.0
0.68599998951 -0.082999996841 -0.20000000298 203.0
0.629000008106 -0.0799999982119 -0.184000000358 206.0
0.68599998951 -0.0909999981523 -0.20000000298 204.0
0.648999989033 -0.0900000035763 -0.189999997616 206.0
0.638999998569 -0.0920000001788 -0.187000006437 205.0
0.661000013351 -0.10000000149 -0.194000005722 202.0
0.667999982834 -0.104999996722 -0.195999994874 209.0
0.643999993801 -0.104999996722 -0.188999995589 204.0
0.625999987125 -0.105999998748 -0.184000000358 216.0
0.629000008106 -0.109999999404 -0.185000002384 213.0
0.630999982357 -0.11400000006 -0.185000002384 212.0
0.686999976635 -0.128999993205 -0.202000007033 235.0
0.916000008583 -0.179000005126 -0.270000010729 886.0
0.930000007153 -0.187999993563 -0.273999989033 1243.0
0.931999981403 -0.194000005722 -0.27500000596 1249.0
0.931999981403 -0.20000000298 -0.27500000596 1231.0
0.934000015259 -0.206000000238 -0.275999993086 1219.0
0.941999971867 -0.21400000155 -0.279000014067 1210.0
0.929000020027 -0.216999992728 -0.27500000596 1200.0
0.931999981403 -0.223000004888 -0.275999993086 1204.0
0.926999986172 -0.228000000119 -0.27500000596 1206.0
0.925000011921 -0.232999995351 -0.27500000596 1205.0
0.925000011921 -0.238999992609 -0.275999993086 1195.0
0.926999986172 -0.246000006795 -0.277000010014 1189.0
0.925999999046 -0.252000004053 -0.275999993086 1199.0
0.915000021458 -0.254000008106 -0.273000001907 1175.0
0.85799998045 -0.244000002742 -0.256999999285 566.0
0.601000010967 -0.172999992967 -0.180000007153 220.0
0.603999972343 -0.178000003099 -0.180999994278 210.0
0.596000015736 -0.180000007153 -0.179000005126 217.0
0.583000004292 -0.180000007153 -0.17499999702 208.0
0.573000013828 -0.180999994278 -0.172999992967 210.0
0.603999972343 -0.194000005722 -0.181999996305 210.0
0.580999970436 -0.190999999642 -0.175999999046 207.0
0.551999986172 -0.185000002384 -0.166999995708 210.0
0.550999999046 -0.187999993563 -0.166999995708 207.0
0.586000025272 -0.203999996185 -0.178000003099 214.0
0.563000023365 -0.20000000298 -0.171000003815 213.0
0.568000018597 -0.206000000238 -0.172999992967 205.0
0.633000016212 -0.234999999404 -0.193000003695 256.0
0.876999974251 -0.333000004292 -0.268999993801 889.0
0.893000006676 -0.344999998808 -0.273999989033 1147.0
0.89200001955 -0.351000010967 -0.273999989033 1140.0
0.89099997282 -0.356999993324 -0.27500000596 1132.0
0.884000003338 -0.361000001431 -0.273000001907 1124.0
0.889999985695 -0.368999987841 -0.27500000596 1139.0
0.89099997282 -0.375999987125 -0.275999993086 1124.0
0.884999990463 -0.381000012159 -0.27500000596 1122.0
0.885999977589 -0.388000011444 -0.275999993086 1127.0
0.882000029087 -0.391999989748 -0.27500000596 1122.0
0.875999987125 -0.395999997854 -0.273999989033 1109.0
0.876999974251 -0.402999997139 -0.27500000596 1096.0
0.873000025749 -0.407999992371 -0.27500000596 1091.0
0.809000015259 -0.384000003338 -0.254999995232 572.0
0.563000023365 -0.270000010729 -0.178000003099 240.0
0.451000005007 -0.218999996781 -0.143000006676 209.0
0.460000008345 -0.226999998093 -0.145999997854 208.0
0.446999996901 -0.224000006914 -0.142000004649 202.0
0.395999997854 -0.201000005007 -0.126000002027 206.0
0.409999996424 -0.21099999547 -0.130999997258 202.0
0.442000001669 -0.231999993324 -0.142000004649 197.0
0.405000001192 -0.215000003576 -0.129999995232 208.0
0.384000003338 -0.207000002265 -0.123999997973 191.0
0.391000002623 -0.21400000155 -0.126000002027 197.0
0.38299998641 -0.212999999523 -0.123999997973 203.0
0.625 -0.356000006199 -0.203999996185 313.0
0.82800000906 -0.481000006199 -0.270999997854 733.0
0.00899999961257 0.00400000018999 -0.00200000009499 250.0
4.19099998474 2.47199988365 -1.43299996853 245.0
0.00899999961257 0.00400000018999 -0.00200000009499 245.0
4.23000001907 2.42199993134 -1.43700003624 239.0
4.23000001907 2.38599991798 -1.43200004101 242.0
4.24700021744 2.3599998951 -1.43400001526 238.0
0.00999999977648 0.00400000018999 -0.00200000009499 235.0
0.00899999961257 0.00400000018999 -0.00200000009499 233.0
4.30499982834 2.28500008583 -1.44000005722 233.0
4.30200004578 2.24799990654 -1.43400001526 223.0
4.32899999619 2.22699999809 -1.43900001049 218.0
0.0130000002682 0.00600000005215 -0.00300000002608 219.0
4.34800004959 2.16799998283 -1.43700003624 213.0
4.35200023651 2.13499999046 -1.43400001526 216.0
4.36999988556 2.1099998951 -1.43599998951 219.0
4.37799978256 2.07999992371 -1.43499994278 208.0
4.41300010681 2.06200003624 -1.44299995899 213.0
4.40100002289 2.02300000191 -1.43499994278 212.0
4.42100000381 1.99800002575 -1.43799996376 206.0
4.4359998703 1.97200000286 -1.43900001049 203.0
4.45499992371 1.9470000267 -1.44200003147 200.0
4.46299982071 1.91700005531 -1.44099998474 206.0
4.45900011063 1.88300001621 -1.43599998951 189.0
4.49399995804 1.86500000954 -1.44400000572 200.0
4.47700023651 1.82500004768 -1.43499994278 187.0
4.51999998093 1.80900001526 -1.44500005245 182.0
4.51900005341 1.77699995041 -1.44200003147 180.0
4.50099992752 1.73699998856 -1.43299996853 176.0
4.54199981689 1.72099995613 -1.44299995899 171.0
4.53299999237 1.68599998951 -1.43700003624 170.0
4.55700016022 1.66199994087 -1.44200003147 173.0
4.54500007629 1.62600004673 -1.43499994278 164.0
4.57100009918 1.60399997234 -1.44000005722 164.0
4.57100009918 1.5720000267 -1.43700003624 164.0
4.60500001907 1.55200004578 -1.44500005245 158.0
4.60900020599 1.52199995518 -1.44400000572 160.0
4.60200023651 1.48899996281 -1.43900001049 151.0
4.59800004959 1.45599997044 -1.43499994278 146.0
4.63399982452 1.43599998951 -1.44400000572 149.0
4.62400007248 1.40299999714 -1.43799996376 149.0
4.61800003052 1.37000000477 -1.43400001526 149.0
4.6360001564 1.34500002861 -1.43700003624 149.0
4.63899993896 1.31500005722 -1.43599998951 144.0
4.66099977493 1.29100000858 -1.44099998474 147.0
4.65500020981 1.25800001621 -1.43599998951 143.0
4.66599988937 1.23099994659 -1.43799996376 150.0
4.6859998703 1.20599997044 -1.44200003147 157.0
4.68400001526 1.17499995232 -1.43900001049 157.0
4.68300008774 1.14499998093 -1.43599998951 136.0
4.72399997711 1.125 -1.4470000267 141.0
4.69799995422 1.08800005913 -1.43700003624 141.0
4.71799993515 1.06299996376 -1.44200003147 139.0
4.70599985123 1.03100001812 -1.43599998951 132.0
4.7389998436 1.00800001621 -1.44500005245 133.0
4.74499988556 0.978999972343 -1.44500005245 133.0
4.75 0.950999975204 -1.44500005245 125.0
4.76900005341 0.924000024796 -1.44900000095 121.0
4.75899982452 0.893000006676 -1.44400000572 124.0
4.76399993896 0.864000022411 -1.44400000572 128.0
4.76599979401 0.834999978542 -1.44299995899 122.0
4.74800014496 0.801999986172 -1.43599998951 121.0
4.78900003433 0.77999997139 -1.4470000267 118.0
4.78700017929 0.75 -1.44500005245 120.0
4.77799987793 0.71899998188 -1.44099998474 119.0
4.77799987793 0.689999997616 -1.44000005722 120.0
4.80700016022 0.665000021458 -1.44799995422 119.0
4.77799987793 0.632000029087 -1.43799996376 119.0
4.79899978638 0.605000019073 -1.44299995899 108.0
0.00999999977648 0.00200000009499 -0.00200000009499 114.0
0.00700000021607 0.00200000009499 -0.0010000000475 112.0
4.82999992371 0.522000014782 -1.44900000095 115.0
0.0240000002086 0.00400000018999 -0.00600000005215 109.0
4.84200000763 0.463999986649 -1.4509999752 113.0
4.8189997673 0.432999998331 -1.44299995899 112.0
4.84200000763 0.405999988317 -1.45000004768 100.0
4.85900020599 0.377999991179 -1.45399999619 103.0
4.85300016403 0.349000006914 -1.4509999752 103.0
4.86199998856 0.319999992847 -1.45299994946 97.0
4.85200023651 0.291000008583 -1.45000004768 96.0
4.84700012207 0.261000007391 -1.44799995422 88.0
4.8220000267 0.231000006199 -1.44000005722 89.0
4.85099983215 0.203999996185 -1.44799995422 90.0
4.82299995422 0.173999994993 -1.43900001049 87.0
4.84800004959 0.145999997854 -1.44599997997 86.0
4.85300016403 0.116999998689 -1.44799995422 83.0
0.0520000010729 0.00300000002608 -0.0149999996647 85.0
4.83900022507 0.0590000003576 -1.44299995899 83.0
4.85099983215 0.0299999993294 -1.44599997997 84.0
4.84499979019 0.0010000000475 -1.44400000572 81.0
4.84899997711 -0.0270000007004 -1.44500005245 90.0
0.0260000005364 0.0010000000475 -0.00700000021607 87.0
0.561999976635 -0.00700000021607 -0.166999995708 153.0
0.959999978542 -0.019999999553 -0.284999996424 979.0
0.972000002861 -0.0260000005364 -0.28900000453 1150.0
0.972999989986 -0.0320000015199 -0.28900000453 1152.0
0.97000002861 -0.0379999987781 -0.287999987602 1166.0
0.967999994755 -0.0430000014603 -0.287999987602 1169.0
0.966000020504 -0.0489999987185 -0.287000000477 1184.0
0.964999973774 -0.054999999702 -0.287000000477 1183.0
0.962999999523 -0.0599999986589 -0.287000000477 1187.0
0.97000002861 -0.0659999996424 -0.28900000453 1191.0
0.963999986649 -0.0719999969006 -0.287000000477 1207.0
0.955999970436 -0.0769999995828 -0.284999996424 1201.0
0.958000004292 -0.082999996841 -0.284999996424 1203.0
0.955999970436 -0.0879999995232 -0.284999996424 1199.0
0.957000017166 -0.0939999967813 -0.284999996424 1211.0
0.950999975204 -0.0989999994636 -0.284000009298 1141.0
0.856999993324 -0.0939999967813 -0.254999995232 392.0
0.652999997139 -0.0750000029802 -0.194999992847 204.0
0.64200001955 -0.0780000016093 -0.190999999642 209.0
0.638999998569 -0.0810000002384 -0.189999997616 207.0
0.648000001907 -0.0860000029206 -0.193000003695 209.0
0.64099997282 -0.0890000015497 -0.190999999642 205.0
0.657000005245 -0.0949999988079 -0.195999994874 202.0
0.633000016212 -0.0960000008345 -0.188999995589 206.0
0.615999996662 -0.097000002861 -0.184000000358 198.0
0.652000010014 -0.107000000775 -0.194999992847 207.0
0.634999990463 -0.108000002801 -0.189999997616 208.0
0.628000020981 -0.109999999404 -0.187999993563 210.0
0.648000001907 -0.118000000715 -0.194000005722 208.0
0.684000015259 -0.128999993205 -0.204999998212 227.0
0.917999982834 -0.180000007153 -0.275999993086 904.0
0.935000002384 -0.188999995589 -0.282000005245 1183.0
0.938000023365 -0.194999992847 -0.282999992371 1166.0
0.927999973297 -0.199000000954 -0.280000001192 1178.0
0.934000015259 -0.206000000238 -0.282000005245 1177.0
0.926999986172 -0.21099999547 -0.280999988317 1150.0
0.930999994278 -0.217999994755 -0.282000005245 1164.0
0.930999994278 -0.223000004888 -0.282000005245 1155.0
0.927999973297 -0.229000002146 -0.282000005245 1145.0
0.921000003815 -0.232999995351 -0.280000001192 1148.0
0.92199999094 -0.238999992609 -0.280999988317 1151.0
0.92199999094 -0.245000004768 -0.280999988317 1156.0
0.919000029564 -0.25 -0.280000001192 1141.0
0.92199999094 -0.256999999285 -0.282000005245 1116.0
0.836000025272 -0.238000005484 -0.256000012159 496.0
0.601999998093 -0.173999994993 -0.184000000358 212.0
0.561999976635 -0.165999993682 -0.172000005841 205.0
0.574999988079 -0.173999994993 -0.175999999046 209.0
0.56400001049 -0.173999994993 -0.172999992967 203.0
0.566999971867 -0.179000005126 -0.173999994993 213.0
0.555000007153 -0.179000005126 -0.171000003815 209.0
0.550999999046 -0.180999994278 -0.170000001788 205.0
0.573000013828 -0.192000001669 -0.177000001073 201.0
0.52999997139 -0.180999994278 -0.16400000453 210.0
0.52999997139 -0.185000002384 -0.16400000453 212.0
0.561999976635 -0.20000000298 -0.17499999702 207.0
0.527000010014 -0.190999999642 -0.16400000453 213.0
0.711000025272 -0.263999998569 -0.222000002861 290.0
0.887000024319 -0.337000012398 -0.277999997139 928.0
0.896000027657 -0.347000002861 -0.280999988317 1123.0
0.893000006676 -0.351999998093 -0.280999988317 1103.0
0.889999985695 -0.356999993324 -0.280000001192 1099.0
0.888000011444 -0.363000005484 -0.280000001192 1110.0
0.89099997282 -0.370999991894 -0.282000005245 1108.0
0.882000029087 -0.372999995947 -0.280000001192 1084.0
0.880999982357 -0.379000008106 -0.280000001192 1095.0
0.880999982357 -0.386000007391 -0.280000001192 1092.0
0.884000003338 -0.393999993801 -0.282000005245 1082.0
0.879999995232 -0.398999989033 -0.282000005245 1066.0
0.873000025749 -0.402000010014 -0.280000001192 1061.0
0.870999991894 -0.407999992371 -0.280000001192 1036.0
0.774999976158 -0.368000000715 -0.25 476.0
0.495999991894 -0.238000005484 -0.159999996424 220.0
0.444000005722 -0.216000005603 -0.143000006676 211.0
0.446000009775 -0.219999998808 -0.143999993801 204.0
0.381000012159 -0.189999997616 -0.123000003397 196.0
0.414999991655 -0.21099999547 -0.135000005364 206.0
0.388999998569 -0.201000005007 -0.127000004053 192.0
0.356000006199 -0.186000004411 -0.115999996662 204.0
0.426999986172 -0.228000000119 -0.140000000596 192.0
0.370999991894 -0.20000000298 -0.122000001371 199.0
0.361999988556 -0.197999998927 -0.119000002742 194.0
0.356999993324 -0.197999998927 -0.118000000715 196.0
0.681999981403 -0.389999985695 -0.226999998093 355.0
0.830999970436 -0.483999997377 -0.277999997139 723.0
4.15500020981 2.492000103 -1.45700001717 250.0
4.18400001526 2.47199988365 -1.4620000124 253.0
0.00999999977648 0.00499999988824 -0.00300000002608 263.0
4.22300004959 2.42300009727 -1.4659999609 242.0
4.23799991608 2.39499998093 -1.4659999609 243.0
4.24499988556 2.36299991608 -1.46399998665 239.0
4.25400018692 2.33200001717 -1.4620000124 238.0
0.0130000002682 0.00600000005215 -0.00300000002608 232.0
4.28800010681 2.27999997139 -1.46500003338 234.0
4.3109998703 2.25699996948 -1.46899998188 230.0
4.30700016022 2.22000002861 -1.46300005913 225.0
0.0130000002682 0.00600000005215 -0.00300000002608 226.0
4.33799982071 2.16599988937 -1.46500003338 222.0
4.34999990463 2.13800001144 -1.46500003338 212.0
4.34600019455 2.10199999809 -1.46000003815 213.0
4.37799978256 2.08299994469 -1.4659999609 219.0
4.38700008392 2.05399990082 -1.46500003338 218.0
0.00499999988824 0.00200000009499 -0.0010000000475 214.0
4.39799976349 1.99100005627 -1.46099996567 214.0
4.40799999237 1.96300005913 -1.46099996567 206.0
0.00700000021607 0.00200000009499 -0.0010000000475 201.0
4.44500017166 1.9129999876 -1.4659999609 202.0
4.45599985123 1.88499999046 -1.4659999609 200.0
4.48099994659 1.86199998856 -1.47099995613 192.0
4.46600008011 1.82299995422 -1.4620000124 196.0
4.48600006104 1.7990000248 -1.4659999609 189.0
4.51300001144 1.77699995041 -1.47099995613 185.0
4.50199985504 1.74000000954 -1.46399998665 181.0
4.51999998093 1.7159999609 -1.46700000763 177.0
4.53200006485 1.68799996376 -1.46800005436 169.0
4.52199983597 1.65199995041 -1.4620000124 174.0
4.56500005722 1.63600003719 -1.47200000286 167.0
4.56699991226 1.60500001907 -1.47000002861 164.0
4.5640001297 1.5720000267 -1.4659999609 162.0
4.57800006866 1.54600000381 -1.46800005436 159.0
4.59100008011 1.51900005341 -1.46899998188 164.0
4.59600019455 1.48899996281 -1.46800005436 151.0
4.58300018311 1.45399999619 -1.46099996567 155.0
4.63899993896 1.44000005722 -1.47699999809 150.0
4.625 1.40499997139 -1.47000002861 150.0
4.60699987411 1.36899995804 -1.46099996567 149.0
4.63199996948 1.34599995613 -1.46700000763 150.0
4.62400007248 1.31299996376 -1.4620000124 141.0
4.67600011826 1.29700005054 -1.47599995136 147.0
4.63999986649 1.25600004196 -1.46300005913 149.0
4.64400005341 1.22699999809 -1.4620000124 146.0
4.66499996185 1.20200002193 -1.4659999609 152.0
4.70399999619 1.18200004101 -1.47599995136 155.0
4.70800018311 1.15299999714 -1.47500002384 150.0
4.69099998474 1.11800003052 -1.46800005436 144.0
4.68200016022 1.08599996567 -1.46300005913 141.0
4.74399995804 1.07000005245 -1.48099994659 135.0
4.73000001907 1.03699994087 -1.47500002384 135.0
4.74599981308 1.01100003719 -1.47800004482 135.0
4.75699996948 0.98299998045 -1.48000001907 128.0
4.74700021744 0.950999975204 -1.47500002384 126.0
4.73699998856 0.920000016689 -1.47000002861 126.0
4.742000103 0.89099997282 -1.47000002861 133.0
4.76599979401 0.865999996662 -1.47599995136 122.0
4.74300003052 0.832000017166 -1.46700000763 123.0
4.7610001564 0.805999994278 -1.47099995613 123.0
4.76200008392 0.777000010014 -1.47000002861 117.0
4.79199981689 0.751999974251 -1.47800004482 116.0
4.80000019073 0.723999977112 -1.47899997234 122.0
0.00600000005215 0.00200000009499 -0.0010000000475 120.0
4.81500005722 0.666999995708 -1.48099994659 118.0
4.79300022125 0.634999990463 -1.47300004959 117.0
4.80900001526 0.606999993324 -1.47699999809 115.0
4.80499982834 0.57800000906 -1.47500002384 115.0
4.81199979782 0.549000024796 -1.47599995136 109.0
4.80900001526 0.519999980927 -1.47399997711 118.0
0.00700000021607 0.00200000009499 -0.0010000000475 116.0
4.82899999619 0.463999986649 -1.47800004482 109.0
4.8109998703 0.432999998331 -1.47200000286 113.0
4.82999992371 0.405999988317 -1.47699999809 107.0
4.83400011063 0.377000004053 -1.47800004482 98.0
4.83300018311 0.347999989986 -1.47699999809 95.0
4.84499979019 0.319999992847 -1.48000001907 98.0
0.00899999961257 0.00200000009499 -0.00200000009499 96.0
4.83699989319 0.261000007391 -1.47599995136 93.0
0.00700000021607 0.00200000009499 -0.0010000000475 93.0
4.84499979019 0.203999996185 -1.47699999809 83.0
0.00600000005215 0.00200000009499 -0.0010000000475 88.0
4.85900020599 0.145999997854 -1.48099994659 93.0
0.00800000037998 0.00200000009499 -0.00200000009499 84.0
4.83599996567 0.0879999995232 -1.47300004959 92.0
4.86299991608 0.0590000003576 -1.48099994659 86.0
0.0149999996647 0.00200000009499 -0.00400000018999 84.0
4.83799982071 0.0010000000475 -1.47300004959 90.0
4.85699987411 -0.0270000007004 -1.47899997234 86.0
0.0500000007451 0.0010000000475 -0.0140000004321 95.0
0.610000014305 -0.00800000037998 -0.185000002384 169.0
0.957000017166 -0.019999999553 -0.289999991655 986.0
0.949000000954 -0.0260000005364 -0.287999987602 822.0
0.936999976635 -0.0309999994934 -0.284000009298 746.0
0.944000005722 -0.0370000004768 -0.287000000477 814.0
0.949999988079 -0.0430000014603 -0.28900000453 878.0
0.95300000906 -0.0480000004172 -0.289999991655 958.0
0.949000000954 -0.0540000014007 -0.287999987602 1020.0
0.955999970436 -0.0599999986589 -0.289999991655 1060.0
0.958999991417 -0.0659999996424 -0.291000008583 1091.0
0.962000012398 -0.0719999969006 -0.291999995708 1129.0
0.957000017166 -0.0769999995828 -0.291000008583 1165.0
0.953999996185 -0.082999996841 -0.289999991655 1164.0
0.954999983311 -0.0879999995232 -0.291000008583 1160.0
0.954999983311 -0.0939999967813 -0.291000008583 1173.0
0.95300000906 -0.10000000149 -0.289999991655 1098.0
0.834999978542 -0.0920000001788 -0.254000008106 367.0
0.665000021458 -0.0769999995828 -0.202000007033 208.0
0.675999999046 -0.082000002265 -0.206000000238 207.0
0.661000013351 -0.0839999988675 -0.202000007033 204.0
0.652000010014 -0.0869999974966 -0.199000000954 198.0
0.652000010014 -0.0909999981523 -0.199000000954 200.0
0.64099997282 -0.0930000022054 -0.195999994874 207.0
0.601999998093 -0.0909999981523 -0.184000000358 204.0
0.626999974251 -0.0989999994636 -0.190999999642 205.0
0.628000020981 -0.103000000119 -0.192000001669 203.0
0.624000012875 -0.105999998748 -0.190999999642 201.0
0.624000012875 -0.109999999404 -0.190999999642 200.0
0.617999970913 -0.112000003457 -0.189999997616 194.0
0.711000025272 -0.134000003338 -0.217999994755 248.0
0.917999982834 -0.180000007153 -0.282000005245 904.0
0.934000015259 -0.188999995589 -0.287999987602 1133.0
0.935000002384 -0.194999992847 -0.287999987602 1125.0
0.930000007153 -0.20000000298 -0.287000000477 1119.0
0.931999981403 -0.206000000238 -0.287999987602 1130.0
0.93599998951 -0.212999999523 -0.28900000453 1116.0
0.926999986172 -0.216999992728 -0.287000000477 1097.0
0.927999973297 -0.223000004888 -0.287000000477 1098.0
0.924000024796 -0.228000000119 -0.287000000477 1107.0
0.925000011921 -0.233999997377 -0.287000000477 1102.0
0.920000016689 -0.238999992609 -0.286000013351 1096.0
0.916999995708 -0.244000002742 -0.284999996424 1106.0
0.916999995708 -0.25 -0.286000013351 1099.0
0.912999987602 -0.254999995232 -0.284999996424 1053.0
0.814999997616 -0.231999993324 -0.254999995232 423.0
0.60900002718 -0.175999999046 -0.189999997616 201.0
0.53100001812 -0.157000005245 -0.165999993682 195.0
0.554000020027 -0.166999995708 -0.173999994993 200.0
0.554000020027 -0.171000003815 -0.173999994993 206.0
0.541000008583 -0.171000003815 -0.170000001788 199.0
0.56400001049 -0.181999996305 -0.177000001073 209.0
0.555000007153 -0.182999998331 -0.17499999702 206.0
0.54699999094 -0.184000000358 -0.172999992967 210.0
0.513000011444 -0.17499999702 -0.162000000477 211.0
0.558000028133 -0.194999992847 -0.177000001073 206.0
0.541000008583 -0.193000003695 -0.172000005841 210.0
0.549000024796 -0.199000000954 -0.17499999702 205.0
0.731999993324 -0.273000001907 -0.233999997377 327.0
0.883000016212 -0.33599999547 -0.282999992371 946.0
0.888999998569 -0.344999998808 -0.284999996424 1084.0
0.889999985695 -0.351999998093 -0.286000013351 1092.0
0.888999998569 -0.358000010252 -0.286000013351 1074.0
0.889999985695 -0.365000009537 -0.287000000477 1078.0
0.879999995232 -0.36700001359 -0.284999996424 1076.0
0.885999977589 -0.375999987125 -0.287000000477 1068.0
0.879999995232 -0.379999995232 -0.286000013351 1063.0
0.879999995232 -0.386000007391 -0.287000000477 1060.0
0.879000008106 -0.391999989748 -0.287000000477 1045.0
0.879000008106 -0.398999989033 -0.287000000477 1030.0
0.875 -0.404000014067 -0.287000000477 1009.0
0.865999996662 -0.405999988317 -0.284999996424 946.0
0.754000008106 -0.358999997377 -0.247999995947 397.0
0.451000005007 -0.216000005603 -0.149000003934 214.0
0.43599998951 -0.211999997497 -0.143999993801 202.0
0.407000005245 -0.201000005007 -0.134000003338 203.0
0.423000007868 -0.211999997497 -0.140000000596 193.0
0.402999997139 -0.204999998212 -0.134000003338 202.0
0.398999989033 -0.206000000238 -0.133000001311 193.0
0.365999996662 -0.192000001669 -0.122000001371 198.0
0.379999995232 -0.202000007033 -0.127000004053 202.0
0.363000005484 -0.195999994874 -0.122000001371 198.0
0.340999990702 -0.187000006437 -0.115000002086 191.0
0.386999994516 -0.216000005603 -0.130999997258 203.0
0.722999989986 -0.41400000453 -0.246000006795 409.0
0.825999975204 -0.481000006199 -0.282000005245 729.0
4.16699981689 2.5039999485 -1.49199998379 257.0
0.0109999999404 0.00499999988824 -0.00300000002608 262.0
4.19899988174 2.45000004768 -1.49399995804 260.0
0.0140000004321 0.00700000021607 -0.00400000018999 246.0
0.0219999998808 0.0109999999404 -0.00600000005215 249.0
4.22499990463 2.35599994659 -1.48899996281 254.0
4.257999897 2.33899998665 -1.49500000477 244.0
4.26700019836 2.30800008774 -1.49399995804 237.0
4.28900003433 2.28500008583 -1.49699997902 236.0
4.30200004578 2.25600004196 -1.49699997902 236.0
4.31799983978 2.23000001907 -1.49800002575 238.0
4.31500005722 2.1930000782 -1.49300003052 231.0
0.00499999988824 0.00200000009499 -0.0010000000475 219.0
4.34399986267 2.13899993896 -1.49399995804 228.0
4.36600017548 2.11500000954 -1.49800002575 219.0
4.34100008011 2.06900000572 -1.48500001431 223.0
4.36899995804 2.0490000248 -1.49100005627 216.0
4.38500022888 2.02300000191 -1.49199998379 212.0
4.38700008392 1.99000000954 -1.48899996281 222.0
4.40399980545 1.96399998665 -1.49100005627 209.0
4.41300010681 1.93499994278 -1.49000000954 208.0
4.4310002327 1.90999996662 -1.49300003052 211.0
4.44999980927 1.88499999046 -1.49500000477 200.0
4.45499992371 1.85399997234 -1.49300003052 200.0
4.46999979019 1.82799994946 -1.49500000477 192.0
4.48600006104 1.80200004578 -1.49699997902 203.0
4.50099992752 1.77600002289 -1.49899995327 194.0
4.49100017548 1.73899996281 -1.49199998379 185.0
4.52299976349 1.71899998188 -1.49899995327 186.0
4.52299976349 1.68700003624 -1.4960000515 183.0
4.53299999237 1.6590000391 -1.4960000515 177.0
0.0250000003725 0.00899999961257 -0.00700000021607 173.0
4.54699993134 1.60099995136 -1.49500000477 164.0
4.55800008774 1.57299995422 -1.4960000515 174.0
4.56300020218 1.54299998283 -1.49399995804 172.0
4.58799982071 1.51999998093 -1.49899995327 159.0
4.55999994278 1.48000001907 -1.48800003529 166.0
4.60699987411 1.46399998665 -1.5 161.0
4.62200021744 1.43700003624 -1.50300002098 157.0
4.61499977112 1.40400004387 -1.49800002575 153.0
4.62599992752 1.37699997425 -1.49899995327 146.0
4.62200021744 1.34500002861 -1.49500000477 151.0
4.64300012589 1.32000005245 -1.49899995327 152.0
4.632999897 1.28699994087 -1.49399995804 152.0
4.66800022125 1.26600003242 -1.50300002098 152.0
4.66800022125 1.23500001431 -1.5 149.0
4.67500019073 1.20700001717 -1.5 154.0
4.67299985886 1.17599999905 -1.49800002575 156.0
4.69999980927 1.15199995041 -1.5039999485 154.0
4.71700000763 1.12600004673 -1.50800001621 140.0
4.69500017166 1.0909999609 -1.49899995327 144.0
4.73299980164 1.07000005245 -1.50899994373 140.0
4.69199991226 1.02999997139 -1.49399995804 131.0
4.69799995422 1.00199997425 -1.49399995804 131.0
4.74300003052 0.981999993324 -1.50699996948 130.0
4.73000001907 0.949000000954 -1.50100004673 133.0
4.73799991608 0.921000003815 -1.50100004673 125.0
4.75400018692 0.894999980927 -1.50499999523 125.0
0.0109999999404 0.00300000002608 -0.00300000002608 121.0
4.76300001144 0.837000012398 -1.50499999523 117.0
4.76399993896 0.806999981403 -1.50300002098 118.0
4.75 0.776000022888 -1.49800002575 127.0
4.7610001564 0.748000025749 -1.5 120.0
4.76800012589 0.72000002861 -1.50100004673 122.0
0.00800000037998 0.00200000009499 -0.0010000000475 118.0
0.0359999984503 0.00600000005215 -0.00999999977648 119.0
4.78299999237 0.634000003338 -1.50100004673 119.0
4.78399991989 0.605000019073 -1.50100004673 111.0
0.0250000003725 0.00400000018999 -0.00700000021607 113.0
0.0219999998808 0.00400000018999 -0.00600000005215 116.0
4.80399990082 0.519999980927 -1.5039999485 114.0
4.8060002327 0.490999996662 -1.50300002098 113.0
4.8140001297 0.462999999523 -1.50499999523 112.0
0.0179999992251 0.00300000002608 -0.00499999988824 106.0
0.0219999998808 0.00300000002608 -0.00600000005215 106.0
4.83500003815 0.377000004053 -1.50899994373 99.0
4.82299995422 0.347000002861 -1.50499999523 91.0
4.82499980927 0.319000005722 -1.50499999523 97.0
4.83199977875 0.289999991655 -1.50600004196 100.0
4.80999994278 0.259999990463 -1.49899995327 94.0
4.82700014114 0.231999993324 -1.5039999485 93.0
0.00600000005215 0.00200000009499 -0.0010000000475 91.0
4.82000017166 0.173999994993 -1.5 88.0
4.85200023651 0.145999997854 -1.50999999046 90.0
4.82000017166 0.115999996662 -1.5 90.0
4.82800006866 0.0879999995232 -1.50199997425 91.0
4.82100009918 0.0590000003576 -1.49899995327 88.0
0.0170000009239 0.00200000009499 -0.00400000018999 92.0
4.84899997711 0.0010000000475 -1.50800001621 89.0
4.81500005722 -0.0270000007004 -1.49699997902 90.0
4.83400011063 -0.0560000017285 -1.50300002098 95.0
0.634000003338 -0.00899999961257 -0.195999994874 179.0
0.953999996185 -0.019999999553 -0.296000003815 956.0
0.893000006676 -0.0240000002086 -0.277000010014 452.0
0.670000016689 -0.0209999997169 -0.207000002265 200.0
0.662999987602 -0.0250000003725 -0.204999998212 204.0
0.68900001049 -0.0299999993294 -0.212999999523 212.0
0.704999983311 -0.035000000149 -0.217999994755 227.0
0.745000004768 -0.0419999994338 -0.231000006199 241.0
0.774999976158 -0.0480000004172 -0.239999994636 266.0
0.801999986172 -0.054999999702 -0.248999997973 291.0
0.828999996185 -0.0619999989867 -0.256999999285 332.0
0.839999973774 -0.0670000016689 -0.261000007391 366.0
0.852999985218 -0.0740000009537 -0.264999985695 427.0
0.880999982357 -0.0810000002384 -0.273999989033 481.0
0.887000024319 -0.0869999974966 -0.275999993086 539.0
0.910000026226 -0.0949999988079 -0.282999992371 594.0
0.907000005245 -0.10000000149 -0.282000005245 639.0
0.907000005245 -0.105999998748 -0.282000005245 609.0
0.885999977589 -0.108999997377 -0.275999993086 550.0
0.879999995232 -0.112999998033 -0.273999989033 512.0
0.866999983788 -0.116999998689 -0.270000010729 463.0
0.842000007629 -0.118000000715 -0.263000011444 411.0
0.824000000954 -0.120999999344 -0.256999999285 388.0
0.805000007153 -0.123000003397 -0.250999987125 355.0
0.787000000477 -0.125 -0.246000006795 322.0
0.772000014782 -0.127000004053 -0.240999996662 303.0
0.744000017643 -0.127000004053 -0.232999995351 286.0
0.72000002861 -0.127000004053 -0.225999996066 265.0
0.705999970436 -0.128999993205 -0.221000000834 248.0
0.758000016212 -0.143999993801 -0.238000005484 282.0
0.925999999046 -0.181999996305 -0.291000008583 884.0
0.927999973297 -0.187999993563 -0.291999995708 1040.0
0.922999978065 -0.193000003695 -0.289999991655 1071.0
0.930000007153 -0.20000000298 -0.293000012636 1058.0
0.931999981403 -0.207000002265 -0.293999999762 1055.0
0.926999986172 -0.21099999547 -0.293000012636 1061.0
0.927999973297 -0.216999992728 -0.293000012636 1068.0
0.925999999046 -0.223000004888 -0.293000012636 1071.0
0.92199999094 -0.228000000119 -0.291999995708 1065.0
0.921000003815 -0.232999995351 -0.291999995708 1076.0
0.920000016689 -0.238999992609 -0.291999995708 1070.0
0.922999978065 -0.246000006795 -0.293999999762 1068.0
0.920000016689 -0.250999987125 -0.293000012636 1071.0
0.911000013351 -0.254999995232 -0.289999991655 1003.0
0.777000010014 -0.222000002861 -0.247999995947 370.0
0.568000018597 -0.165000006557 -0.180999994278 203.0
0.564999997616 -0.166999995708 -0.180000007153 209.0
0.551999986172 -0.166999995708 -0.177000001073 205.0
0.52999997139 -0.16400000453 -0.170000001788 201.0
0.535000026226 -0.168999999762 -0.172000005841 209.0
0.536000013351 -0.172999992967 -0.172000005841 201.0
0.550000011921 -0.180999994278 -0.177000001073 205.0
0.560000002384 -0.187999993563 -0.180999994278 204.0
0.537000000477 -0.184000000358 -0.173999994993 202.0
0.518999993801 -0.181999996305 -0.167999997735 209.0
0.542999982834 -0.194000005722 -0.175999999046 208.0
0.537999987602 -0.195999994874 -0.17499999702 214.0
0.75 -0.280000001192 -0.245000004768 362.0
0.884000003338 -0.337000012398 -0.28900000453 956.0
0.89099997282 -0.345999985933 -0.291999995708 1043.0
0.893000006676 -0.354000002146 -0.293000012636 1032.0
0.884999990463 -0.356999993324 -0.291000008583 1041.0
0.884000003338 -0.363000005484 -0.291999995708 1037.0
0.883000016212 -0.368999987841 -0.291999995708 1031.0
0.879000008106 -0.372999995947 -0.291000008583 1024.0
0.879999995232 -0.381000012159 -0.291999995708 1019.0
0.875 -0.384999990463 -0.291000008583 997.0
0.871999979019 -0.389999985695 -0.291000008583 970.0
0.875 -0.398000001907 -0.291999995708 958.0
0.874000012875 -0.404000014067 -0.293000012636 934.0
0.860000014305 -0.404000014067 -0.28900000453 817.0
0.691999971867 -0.328999996185 -0.232999995351 341.0
0.472000002861 -0.226999998093 -0.158999994397 222.0
0.508000016212 -0.248999997973 -0.172000005841 227.0
0.490000009537 -0.243000000715 -0.165999993682 230.0
0.486999988556 -0.245000004768 -0.165000006557 233.0
0.469000011683 -0.239999994636 -0.158999994397 221.0
0.508000016212 -0.264999985695 -0.172999992967 232.0
0.56400001049 -0.298999994993 -0.193000003695 229.0
0.513000011444 -0.275999993086 -0.175999999046 259.0
0.579999983311 -0.317000001669 -0.20000000298 245.0
0.596000015736 -0.331000000238 -0.206000000238 280.0
0.600000023842 -0.337999999523 -0.208000004292 283.0
0.771000027657 -0.442999988794 -0.268000006676 492.0
0.795000016689 -0.463999986649 -0.277999997139 581.0
0.00999999977648 0.00400000018999 -0.00200000009499 274.0
4.17299985886 2.47499990463 -1.52100002766 260.0
0.0140000004321 0.00700000021607 -0.00400000018999 252.0
0.0149999996647 0.00700000021607 -0.00400000018999 257.0
0.0179999992251 0.00899999961257 -0.00499999988824 258.0
4.23099994659 2.36400008202 -1.52199995518 254.0
4.242000103 2.33400011063 -1.52100002766 251.0
4.25899982452 2.30800008774 -1.52300000191 249.0
0.0109999999404 0.00499999988824 -0.00300000002608 238.0
0.0140000004321 0.00600000005215 -0.00400000018999 237.0
4.27199983597 2.21000003815 -1.51300001144 242.0
0.0120000001043 0.00499999988824 -0.00300000002608 236.0
4.32000017166 2.16499996185 -1.52199995518 229.0
4.34499979019 2.14400005341 -1.52600002289 228.0
4.35799980164 2.11500000954 -1.52600002289 228.0
4.375 2.08899998665 -1.52799999714 234.0
4.38000011444 2.05800008774 -1.52600002289 225.0
4.375 2.02200007439 -1.51999998093 226.0
4.39900016785 1.99899995327 -1.52400004864 221.0
0.00600000005215 0.00200000009499 -0.0010000000475 211.0
4.42700004578 1.94500005245 -1.52600002289 208.0
4.42999982834 1.9129999876 -1.52400004864 211.0
4.44600009918 1.88699996471 -1.52499997616 204.0
4.46600008011 1.86199998856 -1.52900004387 206.0
4.45800018311 1.8259999752 -1.52199995518 209.0
4.46199989319 1.79600000381 -1.51999998093 199.0
4.46999979019 1.76600003242 -1.51900005341 194.0
4.49700021744 1.74500000477 -1.52499997616 195.0
4.52600002289 1.72300004959 -1.53199994564 187.0
4.50099992752 1.68200004101 -1.51999998093 188.0
4.52299976349 1.65799999237 -1.52400004864 185.0
4.54799985886 1.63600003719 -1.52999997139 176.0
4.53200006485 1.59800004959 -1.52100002766 177.0
4.5689997673 1.57899999619 -1.52999997139 177.0
4.57499980927 1.54999995232 -1.52900004387 166.0
4.57399988174 1.51800000668 -1.52699995041 174.0
4.58199977875 1.48899996281 -1.52600002289 172.0
4.61000013351 1.46700000763 -1.53299999237 163.0
4.61299991608 1.43700003624 -1.53100001812 158.0
4.57999992371 1.39600002766 -1.51699995995 155.0
4.62099981308 1.37699997425 -1.52799999714 148.0
4.59800004959 1.34000003338 -1.51800000668 156.0
4.62799978256 1.31799995899 -1.52600002289 156.0
4.632999897 1.28900003433 -1.52499997616 155.0
4.63199996948 1.25800001621 -1.52199995518 152.0
4.63199996948 1.22800004482 -1.51999998093 152.0
4.66699981689 1.20700001717 -1.52900004387 147.0
0.01600000076 0.00400000018999 -0.00400000018999 152.0
4.67100000381 1.14699995518 -1.52600002289 152.0
4.70900011063 1.12600004673 -1.53699994087 149.0
4.68800020218 1.0909999609 -1.52799999714 145.0
4.69999980927 1.06400001049 -1.52999997139 139.0
4.70599985123 1.03499996662 -1.52999997139 135.0
4.71999979019 1.00800001621 -1.53199994564 133.0
4.74399995804 0.98299998045 -1.5379999876 130.0
4.71899986267 0.948000013828 -1.52799999714 138.0
4.74100017548 0.922999978065 -1.5340000391 126.0
4.75600004196 0.896000027657 -1.53699994087 130.0
4.72700023651 0.861000001431 -1.52600002289 125.0
4.74599981308 0.834999978542 -1.52999997139 121.0
4.77099990845 0.810000002384 -1.53699994087 118.0
4.76000022888 0.777999997139 -1.53199994564 123.0
4.7389998436 0.745999991894 -1.52400004864 124.0
4.76499986649 0.72000002861 -1.53100001812 115.0
4.79600000381 0.695999979973 -1.53900003433 116.0
4.76599979401 0.662000000477 -1.52900004387 128.0
4.80000019073 0.637000024319 -1.5379999876 113.0
4.80700016022 0.60900002718 -1.53900003433 114.0
4.76000022888 0.574000000954 -1.52300000191 118.0
4.8140001297 0.550999999046 -1.53999996185 123.0
4.78399991989 0.518999993801 -1.52900004387 110.0
4.82000017166 0.493000000715 -1.53999996185 113.0
4.79799985886 0.462000012398 -1.53100001812 113.0
4.79600000381 0.432999998331 -1.52999997139 115.0
4.82299995422 0.405999988317 -1.5379999876 111.0
4.82499980927 0.377000004053 -1.53699994087 99.0
4.8060002327 0.347000002861 -1.53100001812 105.0
4.82000017166 0.319000005722 -1.5340000391 98.0
4.81599998474 0.28900000453 -1.53299999237 101.0
4.83400011063 0.261000007391 -1.5379999876 104.0
4.83599996567 0.232999995351 -1.5379999876 99.0
4.81799983978 0.202999994159 -1.53199994564 99.0
4.83699989319 0.17499999702 -1.53699994087 95.0
0.0189999993891 0.00200000009499 -0.00499999988824 88.0
4.82800006866 0.115999996662 -1.53299999237 96.0
4.84600019455 0.0879999995232 -1.53900003433 94.0
4.84000015259 0.0590000003576 -1.53699994087 95.0
4.83699989319 0.0299999993294 -1.53600001335 93.0
4.83900022507 0.0010000000475 -1.53600001335 91.0
0.0509999990463 0.0010000000475 -0.0149999996647 97.0
0.00800000037998 0.00200000009499 -0.0010000000475 95.0
0.661000013351 -0.00899999961257 -0.209000006318 197.0
0.957000017166 -0.019999999553 -0.303000003099 952.0
0.878000020981 -0.0240000002086 -0.277999997139 415.0
0.644999980927 -0.019999999553 -0.203999996185 195.0
0.629999995232 -0.0240000002086 -0.199000000954 196.0
0.598999977112 -0.0260000005364 -0.188999995589 195.0
0.615999996662 -0.0299999993294 -0.194999992847 185.0
0.628000020981 -0.035000000149 -0.199000000954 190.0
0.606999993324 -0.0370000004768 -0.192000001669 191.0
0.620000004768 -0.0419999994338 -0.195999994874 192.0
0.619000017643 -0.0450000017881 -0.195999994874 195.0
0.614000022411 -0.0489999987185 -0.194000005722 196.0
0.625 -0.0529999993742 -0.197999998927 198.0
0.616999983788 -0.0560000017285 -0.194999992847 197.0
0.661000013351 -0.0640000030398 -0.209000006318 204.0
0.790000021458 -0.082000002265 -0.250999987125 296.0
0.93900001049 -0.104000002146 -0.298000007868 968.0
0.95300000906 -0.112000003457 -0.303000003099 1093.0
0.945999979973 -0.116999998689 -0.300999999046 1084.0
0.945999979973 -0.122000001371 -0.300999999046 1073.0
0.93900001049 -0.127000004053 -0.298999994993 1070.0
0.943000018597 -0.133000001311 -0.300000011921 1054.0
0.93599998951 -0.137999996543 -0.298000007868 1050.0
0.944000005722 -0.144999995828 -0.300999999046 1021.0
0.936999976635 -0.15000000596 -0.298999994993 988.0
0.934000015259 -0.155000001192 -0.298000007868 971.0
0.930000007153 -0.159999996424 -0.29699999094 968.0
0.930000007153 -0.165999993682 -0.298000007868 930.0
0.922999978065 -0.170000001788 -0.296000003815 899.0
0.915000021458 -0.173999994993 -0.293000012636 804.0
0.84500002861 -0.165999993682 -0.270999997854 424.0
0.805999994278 -0.163000002503 -0.259000003338 386.0
0.833999991417 -0.173999994993 -0.268000006676 402.0
0.84399998188 -0.181999996305 -0.272000014782 423.0
0.84399998188 -0.187000006437 -0.272000014782 452.0
0.830999970436 -0.189999997616 -0.268000006676 472.0
0.848999977112 -0.199000000954 -0.273999989033 487.0
0.846000015736 -0.203999996185 -0.273000001907 504.0
0.853999972343 -0.21099999547 -0.275999993086 537.0
0.847999989986 -0.215000003576 -0.273999989033 544.0
0.856999993324 -0.223000004888 -0.277999997139 555.0
0.864000022411 -0.230000004172 -0.280000001192 575.0
0.856999993324 -0.233999997377 -0.279000014067 594.0
0.865999996662 -0.241999998689 -0.282000005245 591.0
0.84500002861 -0.241999998689 -0.27500000596 551.0
0.84399998188 -0.24699999392 -0.275999993086 544.0
0.84399998188 -0.252999991179 -0.275999993086 545.0
0.846000015736 -0.259000003338 -0.277000010014 526.0
0.841000020504 -0.263000011444 -0.275999993086 511.0
0.832000017166 -0.266000002623 -0.273000001907 500.0
0.82800000906 -0.270000010729 -0.272000014782 498.0
0.81400001049 -0.270999997854 -0.268000006676 492.0
0.815999984741 -0.277000010014 -0.268999993801 492.0
0.819000005722 -0.284000009298 -0.270999997854 485.0
0.814999997616 -0.287999987602 -0.270000010729 482.0
0.813000023365 -0.293000012636 -0.270000010729 479.0
0.81400001049 -0.298999994993 -0.270999997854 484.0
0.833000004292 -0.312000006437 -0.277000010014 569.0
0.85900002718 -0.32800000906 -0.287000000477 691.0
0.847000002861 -0.330000013113 -0.282999992371 698.0
0.850000023842 -0.337000012398 -0.284999996424 684.0
0.847999989986 -0.342000007629 -0.284999996424 667.0
0.842000007629 -0.345999985933 -0.282999992371 660.0
0.84500002861 -0.352999985218 -0.284999996424 648.0
0.838999986649 -0.356999993324 -0.284000009298 625.0
0.830999970436 -0.360000014305 -0.280999988317 604.0
0.828999996185 -0.365000009537 -0.280999988317 591.0
0.818000018597 -0.365999996662 -0.277999997139 568.0
0.801999986172 -0.365000009537 -0.273999989033 548.0
0.806999981403 -0.372999995947 -0.275999993086 512.0
0.778999984264 -0.365999996662 -0.266999989748 482.0
0.792999982834 -0.379000008106 -0.272000014782 490.0
0.797999978065 -0.388000011444 -0.27500000596 526.0
0.813000023365 -0.402000010014 -0.280999988317 533.0
0.799000024796 -0.400999993086 -0.277000010014 551.0
0.792999982834 -0.404000014067 -0.27500000596 546.0
0.79699999094 -0.412999987602 -0.277000010014 563.0
0.792999982834 -0.416999995708 -0.277000010014 567.0
0.808000028133 -0.432000011206 -0.282999992371 574.0
0.800999999046 -0.435000002384 -0.282000005245 604.0
0.799000024796 -0.439999997616 -0.280999988317 606.0
0.811999976635 -0.453999996185 -0.287000000477 620.0
0.79699999094 -0.451999992132 -0.282999992371 623.0
0.705999970436 -0.405999988317 -0.250999987125 394.0
0.523999989033 -0.305000007153 -0.187000006437 259.0
0.0109999999404 0.00499999988824 -0.00300000002608 266.0
4.14799976349 2.46499991417 -1.54299998283 280.0
4.17999982834 2.44799995422 -1.54999995232 272.0
4.18699979782 2.41599988937 -1.54799997807 258.0
0.0130000002682 0.00600000005215 -0.00400000018999 274.0
4.21899986267 2.36199998856 -1.5490000248 258.0
0.0149999996647 0.00700000021607 -0.00400000018999 255.0
4.25400018692 2.30999994278 -1.5529999733 252.0
4.26499986649 2.27999997139 -1.55200004578 249.0
4.26999998093 2.24799990654 -1.5490000248 242.0
0.00600000005215 0.00200000009499 -0.0010000000475 245.0
4.30100011826 2.19400000572 -1.55099999905 247.0
4.30100011826 2.16000008583 -1.54600000381 248.0
4.33900022507 2.14400005341 -1.55499994755 234.0
4.34700012207 2.11400008202 -1.55400002003 234.0
4.34700012207 2.07999992371 -1.54999995232 235.0
4.37200021744 2.05800008774 -1.55499994755 231.0
0.00800000037998 0.00300000002608 -0.00200000009499 230.0
4.37300014496 1.99100005627 -1.54700005054 226.0
4.38199996948 1.96099996567 -1.54600000381 219.0
4.39699983597 1.93499994278 -1.54700005054 218.0
4.4279999733 1.91600000858 -1.55499994755 221.0
4.41800022125 1.87800002098 -1.54700005054 213.0
4.42600011826 1.84899997711 -1.54600000381 206.0
4.45699977875 1.82899999619 -1.5529999733 203.0
4.47800016403 1.80499994755 -1.55700004101 201.0
4.4889998436 1.77699995041 -1.55700004101 198.0
4.48000001907 1.74100005627 -1.55099999905 197.0
4.47800016403 1.70799994469 -1.54700005054 194.0
4.48699998856 1.67999994755 -1.54700005054 192.0
4.507999897 1.65600001812 -1.55099999905 186.0
4.53700017929 1.63399994373 -1.55700004101 185.0
4.52699995041 1.59899997711 -1.55099999905 189.0
4.55900001526 1.57799994946 -1.55900001526 175.0
4.56199979782 1.54799997807 -1.55700004101 166.0
4.55200004578 1.51300001144 -1.55099999905 171.0
4.56599998474 1.48699998856 -1.55200004578 172.0
4.59200000763 1.46399998665 -1.55799996853 168.0
4.60300016403 1.43599998951 -1.55900001526 161.0
4.62400007248 1.41199994087 -1.56400001049 153.0
4.59999990463 1.37399995327 -1.5529999733 156.0
4.6139998436 1.34700000286 -1.55499994755 155.0
4.58500003815 1.30799996853 -1.54299998283 157.0
4.60900020599 1.2840000391 -1.54799997807 156.0
4.62799978256 1.25899994373 -1.55200004578 158.0
4.65500020981 1.23599994183 -1.55900001526 157.0
4.66599988937 1.20799994469 -1.55999994278 151.0
4.65000009537 1.1740000248 -1.5529999733 154.0
4.67600011826 1.14999997616 -1.55900001526 148.0
4.67600011826 1.12000000477 -1.55700004101 154.0
4.70800018311 1.09700000286 -1.56599998474 151.0
4.6970000267 1.06500005722 -1.55999994278 146.0
4.70699977875 1.03699994087 -1.56099998951 141.0
0.00999999977648 0.00300000002608 -0.00200000009499 135.0
4.69000005722 0.973999977112 -1.55200004578 139.0
4.69899988174 0.945999979973 -1.5529999733 135.0
4.72800016403 0.92199999094 -1.56099998951 128.0
4.742000103 0.894999980927 -1.56400001049 129.0
4.71899986267 0.861000001431 -1.55499994755 122.0
4.75500011444 0.837999999523 -1.56500005722 122.0
4.75099992752 0.808000028133 -1.56200003624 128.0
4.75600004196 0.778999984264 -1.56200003624 119.0
4.77400016785 0.751999974251 -1.56700003147 130.0
4.74599981308 0.71899998188 -1.55599999428 122.0
4.76000022888 0.690999984741 -1.55900001526 126.0
4.75899982452 0.662000000477 -1.55799996853 119.0
4.77199983597 0.634000003338 -1.56099998951 129.0
4.76599979401 0.603999972343 -1.55799996853 118.0
4.79500007629 0.578999996185 -1.56599998474 114.0
0.0120000001043 0.00200000009499 -0.00300000002608 119.0
4.80000019073 0.521000027657 -1.56599998474 119.0
4.79799985886 0.49200001359 -1.56400001049 116.0
0.0299999993294 0.00400000018999 -0.00899999961257 116.0
0.00999999977648 0.00200000009499 -0.00200000009499 111.0
4.80800008774 0.405000001192 -1.56400001049 113.0
