ply
format ascii 1.0
element vertex 898
property float x
property float y
property float z
property float intensity
end_header
0.902999997139 -0.0010000000475 -0.0359999984503 1738.0
0.902000010014 -0.00700000021607 -0.0359999984503 1761.0
0.899999976158 -0.0120000001043 -0.0359999984503 1719.0
0.903999984264 -0.0170000009239 -0.0359999984503 1687.0
0.907000005245 -0.0219999998808 -0.0359999984503 1705.0
0.910000026226 -0.0280000008643 -0.0370000004768 1614.0
0.908999979496 -0.0329999998212 -0.0359999984503 1645.0
0.90600001812 -0.0379999987781 -0.0359999984503 1659.0
0.907999992371 -0.0430000014603 -0.0359999984503 1657.0
0.907000005245 -0.0480000004172 -0.0359999984503 1665.0
0.910000026226 -0.0540000014007 -0.0359999984503 1689.0
0.910000026226 -0.0590000003576 -0.0359999984503 1645.0
0.90499997139 -0.0640000030398 -0.0359999984503 1671.0
0.908999979496 -0.0689999982715 -0.0359999984503 1623.0
0.911000013351 -0.0750000029802 -0.0359999984503 1657.0
0.913999974728 -0.0799999982119 -0.0359999984503 1651.0
0.912000000477 -0.0850000008941 -0.0359999984503 1613.0
0.90600001812 -0.0900000035763 -0.0359999984503 1569.0
0.915000021458 -0.0960000008345 -0.0359999984503 1548.0
0.913999974728 -0.101000003517 -0.0359999984503 1552.0
0.916999995708 -0.107000000775 -0.0370000004768 1548.0
0.913999974728 -0.112000003457 -0.0359999984503 1551.0
0.916000008583 -0.118000000715 -0.0370000004768 1602.0
0.912000000477 -0.122000001371 -0.0359999984503 1609.0
0.916999995708 -0.128999993205 -0.0370000004768 1683.0
0.920000016689 -0.134000003338 -0.0370000004768 1651.0
0.917999982834 -0.140000000596 -0.0370000004768 1668.0
0.916000008583 -0.144999995828 -0.0370000004768 1670.0
0.917999982834 -0.15000000596 -0.0370000004768 1683.0
0.919000029564 -0.156000003219 -0.0370000004768 1715.0
0.92199999094 -0.162000000477 -0.0370000004768 1669.0
0.920000016689 -0.166999995708 -0.0370000004768 1686.0
0.92199999094 -0.172999992967 -0.0370000004768 1702.0
0.920000016689 -0.178000003099 -0.0370000004768 1665.0
0.92199999094 -0.184000000358 -0.0370000004768 1594.0
0.922999978065 -0.189999997616 -0.0370000004768 1628.0
0.922999978065 -0.194999992847 -0.0370000004768 1648.0
0.922999978065 -0.201000005007 -0.0370000004768 1551.0
0.922999978065 -0.207000002265 -0.0370000004768 1575.0
0.92199999094 -0.211999997497 -0.0370000004768 1575.0
0.925000011921 -0.217999994755 -0.0370000004768 1584.0
0.927999973297 -0.22499999404 -0.0370000004768 1595.0
0.925000011921 -0.230000004172 -0.0370000004768 1556.0
0.926999986172 -0.236000001431 -0.0370000004768 1566.0
0.92199999094 -0.239999994636 -0.0370000004768 1569.0
0.926999986172 -0.24699999392 -0.0370000004768 1532.0
0.929000020027 -0.254000008106 -0.0370000004768 1533.0
0.930000007153 -0.259999990463 -0.0370000004768 1607.0
0.927999973297 -0.264999985695 -0.0370000004768 1580.0
0.930999994278 -0.272000014782 -0.0370000004768 1551.0
0.930000007153 -0.277000010014 -0.0370000004768 1545.0
0.926999986172 -0.282999992371 -0.0370000004768 1604.0
0.930999994278 -0.289999991655 -0.0370000004768 1601.0
0.934000015259 -0.29699999094 -0.0379999987781 1513.0
0.930000007153 -0.301999986172 -0.0379999987781 1444.0
0.929000020027 -0.307000011206 -0.0379999987781 1445.0
0.934000015259 -0.314999997616 -0.0379999987781 1455.0
0.931999981403 -0.321000009775 -0.0379999987781 1431.0
0.93599998951 -0.32800000906 -0.0379999987781 1371.0
0.938000023365 -0.335000008345 -0.0379999987781 1402.0
0.939999997616 -0.342000007629 -0.0379999987781 1417.0
0.938000023365 -0.347999989986 -0.0379999987781 1396.0
0.938000023365 -0.354000002146 -0.0379999987781 1401.0
0.940999984741 -0.361999988556 -0.0379999987781 1456.0
0.93900001049 -0.36700001359 -0.0379999987781 1454.0
0.938000023365 -0.374000012875 -0.0379999987781 1483.0
0.939999997616 -0.381000012159 -0.0379999987781 1467.0
0.941999971867 -0.388000011444 -0.0390000008047 1432.0
0.934000015259 -0.391999989748 -0.0379999987781 1432.0
0.939999997616 -0.400999993086 -0.0390000008047 1347.0
0.939999997616 -0.407000005245 -0.0390000008047 1410.0
0.948000013828 -0.418000012636 -0.0390000008047 1443.0
0.943000018597 -0.423000007868 -0.0390000008047 1379.0
0.940999984741 -0.428000003099 -0.0390000008047 1396.0
0.949000000954 -0.43900001049 -0.0390000008047 1377.0
0.944999992847 -0.444000005722 -0.0390000008047 1362.0
0.944000005722 -0.449999988079 -0.0390000008047 1331.0
0.947000026703 -0.458999991417 -0.0390000008047 1288.0
0.971000015736 -0.477999985218 -0.0399999991059 957.0
1.31200003624 -0.657999992371 -0.054999999702 238.0
1.60099995136 -0.816999971867 -0.0670000016689 223.0
1.52799999714 -0.791000008583 -0.0640000030398 264.0
1.32799994946 -0.697000026703 -0.0560000017285 484.0
1.31299996376 -0.699999988079 -0.054999999702 575.0
1.31599998474 -0.712000012398 -0.054999999702 589.0
1.31799995899 -0.723999977112 -0.0560000017285 559.0
1.34700000286 -0.750999987125 -0.0570000000298 455.0
3.78299999237 2.17100000381 -0.206000000238 111.0
3.70600008965 2.09599995613 -0.201000005007 107.0
3.76200008392 2.09699988365 -0.202999994159 98.0
3.75900006294 2.06399989128 -0.202000007033 115.0
3.72799992561 2.01799988747 -0.20000000298 121.0
3.75999999046 2.00500011444 -0.201000005007 126.0
3.75099992752 1.97099995613 -0.20000000298 122.0
3.76600003242 1.94900000095 -0.20000000298 118.0
3.78900003433 1.93099999428 -0.20000000298 122.0
3.77800011635 1.89699995518 -0.199000000954 129.0
3.77800011635 1.86699998379 -0.197999998927 132.0
3.80399990082 1.85199999809 -0.199000000954 130.0
3.75300002098 1.79799997807 -0.195999994874 126.0
3.79800009727 1.79200005531 -0.196999996901 127.0
3.76699995995 1.74899995327 -0.194999992847 143.0
3.78099989891 1.72800004482 -0.194999992847 142.0
3.81399989128 1.71500003338 -0.196999996901 137.0
3.78500008583 1.6740000248 -0.194000005722 147.0
3.81900000572 1.66100001335 -0.195999994874 127.0
3.75900006294 1.60800004005 -0.192000001669 145.0
3.80800008774 1.60199999809 -0.194000005722 137.0
3.91700005531 1.6210000515 -0.199000000954 101.0
4.34999990463 1.76900005341 -0.219999998808 77.0
4.34600019455 1.73699998856 -0.218999996781 86.0
4.30100011826 1.68900001049 -0.216999992728 87.0
4.34399986267 1.67599999905 -0.217999994755 87.0
4.37099981308 1.65699994564 -0.218999996781 81.0
4.382999897 1.63100004196 -0.218999996781 79.0
4.40199995041 1.60899996758 -0.219999998808 78.0
4.39400005341 1.5759999752 -0.218999996781 77.0
4.46000003815 1.57000005245 -0.221000000834 82.0
4.47900009155 1.54700005054 -0.222000002861 79.0
4.46099996567 1.51100003719 -0.219999998808 76.0
4.49900007248 1.49399995804 -0.222000002861 74.0
4.41800022125 1.43900001049 -0.216999992728 72.0
4.47499990463 1.4279999733 -0.219999998808 72.0
4.52699995041 1.41499996185 -0.222000002861 69.0
4.492000103 1.375 -0.218999996781 73.0
4.53399991989 1.35899996758 -0.221000000834 63.0
4.57899999619 1.34300005436 -0.223000004888 64.0
4.65100002289 1.33500003815 -0.225999996066 73.0
4.61100006104 1.29400002956 -0.223000004888 69.0
4.62400007248 1.26800000668 -0.224000006914 69.0
4.61800003052 1.23699998856 -0.223000004888 63.0
4.67399978638 1.22300004959 -0.22499999404 65.0
4.71099996567 1.20299994946 -0.226999998093 67.0
4.68300008774 1.16700005531 -0.22499999404 62.0
4.73199987411 1.14999997616 -0.226999998093 59.0
4.70900011063 1.11500000954 -0.22499999404 63.0
4.87099981308 1.12399995327 -0.232999995351 58.0
0.884999990463 0.136000007391 -0.0419999994338 1356.0
0.89099997282 0.130999997258 -0.0419999994338 1853.0
0.887000024319 0.126000002027 -0.0419999994338 1919.0
0.89099997282 0.120999999344 -0.0419999994338 1998.0
0.89099997282 0.115999996662 -0.0419999994338 1947.0
0.893000006676 0.111000001431 -0.0419999994338 1889.0
0.893999993801 0.105999998748 -0.0419999994338 1786.0
0.89200001955 0.10000000149 -0.0419999994338 1823.0
0.893999993801 0.0949999988079 -0.0419999994338 1871.0
0.896000027657 0.0900000035763 -0.0419999994338 1822.0
0.899999976158 0.0850000008941 -0.0419999994338 1900.0
0.899999976158 0.0799999982119 -0.0419999994338 1823.0
0.893999993801 0.0750000029802 -0.0419999994338 1805.0
0.898999989033 0.070000000298 -0.0419999994338 1742.0
0.898999989033 0.0649999976158 -0.0419999994338 1819.0
0.898000001907 0.0590000003576 -0.0419999994338 1824.0
0.899999976158 0.0540000014007 -0.0419999994338 1818.0
0.896000027657 0.0489999987185 -0.0419999994338 1764.0
0.899999976158 0.0439999997616 -0.0419999994338 1732.0
0.898000001907 0.0390000008047 -0.0419999994338 1780.0
0.902000010014 0.0340000018477 -0.0419999994338 1790.0
0.898999989033 0.0280000008643 -0.0419999994338 1781.0
0.899999976158 0.0230000000447 -0.0419999994338 1715.0
0.902999997139 0.0179999992251 -0.0419999994338 1697.0
0.901000022888 0.0130000002682 -0.0419999994338 1769.0
0.899999976158 0.00800000037998 -0.0410000011325 1817.0
0.903999984264 0.00300000002608 -0.0419999994338 1822.0
0.90600001812 -0.0010000000475 -0.0419999994338 1767.0
0.908999979496 -0.00700000021607 -0.0419999994338 1740.0
0.90600001812 -0.0120000001043 -0.0419999994338 1763.0
0.902000010014 -0.0170000009239 -0.0410000011325 1715.0
0.903999984264 -0.0219999998808 -0.0410000011325 1660.0
0.907000005245 -0.0270000007004 -0.0419999994338 1632.0
0.903999984264 -0.0329999998212 -0.0410000011325 1644.0
0.90499997139 -0.0379999987781 -0.0410000011325 1694.0
0.90600001812 -0.0430000014603 -0.0410000011325 1701.0
0.907999992371 -0.0480000004172 -0.0419999994338 1687.0
0.908999979496 -0.0540000014007 -0.0419999994338 1753.0
0.903999984264 -0.0590000003576 -0.0410000011325 1689.0
0.913999974728 -0.0640000030398 -0.0419999994338 1663.0
0.910000026226 -0.0689999982715 -0.0419999994338 1620.0
0.910000026226 -0.0750000029802 -0.0419999994338 1665.0
0.908999979496 -0.0799999982119 -0.0419999994338 1674.0
0.907999992371 -0.0850000008941 -0.0419999994338 1654.0
0.908999979496 -0.0900000035763 -0.0419999994338 1600.0
0.913999974728 -0.0960000008345 -0.0419999994338 1574.0
0.913999974728 -0.101000003517 -0.0419999994338 1609.0
0.913999974728 -0.107000000775 -0.0419999994338 1643.0
0.919000029564 -0.112999998033 -0.0419999994338 1568.0
0.919000029564 -0.118000000715 -0.0419999994338 1634.0
0.916000008583 -0.123000003397 -0.0419999994338 1604.0
0.912999987602 -0.12800000608 -0.0419999994338 1687.0
0.916000008583 -0.134000003338 -0.0419999994338 1663.0
0.917999982834 -0.140000000596 -0.0419999994338 1692.0
0.921000003815 -0.144999995828 -0.0419999994338 1696.0
0.916999995708 -0.15000000596 -0.0419999994338 1704.0
0.919000029564 -0.156000003219 -0.0419999994338 1720.0
0.917999982834 -0.16099999845 -0.0419999994338 1688.0
0.916000008583 -0.165999993682 -0.0419999994338 1713.0
0.919000029564 -0.172000005841 -0.0419999994338 1698.0
0.919000029564 -0.178000003099 -0.0419999994338 1675.0
0.916999995708 -0.182999998331 -0.0419999994338 1629.0
0.921000003815 -0.188999995589 -0.0419999994338 1597.0
0.920000016689 -0.194999992847 -0.0419999994338 1605.0
0.925999999046 -0.202000007033 -0.0419999994338 1529.0
0.924000024796 -0.207000002265 -0.0419999994338 1542.0
0.925000011921 -0.212999999523 -0.0419999994338 1554.0
0.924000024796 -0.217999994755 -0.0419999994338 1576.0
0.926999986172 -0.22499999404 -0.0430000014603 1580.0
0.921000003815 -0.229000002146 -0.0419999994338 1566.0
0.925000011921 -0.234999999404 -0.0419999994338 1579.0
0.926999986172 -0.241999998689 -0.0430000014603 1572.0
0.929000020027 -0.247999995947 -0.0430000014603 1540.0
0.925999999046 -0.252999991179 -0.0430000014603 1580.0
0.930999994278 -0.259999990463 -0.0430000014603 1619.0
0.927999973297 -0.264999985695 -0.0430000014603 1616.0
0.922999978065 -0.270000010729 -0.0430000014603 1565.0
0.933000028133 -0.279000014067 -0.0430000014603 1585.0
0.930999994278 -0.284000009298 -0.0430000014603 1605.0
0.933000028133 -0.289999991655 -0.0430000014603 1590.0
0.931999981403 -0.296000003815 -0.0430000014603 1461.0
0.930999994278 -0.301999986172 -0.0430000014603 1421.0
0.933000028133 -0.308999985456 -0.0430000014603 1461.0
0.929000020027 -0.31400001049 -0.0430000014603 1493.0
0.93599998951 -0.321999996901 -0.0439999997616 1406.0
0.93900001049 -0.328999996185 -0.0439999997616 1369.0
0.938000023365 -0.335000008345 -0.0439999997616 1403.0
0.931999981403 -0.338999986649 -0.0439999997616 1384.0
0.935000002384 -0.347000002861 -0.0439999997616 1396.0
0.936999976635 -0.354000002146 -0.0439999997616 1385.0
0.93900001049 -0.361000001431 -0.0439999997616 1393.0
0.93900001049 -0.368000000715 -0.0439999997616 1403.0
0.93599998951 -0.372999995947 -0.0439999997616 1465.0
0.935000002384 -0.379000008106 -0.0439999997616 1494.0
0.938000023365 -0.386999994516 -0.0439999997616 1444.0
0.941999971867 -0.395000010729 -0.0439999997616 1428.0
0.941999971867 -0.402000010014 -0.0450000017881 1348.0
0.939999997616 -0.407000005245 -0.0439999997616 1409.0
0.939999997616 -0.41400000453 -0.0450000017881 1434.0
0.943000018597 -0.42199999094 -0.0450000017881 1383.0
0.944999992847 -0.430000007153 -0.0450000017881 1387.0
0.938000023365 -0.433999985456 -0.0450000017881 1360.0
0.944000005722 -0.444000005722 -0.0450000017881 1365.0
0.945999979973 -0.451999992132 -0.0450000017881 1349.0
0.947000026703 -0.458999991417 -0.0450000017881 1302.0
0.975000023842 -0.481000006199 -0.0469999983907 969.0
1.35199999809 -0.679000020027 -0.0649999976158 273.0
1.59700000286 -0.814999997616 -0.0769999995828 303.0
1.50899994373 -0.78100001812 -0.0729999989271 303.0
1.3370000124 -0.702000021935 -0.0649999976158 515.0
1.32099997997 -0.704999983311 -0.0640000030398 585.0
1.3029999733 -0.704999983311 -0.0630000010133 581.0
1.30200004578 -0.714999973774 -0.0630000010133 559.0
1.35199999809 -0.754000008106 -0.0659999996424 463.0
3.86800003052 2.22000002861 -0.234999999404 89.0
3.79699993134 2.14800000191 -0.230000004172 84.0
3.79600000381 2.11599993706 -0.229000002146 86.0
3.83800005913 2.10800004005 -0.231000006199 83.0
3.82699990273 2.0720000267 -0.230000004172 82.0
3.83999991417 2.04800009727 -0.230000004172 99.0
3.78800010681 1.99000000954 -0.225999996066 95.0
3.77999997139 1.95599997044 -0.22499999404 91.0
3.76099991798 1.91700005531 -0.223000004888 94.0
3.8710000515 1.94400000572 -0.228000000119 85.0
3.82699990273 1.89199995995 -0.22499999404 93.0
3.90700006485 1.90199995041 -0.229000002146 91.0
3.91100001335 1.87399995327 -0.229000002146 88.0
3.81900000572 1.80200004578 -0.223000004888 89.0
3.86599993706 1.79499995708 -0.22499999404 93.0
3.8789999485 1.77199995518 -0.22499999404 107.0
3.875 1.74199998379 -0.224000006914 106.0
3.84699988365 1.70200002193 -0.222000002861 107.0
3.88400006294 1.69000005722 -0.223000004888 98.0
3.87599992752 1.6590000391 -0.222000002861 102.0
3.90100002289 1.64199995995 -0.223000004888 99.0
3.98399996758 1.64900004864 -0.226999998093 82.0
4.38999986649 1.78600001335 -0.248999997973 68.0
4.36600017548 1.74500000477 -0.24699999392 73.0
4.4310002327 1.71000003815 -0.25 69.0
4.42600011826 1.6779999733 -0.248999997973 75.0
4.40299987793 1.63900005817 -0.24699999392 66.0
4.43499994278 1.6210000515 -0.247999995947 72.0
4.44799995422 1.59599995613 -0.247999995947 75.0
4.40500020981 1.55099999905 -0.245000004768 76.0
4.42000007629 1.52699995041 -0.246000006795 70.0
4.47700023651 1.51699995995 -0.247999995947 72.0
4.49599981308 1.49300003052 -0.248999997973 72.0
4.492000103 1.46300005913 -0.247999995947 71.0
4.49900007248 1.43599998951 -0.247999995947 71.0
4.51000022888 1.40999996662 -0.247999995947 81.0
4.57399988174 1.39999997616 -0.250999987125 69.0
4.57299995422 1.3710000515 -0.25 70.0
4.65700006485 1.36600005627 -0.254000008106 66.0
4.61600017548 1.32500004768 -0.252000004053 70.0
4.65100002289 1.30499994755 -0.252999991179 64.0
4.63899993896 1.27300000191 -0.252000004053 69.0
4.69799995422 1.25899994373 -0.254999995232 65.0
4.7389998436 1.24000000954 -0.256000012159 60.0
4.74499988556 1.2120000124 -0.256000012159 58.0
4.72499990463 1.1779999733 -0.254999995232 59.0
4.79300022125 1.16499996185 -0.25799998641 68.0
4.8140001297 1.13999998569 -0.259000003338 57.0
4.78200006485 1.10300004482 -0.256999999285 62.0
0.940999984741 0.15000000596 -0.0500000007451 133.0
0.884999990463 0.136000007391 -0.0469999983907 1373.0
0.893000006676 0.131999999285 -0.0469999983907 1811.0
0.893000006676 0.126000002027 -0.0469999983907 1935.0
0.893000006676 0.120999999344 -0.0469999983907 2010.0
0.888000011444 0.115000002086 -0.0469999983907 1971.0
0.89099997282 0.111000001431 -0.0469999983907 1882.0
0.89200001955 0.104999996722 -0.0469999983907 1804.0
0.897000014782 0.101000003517 -0.0469999983907 1808.0
0.893999993801 0.0949999988079 -0.0469999983907 1902.0
0.894999980927 0.0900000035763 -0.0469999983907 1855.0
0.893999993801 0.0850000008941 -0.0469999983907 1893.0
0.897000014782 0.0799999982119 -0.0469999983907 1855.0
0.894999980927 0.0750000029802 -0.0469999983907 1813.0
0.893999993801 0.0689999982715 -0.0469999983907 1756.0
0.894999980927 0.0640000030398 -0.0469999983907 1825.0
0.901000022888 0.0599999986589 -0.0469999983907 1831.0
0.896000027657 0.0540000014007 -0.0469999983907 1797.0
0.897000014782 0.0489999987185 -0.0469999983907 1785.0
0.894999980927 0.0439999997616 -0.0469999983907 1766.0
0.898000001907 0.0390000008047 -0.0469999983907 1775.0
0.901000022888 0.0340000018477 -0.0469999983907 1761.0
0.902000010014 0.0289999991655 -0.0469999983907 1767.0
0.902000010014 0.0230000000447 -0.0469999983907 1721.0
0.899999976158 0.0179999992251 -0.0469999983907 1702.0
0.899999976158 0.0130000002682 -0.0469999983907 1707.0
0.902000010014 0.00800000037998 -0.0469999983907 1775.0
0.90499997139 0.00300000002608 -0.0469999983907 1832.0
0.901000022888 -0.0010000000475 -0.0469999983907 1782.0
0.901000022888 -0.00700000021607 -0.0469999983907 1784.0
0.90499997139 -0.0120000001043 -0.0469999983907 1789.0
0.90600001812 -0.0170000009239 -0.0469999983907 1787.0
0.901000022888 -0.0219999998808 -0.0469999983907 1716.0
0.899999976158 -0.0270000007004 -0.0460000000894 1723.0
0.907999992371 -0.0329999998212 -0.0469999983907 1664.0
0.907000005245 -0.0379999987781 -0.0469999983907 1738.0
0.907000005245 -0.0430000014603 -0.0469999983907 1735.0
0.907000005245 -0.0480000004172 -0.0469999983907 1709.0
0.912000000477 -0.0540000014007 -0.0469999983907 1734.0
0.910000026226 -0.0590000003576 -0.0469999983907 1735.0
0.908999979496 -0.0640000030398 -0.0469999983907 1695.0
0.907999992371 -0.0689999982715 -0.0469999983907 1681.0
0.907000005245 -0.0740000009537 -0.0469999983907 1716.0
0.912000000477 -0.0799999982119 -0.0469999983907 1693.0
0.912000000477 -0.0850000008941 -0.0469999983907 1691.0
0.911000013351 -0.0909999981523 -0.0469999983907 1620.0
0.913999974728 -0.0960000008345 -0.0469999983907 1620.0
0.911000013351 -0.101000003517 -0.0469999983907 1652.0
0.910000026226 -0.105999998748 -0.0469999983907 1697.0
0.916000008583 -0.112000003457 -0.0469999983907 1621.0
0.919000029564 -0.118000000715 -0.0469999983907 1623.0
0.912000000477 -0.123000003397 -0.0469999983907 1590.0
0.916000008583 -0.128999993205 -0.0469999983907 1663.0
0.912999987602 -0.133000001311 -0.0469999983907 1681.0
0.915000021458 -0.138999998569 -0.0469999983907 1679.0
0.919000029564 -0.144999995828 -0.0469999983907 1683.0
0.917999982834 -0.15000000596 -0.0469999983907 1684.0
0.913999974728 -0.155000001192 -0.0469999983907 1721.0
0.919000029564 -0.162000000477 -0.0469999983907 1728.0
0.916000008583 -0.165999993682 -0.0469999983907 1716.0
0.922999978065 -0.172999992967 -0.0480000004172 1654.0
0.920000016689 -0.178000003099 -0.0469999983907 1631.0
0.916999995708 -0.182999998331 -0.0469999983907 1661.0
0.919000029564 -0.188999995589 -0.0469999983907 1617.0
0.926999986172 -0.195999994874 -0.0480000004172 1576.0
0.920000016689 -0.20000000298 -0.0480000004172 1509.0
0.925999999046 -0.207000002265 -0.0480000004172 1531.0
0.924000024796 -0.212999999523 -0.0480000004172 1597.0
0.921000003815 -0.216999992728 -0.0480000004172 1586.0
0.922999978065 -0.224000006914 -0.0480000004172 1531.0
0.920000016689 -0.228000000119 -0.0480000004172 1561.0
0.924000024796 -0.234999999404 -0.0480000004172 1567.0
0.925000011921 -0.240999996662 -0.0480000004172 1543.0
0.925999999046 -0.24699999392 -0.0480000004172 1549.0
0.924000024796 -0.252999991179 -0.0480000004172 1567.0
0.922999978065 -0.25799998641 -0.0480000004172 1595.0
0.929000020027 -0.266000002623 -0.0480000004172 1605.0
0.924000024796 -0.270000010729 -0.0480000004172 1566.0
0.926999986172 -0.277000010014 -0.0480000004172 1572.0
0.930999994278 -0.284000009298 -0.0489999987185 1583.0
0.933000028133 -0.291000008583 -0.0489999987185 1593.0
0.929000020027 -0.294999986887 -0.0489999987185 1457.0
0.933000028133 -0.303000003099 -0.0489999987185 1442.0
0.931999981403 -0.308999985456 -0.0489999987185 1464.0
0.931999981403 -0.314999997616 -0.0489999987185 1448.0
0.930999994278 -0.319999992847 -0.0489999987185 1402.0
0.930999994278 -0.326999992132 -0.0489999987185 1416.0
0.934000015259 -0.333999991417 -0.0489999987185 1406.0
0.939999997616 -0.342999994755 -0.0500000007451 1392.0
0.935000002384 -0.347000002861 -0.0489999987185 1397.0
0.939999997616 -0.354999989271 -0.0500000007451 1395.0
0.933000028133 -0.358999997377 -0.0489999987185 1387.0
0.940999984741 -0.368000000715 -0.0500000007451 1389.0
0.936999976635 -0.372999995947 -0.0500000007451 1423.0
0.938000023365 -0.379999995232 -0.0500000007451 1486.0
0.938000023365 -0.386999994516 -0.0500000007451 1444.0
0.93599998951 -0.393000006676 -0.0500000007451 1444.0
0.93599998951 -0.398999989033 -0.0500000007451 1367.0
0.93900001049 -0.407000005245 -0.0500000007451 1430.0
0.944000005722 -0.416000008583 -0.0509999990463 1424.0
0.947000026703 -0.425000011921 -0.0509999990463 1374.0
0.945999979973 -0.430999994278 -0.0509999990463 1409.0
0.940999984741 -0.435000002384 -0.0509999990463 1364.0
0.941999971867 -0.442999988794 -0.0509999990463 1368.0
0.944000005722 -0.451000005007 -0.0509999990463 1329.0
0.944999992847 -0.458999991417 -0.0509999990463 1294.0
0.971000015736 -0.479000002146 -0.0529999993742 974.0
1.35800004005 -0.681999981403 -0.0740000009537 294.0
1.60599994659 -0.819999992847 -0.0869999974966 311.0
1.50499999523 -0.77999997139 -0.082000002265 324.0
1.3409999609 -0.704999983311 -0.0729999989271 509.0
1.31099998951 -0.699000000954 -0.0719999969006 579.0
1.30799996853 -0.708000004292 -0.0719999969006 576.0
1.31299996376 -0.721000015736 -0.0719999969006 550.0
1.33899998665 -0.746999979019 -0.0740000009537 466.0
3.88800001144 2.23200011253 -0.261999994516 96.0
3.90300011635 2.20799994469 -0.261999994516 82.0
3.83899998665 2.14100003242 -0.256999999285 77.0
3.77099990845 2.0720000267 -0.252000004053 79.0
3.81100010872 2.06399989128 -0.252999991179 85.0
3.8710000515 2.06500005722 -0.256000012159 88.0
3.90599989891 2.0529999733 -0.25799998641 79.0
3.94000005722 2.03999996185 -0.259000003338 83.0
3.87400007248 1.94599997997 -0.252999991179 81.0
3.83400011063 1.89600002766 -0.25 83.0
3.89700007439 1.89800000191 -0.252999991179 83.0
3.94000005722 1.88900005817 -0.254999995232 73.0
3.92499995232 1.85199999809 -0.254000008106 82.0
3.86899995804 1.79700005054 -0.248999997973 88.0
3.91700005531 1.78999996185 -0.252000004053 87.0
3.90899991989 1.75800001621 -0.25 82.0
3.93600010872 1.74199998379 -0.250999987125 87.0
3.89400005341 1.69500005245 -0.247999995947 72.0
4.007999897 1.7159999609 -0.254999995232 77.0
3.97799992561 1.6740000248 -0.252000004053 78.0
4.11999988556 1.70500004292 -0.259999990463 65.0
4.41200017929 1.76400005817 -0.277000010014 65.0
4.33500003815 1.70299994946 -0.272000014782 62.0
4.48099994659 1.73000001907 -0.280000001192 62.0
4.59600019455 1.64900004864 -0.284999996424 70.0
4.47200012207 1.57500004768 -0.275999993086 63.0
4.51499986649 1.55999994278 -0.277999997139 65.0
4.43800020218 1.5039999485 -0.273000001907 76.0
4.48400020599 1.49000000954 -0.27500000596 72.0
4.47300004959 1.45700001717 -0.273999989033 80.0
4.53200006485 1.44599997997 -0.277000010014 70.0
4.53800010681 1.41900002956 -0.277000010014 66.0
4.51200008392 1.38199996948 -0.27500000596 68.0
4.58400011063 1.37399995327 -0.277999997139 72.0
4.59299993515 1.34700000286 -0.277999997139 69.0
4.64200019836 1.33200001717 -0.280999988317 63.0
4.63399982452 1.30099999905 -0.280000001192 70.0
4.64599990845 1.27499997616 -0.280000001192 66.0
4.75400018692 1.27400004864 -0.286000013351 65.0
4.69099998474 1.22800004482 -0.282000005245 61.0
4.67399978638 1.19400000572 -0.280000001192 60.0
4.7389998436 1.18099999428 -0.284000009298 56.0
4.78900003433 1.16400003433 -0.286000013351 55.0
4.77500009537 1.13100004196 -0.284999996424 60.0
4.81500005722 1.11099994183 -0.287000000477 57.0
0.924000024796 0.146999999881 -0.0540000014007 140.0
0.883000016212 0.135000005364 -0.0520000010729 1396.0
0.893999993801 0.131999999285 -0.0529999993742 1833.0
0.893000006676 0.126000002027 -0.0520000010729 1926.0
0.888000011444 0.120999999344 -0.0520000010729 2001.0
0.888000011444 0.115000002086 -0.0520000010729 1954.0
0.89099997282 0.109999999404 -0.0520000010729 1873.0
0.894999980927 0.105999998748 -0.0520000010729 1776.0
0.893000006676 0.10000000149 -0.0520000010729 1782.0
0.89200001955 0.0949999988079 -0.0520000010729 1926.0
0.89099997282 0.0900000035763 -0.0520000010729 1854.0
0.89200001955 0.0850000008941 -0.0520000010729 1892.0
0.896000027657 0.0799999982119 -0.0520000010729 1868.0
0.893999993801 0.0750000029802 -0.0520000010729 1837.0
0.897000014782 0.070000000298 -0.0520000010729 1765.0
0.893999993801 0.0640000030398 -0.0520000010729 1840.0
0.897000014782 0.0590000003576 -0.0520000010729 1846.0
0.898999989033 0.0540000014007 -0.0520000010729 1822.0
0.897000014782 0.0489999987185 -0.0520000010729 1822.0
0.898000001907 0.0439999997616 -0.0520000010729 1763.0
0.897000014782 0.0390000008047 -0.0520000010729 1781.0
0.901000022888 0.0340000018477 -0.0520000010729 1742.0
0.898000001907 0.0280000008643 -0.0520000010729 1731.0
0.899999976158 0.0230000000447 -0.0520000010729 1751.0
0.902000010014 0.0179999992251 -0.0520000010729 1741.0
0.899999976158 0.0130000002682 -0.0520000010729 1697.0
0.898000001907 0.00800000037998 -0.0520000010729 1791.0
0.902999997139 0.00300000002608 -0.0520000010729 1869.0
0.901000022888 -0.0010000000475 -0.0520000010729 1841.0
0.898999989033 -0.00700000021607 -0.0520000010729 1819.0
0.90600001812 -0.0120000001043 -0.0520000010729 1823.0
0.90499997139 -0.0170000009239 -0.0520000010729 1853.0
0.90499997139 -0.0219999998808 -0.0520000010729 1814.0
0.903999984264 -0.0270000007004 -0.0520000010729 1775.0
0.911000013351 -0.0329999998212 -0.0520000010729 1722.0
0.903999984264 -0.0379999987781 -0.0520000010729 1765.0
0.902999997139 -0.0430000014603 -0.0520000010729 1800.0
0.907000005245 -0.0480000004172 -0.0520000010729 1727.0
0.910000026226 -0.0540000014007 -0.0520000010729 1733.0
0.908999979496 -0.0590000003576 -0.0520000010729 1750.0
0.908999979496 -0.0640000030398 -0.0520000010729 1694.0
0.90600001812 -0.0689999982715 -0.0520000010729 1688.0
0.912999987602 -0.0750000029802 -0.0520000010729 1715.0
0.910000026226 -0.0799999982119 -0.0520000010729 1697.0
0.907000005245 -0.0850000008941 -0.0520000010729 1724.0
0.916999995708 -0.0909999981523 -0.0529999993742 1679.0
0.912999987602 -0.0960000008345 -0.0520000010729 1682.0
0.915000021458 -0.101999998093 -0.0520000010729 1666.0
0.910000026226 -0.105999998748 -0.0520000010729 1670.0
0.908999979496 -0.112000003457 -0.0520000010729 1652.0
0.912999987602 -0.116999998689 -0.0520000010729 1609.0
0.912000000477 -0.123000003397 -0.0520000010729 1596.0
0.912000000477 -0.12800000608 -0.0520000010729 1658.0
0.915000021458 -0.134000003338 -0.0520000010729 1735.0
0.916999995708 -0.140000000596 -0.0529999993742 1718.0
0.913999974728 -0.143999993801 -0.0520000010729 1702.0
0.915000021458 -0.15000000596 -0.0520000010729 1668.0
0.916999995708 -0.156000003219 -0.0529999993742 1699.0
0.921000003815 -0.162000000477 -0.0529999993742 1681.0
0.921000003815 -0.166999995708 -0.0529999993742 1697.0
0.917999982834 -0.172000005841 -0.0529999993742 1607.0
0.921000003815 -0.178000003099 -0.0529999993742 1597.0
0.92199999094 -0.184000000358 -0.0529999993742 1662.0
0.921000003815 -0.189999997616 -0.0529999993742 1645.0
0.919000029564 -0.194999992847 -0.0529999993742 1593.0
0.917999982834 -0.20000000298 -0.0529999993742 1572.0
0.922999978065 -0.207000002265 -0.0529999993742 1630.0
0.919000029564 -0.21099999547 -0.0529999993742 1648.0
0.926999986172 -0.218999996781 -0.0529999993742 1576.0
0.92199999094 -0.223000004888 -0.0529999993742 1538.0
0.92199999094 -0.229000002146 -0.0529999993742 1565.0
0.924000024796 -0.234999999404 -0.0529999993742 1571.0
0.916999995708 -0.238999992609 -0.0529999993742 1560.0
0.925999999046 -0.24699999392 -0.0540000014007 1576.0
0.929000020027 -0.254000008106 -0.0540000014007 1596.0
0.930000007153 -0.259999990463 -0.0540000014007 1590.0
0.925000011921 -0.264999985695 -0.0540000014007 1582.0
0.926999986172 -0.270999997854 -0.0540000014007 1591.0
0.930000007153 -0.277999997139 -0.0540000014007 1591.0
0.931999981403 -0.284000009298 -0.0540000014007 1547.0
0.933000028133 -0.291000008583 -0.0540000014007 1530.0
0.935000002384 -0.29699999094 -0.0540000014007 1463.0
0.930000007153 -0.301999986172 -0.0540000014007 1451.0
0.926999986172 -0.307000011206 -0.0540000014007 1446.0
0.934000015259 -0.314999997616 -0.054999999702 1407.0
0.925999999046 -0.319000005722 -0.0540000014007 1418.0
0.936999976635 -0.328999996185 -0.054999999702 1477.0
0.933000028133 -0.333999991417 -0.054999999702 1446.0
0.938000023365 -0.342000007629 -0.054999999702 1443.0
0.941999971867 -0.34999999404 -0.054999999702 1390.0
0.931999981403 -0.351999998093 -0.054999999702 1381.0
0.933000028133 -0.358999997377 -0.054999999702 1378.0
0.941999971867 -0.368999987841 -0.0560000017285 1395.0
0.93599998951 -0.372999995947 -0.054999999702 1418.0
0.936999976635 -0.379999995232 -0.0560000017285 1498.0
0.938000023365 -0.386999994516 -0.0560000017285 1464.0
0.936999976635 -0.393000006676 -0.0560000017285 1461.0
0.943000018597 -0.402000010014 -0.0560000017285 1391.0
0.941999971867 -0.409000009298 -0.0560000017285 1400.0
0.93900001049 -0.41400000453 -0.0560000017285 1431.0
0.940999984741 -0.42199999094 -0.0560000017285 1387.0
0.947000026703 -0.432000011206 -0.0570000000298 1407.0
0.943000018597 -0.437000006437 -0.0570000000298 1365.0
0.945999979973 -0.444999992847 -0.0570000000298 1377.0
0.948000013828 -0.45300000906 -0.0570000000298 1340.0
0.944999992847 -0.458999991417 -0.0570000000298 1310.0
0.96899998188 -0.477999985218 -0.0590000003576 987.0
1.37300002575 -0.689999997616 -0.082999996841 296.0
1.60300004482 -0.818000018597 -0.097000002861 299.0
1.48500001431 -0.769999980927 -0.0909999981523 338.0
1.33399999142 -0.700999975204 -0.082000002265 517.0
1.30999994278 -0.699000000954 -0.0799999982119 579.0
1.3029999733 -0.705999970436 -0.0799999982119 573.0
1.32000005245 -0.726000010967 -0.0810000002384 556.0
1.36300003529 -0.760999977589 -0.0839999988675 477.0
0.686999976635 0.393999993801 -0.0509999990463 338.0
0.671000003815 0.379000008106 -0.0500000007451 288.0
0.65600001812 0.365000009537 -0.0480000004172 235.0
0.717000007629 0.393000006676 -0.0529999993742 312.0
0.606999993324 0.32800000906 -0.0439999997616 163.0
0.439999997616 0.233999997377 -0.0320000015199 137.0
0.326999992132 0.171000003815 -0.0240000002086 115.0
0.0370000004768 0.0179999992251 -0.00300000002608 74.0
0.0379999987781 0.0179999992251 -0.00300000002608 81.0
4.19899988174 2.10899996758 -0.300999999046 71.0
3.97000002861 1.93400001526 -0.282999992371 78.0
4.10500001907 1.96800005436 -0.291999995708 72.0
4.007999897 1.89199995995 -0.284000009298 74.0
3.98799991608 1.85300004482 -0.282000005245 80.0
4.04899978638 1.85099995136 -0.284999996424 82.0
3.97300004959 1.78699994087 -0.279000014067 80.0
4.02500009537 1.78199994564 -0.282000005245 88.0
4.0689997673 1.77199995518 -0.284000009298 77.0
3.96199989319 1.6970000267 -0.275999993086 74.0
3.85500001907 1.62300002575 -0.268000006676 75.0
4.55700016022 1.82299995422 -0.31400001049 66.0
4.40299987793 1.58000004292 -0.298999994993 64.0
4.45399999619 1.56900000572 -0.301999986172 67.0
4.48000001907 1.54799997807 -0.303000003099 64.0
4.50400018692 1.52699995041 -0.303999990225 71.0
4.492000103 1.49300003052 -0.303000003099 70.0
4.49700021744 1.46500003338 -0.303000003099 70.0
4.45599985123 1.42299997807 -0.298999994993 69.0
4.54500007629 1.42100000381 -0.305000007153 72.0
4.58699989319 1.40499997139 -0.307000011206 72.0
4.52099990845 1.35599994659 -0.301999986172 66.0
4.61999988556 1.35599994659 -0.307999998331 69.0
4.60900020599 1.32299995422 -0.305999994278 63.0
4.65000009537 1.30499994755 -0.308999985456 66.0
4.63500022888 1.27199995518 -0.307000011206 66.0
4.66200017929 1.25 -0.307999998331 65.0
4.67100000381 1.22300004959 -0.307999998331 68.0
4.64499998093 1.18700003624 -0.305999994278 64.0
4.73500013351 1.18099999428 -0.312000006437 56.0
4.72700023651 1.14900004864 -0.31099998951 57.0
4.77400016785 1.13100004196 -0.312999993563 61.0
4.75 1.09599995613 -0.31099998951 57.0
0.938000023365 0.149000003934 -0.0610000006855 161.0
0.885999977589 0.136000007391 -0.0570000000298 1424.0
0.89200001955 0.131999999285 -0.0579999983311 1843.0
0.888000011444 0.126000002027 -0.0570000000298 1885.0
0.89200001955 0.120999999344 -0.0570000000298 1935.0
0.89099997282 0.115999996662 -0.0570000000298 1908.0
0.889999985695 0.109999999404 -0.0570000000298 1902.0
0.89099997282 0.104999996722 -0.0570000000298 1823.0
0.893000006676 0.10000000149 -0.0570000000298 1752.0
0.89200001955 0.0949999988079 -0.0570000000298 1870.0
0.893000006676 0.0900000035763 -0.0570000000298 1868.0
0.898000001907 0.0850000008941 -0.0570000000298 1877.0
0.89200001955 0.0799999982119 -0.0570000000298 1872.0
0.893999993801 0.0750000029802 -0.0570000000298 1805.0
0.897000014782 0.070000000298 -0.0570000000298 1754.0
0.897000014782 0.0640000030398 -0.0570000000298 1830.0
0.896000027657 0.0590000003576 -0.0570000000298 1822.0
0.898000001907 0.0540000014007 -0.0570000000298 1771.0
0.896000027657 0.0489999987185 -0.0570000000298 1773.0
0.901000022888 0.0439999997616 -0.0570000000298 1778.0
0.898000001907 0.0390000008047 -0.0570000000298 1795.0
0.899999976158 0.0340000018477 -0.0570000000298 1734.0
0.902999997139 0.0289999991655 -0.0570000000298 1749.0
0.898999989033 0.0230000000447 -0.0570000000298 1747.0
0.901000022888 0.0179999992251 -0.0570000000298 1718.0
0.898999989033 0.0130000002682 -0.0570000000298 1714.0
0.898000001907 0.00800000037998 -0.0570000000298 1763.0
0.898000001907 0.00300000002608 -0.0570000000298 1865.0
0.901000022888 -0.00200000009499 -0.0570000000298 1855.0
0.899999976158 -0.00700000021607 -0.0570000000298 1788.0
0.901000022888 -0.0120000001043 -0.0570000000298 1829.0
0.902000010014 -0.0170000009239 -0.0570000000298 1847.0
0.902999997139 -0.0219999998808 -0.0570000000298 1846.0
0.90499997139 -0.0270000007004 -0.0570000000298 1792.0
0.90499997139 -0.0329999998212 -0.0570000000298 1778.0
0.911000013351 -0.0379999987781 -0.0579999983311 1807.0
0.903999984264 -0.0430000014603 -0.0570000000298 1817.0
0.908999979496 -0.0480000004172 -0.0570000000298 1763.0
0.902999997139 -0.0529999993742 -0.0570000000298 1712.0
0.907000005245 -0.0590000003576 -0.0570000000298 1752.0
0.907000005245 -0.0640000030398 -0.0570000000298 1684.0
0.908999979496 -0.0689999982715 -0.0570000000298 1697.0
0.907000005245 -0.0740000009537 -0.0570000000298 1690.0
0.913999974728 -0.0799999982119 -0.0579999983311 1668.0
0.912000000477 -0.0850000008941 -0.0570000000298 1738.0
0.908999979496 -0.0900000035763 -0.0570000000298 1701.0
0.912000000477 -0.0960000008345 -0.0579999983311 1686.0
0.912000000477 -0.101000003517 -0.0579999983311 1670.0
0.915000021458 -0.107000000775 -0.0579999983311 1653.0
0.912000000477 -0.112000003457 -0.0570000000298 1656.0
0.907999992371 -0.116999998689 -0.0570000000298 1632.0
0.912000000477 -0.123000003397 -0.0579999983311 1594.0
0.910000026226 -0.12800000608 -0.0570000000298 1656.0
0.913999974728 -0.134000003338 -0.0579999983311 1777.0
0.916000008583 -0.138999998569 -0.0579999983311 1730.0
0.913999974728 -0.144999995828 -0.0579999983311 1700.0
0.916000008583 -0.15000000596 -0.0579999983311 1718.0
0.921000003815 -0.157000005245 -0.0579999983311 1693.0
0.916999995708 -0.16099999845 -0.0579999983311 1686.0
0.921000003815 -0.167999997735 -0.0579999983311 1635.0
0.916999995708 -0.172000005841 -0.0579999983311 1620.0
0.920000016689 -0.178000003099 -0.0579999983311 1635.0
0.920000016689 -0.184000000358 -0.0579999983311 1611.0
0.919000029564 -0.188999995589 -0.0579999983311 1619.0
0.919000029564 -0.194999992847 -0.0579999983311 1660.0
0.920000016689 -0.20000000298 -0.0579999983311 1585.0
0.922999978065 -0.207000002265 -0.0590000003576 1657.0
0.921000003815 -0.211999997497 -0.0579999983311 1616.0
0.922999978065 -0.217999994755 -0.0590000003576 1567.0
0.924000024796 -0.224000006914 -0.0590000003576 1573.0
0.921000003815 -0.229000002146 -0.0590000003576 1607.0
0.924000024796 -0.236000001431 -0.0590000003576 1604.0
0.925000011921 -0.240999996662 -0.0590000003576 1620.0
0.921000003815 -0.246000006795 -0.0590000003576 1592.0
0.926999986172 -0.254000008106 -0.0590000003576 1618.0
0.922999978065 -0.25799998641 -0.0590000003576 1639.0
0.927999973297 -0.264999985695 -0.0590000003576 1574.0
0.929000020027 -0.272000014782 -0.0590000003576 1614.0
0.925000011921 -0.275999993086 -0.0590000003576 1573.0
0.933000028133 -0.284999996424 -0.0599999986589 1496.0
0.930000007153 -0.289999991655 -0.0599999986589 1483.0
0.930000007153 -0.296000003815 -0.0599999986589 1473.0
0.930999994278 -0.301999986172 -0.0599999986589 1480.0
0.930000007153 -0.307999998331 -0.0599999986589 1463.0
0.930999994278 -0.314999997616 -0.0599999986589 1403.0
0.936999976635 -0.323000013828 -0.0610000006855 1453.0
0.935000002384 -0.32800000906 -0.0599999986589 1474.0
0.933000028133 -0.333999991417 -0.0599999986589 1452.0
0.935000002384 -0.340999990702 -0.0610000006855 1439.0
0.93599998951 -0.347000002861 -0.0610000006855 1422.0
0.933000028133 -0.352999985218 -0.0610000006855 1387.0
0.93900001049 -0.361000001431 -0.0610000006855 1390.0
0.944000005722 -0.370000004768 -0.0619999989867 1406.0
0.934000015259 -0.372000008821 -0.0610000006855 1406.0
0.936999976635 -0.379999995232 -0.0610000006855 1490.0
0.939999997616 -0.388000011444 -0.0619999989867 1481.0
0.943000018597 -0.395999997854 -0.0619999989867 1476.0
0.936999976635 -0.40000000596 -0.0619999989867 1427.0
0.939999997616 -0.407999992371 -0.0619999989867 1395.0
0.938000023365 -0.41400000453 -0.0619999989867 1424.0
0.944999992847 -0.423999994993 -0.0630000010133 1395.0
0.939999997616 -0.428999990225 -0.0619999989867 1397.0
0.943000018597 -0.437000006437 -0.0630000010133 1367.0
0.93900001049 -0.442000001669 -0.0630000010133 1369.0
0.945999979973 -0.451999992132 -0.0630000010133 1350.0
0.941999971867 -0.458000004292 -0.0630000010133 1329.0
0.972999989986 -0.479999989271 -0.0649999976158 983.0
1.37800002098 -0.693000018597 -0.0920000001788 305.0
1.62399995327 -0.829999983311 -0.108999997377 317.0
1.47899997234 -0.76700001955 -0.10000000149 352.0
1.33000004292 -0.699000000954 -0.0900000035763 533.0
1.30499994755 -0.697000026703 -0.0879999995232 585.0
1.31400001049 -0.712000012398 -0.0890000015497 583.0
1.30900001526 -0.71899998188 -0.0890000015497 547.0
1.36300003529 -0.760999977589 -0.0930000022054 473.0
0.773999989033 0.442999988794 -0.0619999989867 1296.0
0.776000022888 0.437999993563 -0.0619999989867 1242.0
0.773000001907 0.430999994278 -0.0619999989867 1185.0
0.777000010014 0.425999999046 -0.0619999989867 1160.0
0.777999997139 0.421000003815 -0.0619999989867 1079.0
0.776000022888 0.41400000453 -0.0619999989867 1025.0
0.773000001907 0.405999988317 -0.0610000006855 971.0
0.776000022888 0.400999993086 -0.0610000006855 924.0
0.771000027657 0.393000006676 -0.0610000006855 857.0
0.772000014782 0.386999994516 -0.0610000006855 788.0
0.776000022888 0.384000003338 -0.0610000006855 702.0
0.77999997139 0.379000008106 -0.0610000006855 621.0
0.773999989033 0.370999991894 -0.0599999986589 555.0
0.763999998569 0.360000014305 -0.0590000003576 470.0
0.749000012875 0.347000002861 -0.0579999983311 398.0
0.713999986649 0.326000005007 -0.054999999702 358.0
0.702000021935 0.314999997616 -0.0540000014007 295.0
0.651000022888 0.287999987602 -0.0500000007451 244.0
0.70300000906 0.305999994278 -0.0540000014007 252.0
0.629000008106 0.268999993801 -0.0480000004172 201.0
0.694000005722 0.291999995708 -0.0529999993742 223.0
0.647000014782 0.268000006676 -0.0489999987185 176.0
0.680999994278 0.277000010014 -0.0520000010729 165.0
0.565999984741 0.225999996066 -0.0430000014603 131.0
0.552999973297 0.216999992728 -0.0419999994338 105.0
0.221000000834 0.082999996841 -0.0170000009239 70.0
0.289999991655 0.108000002801 -0.0219999998808 68.0
4.52799987793 1.59500002861 -0.335000008345 66.0
4.55999994278 1.5759999752 -0.337000012398 61.0
4.47499990463 1.51699995995 -0.330000013113 69.0
4.47700023651 1.48800003529 -0.328999996185 75.0
4.51000022888 1.47000002861 -0.331000000238 69.0
4.44299983978 1.41900002956 -0.324999988079 68.0
4.52600002289 1.41600000858 -0.331000000238 69.0
4.46000003815 1.36600005627 -0.324999988079 72.0
4.57800006866 1.37300002575 -0.333000004292 67.0
4.58099985123 1.34500002861 -0.333000004292 71.0
4.59700012207 1.32000005245 -0.333000004292 72.0
4.60599994659 1.29299998283 -0.333000004292 66.0
4.64499998093 1.27499997616 -0.33599999547 64.0
4.73299980164 1.26900005341 -0.340999990702 63.0
4.71700000763 1.23500001431 -0.340000003576 66.0
4.81300020218 1.23000001907 -0.345999985933 67.0
4.72700023651 1.17900002003 -0.338999986649 64.0
4.84499979019 1.1779999733 -0.347000002861 61.0
4.73699998856 1.12300002575 -0.338999986649 57.0
4.67000007629 1.07799994946 -0.333000004292 61.0
0.940999984741 0.15000000596 -0.0659999996424 174.0
0.888000011444 0.136000007391 -0.0630000010133 1421.0
0.888999998569 0.130999997258 -0.0630000010133 1846.0
0.885999977589 0.126000002027 -0.0619999989867 1871.0
0.888000011444 0.120999999344 -0.0619999989867 1904.0
0.889999985695 0.115999996662 -0.0619999989867 1895.0
0.89200001955 0.111000001431 -0.0630000010133 1951.0
0.89200001955 0.104999996722 -0.0619999989867 1856.0
0.89200001955 0.10000000149 -0.0619999989867 1791.0
0.889999985695 0.0949999988079 -0.0619999989867 1895.0
0.89099997282 0.0900000035763 -0.0619999989867 1926.0
0.89200001955 0.0850000008941 -0.0619999989867 1837.0
0.893000006676 0.0799999982119 -0.0619999989867 1846.0
0.893000006676 0.0740000009537 -0.0619999989867 1828.0
0.897000014782 0.070000000298 -0.0619999989867 1791.0
0.898000001907 0.0649999976158 -0.0619999989867 1766.0
0.901000022888 0.0599999986589 -0.0630000010133 1777.0
0.897000014782 0.0540000014007 -0.0619999989867 1738.0
0.896000027657 0.0489999987185 -0.0619999989867 1737.0
0.893999993801 0.0439999997616 -0.0619999989867 1791.0
0.902999997139 0.0390000008047 -0.0630000010133 1762.0
0.903999984264 0.0340000018477 -0.0630000010133 1724.0
0.898999989033 0.0280000008643 -0.0619999989867 1752.0
0.902000010014 0.0230000000447 -0.0619999989867 1756.0
0.898000001907 0.0179999992251 -0.0619999989867 1721.0
0.898999989033 0.0130000002682 -0.0619999989867 1734.0
0.903999984264 0.00800000037998 -0.0619999989867 1734.0
0.901000022888 0.00300000002608 -0.0619999989867 1864.0
0.898000001907 -0.00200000009499 -0.0619999989867 1886.0
0.899999976158 -0.00700000021607 -0.0619999989867 1803.0
0.898999989033 -0.0120000001043 -0.0619999989867 1813.0
0.899999976158 -0.0170000009239 -0.0619999989867 1815.0
0.903999984264 -0.0219999998808 -0.0619999989867 1783.0
0.901000022888 -0.0270000007004 -0.0619999989867 1794.0
0.903999984264 -0.0329999998212 -0.0619999989867 1746.0
0.90600001812 -0.0379999987781 -0.0619999989867 1776.0
0.903999984264 -0.0430000014603 -0.0619999989867 1794.0
0.911000013351 -0.0489999987185 -0.0630000010133 1778.0
0.90600001812 -0.0540000014007 -0.0619999989867 1715.0
0.908999979496 -0.0590000003576 -0.0630000010133 1761.0
0.910000026226 -0.0640000030398 -0.0630000010133 1735.0
0.907999992371 -0.0689999982715 -0.0630000010133 1683.0
0.910000026226 -0.0750000029802 -0.0630000010133 1683.0
0.908999979496 -0.0799999982119 -0.0630000010133 1648.0
0.912000000477 -0.0860000029206 -0.0630000010133 1720.0
0.911000013351 -0.0909999981523 -0.0630000010133 1702.0
0.907000005245 -0.0960000008345 -0.0619999989867 1687.0
0.911000013351 -0.101000003517 -0.0630000010133 1659.0
0.911000013351 -0.107000000775 -0.0630000010133 1660.0
0.912000000477 -0.112000003457 -0.0630000010133 1642.0
0.916999995708 -0.118000000715 -0.0630000010133 1633.0
0.915000021458 -0.123000003397 -0.0630000010133 1620.0
0.915000021458 -0.128999993205 -0.0630000010133 1654.0
0.912999987602 -0.134000003338 -0.0630000010133 1755.0
0.916999995708 -0.140000000596 -0.0630000010133 1736.0
0.916999995708 -0.144999995828 -0.0630000010133 1705.0
0.915000021458 -0.15000000596 -0.0630000010133 1742.0
0.920000016689 -0.156000003219 -0.0640000030398 1687.0
0.921000003815 -0.162000000477 -0.0640000030398 1717.0
0.916999995708 -0.166999995708 -0.0630000010133 1639.0
0.917999982834 -0.172000005841 -0.0630000010133 1708.0
0.922999978065 -0.179000005126 -0.0640000030398 1707.0
0.916999995708 -0.182999998331 -0.0630000010133 1609.0
0.919000029564 -0.188999995589 -0.0640000030398 1614.0
0.921000003815 -0.194999992847 -0.0640000030398 1670.0
0.925000011921 -0.202000007033 -0.0640000030398 1599.0
0.92199999094 -0.207000002265 -0.0640000030398 1635.0
0.925000011921 -0.212999999523 -0.0640000030398 1601.0
0.922999978065 -0.217999994755 -0.0640000030398 1648.0
0.92199999094 -0.224000006914 -0.0640000030398 1611.0
0.924000024796 -0.230000004172 -0.0640000030398 1626.0
0.917999982834 -0.233999997377 -0.0640000030398 1653.0
0.922999978065 -0.240999996662 -0.0640000030398 1623.0
0.926999986172 -0.247999995947 -0.0649999976158 1614.0
0.925000011921 -0.252999991179 -0.0649999976158 1624.0
0.925000011921 -0.259000003338 -0.0649999976158 1619.0
0.925999999046 -0.264999985695 -0.0649999976158 1617.0
0.922999978065 -0.270000010729 -0.0649999976158 1621.0
0.929000020027 -0.277999997139 -0.0649999976158 1545.0
0.930000007153 -0.284000009298 -0.0649999976158 1531.0
0.933000028133 -0.291000008583 -0.0659999996424 1481.0
0.925999999046 -0.294999986887 -0.0649999976158 1472.0
0.927999973297 -0.301999986172 -0.0649999976158 1491.0
0.934000015259 -0.310000002384 -0.0659999996424 1447.0
0.934000015259 -0.316000014544 -0.0659999996424 1434.0
0.930999994278 -0.321000009775 -0.0659999996424 1477.0
0.925000011921 -0.324999988079 -0.0649999976158 1475.0
0.933000028133 -0.333999991417 -0.0659999996424 1470.0
0.934000015259 -0.340999990702 -0.0659999996424 1439.0
0.933000028133 -0.345999985933 -0.0659999996424 1424.0
0.936999976635 -0.354000002146 -0.0670000016689 1438.0
0.93599998951 -0.361000001431 -0.0670000016689 1389.0
0.938000023365 -0.368000000715 -0.0670000016689 1413.0
0.934000015259 -0.372999995947 -0.0670000016689 1428.0
0.933000028133 -0.379000008106 -0.0670000016689 1493.0
0.931999981403 -0.384999990463 -0.0670000016689 1498.0
0.936999976635 -0.393000006676 -0.0670000016689 1482.0
0.944999992847 -0.404000014067 -0.0680000036955 1414.0
0.939999997616 -0.407999992371 -0.0680000036955 1397.0
0.939999997616 -0.414999991655 -0.0680000036955 1428.0
0.941999971867 -0.423000007868 -0.0680000036955 1396.0
0.943000018597 -0.430000007153 -0.0680000036955 1392.0
0.941999971867 -0.437000006437 -0.0689999982715 1344.0
0.938000023365 -0.442000001669 -0.0680000036955 1353.0
0.943000018597 -0.451000005007 -0.0689999982715 1329.0
0.944000005722 -0.458000004292 -0.0689999982715 1304.0
0.975000023842 -0.481000006199 -0.0719999969006 984.0
1.37399995327 -0.690999984741 -0.101000003517 309.0
1.60000002384 -0.818000018597 -0.118000000715 320.0
1.47800004482 -0.76700001955 -0.108999997377 372.0
1.33200001717 -0.700999975204 -0.0989999994636 538.0
1.31500005722 -0.702000021935 -0.097000002861 581.0
1.30200004578 -0.705999970436 -0.097000002861 579.0
1.31900000572 -0.725000023842 -0.097999997437 547.0
1.37000000477 -0.764999985695 -0.101999998093 462.0
0.763999998569 0.437999993563 -0.0670000016689 1728.0
0.769999980927 0.435000002384 -0.0670000016689 1721.0
0.763999998569 0.425000011921 -0.0659999996424 1721.0
0.763999998569 0.418999999762 -0.0659999996424 1693.0
