ply
format ascii 1.0
element vertex 915
property float x
property float y
property float z
property float intensity
end_header
0.92199999094 -0.194999992847 -0.219999998808 120.0
0.949000000954 -0.207000002265 -0.225999996066 124.0
0.976000010967 -0.217999994755 -0.232999995351 126.0
0.961000025272 -0.221000000834 -0.229000002146 126.0
0.930000007153 -0.219999998808 -0.222000002861 128.0
0.966000020504 -0.234999999404 -0.231000006199 124.0
0.934000015259 -0.232999995351 -0.224000006914 121.0
0.958000004292 -0.245000004768 -0.230000004172 120.0
0.978999972343 -0.256000012159 -0.234999999404 121.0
0.935000002384 -0.250999987125 -0.22499999404 119.0
0.950999975204 -0.261000007391 -0.229000002146 118.0
0.949999988079 -0.266999989748 -0.229000002146 117.0
0.940999984741 -0.270000010729 -0.226999998093 108.0
0.925999999046 -0.272000014782 -0.224000006914 111.0
0.926999986172 -0.277999997139 -0.224000006914 107.0
0.971000015736 -0.298000007868 -0.236000001431 110.0
0.949000000954 -0.29699999094 -0.230000004172 112.0
0.935000002384 -0.298999994993 -0.226999998093 108.0
0.922999978065 -0.301999986172 -0.22499999404 102.0
0.938000023365 -0.312999993563 -0.229000002146 109.0
0.926999986172 -0.314999997616 -0.225999996066 104.0
0.898000001907 -0.31099998951 -0.219999998808 109.0
0.955999970436 -0.337999999523 -0.233999997377 105.0
0.935000002384 -0.337000012398 -0.230000004172 106.0
0.953999996185 -0.34999999404 -0.234999999404 102.0
0.898000001907 -0.33599999547 -0.221000000834 96.0
0.93900001049 -0.358000010252 -0.231999993324 98.0
0.908999979496 -0.352999985218 -0.22499999404 108.0
0.950999975204 -0.375999987125 -0.236000001431 100.0
0.945999979973 -0.381000012159 -0.234999999404 104.0
0.907000005245 -0.370999991894 -0.225999996066 100.0
0.894999980927 -0.372999995947 -0.223000004888 99.0
0.930999994278 -0.395000010729 -0.232999995351 97.0
0.917999982834 -0.395999997854 -0.230000004172 91.0
0.910000026226 -0.398999989033 -0.228000000119 90.0
0.953999996185 -0.425999999046 -0.239999994636 95.0
0.898999989033 -0.407999992371 -0.226999998093 87.0
0.873000025749 -0.402000010014 -0.221000000834 86.0
0.90600001812 -0.423999994993 -0.230000004172 84.0
0.912999987602 -0.433999985456 -0.231999993324 85.0
0.902000010014 -0.43599998951 -0.230000004172 83.0
0.876999974251 -0.430999994278 -0.224000006914 89.0
0.875 -0.437000006437 -0.224000006914 90.0
0.910000026226 -0.462000012398 -0.233999997377 81.0
0.899999976158 -0.462999999523 -0.231999993324 81.0
0.921000003815 -0.481999993324 -0.238000005484 79.0
0.896000027657 -0.476000010967 -0.231999993324 82.0
0.93599998951 -0.504999995232 -0.243000000715 91.0
0.935000002384 -0.512000024319 -0.243000000715 100.0
0.972999989986 -0.541000008583 -0.254000008106 82.0
0.908999979496 -0.512000024319 -0.238000005484 82.0
0.917999982834 -0.524999976158 -0.240999996662 83.0
2.41100001335 0.0450000017881 -0.582000017166 235.0
2.37299990654 0.0299999993294 -0.573000013828 235.0
2.32899999619 0.01600000076 -0.561999976635 201.0
2.3069999218 0.00200000009499 -0.556999981403 175.0
2.31999993324 -0.0109999999404 -0.560000002384 142.0
0.949999988079 -0.0189999993891 -0.229000002146 100.0
0.97000002861 -0.0260000005364 -0.233999997377 126.0
0.976999998093 -0.0309999994934 -0.234999999404 119.0
0.959999978542 -0.0359999984503 -0.231000006199 124.0
0.987999975681 -0.0430000014603 -0.238000005484 129.0
0.958000004292 -0.0480000004172 -0.231000006199 132.0
0.981000006199 -0.054999999702 -0.236000001431 131.0
0.949999988079 -0.0579999983311 -0.229000002146 125.0
0.985000014305 -0.0659999996424 -0.237000003457 129.0
0.967999994755 -0.0710000023246 -0.232999995351 127.0
0.989000022411 -0.0780000016093 -0.238000005484 136.0
0.967000007629 -0.082000002265 -0.232999995351 132.0
0.954999983311 -0.0869999974966 -0.230000004172 131.0
0.93900001049 -0.0909999981523 -0.226999998093 134.0
0.959999978542 -0.0989999994636 -0.231999993324 136.0
0.962000012398 -0.104999996722 -0.231999993324 130.0
0.962000012398 -0.109999999404 -0.231999993324 135.0
0.964999973774 -0.115999996662 -0.232999995351 131.0
0.93599998951 -0.118000000715 -0.225999996066 129.0
0.972999989986 -0.128999993205 -0.236000001431 130.0
0.958999991417 -0.133000001311 -0.231999993324 128.0
0.981999993324 -0.142000004649 -0.238000005484 134.0
0.940999984741 -0.142000004649 -0.228000000119 134.0
0.966000020504 -0.150999993086 -0.233999997377 131.0
0.967999994755 -0.158000007272 -0.234999999404 123.0
0.959999978542 -0.162000000477 -0.232999995351 128.0
0.929000020027 -0.162000000477 -0.225999996066 125.0
0.941999971867 -0.170000001788 -0.229000002146 133.0
0.98400002718 -0.184000000358 -0.239999994636 125.0
0.972999989986 -0.187999993563 -0.237000003457 129.0
0.963999986649 -0.192000001669 -0.234999999404 125.0
0.967000007629 -0.199000000954 -0.236000001431 124.0
0.972999989986 -0.206000000238 -0.238000005484 122.0
0.927999973297 -0.202000007033 -0.226999998093 131.0
0.962000012398 -0.216000005603 -0.234999999404 125.0
0.947000026703 -0.217999994755 -0.231999993324 117.0
0.949000000954 -0.22499999404 -0.232999995351 120.0
0.933000028133 -0.226999998093 -0.229000002146 120.0
0.93900001049 -0.233999997377 -0.231000006199 120.0
0.947000026703 -0.241999998689 -0.232999995351 115.0
0.925999999046 -0.243000000715 -0.228000000119 117.0
0.916000008583 -0.246000006795 -0.225999996066 116.0
0.925000011921 -0.254000008106 -0.228000000119 114.0
0.955999970436 -0.268999993801 -0.236000001431 110.0
0.95300000906 -0.273999989033 -0.236000001431 115.0
0.977999985218 -0.287999987602 -0.243000000715 109.0
0.940999984741 -0.282999992371 -0.233999997377 107.0
0.939999997616 -0.28900000453 -0.233999997377 117.0
0.955999970436 -0.300000011921 -0.238000005484 113.0
0.938000023365 -0.300999999046 -0.233999997377 108.0
0.95300000906 -0.312000006437 -0.238000005484 108.0
0.921000003815 -0.307000011206 -0.231000006199 99.0
0.926999986172 -0.316000014544 -0.231999993324 106.0
0.939999997616 -0.326999992132 -0.236000001431 102.0
0.935000002384 -0.331000000238 -0.234999999404 106.0
0.912000000477 -0.328999996185 -0.230000004172 95.0
0.93900001049 -0.345999985933 -0.237000003457 103.0
0.950999975204 -0.356999993324 -0.240999996662 106.0
0.930000007153 -0.354999989271 -0.236000001431 105.0
0.919000029564 -0.356999993324 -0.233999997377 101.0
0.920000016689 -0.363999992609 -0.233999997377 96.0
0.910000026226 -0.36700001359 -0.231999993324 98.0
0.944999992847 -0.388000011444 -0.241999998689 97.0
0.896000027657 -0.374000012875 -0.229000002146 100.0
0.920000016689 -0.391000002623 -0.236000001431 95.0
0.944999992847 -0.407999992371 -0.243000000715 92.0
0.954999983311 -0.418999999762 -0.246000006795 93.0
0.90499997139 -0.404000014067 -0.233999997377 90.0
0.963999986649 -0.437999993563 -0.25 79.0
0.92199999094 -0.425000011921 -0.238999992609 94.0
0.889999985695 -0.416999995708 -0.231999993324 85.0
0.893000006676 -0.425999999046 -0.232999995351 89.0
0.879000008106 -0.425999999046 -0.230000004172 92.0
0.913999974728 -0.449999988079 -0.239999994636 82.0
0.90499997139 -0.45300000906 -0.238000005484 83.0
0.949000000954 -0.481999993324 -0.25 83.0
0.888000011444 -0.458000004292 -0.234999999404 82.0
0.981000006199 -0.513999998569 -0.259999990463 82.0
0.899999976158 -0.477999985218 -0.238999992609 78.0
0.870000004768 -0.469000011683 -0.231999993324 79.0
0.681999981403 -0.377999991179 -0.182999998331 79.0
0.901000022888 -0.509000003338 -0.241999998689 86.0
0.90600001812 -0.518999993801 -0.244000002742 84.0
2.43099999428 0.0590000003576 -0.601999998093 127.0
2.40000009537 0.0439999997616 -0.59399998188 238.0
2.37400007248 0.0299999993294 -0.587999999523 238.0
2.34100008011 0.01600000076 -0.578999996185 205.0
2.28900003433 0.00200000009499 -0.565999984741 185.0
2.32299995422 -0.0109999999404 -0.574999988079 149.0
0.940999984741 -0.0189999993891 -0.231999993324 102.0
0.989000022411 -0.0260000005364 -0.244000002742 120.0
0.952000021935 -0.0309999994934 -0.234999999404 123.0
0.975000023842 -0.0370000004768 -0.240999996662 130.0
0.954999983311 -0.0419999994338 -0.236000001431 127.0
0.977999985218 -0.0489999987185 -0.241999998689 136.0
0.962000012398 -0.0540000014007 -0.238000005484 128.0
0.943000018597 -0.0579999983311 -0.232999995351 128.0
0.96899998188 -0.0649999976158 -0.239999994636 128.0
0.955999970436 -0.070000000298 -0.236000001431 132.0
0.981000006199 -0.0780000016093 -0.243000000715 134.0
0.950999975204 -0.0810000002384 -0.234999999404 127.0
0.955999970436 -0.0869999974966 -0.236000001431 138.0
0.962000012398 -0.0930000022054 -0.238000005484 136.0
0.952000021935 -0.097999997437 -0.236000001431 134.0
0.963999986649 -0.104999996722 -0.238999992609 134.0
0.967000007629 -0.111000001431 -0.239999994636 130.0
0.930999994278 -0.112000003457 -0.231000006199 129.0
0.998000025749 -0.127000004053 -0.247999995947 131.0
0.966000020504 -0.12800000608 -0.239999994636 137.0
0.95300000906 -0.131999999285 -0.237000003457 130.0
0.950999975204 -0.137999996543 -0.236000001431 129.0
0.95300000906 -0.143999993801 -0.237000003457 133.0
0.95300000906 -0.15000000596 -0.237000003457 131.0
0.93900001049 -0.152999997139 -0.233999997377 130.0
0.976999998093 -0.165000006557 -0.243000000715 131.0
0.981999993324 -0.172000005841 -0.245000004768 128.0
0.955999970436 -0.172999992967 -0.238999992609 128.0
0.966000020504 -0.180999994278 -0.240999996662 123.0
0.936999976635 -0.180999994278 -0.233999997377 127.0
0.962000012398 -0.192000001669 -0.240999996662 125.0
0.962000012398 -0.197999998927 -0.240999996662 123.0
0.93599998951 -0.197999998927 -0.234999999404 124.0
0.980000019073 -0.21400000155 -0.246000006795 122.0
0.944000005722 -0.211999997497 -0.237000003457 123.0
0.97000002861 -0.224000006914 -0.244000002742 124.0
0.958999991417 -0.226999998093 -0.240999996662 124.0
0.96899998188 -0.236000001431 -0.244000002742 123.0
0.931999981403 -0.232999995351 -0.234999999404 121.0
0.966000020504 -0.24699999392 -0.244000002742 122.0
0.938000023365 -0.246000006795 -0.237000003457 119.0
0.964999973774 -0.259000003338 -0.244000002742 119.0
0.920000016689 -0.252999991179 -0.232999995351 118.0
0.912999987602 -0.256999999285 -0.231999993324 111.0
0.962999999523 -0.277999997139 -0.245000004768 114.0
0.944999992847 -0.279000014067 -0.240999996662 117.0
0.930999994278 -0.280000001192 -0.237000003457 109.0
0.925000011921 -0.284999996424 -0.236000001431 109.0
0.929000020027 -0.291999995708 -0.238000005484 108.0
0.934000015259 -0.300000011921 -0.238999992609 111.0
0.953999996185 -0.312999993563 -0.245000004768 108.0
0.955999970436 -0.319999992847 -0.246000006795 111.0
0.949000000954 -0.324000000954 -0.244000002742 110.0
0.920000016689 -0.319999992847 -0.237000003457 110.0
0.93900001049 -0.333000004292 -0.241999998689 101.0
0.935000002384 -0.337999999523 -0.241999998689 99.0
0.917999982834 -0.337999999523 -0.238000005484 103.0
0.917999982834 -0.344999998808 -0.238000005484 104.0
0.930999994278 -0.356000006199 -0.241999998689 100.0
0.916999995708 -0.356999993324 -0.238999992609 104.0
0.916000008583 -0.363000005484 -0.238999992609 92.0
0.959999978542 -0.388000011444 -0.250999987125 93.0
0.947000026703 -0.388999998569 -0.247999995947 98.0
0.93900001049 -0.393000006676 -0.24699999392 96.0
0.916999995708 -0.389999985695 -0.240999996662 96.0
0.919000029564 -0.398000001907 -0.243000000715 94.0
0.897000014782 -0.395000010729 -0.237000003457 94.0
0.950999975204 -0.425000011921 -0.252000004053 86.0
0.977999985218 -0.444999992847 -0.259999990463 90.0
0.924000024796 -0.426999986172 -0.246000006795 88.0
0.933000028133 -0.437999993563 -0.248999997973 84.0
0.920000016689 -0.43900001049 -0.246000006795 84.0
0.925000011921 -0.449000000954 -0.247999995947 88.0
0.856000006199 -0.421000003815 -0.230000004172 84.0
0.916999995708 -0.458999991417 -0.24699999392 82.0
0.90600001812 -0.46099999547 -0.245000004768 88.0
0.879999995232 -0.453999996185 -0.238999992609 81.0
0.90600001812 -0.47499999404 -0.246000006795 80.0
0.916999995708 -0.488000005484 -0.25 85.0
0.85799998045 -0.463999986649 -0.234999999404 83.0
0.880999982357 -0.483000010252 -0.241999998689 81.0
0.938000023365 -0.523000001907 -0.25799998641 90.0
0.888999998569 -0.503000020981 -0.245000004768 84.0
2.43400001526 0.0590000003576 -0.617999970913 124.0
2.38100004196 0.0439999997616 -0.603999972343 246.0
2.36599993706 0.0299999993294 -0.600000023842 238.0
2.32100009918 0.01600000076 -0.588999986649 206.0
2.32100009918 0.00200000009499 -0.588999986649 182.0
2.30999994278 -0.0109999999404 -0.586000025272 144.0
1.02100002766 -0.0209999997169 -0.259000003338 104.0
0.962000012398 -0.0250000003725 -0.243000000715 125.0
0.953999996185 -0.0309999994934 -0.241999998689 118.0
0.96899998188 -0.0370000004768 -0.245000004768 126.0
0.962999999523 -0.0419999994338 -0.244000002742 127.0
0.957000017166 -0.0480000004172 -0.241999998689 127.0
0.977999985218 -0.054999999702 -0.247999995947 132.0
0.957000017166 -0.0590000003576 -0.241999998689 134.0
0.981000006199 -0.0659999996424 -0.248999997973 132.0
0.992999970913 -0.0729999989271 -0.252000004053 123.0
0.953999996185 -0.0759999975562 -0.241999998689 131.0
0.952000021935 -0.0810000002384 -0.240999996662 125.0
0.954999983311 -0.0869999974966 -0.241999998689 135.0
0.962999999523 -0.0939999967813 -0.244000002742 130.0
0.950999975204 -0.097999997437 -0.240999996662 131.0
0.952000021935 -0.104000002146 -0.241999998689 127.0
0.958999991417 -0.109999999404 -0.244000002742 135.0
0.940999984741 -0.11400000006 -0.238999992609 129.0
0.949000000954 -0.120999999344 -0.240999996662 133.0
0.967000007629 -0.128999993205 -0.246000006795 140.0
0.955999970436 -0.133000001311 -0.244000002742 128.0
0.980000019073 -0.142000004649 -0.25 132.0
0.93599998951 -0.141000002623 -0.238999992609 132.0
0.943000018597 -0.148000001907 -0.240999996662 129.0
0.962999999523 -0.157000005245 -0.246000006795 129.0
0.936999976635 -0.158999994397 -0.238999992609 128.0
0.976999998093 -0.171000003815 -0.25 136.0
0.922999978065 -0.166999995708 -0.236000001431 128.0
0.961000025272 -0.180000007153 -0.246000006795 125.0
0.958000004292 -0.186000004411 -0.245000004768 119.0
0.972999989986 -0.194999992847 -0.25 129.0
0.949999988079 -0.195999994874 -0.244000002742 128.0
0.943000018597 -0.20000000298 -0.241999998689 123.0
0.920000016689 -0.201000005007 -0.237000003457 128.0
0.976000010967 -0.219999998808 -0.250999987125 122.0
0.990000009537 -0.229000002146 -0.254999995232 119.0
0.96899998188 -0.230000004172 -0.25 117.0
0.963999986649 -0.234999999404 -0.248999997973 114.0
0.958999991417 -0.239999994636 -0.247999995947 117.0
0.93900001049 -0.240999996662 -0.243000000715 122.0
0.97000002861 -0.254999995232 -0.250999987125 118.0
0.958000004292 -0.25799998641 -0.248999997973 120.0
0.949000000954 -0.261000007391 -0.24699999392 117.0
0.992999970913 -0.280000001192 -0.25799998641 112.0
0.961000025272 -0.277000010014 -0.250999987125 112.0
0.888999998569 -0.261999994516 -0.231999993324 108.0
0.949999988079 -0.286000013351 -0.247999995947 109.0
0.93900001049 -0.28900000453 -0.246000006795 103.0
0.958000004292 -0.301999986172 -0.250999987125 113.0
0.924000024796 -0.29699999094 -0.243000000715 108.0
0.980000019073 -0.321999996901 -0.25799998641 108.0
0.915000021458 -0.305999994278 -0.240999996662 104.0
0.889999985695 -0.303999990225 -0.234999999404 106.0
0.894999980927 -0.312000006437 -0.236000001431 108.0
0.913999974728 -0.324999988079 -0.241999998689 100.0
0.95300000906 -0.344999998808 -0.252999991179 101.0
0.93900001049 -0.345999985933 -0.248999997973 104.0
0.910000026226 -0.342000007629 -0.241999998689 108.0
0.92199999094 -0.352999985218 -0.246000006795 98.0
0.919000029564 -0.358000010252 -0.246000006795 95.0
0.944999992847 -0.375 -0.252999991179 99.0
0.948000013828 -0.38299998641 -0.254000008106 98.0
0.916000008583 -0.377000004053 -0.246000006795 96.0
0.862999975681 -0.361000001431 -0.231999993324 90.0
0.929000020027 -0.395999997854 -0.250999987125 92.0
0.897000014782 -0.388000011444 -0.243000000715 88.0
0.962999999523 -0.423999994993 -0.261000007391 87.0
0.916000008583 -0.409999996424 -0.248999997973 89.0
0.875 -0.398000001907 -0.238000005484 84.0
0.860000014305 -0.398000001907 -0.234999999404 92.0
0.925999999046 -0.43599998951 -0.252999991179 89.0
0.913999974728 -0.437000006437 -0.250999987125 84.0
0.916000008583 -0.444999992847 -0.252000004053 86.0
0.925000011921 -0.456999987364 -0.254999995232 90.0
0.896000027657 -0.449000000954 -0.247999995947 90.0
0.893999993801 -0.455000013113 -0.247999995947 85.0
0.908999979496 -0.469999998808 -0.252999991179 89.0
0.916999995708 -0.481999993324 -0.256000012159 83.0
0.919000029564 -0.490000009537 -0.256999999285 80.0
0.893000006676 -0.483999997377 -0.250999987125 87.0
0.836000025272 -0.458999991417 -0.234999999404 81.0
0.936999976635 -0.523000001907 -0.263999998569 86.0
0.79699999094 -0.451000005007 -0.22499999404 100.0
0.902999997139 -0.518999993801 -0.256000012159 85.0
2.40100002289 0.0439999997616 -0.624000012875 265.0
2.3599998951 0.0299999993294 -0.614000022411 251.0
2.32899999619 0.01600000076 -0.605000019073 211.0
2.30900001526 0.00200000009499 -0.600000023842 196.0
2.31599998474 -0.0109999999404 -0.601999998093 142.0
0.986999988556 -0.019999999553 -0.256000012159 110.0
1.00199997425 -0.0270000007004 -0.259999990463 119.0
0.949000000954 -0.0309999994934 -0.246000006795 113.0
0.954999983311 -0.0370000004768 -0.247999995947 122.0
0.964999973774 -0.0430000014603 -0.25 125.0
0.952000021935 -0.0480000004172 -0.24699999392 128.0
0.940999984741 -0.0529999993742 -0.244000002742 121.0
0.989000022411 -0.0610000006855 -0.256999999285 125.0
0.989000022411 -0.0670000016689 -0.256999999285 125.0
0.967000007629 -0.0710000023246 -0.250999987125 127.0
0.957000017166 -0.0759999975562 -0.248999997973 129.0
0.955999970436 -0.082000002265 -0.247999995947 129.0
0.977999985218 -0.0900000035763 -0.254000008106 133.0
0.990000009537 -0.0960000008345 -0.256999999285 129.0
0.949000000954 -0.097999997437 -0.24699999392 128.0
0.961000025272 -0.104999996722 -0.25 130.0
0.967999994755 -0.112000003457 -0.252000004053 132.0
0.973999977112 -0.118000000715 -0.254000008106 131.0
0.976000010967 -0.123999997973 -0.254000008106 132.0
0.972999989986 -0.129999995232 -0.254000008106 127.0
0.955999970436 -0.133000001311 -0.248999997973 132.0
0.971000015736 -0.141000002623 -0.254000008106 133.0
0.964999973774 -0.145999997854 -0.252000004053 129.0
0.953999996185 -0.15000000596 -0.248999997973 123.0
0.958000004292 -0.157000005245 -0.250999987125 131.0
0.978999972343 -0.165999993682 -0.256000012159 132.0
0.958000004292 -0.167999997735 -0.250999987125 126.0
0.950999975204 -0.172999992967 -0.248999997973 129.0
0.941999971867 -0.177000001073 -0.24699999392 125.0
0.949999988079 -0.184000000358 -0.248999997973 127.0
0.93599998951 -0.187000006437 -0.246000006795 126.0
0.972000002861 -0.201000005007 -0.256000012159 119.0
0.959999978542 -0.203999996185 -0.252999991179 126.0
0.938000023365 -0.204999998212 -0.24699999392 129.0
0.95300000906 -0.215000003576 -0.252000004053 119.0
0.959999978542 -0.222000002861 -0.254000008106 115.0
0.925999999046 -0.219999998808 -0.245000004768 122.0
0.958000004292 -0.233999997377 -0.254000008106 118.0
0.940999984741 -0.236000001431 -0.248999997973 125.0
0.949999988079 -0.244000002742 -0.252000004053 117.0
0.95300000906 -0.250999987125 -0.252999991179 116.0
0.926999986172 -0.25 -0.246000006795 117.0
0.943000018597 -0.259999990463 -0.250999987125 115.0
0.944000005722 -0.266999989748 -0.252000004053 113.0
0.967999994755 -0.280000001192 -0.259000003338 108.0
0.902999997139 -0.266999989748 -0.240999996662 104.0
0.93900001049 -0.284000009298 -0.252000004053 107.0
0.966000020504 -0.298000007868 -0.259000003338 107.0
0.902000010014 -0.284000009298 -0.241999998689 111.0
0.949999988079 -0.305999994278 -0.256000012159 111.0
0.958999991417 -0.314999997616 -0.25799998641 103.0
0.978999972343 -0.32800000906 -0.263999998569 110.0
0.955999970436 -0.326999992132 -0.259000003338 107.0
0.962999999523 -0.33599999547 -0.261000007391 102.0
0.912000000477 -0.324000000954 -0.24699999392 101.0
0.907000005245 -0.328999996185 -0.24699999392 98.0
0.944999992847 -0.349000006914 -0.256999999285 97.0
0.916000008583 -0.344999998808 -0.25 95.0
0.936999976635 -0.358999997377 -0.256000012159 96.0
0.903999984264 -0.352999985218 -0.247999995947 94.0
0.948000013828 -0.377000004053 -0.259999990463 95.0
0.910000026226 -0.368000000715 -0.25 98.0
0.903999984264 -0.372000008821 -0.248999997973 89.0
0.930000007153 -0.389999985695 -0.256999999285 90.0
0.927999973297 -0.395999997854 -0.256999999285 91.0
0.887000024319 -0.384999990463 -0.246000006795 84.0
0.907000005245 -0.40000000596 -0.252000004053 82.0
0.912999987602 -0.409999996424 -0.254000008106 87.0
0.90600001812 -0.412999987602 -0.252999991179 90.0
0.898000001907 -0.416000008583 -0.252000004053 86.0
0.917999982834 -0.432999998331 -0.25799998641 85.0
0.910000026226 -0.43599998951 -0.256000012159 90.0
0.884999990463 -0.430000007153 -0.25 86.0
0.896000027657 -0.442999988794 -0.252999991179 78.0
0.945999979973 -0.47499999404 -0.268000006676 79.0
0.949000000954 -0.483999997377 -0.270000010729 82.0
0.878000020981 -0.455000013113 -0.25 81.0
0.919000029564 -0.483999997377 -0.263000011444 82.0
0.879999995232 -0.469999998808 -0.252000004053 85.0
0.883000016212 -0.479000002146 -0.254000008106 89.0
0.869000017643 -0.477999985218 -0.25 84.0
0.797999978065 -0.444999992847 -0.231000006199 86.0
0.922999978065 -0.523999989033 -0.268000006676 85.0
2.43899989128 0.0590000003576 -0.649999976158 165.0
2.39700007439 0.0439999997616 -0.638000011444 279.0
2.35100007057 0.0299999993294 -0.625999987125 261.0
2.31900000572 0.01600000076 -0.616999983788 214.0
2.28200006485 0.00200000009499 -0.606999993324 186.0
2.30599999428 -0.0109999999404 -0.614000022411 146.0
2.1970000267 -0.0230000000447 -0.584999978542 60.0
0.987999975681 -0.019999999553 -0.261999994516 85.0
0.954999983311 -0.0250000003725 -0.254000008106 125.0
0.96899998188 -0.0309999994934 -0.256999999285 120.0
0.967999994755 -0.0370000004768 -0.256999999285 125.0
0.981000006199 -0.0430000014603 -0.261000007391 119.0
0.955999970436 -0.0480000004172 -0.254000008106 122.0
0.978999972343 -0.054999999702 -0.259999990463 129.0
0.96899998188 -0.0599999986589 -0.25799998641 123.0
0.958999991417 -0.0649999976158 -0.254999995232 126.0
0.953999996185 -0.070000000298 -0.254000008106 131.0
0.953999996185 -0.0759999975562 -0.254000008106 130.0
0.964999973774 -0.082999996841 -0.256999999285 127.0
0.972000002861 -0.0890000015497 -0.259000003338 129.0
0.949999988079 -0.0930000022054 -0.252999991179 128.0
0.957000017166 -0.0989999994636 -0.254999995232 125.0
0.971000015736 -0.105999998748 -0.259000003338 124.0
0.981000006199 -0.112999998033 -0.261000007391 125.0
0.961000025272 -0.116999998689 -0.256000012159 127.0
0.961000025272 -0.123000003397 -0.256999999285 130.0
0.964999973774 -0.128999993205 -0.25799998641 124.0
0.95300000906 -0.133000001311 -0.254999995232 127.0
0.954999983311 -0.138999998569 -0.254999995232 127.0
0.945999979973 -0.143000006676 -0.252999991179 126.0
0.962999999523 -0.151999995112 -0.25799998641 130.0
0.930000007153 -0.151999995112 -0.248999997973 127.0
0.953999996185 -0.162000000477 -0.256000012159 126.0
0.961000025272 -0.168999999762 -0.25799998641 129.0
0.963999986649 -0.17499999702 -0.259000003338 126.0
0.966000020504 -0.181999996305 -0.259000003338 127.0
0.972000002861 -0.188999995589 -0.261999994516 120.0
0.941999971867 -0.188999995589 -0.254000008106 131.0
0.949999988079 -0.195999994874 -0.256000012159 123.0
0.943000018597 -0.201000005007 -0.254000008106 119.0
0.958000004292 -0.209999993443 -0.259000003338 125.0
0.940999984741 -0.211999997497 -0.254000008106 116.0
0.920000016689 -0.212999999523 -0.248999997973 127.0
0.961000025272 -0.229000002146 -0.259999990463 118.0
0.966000020504 -0.236000001431 -0.261999994516 122.0
0.936999976635 -0.234999999404 -0.254000008106 115.0
0.964999973774 -0.247999995947 -0.261999994516 120.0
0.943000018597 -0.247999995947 -0.256999999285 115.0
0.926999986172 -0.25 -0.252999991179 121.0
0.98299998045 -0.272000014782 -0.268000006676 113.0
0.925000011921 -0.261999994516 -0.252999991179 104.0
0.92199999094 -0.266999989748 -0.252000004053 108.0
0.945999979973 -0.280000001192 -0.259000003338 113.0
0.911000013351 -0.275999993086 -0.25 114.0
0.967000007629 -0.298999994993 -0.266000002623 109.0
0.958999991417 -0.303000003099 -0.263999998569 108.0
0.912000000477 -0.293999999762 -0.250999987125 105.0
0.912999987602 -0.300999999046 -0.252000004053 106.0
0.917999982834 -0.307999998331 -0.254000008106 105.0
0.944000005722 -0.323000013828 -0.261000007391 107.0
0.924000024796 -0.323000013828 -0.256000012159 106.0
0.907999992371 -0.324000000954 -0.252000004053 104.0
0.912000000477 -0.331000000238 -0.254000008106 97.0
0.938000023365 -0.347000002861 -0.261999994516 96.0
0.944999992847 -0.356999993324 -0.263999998569 100.0
0.945999979973 -0.363000005484 -0.264999985695 91.0
0.882000029087 -0.344999998808 -0.24699999392 95.0
0.934000015259 -0.372000008821 -0.261999994516 89.0
0.920000016689 -0.372999995947 -0.259000003338 96.0
0.90600001812 -0.374000012875 -0.256000012159 92.0
0.884999990463 -0.370999991894 -0.25 94.0
0.92199999094 -0.393999993801 -0.261000007391 84.0
0.945999979973 -0.411000013351 -0.268999993801 89.0
0.93599998951 -0.41400000453 -0.266999989748 82.0
0.913999974728 -0.411000013351 -0.261000007391 84.0
0.958999991417 -0.437999993563 -0.273999989033 94.0
0.917999982834 -0.425999999046 -0.263000011444 92.0
0.908999979496 -0.428999990225 -0.261999994516 77.0
0.90499997139 -0.433999985456 -0.261000007391 85.0
0.90499997139 -0.441000014544 -0.261999994516 88.0
0.85799998045 -0.423999994993 -0.247999995947 83.0
0.853999972343 -0.428999990225 -0.247999995947 89.0
0.93599998951 -0.477999985218 -0.273000001907 84.0
0.873000025749 -0.45300000906 -0.254999995232 83.0
0.884000003338 -0.465999990702 -0.259000003338 87.0
0.879999995232 -0.470999985933 -0.259000003338 81.0
0.856999993324 -0.465999990702 -0.252999991179 80.0
0.874000012875 -0.488999992609 -0.259000003338 87.0
0.852999985218 -0.49200001359 -0.254000008106 82.0
2.42300009727 0.0590000003576 -0.661000013351 131.0
2.382999897 0.0439999997616 -0.648999989033 289.0
2.37599992752 0.0299999993294 -0.647000014782 267.0
2.31599998474 0.0149999996647 -0.630999982357 214.0
2.31299996376 0.00200000009499 -0.629999995232 198.0
2.32899999619 -0.0109999999404 -0.634000003338 138.0
0.976000010967 -0.019999999553 -0.266000002623 106.0
0.97000002861 -0.0260000005364 -0.263999998569 120.0
0.962000012398 -0.0309999994934 -0.261000007391 120.0
0.963999986649 -0.0370000004768 -0.261999994516 117.0
0.990999996662 -0.0439999997616 -0.268999993801 121.0
0.934000015259 -0.0469999983907 -0.254000008106 119.0
0.962000012398 -0.0540000014007 -0.261999994516 123.0
0.97000002861 -0.0599999986589 -0.263999998569 123.0
0.973999977112 -0.0659999996424 -0.264999985695 130.0
0.973999977112 -0.0719999969006 -0.264999985695 123.0
0.944999992847 -0.0750000029802 -0.256999999285 132.0
0.961000025272 -0.082000002265 -0.261999994516 130.0
0.955999970436 -0.0879999995232 -0.261000007391 127.0
0.967999994755 -0.0949999988079 -0.263999998569 125.0
0.941999971867 -0.097999997437 -0.256999999285 130.0
0.975000023842 -0.107000000775 -0.266000002623 123.0
0.955999970436 -0.111000001431 -0.261000007391 127.0
0.958000004292 -0.116999998689 -0.261999994516 123.0
0.957000017166 -0.122000001371 -0.261000007391 121.0
0.936999976635 -0.125 -0.256000012159 123.0
0.96899998188 -0.135000005364 -0.264999985695 125.0
0.944999992847 -0.137999996543 -0.259000003338 124.0
0.962999999523 -0.145999997854 -0.263999998569 127.0
0.96899998188 -0.152999997139 -0.266000002623 129.0
0.955999970436 -0.157000005245 -0.261999994516 125.0
0.962000012398 -0.16400000453 -0.263999998569 134.0
0.972000002861 -0.171000003815 -0.266999989748 126.0
0.941999971867 -0.172000005841 -0.259000003338 131.0
0.949000000954 -0.179000005126 -0.261000007391 126.0
0.958999991417 -0.187000006437 -0.263999998569 121.0
0.958000004292 -0.193000003695 -0.263999998569 122.0
0.95300000906 -0.196999996901 -0.263000011444 115.0
0.929000020027 -0.197999998927 -0.256999999285 120.0
0.921000003815 -0.202000007033 -0.254000008106 121.0
0.963999986649 -0.217999994755 -0.266999989748 124.0
0.958000004292 -0.222000002861 -0.264999985695 118.0
0.93900001049 -0.224000006914 -0.259999990463 121.0
0.940999984741 -0.230000004172 -0.261000007391 121.0
0.925999999046 -0.231999993324 -0.256999999285 113.0
0.930999994278 -0.239999994636 -0.259000003338 111.0
0.936999976635 -0.24699999392 -0.261000007391 114.0
0.967000007629 -0.261999994516 -0.270000010729 112.0
0.940999984741 -0.259999990463 -0.263000011444 122.0
0.935000002384 -0.264999985695 -0.261000007391 120.0
0.936999976635 -0.272000014782 -0.261999994516 109.0
0.949000000954 -0.280999988317 -0.266000002623 109.0
0.929000020027 -0.282000005245 -0.261000007391 111.0
0.941999971867 -0.291999995708 -0.264999985695 104.0
0.953999996185 -0.301999986172 -0.268999993801 99.0
0.933000028133 -0.300999999046 -0.263000011444 106.0
0.95300000906 -0.31400001049 -0.268999993801 104.0
0.948000013828 -0.319000005722 -0.268000006676 100.0
0.89200001955 -0.305999994278 -0.252999991179 104.0
0.903999984264 -0.316000014544 -0.256999999285 95.0
0.875999987125 -0.312000006437 -0.248999997973 105.0
0.927999973297 -0.337999999523 -0.264999985695 102.0
0.949000000954 -0.351999998093 -0.270999997854 100.0
0.964999973774 -0.363999992609 -0.275999993086 96.0
0.947000026703 -0.365000009537 -0.272000014782 95.0
0.898000001907 -0.351999998093 -0.25799998641 96.0
0.885999977589 -0.352999985218 -0.254999995232 92.0
0.926999986172 -0.377000004053 -0.266999989748 93.0
0.924000024796 -0.381999999285 -0.266999989748 81.0
0.916000008583 -0.384999990463 -0.264999985695 90.0
0.896000027657 -0.38299998641 -0.259999990463 84.0
0.939999997616 -0.409000009298 -0.273000001907 91.0
0.934000015259 -0.412999987602 -0.272000014782 91.0
0.899999976158 -0.405000001192 -0.263000011444 81.0
0.922999978065 -0.42199999094 -0.270999997854 83.0
0.876999974251 -0.407999992371 -0.25799998641 83.0
0.880999982357 -0.416999995708 -0.259999990463 85.0
0.922999978065 -0.444000005722 -0.273000001907 81.0
0.865999996662 -0.423000007868 -0.256000012159 88.0
0.870999991894 -0.432000011206 -0.25799998641 92.0
0.899999976158 -0.45300000906 -0.268000006676 87.0
0.921000003815 -0.470999985933 -0.27500000596 86.0
0.901000022888 -0.467999994755 -0.268999993801 80.0
0.944999992847 -0.499000012875 -0.282999992371 83.0
0.902000010014 -0.483000010252 -0.270999997854 88.0
0.880999982357 -0.479000002146 -0.266000002623 82.0
0.907000005245 -0.500999987125 -0.27500000596 87.0
0.893999993801 -0.509000003338 -0.272000014782 84.0
0.883000016212 -0.509999990463 -0.268999993801 83.0
2.39199995995 0.0439999997616 -0.666999995708 225.0
2.35100007057 0.0299999993294 -0.65600001812 235.0
2.31399989128 0.0149999996647 -0.644999980927 228.0
2.31599998474 0.00200000009499 -0.646000027657 189.0
2.30500006676 -0.0109999999404 -0.64200001955 140.0
0.986000001431 -0.0209999997169 -0.273999989033 85.0
0.949999988079 -0.0250000003725 -0.263999998569 111.0
0.981999993324 -0.0320000015199 -0.273000001907 118.0
0.961000025272 -0.0370000004768 -0.266999989748 119.0
0.962999999523 -0.0430000014603 -0.268000006676 121.0
0.959999978542 -0.0480000004172 -0.266999989748 124.0
0.978999972343 -0.054999999702 -0.273000001907 121.0
0.958000004292 -0.0599999986589 -0.266999989748 121.0
0.978999972343 -0.0670000016689 -0.273000001907 122.0
0.943000018597 -0.070000000298 -0.263000011444 127.0
0.958000004292 -0.0769999995828 -0.266999989748 122.0
0.981999993324 -0.0839999988675 -0.273999989033 136.0
0.957000017166 -0.0879999995232 -0.266999989748 124.0
1.00699996948 -0.0989999994636 -0.280999988317 130.0
0.957000017166 -0.0989999994636 -0.266999989748 121.0
0.97000002861 -0.107000000775 -0.270999997854 127.0
0.98400002718 -0.11400000006 -0.27500000596 128.0
0.972000002861 -0.119000002742 -0.272000014782 128.0
0.945999979973 -0.120999999344 -0.263999998569 127.0
0.977999985218 -0.130999997258 -0.273999989033 130.0
0.954999983311 -0.134000003338 -0.266999989748 128.0
0.976999998093 -0.143000006676 -0.273999989033 127.0
0.977999985218 -0.149000003934 -0.273999989033 122.0
0.972000002861 -0.153999999166 -0.272000014782 118.0
0.971000015736 -0.159999996424 -0.272000014782 130.0
0.964999973774 -0.16400000453 -0.270999997854 123.0
0.976999998093 -0.172999992967 -0.27500000596 130.0
0.93900001049 -0.171000003815 -0.263999998569 126.0
0.98299998045 -0.186000004411 -0.277000010014 120.0
0.948000013828 -0.185000002384 -0.266999989748 125.0
0.957000017166 -0.193000003695 -0.270000010729 117.0
0.961000025272 -0.199000000954 -0.270999997854 123.0
0.953999996185 -0.203999996185 -0.270000010729 116.0
0.948000013828 -0.208000004292 -0.268000006676 120.0
0.926999986172 -0.209000006318 -0.261999994516 123.0
0.963999986649 -0.224000006914 -0.273000001907 121.0
0.944000005722 -0.22499999404 -0.268000006676 117.0
0.948000013828 -0.231999993324 -0.268999993801 126.0
0.945999979973 -0.238000005484 -0.268999993801 121.0
0.935000002384 -0.240999996662 -0.266000002623 119.0
0.955999970436 -0.252999991179 -0.273000001907 117.0
0.948000013828 -0.256999999285 -0.270999997854 119.0
0.954999983311 -0.264999985695 -0.273000001907 116.0
0.961000025272 -0.273000001907 -0.27500000596 122.0
0.948000013828 -0.27500000596 -0.272000014782 118.0
0.930000007153 -0.275999993086 -0.266999989748 108.0
0.972999989986 -0.296000003815 -0.280000001192 108.0
0.887000024319 -0.27500000596 -0.254999995232 107.0
0.93599998951 -0.296000003815 -0.270000010729 106.0
0.920000016689 -0.298000007868 -0.266000002623 106.0
0.929000020027 -0.307000011206 -0.268999993801 105.0
0.933000028133 -0.314999997616 -0.270000010729 104.0
0.950999975204 -0.326999992132 -0.275999993086 105.0
0.933000028133 -0.326999992132 -0.270999997854 108.0
0.961000025272 -0.344000011683 -0.280000001192 98.0
0.925999999046 -0.337000012398 -0.270000010729 97.0
0.954999983311 -0.354999989271 -0.279000014067 95.0
0.922999978065 -0.349000006914 -0.270000010729 103.0
0.944999992847 -0.363999992609 -0.277000010014 90.0
0.916999995708 -0.360000014305 -0.270000010729 97.0
0.908999979496 -0.363000005484 -0.268000006676 88.0
0.925999999046 -0.377000004053 -0.273000001907 90.0
0.920000016689 -0.381000012159 -0.272000014782 95.0
0.90600001812 -0.381999999285 -0.268999993801 81.0
0.952000021935 -0.407999992371 -0.282999992371 92.0
0.913999974728 -0.398000001907 -0.272000014782 87.0
0.967000007629 -0.428999990225 -0.28900000453 91.0
0.933000028133 -0.421000003815 -0.279000014067 85.0
0.976999998093 -0.448000013828 -0.293000012636 89.0
0.882000029087 -0.411000013351 -0.264999985695 86.0
0.884000003338 -0.418000012636 -0.266000002623 83.0
0.915000021458 -0.439999997616 -0.275999993086 85.0
0.962999999523 -0.470999985933 -0.291999995708 82.0
0.873000025749 -0.432999998331 -0.264999985695 82.0
0.903999984264 -0.456000000238 -0.27500000596 82.0
0.896000027657 -0.465999990702 -0.273999989033 85.0
0.870000004768 -0.460000008345 -0.266999989748 89.0
0.865000009537 -0.463999986649 -0.266000002623 94.0
0.920000016689 -0.501999974251 -0.284000009298 85.0
0.958999991417 -0.53100001812 -0.29699999094 89.0
0.867999970913 -0.486999988556 -0.268999993801 85.0
0.893999993801 -0.518000006676 -0.279000014067 84.0
2.36899995804 0.0579999983311 -0.675999999046 68.0
2.35500001907 0.0439999997616 -0.67199999094 110.0
2.36500000954 0.0299999993294 -0.675000011921 151.0
2.32299995422 0.0149999996647 -0.662000000477 219.0
2.30200004578 0.00200000009499 -0.65600001812 187.0
2.27900004387 -0.0109999999404 -0.649999976158 123.0
1.02400004864 -0.0219999998808 -0.291000008583 85.0
0.973999977112 -0.0260000005364 -0.277000010014 116.0
0.959999978542 -0.0309999994934 -0.273000001907 119.0
0.931999981403 -0.0359999984503 -0.264999985695 117.0
0.958000004292 -0.0430000014603 -0.273000001907 124.0
0.976000010967 -0.0489999987185 -0.277999997139 123.0
0.97000002861 -0.054999999702 -0.275999993086 124.0
0.981000006199 -0.0610000006855 -0.279000014067 127.0
0.950999975204 -0.0649999976158 -0.270999997854 123.0
0.944999992847 -0.070000000298 -0.268999993801 120.0
0.934000015259 -0.0750000029802 -0.266000002623 127.0
0.957000017166 -0.082000002265 -0.273000001907 124.0
0.967999994755 -0.0890000015497 -0.275999993086 121.0
0.967999994755 -0.0949999988079 -0.275999993086 127.0
0.945999979973 -0.097999997437 -0.270000010729 120.0
0.962000012398 -0.105999998748 -0.27500000596 119.0
0.959999978542 -0.111000001431 -0.273999989033 126.0
0.985000014305 -0.119999997318 -0.280999988317 127.0
0.973999977112 -0.125 -0.279000014067 124.0
0.93599998951 -0.125 -0.268000006676 125.0
0.947000026703 -0.133000001311 -0.270999997854 122.0
0.912999987602 -0.133000001311 -0.261999994516 122.0
0.948000013828 -0.143999993801 -0.272000014782 121.0
0.955999970436 -0.151999995112 -0.273999989033 122.0
0.93900001049 -0.153999999166 -0.270000010729 126.0
0.957000017166 -0.163000002503 -0.27500000596 122.0
0.958999991417 -0.170000001788 -0.275999993086 121.0
0.947000026703 -0.172999992967 -0.272000014782 130.0
0.958999991417 -0.180999994278 -0.275999993086 119.0
0.950999975204 -0.186000004411 -0.273999989033 126.0
0.959999978542 -0.193000003695 -0.277000010014 125.0
0.96899998188 -0.201000005007 -0.280000001192 116.0
0.954999983311 -0.203999996185 -0.275999993086 123.0
0.945999979973 -0.208000004292 -0.273999989033 123.0
0.952000021935 -0.216000005603 -0.275999993086 126.0
0.966000020504 -0.22499999404 -0.280000001192 125.0
0.954999983311 -0.229000002146 -0.277000010014 119.0
0.958000004292 -0.234999999404 -0.277999997139 122.0
0.962000012398 -0.241999998689 -0.280000001192 123.0
0.919000029564 -0.237000003457 -0.268000006676 119.0
0.933000028133 -0.24699999392 -0.272000014782 118.0
0.966000020504 -0.261999994516 -0.282000005245 114.0
0.933000028133 -0.259000003338 -0.273000001907 120.0
0.902999997139 -0.256999999285 -0.263999998569 123.0
0.940999984741 -0.273999989033 -0.275999993086 122.0
0.92199999094 -0.273999989033 -0.270999997854 110.0
0.954999983311 -0.289999991655 -0.280999988317 101.0
0.908999979496 -0.282000005245 -0.268000006676 106.0
0.967000007629 -0.307000011206 -0.284999996424 109.0
0.949999988079 -0.307999998331 -0.280999988317 108.0
0.929000020027 -0.307000011206 -0.27500000596 97.0
0.941999971867 -0.317999988794 -0.279000014067 109.0
0.944999992847 -0.326000005007 -0.280999988317 98.0
0.930999994278 -0.326999992132 -0.277000010014 100.0
0.947000026703 -0.338999986649 -0.282000005245 103.0
0.925000011921 -0.337999999523 -0.275999993086 101.0
0.926999986172 -0.344999998808 -0.277000010014 106.0
0.924000024796 -0.34999999404 -0.277000010014 99.0
0.912000000477 -0.351999998093 -0.273999989033 94.0
0.938000023365 -0.368999987841 -0.282000005245 86.0
0.945999979973 -0.379000008106 -0.284999996424 94.0
0.902000010014 -0.368000000715 -0.272000014782 94.0
0.922999978065 -0.38299998641 -0.279000014067 95.0
0.941999971867 -0.397000014782 -0.286000013351 87.0
0.935000002384 -0.402000010014 -0.284000009298 88.0
0.888000011444 -0.388000011444 -0.270999997854 85.0
0.912999987602 -0.405000001192 -0.279000014067 82.0
0.912999987602 -0.412000000477 -0.279000014067 87.0
0.899999976158 -0.412999987602 -0.275999993086 80.0
0.926999986172 -0.432999998331 -0.284999996424 90.0
0.897000014782 -0.425999999046 -0.277000010014 93.0
0.925999999046 -0.446999996901 -0.286000013351 89.0
0.939999997616 -0.46099999547 -0.291999995708 79.0
0.898000001907 -0.446999996901 -0.279000014067 87.0
0.912000000477 -0.46099999547 -0.284000009298 87.0
0.902999997139 -0.463999986649 -0.282000005245 83.0
0.885999977589 -0.462000012398 -0.277000010014 87.0
0.871999979019 -0.462000012398 -0.273999989033 85.0
0.869000017643 -0.467000007629 -0.273999989033 88.0
0.819999992847 -0.448000013828 -0.259000003338 88.0
0.990000009537 -0.550000011921 -0.31400001049 81.0
2.34800004959 0.0570000000298 -0.685000002384 75.0
2.35299992561 0.0430000014603 -0.68599998951 107.0
2.38800001144 0.0299999993294 -0.695999979973 90.0
2.33599996567 0.0149999996647 -0.680999994278 97.0
2.29999995232 0.00200000009499 -0.670000016689 92.0
2.34400010109 -0.0109999999404 -0.683000028133 67.0
0.996999979019 -0.0209999997169 -0.289999991655 93.0
0.949000000954 -0.0250000003725 -0.275999993086 112.0
0.962999999523 -0.0320000015199 -0.280000001192 109.0
0.944000005722 -0.0359999984503 -0.273999989033 116.0
0.955999970436 -0.0430000014603 -0.277999997139 115.0
0.990999996662 -0.0500000007451 -0.287999987602 123.0
0.962000012398 -0.0540000014007 -0.280000001192 119.0
0.964999973774 -0.0599999986589 -0.280999988317 121.0
0.962999999523 -0.0659999996424 -0.280000001192 120.0
0.996999979019 -0.0740000009537 -0.289999991655 117.0
0.940999984741 -0.0750000029802 -0.273999989033 119.0
0.958999991417 -0.082999996841 -0.279000014067 118.0
0.954999983311 -0.0879999995232 -0.279000014067 129.0
0.964999973774 -0.0949999988079 -0.282000005245 122.0
0.940999984741 -0.097999997437 -0.273999989033 122.0
0.998000025749 -0.109999999404 -0.291000008583 125.0
0.964999973774 -0.112000003457 -0.282000005245 121.0
0.929000020027 -0.11400000006 -0.272000014782 121.0
0.954999983311 -0.123000003397 -0.279000014067 117.0
0.96899998188 -0.129999995232 -0.282999992371 116.0
0.935000002384 -0.130999997258 -0.273999989033 120.0
0.93599998951 -0.136999994516 -0.273999989033 113.0
0.920000016689 -0.140000000596 -0.270000010729 117.0
0.957000017166 -0.151999995112 -0.280999988317 116.0
0.985000014305 -0.162000000477 -0.28900000453 120.0
0.97000002861 -0.165999993682 -0.284999996424 126.0
0.95300000906 -0.168999999762 -0.280000001192 119.0
0.957000017166 -0.17499999702 -0.282000005245 120.0
0.929000020027 -0.175999999046 -0.273000001907 115.0
0.944999992847 -0.185000002384 -0.279000014067 118.0
0.967000007629 -0.194999992847 -0.284999996424 119.0
0.920000016689 -0.190999999642 -0.272000014782 122.0
0.945999979973 -0.202999994159 -0.280000001192 122.0
0.940999984741 -0.208000004292 -0.277999997139 122.0
0.944000005722 -0.21400000155 -0.280000001192 120.0
0.963999986649 -0.22499999404 -0.286000013351 114.0
0.963999986649 -0.231000006199 -0.286000013351 117.0
0.941999971867 -0.231999993324 -0.280000001192 119.0
0.938000023365 -0.237000003457 -0.279000014067 117.0
0.938000023365 -0.243000000715 -0.279000014067 121.0
0.938000023365 -0.248999997973 -0.280000001192 116.0
0.927999973297 -0.252000004053 -0.277000010014 118.0
0.939999997616 -0.261000007391 -0.280999988317 124.0
0.949999988079 -0.270999997854 -0.284000009298 120.0
0.952000021935 -0.277000010014 -0.284999996424 122.0
0.926999986172 -0.275999993086 -0.277999997139 109.0
0.947000026703 -0.28900000453 -0.284999996424 103.0
0.921000003815 -0.287000000477 -0.277000010014 105.0
0.938000023365 -0.298000007868 -0.282999992371 110.0
0.912999987602 -0.296000003815 -0.275999993086 101.0
0.907000005245 -0.300000011921 -0.273999989033 100.0
0.940999984741 -0.317999988794 -0.284999996424 104.0
0.940999984741 -0.324999988079 -0.286000013351 99.0
0.948000013828 -0.333999991417 -0.287999987602 107.0
0.976999998093 -0.351000010967 -0.298000007868 98.0
0.924000024796 -0.337999999523 -0.282000005245 93.0
0.930999994278 -0.347000002861 -0.284999996424 89.0
0.925000011921 -0.351000010967 -0.282999992371 95.0
0.898000001907 -0.347000002861 -0.275999993086 92.0
0.92199999094 -0.363000005484 -0.284000009298 93.0
0.933000028133 -0.374000012875 -0.287000000477 93.0
0.934000015259 -0.381000012159 -0.28900000453 89.0
0.873000025749 -0.361999988556 -0.270000010729 88.0
0.917999982834 -0.388000011444 -0.284999996424 85.0
0.925000011921 -0.398000001907 -0.287999987602 94.0
0.879999995232 -0.384999990463 -0.273999989033 88.0
0.873000025749 -0.388000011444 -0.273000001907 87.0
0.888999998569 -0.402000010014 -0.277999997139 80.0
0.955999970436 -0.439999997616 -0.300000011921 85.0
0.934000015259 -0.437000006437 -0.293999999762 87.0
0.90600001812 -0.430999994278 -0.286000013351 88.0
0.837999999523 -0.404000014067 -0.264999985695 83.0
0.856000006199 -0.419999986887 -0.270999997854 86.0
0.90499997139 -0.458000004292 -0.287999987602 89.0
0.883000016212 -0.453999996185 -0.282000005245 89.0
0.851999998093 -0.444999992847 -0.273000001907 87.0
0.912000000477 -0.483999997377 -0.293000012636 90.0
0.89099997282 -0.479999989271 -0.287000000477 82.0
0.876999974251 -0.509000003338 -0.287000000477 94.0
2.34800004959 0.0570000000298 -0.699999988079 73.0
2.33899998665 0.0430000014603 -0.697000026703 98.0
2.36400008202 0.0299999993294 -0.703999996185 78.0
2.29500007629 0.0149999996647 -0.684000015259 66.0
2.34200000763 0.00200000009499 -0.698000013828 61.0
1.00199997425 -0.0209999997169 -0.298000007868 98.0
0.947000026703 -0.0250000003725 -0.280999988317 117.0
0.990999996662 -0.0329999998212 -0.294999986887 111.0
0.958000004292 -0.0370000004768 -0.284999996424 119.0
0.971000015736 -0.0430000014603 -0.28900000453 119.0
0.944999992847 -0.0480000004172 -0.280999988317 124.0
0.930999994278 -0.0529999993742 -0.277000010014 121.0
0.972999989986 -0.0610000006855 -0.289999991655 117.0
0.962999999523 -0.0659999996424 -0.287000000477 115.0
0.958999991417 -0.0710000023246 -0.286000013351 117.0
0.941999971867 -0.0759999975562 -0.280000001192 122.0
0.980000019073 -0.0850000008941 -0.291999995708 118.0
0.958000004292 -0.0890000015497 -0.286000013351 118.0
0.962000012398 -0.0949999988079 -0.287000000477 116.0
0.958999991417 -0.10000000149 -0.286000013351 114.0
0.971000015736 -0.107000000775 -0.289999991655 118.0
0.978999972343 -0.11400000006 -0.291999995708 123.0
0.95300000906 -0.116999998689 -0.284999996424 123.0
0.955999970436 -0.123000003397 -0.286000013351 118.0
0.954999983311 -0.128999993205 -0.284999996424 118.0
0.953999996185 -0.134000003338 -0.284999996424 119.0
0.925999999046 -0.136000007391 -0.277000010014 122.0
0.957000017166 -0.145999997854 -0.286000013351 119.0
0.963999986649 -0.152999997139 -0.28900000453 117.0
0.925000011921 -0.152999997139 -0.277000010014 126.0
0.940999984741 -0.16099999845 -0.282000005245 119.0
0.920000016689 -0.163000002503 -0.275999993086 116.0
0.947000026703 -0.173999994993 -0.284999996424 115.0
0.955999970436 -0.180999994278 -0.287999987602 117.0
0.954999983311 -0.187000006437 -0.287000000477 109.0
0.935000002384 -0.188999995589 -0.282000005245 114.0
0.980000019073 -0.203999996185 -0.296000003815 113.0
0.955999970436 -0.204999998212 -0.28900000453 112.0
0.940999984741 -0.208000004292 -0.284000009298 114.0
0.920000016689 -0.209000006318 -0.277999997139 122.0
0.945999979973 -0.221000000834 -0.287000000477 120.0
0.948000013828 -0.228000000119 -0.287999987602 120.0
0.986000001431 -0.243000000715 -0.298999994993 118.0
0.940999984741 -0.238000005484 -0.286000013351 120.0
0.949000000954 -0.246000006795 -0.28900000453 122.0
0.944000005722 -0.250999987125 -0.287999987602 120.0
0.93599998951 -0.254999995232 -0.286000013351 120.0
0.944999992847 -0.263000011444 -0.28900000453 115.0
0.936999976635 -0.266999989748 -0.287000000477 117.0
0.924000024796 -0.268999993801 -0.282999992371 116.0
0.947000026703 -0.282999992371 -0.291000008583 108.0
0.931999981403 -0.284000009298 -0.286000013351 102.0
0.939999997616 -0.293000012636 -0.28900000453 102.0
0.953999996185 -0.303999990225 -0.293999999762 108.0
0.901000022888 -0.293000012636 -0.277999997139 101.0
0.947000026703 -0.31400001049 -0.293000012636 100.0
0.944000005722 -0.319999992847 -0.291999995708 101.0
0.907000005245 -0.312999993563 -0.280999988317 89.0
0.898999989033 -0.317000001669 -0.280000001192 101.0
0.893999993801 -0.321000009775 -0.277999997139 93.0
0.967000007629 -0.354999989271 -0.301999986172 91.0
0.958999991417 -0.358000010252 -0.300000011921 96.0
0.898000001907 -0.340999990702 -0.280999988317 96.0
0.930000007153 -0.360000014305 -0.291999995708 96.0
0.90499997139 -0.356999993324 -0.284999996424 85.0
0.911000013351 -0.365999996662 -0.287000000477 92.0
0.911000013351 -0.372999995947 -0.287999987602 86.0
0.84500002861 -0.351000010967 -0.266999989748 87.0
0.902999997139 -0.381999999285 -0.286000013351 95.0
0.902000010014 -0.388000011444 -0.287000000477 82.0
0.90600001812 -0.397000014782 -0.28900000453 83.0
