ply
format ascii 1.0
element vertex 915
property float x
property float y
property float z
property float intensity
end_header
0.902000010014 -0.143000006676 -0.0890000015497 1785.0
0.898000001907 -0.148000001907 -0.0879999995232 1767.0
0.902999997139 -0.153999999166 -0.0890000015497 1779.0
0.898000001907 -0.158000007272 -0.0879999995232 1725.0
0.898000001907 -0.16400000453 -0.0879999995232 1734.0
0.897000014782 -0.168999999762 -0.0879999995232 1817.0
0.894999980927 -0.173999994993 -0.0879999995232 1767.0
0.896000027657 -0.180000007153 -0.0879999995232 1796.0
0.898999989033 -0.186000004411 -0.0890000015497 1805.0
0.897000014782 -0.190999999642 -0.0890000015497 1906.0
0.897000014782 -0.195999994874 -0.0890000015497 1874.0
0.896000027657 -0.201000005007 -0.0890000015497 1872.0
0.89099997282 -0.206000000238 -0.0879999995232 1867.0
0.89200001955 -0.21099999547 -0.0879999995232 1890.0
0.889999985695 -0.216000005603 -0.0879999995232 1865.0
0.889999985695 -0.222000002861 -0.0879999995232 1836.0
0.889999985695 -0.226999998093 -0.0879999995232 1873.0
0.888000011444 -0.231999993324 -0.0879999995232 1869.0
0.885999977589 -0.237000003457 -0.0879999995232 1898.0
0.884000003338 -0.241999998689 -0.0879999995232 1831.0
0.887000024319 -0.248999997973 -0.0879999995232 1854.0
0.889999985695 -0.254999995232 -0.0890000015497 1867.0
0.888000011444 -0.261000007391 -0.0890000015497 1834.0
0.884999990463 -0.264999985695 -0.0890000015497 1777.0
0.889999985695 -0.273000001907 -0.0890000015497 1846.0
0.883000016212 -0.275999993086 -0.0890000015497 1854.0
0.882000029087 -0.280999988317 -0.0890000015497 1882.0
0.883000016212 -0.287999987602 -0.0890000015497 1854.0
0.876999974251 -0.291000008583 -0.0879999995232 1848.0
0.880999982357 -0.298000007868 -0.0890000015497 1838.0
0.876999974251 -0.303000003099 -0.0890000015497 1839.0
0.884999990463 -0.31099998951 -0.0900000035763 1798.0
0.875999987125 -0.31400001049 -0.0890000015497 1828.0
0.876999974251 -0.321000009775 -0.0890000015497 2006.0
0.874000012875 -0.324999988079 -0.0890000015497 1995.0
0.874000012875 -0.331000000238 -0.0890000015497 1945.0
0.870999991894 -0.33599999547 -0.0890000015497 1931.0
0.873000025749 -0.342999994755 -0.0890000015497 1958.0
0.874000012875 -0.349000006914 -0.0900000035763 1940.0
0.871999979019 -0.354999989271 -0.0890000015497 1962.0
0.870999991894 -0.360000014305 -0.0900000035763 1907.0
0.874000012875 -0.368000000715 -0.0900000035763 1948.0
0.870999991894 -0.372999995947 -0.0900000035763 1898.0
0.869000017643 -0.377999991179 -0.0900000035763 1874.0
0.871999979019 -0.386000007391 -0.0900000035763 1849.0
0.867999970913 -0.389999985695 -0.0900000035763 1799.0
0.870999991894 -0.398000001907 -0.0909999981523 1799.0
0.867999970913 -0.402999997139 -0.0909999981523 1802.0
0.865000009537 -0.407999992371 -0.0900000035763 1866.0
0.861000001431 -0.412999987602 -0.0900000035763 1922.0
0.866999983788 -0.42199999094 -0.0909999981523 1845.0
0.864000022411 -0.426999986172 -0.0909999981523 1828.0
0.862999975681 -0.432999998331 -0.0909999981523 1861.0
0.861999988556 -0.43900001049 -0.0909999981523 1859.0
0.861999988556 -0.446000009775 -0.0909999981523 1898.0
0.856999993324 -0.449999988079 -0.0909999981523 1935.0
0.85799998045 -0.458000004292 -0.0909999981523 1841.0
0.860000014305 -0.465000003576 -0.0920000001788 1697.0
0.861000001431 -0.472999989986 -0.0920000001788 1672.0
0.852999985218 -0.476000010967 -0.0920000001788 1718.0
2.03800010681 1.17299997807 -0.245000004768 235.0
2.04500007629 1.15999996662 -0.245000004768 270.0
2.04500007629 1.14400005341 -0.244000002742 269.0
2.05200004578 1.13100004196 -0.244000002742 247.0
2.00900006294 1.0909999609 -0.238000005484 143.0
2.06900000572 1.10699999332 -0.244000002742 104.0
2.11400008202 1.11500000954 -0.248999997973 171.0
2.15400004387 1.11800003052 -0.252999991179 239.0
2.16700005531 1.10800004005 -0.254000008106 120.0
0.896000027657 0.333999991417 -0.10000000149 101.0
0.898999989033 0.330000013113 -0.10000000149 148.0
0.837999999523 0.296000003815 -0.0930000022054 257.0
0.880999982357 0.298999994993 -0.097000002861 398.0
0.860000014305 0.287000000477 -0.0949999988079 341.0
0.861000001431 0.280999988317 -0.0949999988079 320.0
0.850000023842 0.272000014782 -0.0930000022054 383.0
0.869000017643 0.273000001907 -0.0949999988079 453.0
0.874000012875 0.268000006676 -0.0949999988079 516.0
0.865999996662 0.259999990463 -0.0939999967813 581.0
0.865000009537 0.254999995232 -0.0939999967813 651.0
0.875 0.252000004053 -0.0949999988079 699.0
0.870000004768 0.245000004768 -0.0939999967813 778.0
0.883000016212 0.243000000715 -0.0960000008345 827.0
0.869000017643 0.233999997377 -0.0939999967813 899.0
0.861000001431 0.225999996066 -0.0930000022054 1133.0
0.85799998045 0.219999998808 -0.0930000022054 1043.0
0.869000017643 0.216999992728 -0.0930000022054 1103.0
0.855000019073 0.209000006318 -0.0920000001788 1183.0
0.862999975681 0.204999998212 -0.0930000022054 859.0
0.85799998045 0.199000000954 -0.0920000001788 884.0
0.856000006199 0.193000003695 -0.0920000001788 826.0
0.871999979019 0.192000001669 -0.0930000022054 878.0
0.862999975681 0.184000000358 -0.0920000001788 1392.0
0.856999993324 0.178000003099 -0.0909999981523 1475.0
0.85799998045 0.172999992967 -0.0909999981523 1325.0
0.856000006199 0.166999995708 -0.0909999981523 1550.0
0.856000006199 0.162000000477 -0.0909999981523 1448.0
0.865000009537 0.158999994397 -0.0920000001788 1447.0
0.864000022411 0.152999997139 -0.0920000001788 1497.0
0.861000001431 0.148000001907 -0.0909999981523 1535.0
0.864000022411 0.143000006676 -0.0909999981523 1578.0
0.85900002718 0.136999994516 -0.0909999981523 1636.0
0.856000006199 0.131999999285 -0.0900000035763 1646.0
0.85799998045 0.127000004053 -0.0900000035763 1625.0
0.861000001431 0.122000001371 -0.0909999981523 1637.0
0.856000006199 0.115999996662 -0.0900000035763 1566.0
0.865999996662 0.112999998033 -0.0909999981523 627.0
4.96099996567 0.611000001431 -0.521000027657 67.0
4.6890001297 0.550000011921 -0.49200001359 61.0
4.68400001526 0.522000014782 -0.490999996662 62.0
4.67100000381 0.493000000715 -0.488999992609 64.0
4.6779999733 0.467000007629 -0.488999992609 67.0
4.71000003815 0.442000001669 -0.49200001359 59.0
4.70399999619 0.41400000453 -0.490999996662 63.0
4.72399997711 0.388999998569 -0.493000000715 54.0
4.72300004959 0.361000001431 -0.493000000715 61.0
4.71600008011 0.333000004292 -0.49200001359 56.0
4.78800010681 0.310000002384 -0.499000012875 61.0
4.72200012207 0.279000014067 -0.49200001359 63.0
4.76800012589 0.254000008106 -0.495999991894 62.0
4.77799987793 0.226999998093 -0.497000008821 61.0
4.80000019073 0.20000000298 -0.499000012875 56.0
4.84499979019 0.173999994993 -0.504000008106 60.0
4.8029999733 0.143999993801 -0.499000012875 60.0
4.84100008011 0.118000000715 -0.503000020981 56.0
4.82399988174 0.0890000015497 -0.500999987125 61.0
4.89400005341 0.0619999989867 -0.508000016212 55.0
4.91200017929 0.0340000018477 -0.509999990463 55.0
4.94099998474 0.00600000005215 -0.513000011444 58.0
0.994000017643 -0.0480000004172 -0.103000000119 198.0
0.916999995708 -0.0489999987185 -0.0949999988079 1271.0
0.920000016689 -0.054999999702 -0.0949999988079 1692.0
0.915000021458 -0.0599999986589 -0.0949999988079 1743.0
0.910000026226 -0.0649999976158 -0.0939999967813 1751.0
0.908999979496 -0.070000000298 -0.0939999967813 1783.0
0.917999982834 -0.0759999975562 -0.0949999988079 1801.0
0.912000000477 -0.0810000002384 -0.0949999988079 1842.0
0.90600001812 -0.0850000008941 -0.0939999967813 1739.0
0.908999979496 -0.0909999981523 -0.0939999967813 1713.0
0.90600001812 -0.0960000008345 -0.0939999967813 1799.0
0.907000005245 -0.101000003517 -0.0939999967813 1741.0
0.90600001812 -0.105999998748 -0.0939999967813 1741.0
0.90600001812 -0.112000003457 -0.0939999967813 1730.0
0.901000022888 -0.115999996662 -0.0939999967813 1712.0
0.902000010014 -0.122000001371 -0.0939999967813 1675.0
0.90600001812 -0.12800000608 -0.0939999967813 1752.0
0.90499997139 -0.133000001311 -0.0939999967813 1761.0
0.902999997139 -0.137999996543 -0.0939999967813 1725.0
0.901000022888 -0.143000006676 -0.0939999967813 1779.0
0.901000022888 -0.148000001907 -0.0939999967813 1767.0
0.902000010014 -0.153999999166 -0.0939999967813 1736.0
0.901000022888 -0.158999994397 -0.0939999967813 1733.0
0.899999976158 -0.16400000453 -0.0939999967813 1733.0
0.902000010014 -0.170000001788 -0.0939999967813 1797.0
0.89099997282 -0.172999992967 -0.0930000022054 1775.0
0.896000027657 -0.180000007153 -0.0939999967813 1801.0
0.893999993801 -0.185000002384 -0.0939999967813 1776.0
0.898000001907 -0.190999999642 -0.0939999967813 1896.0
0.89099997282 -0.194999992847 -0.0930000022054 1893.0
0.893000006676 -0.201000005007 -0.0939999967813 1854.0
0.897000014782 -0.207000002265 -0.0939999967813 1853.0
0.889999985695 -0.21099999547 -0.0930000022054 1888.0
0.887000024319 -0.216000005603 -0.0930000022054 1863.0
0.893000006676 -0.223000004888 -0.0939999967813 1849.0
0.888000011444 -0.226999998093 -0.0939999967813 1870.0
0.883000016212 -0.231000006199 -0.0930000022054 1839.0
0.889999985695 -0.238999992609 -0.0939999967813 1874.0
0.89099997282 -0.244000002742 -0.0939999967813 1826.0
0.888000011444 -0.248999997973 -0.0939999967813 1841.0
0.885999977589 -0.254000008106 -0.0939999967813 1902.0
0.882000029087 -0.259000003338 -0.0939999967813 1826.0
0.887000024319 -0.266000002623 -0.0939999967813 1758.0
0.887000024319 -0.272000014782 -0.0939999967813 1832.0
0.879999995232 -0.27500000596 -0.0939999967813 1871.0
0.884000003338 -0.282000005245 -0.0939999967813 1878.0
0.880999982357 -0.287000000477 -0.0939999967813 1875.0
0.876999974251 -0.291000008583 -0.0939999967813 1807.0
0.882000029087 -0.298999994993 -0.0939999967813 1823.0
0.879000008106 -0.303999990225 -0.0939999967813 1824.0
0.876999974251 -0.308999985456 -0.0939999967813 1796.0
0.880999982357 -0.316000014544 -0.0949999988079 1849.0
0.879999995232 -0.321999996901 -0.0949999988079 1999.0
0.875999987125 -0.326000005007 -0.0949999988079 2027.0
0.874000012875 -0.331999987364 -0.0939999967813 1945.0
0.875999987125 -0.337999999523 -0.0949999988079 1969.0
0.874000012875 -0.342999994755 -0.0949999988079 1951.0
0.871999979019 -0.349000006914 -0.0949999988079 1919.0
0.875 -0.356000006199 -0.0949999988079 1960.0
0.871999979019 -0.361000001431 -0.0949999988079 1904.0
0.871999979019 -0.36700001359 -0.0949999988079 1972.0
0.869000017643 -0.372000008821 -0.0949999988079 1901.0
0.875 -0.381000012159 -0.0960000008345 1858.0
0.871999979019 -0.386000007391 -0.0960000008345 1843.0
0.865000009537 -0.388999998569 -0.0949999988079 1849.0
0.873000025749 -0.398999989033 -0.0960000008345 1850.0
0.860000014305 -0.398999989033 -0.0949999988079 1875.0
0.864000022411 -0.407999992371 -0.0960000008345 1834.0
0.864000022411 -0.41400000453 -0.0960000008345 1874.0
0.866999983788 -0.42199999094 -0.0960000008345 1821.0
0.865000009537 -0.428000003099 -0.097000002861 1823.0
0.85900002718 -0.430999994278 -0.0960000008345 1842.0
0.862999975681 -0.439999997616 -0.097000002861 1850.0
0.864000022411 -0.446999996901 -0.097000002861 1907.0
0.85900002718 -0.451999992132 -0.097000002861 1943.0
0.861000001431 -0.460000008345 -0.097000002861 1810.0
0.860000014305 -0.465999990702 -0.097000002861 1686.0
0.85799998045 -0.472000002861 -0.097000002861 1693.0
0.85900002718 -0.479000002146 -0.097999997437 1733.0
2.03900003433 1.17499995232 -0.25799998641 311.0
2.04600000381 1.16199994087 -0.25799998641 321.0
2.04800009727 1.14600002766 -0.25799998641 313.0
2.05200004578 1.13199996948 -0.256999999285 302.0
2.0720000267 1.12600004673 -0.259000003338 158.0
2.08299994469 1.11500000954 -0.259999990463 129.0
2.16400003433 1.14100003242 -0.268999993801 222.0
2.16100001335 1.12300002575 -0.268000006676 323.0
2.1930000782 1.12199997902 -0.270999997854 153.0
2.29200005531 1.15499997139 -0.282000005245 75.0
2.35400009155 1.11500000954 -0.286000013351 81.0
3.77099990845 1.33200001717 -0.441000014544 78.0
3.91899991035 1.30599999428 -0.455000013113 77.0
3.99900007248 1.30700004101 -0.462999999523 61.0
4.19299983978 1.34300005436 -0.485000014305 60.0
4.06300020218 1.27400004864 -0.469000011683 64.0
4.17000007629 1.28100001812 -0.481000006199 63.0
4.26900005341 1.2840000391 -0.490999996662 63.0
0.0500000007451 0.0149999996647 -0.00600000005215 57.0
0.40000000596 0.115000002086 -0.0460000000894 69.0
0.726000010967 0.204999998212 -0.082999996841 110.0
0.824999988079 0.226999998093 -0.0939999967813 164.0
0.847000002861 0.228000000119 -0.097000002861 218.0
0.851000010967 0.224000006914 -0.097000002861 329.0
0.853999972343 0.218999996781 -0.097000002861 465.0
0.855000019073 0.21400000155 -0.097000002861 533.0
0.824999988079 0.202000007033 -0.0939999967813 333.0
0.822000026703 0.195999994874 -0.0930000022054 330.0
0.833999991417 0.193000003695 -0.0939999967813 370.0
0.84399998188 0.190999999642 -0.0949999988079 427.0
0.848999977112 0.187000006437 -0.0960000008345 486.0
0.852999985218 0.181999996305 -0.0960000008345 655.0
0.866999983788 0.180000007153 -0.097999997437 729.0
0.865999996662 0.173999994993 -0.097000002861 782.0
0.85799998045 0.167999997735 -0.0960000008345 951.0
0.865000009537 0.16400000453 -0.097000002861 839.0
0.870000004768 0.158999994397 -0.097000002861 843.0
0.870999991894 0.155000001192 -0.097000002861 917.0
0.864000022411 0.148000001907 -0.097000002861 962.0
0.871999979019 0.143999993801 -0.097000002861 1022.0
0.867999970913 0.138999998569 -0.097000002861 1067.0
0.865999996662 0.133000001311 -0.0960000008345 1097.0
0.866999983788 0.12800000608 -0.0960000008345 1107.0
0.865999996662 0.123000003397 -0.0960000008345 1142.0
0.865000009537 0.118000000715 -0.0960000008345 1152.0
0.851000010967 0.111000001431 -0.0939999967813 526.0
4.93800020218 0.60799998045 -0.54699999094 59.0
4.66400003433 0.54699999094 -0.51700001955 67.0
4.66900014877 0.519999980927 -0.51700001955 63.0
4.69299983978 0.495999991894 -0.518999993801 68.0
4.6939997673 0.467999994755 -0.518999993801 65.0
4.71099996567 0.442000001669 -0.519999980927 61.0
4.71400022507 0.414999991655 -0.519999980927 59.0
4.67199993134 0.384000003338 -0.514999985695 65.0
4.66200017929 0.356000006199 -0.513999998569 57.0
4.73199987411 0.333999991417 -0.521000027657 63.0
4.79500007629 0.31099998951 -0.527999997139 58.0
4.79300022125 0.282999992371 -0.527000010014 59.0
4.82800006866 0.256999999285 -0.53100001812 59.0
4.8140001297 0.228000000119 -0.528999984264 60.0
4.79899978638 0.20000000298 -0.527000010014 64.0
4.83199977875 0.172999992967 -0.53100001812 57.0
4.83199977875 0.144999995828 -0.52999997139 60.0
4.84299993515 0.118000000715 -0.53100001812 59.0
4.91499996185 0.0909999981523 -0.538999974728 60.0
4.90100002289 0.0619999989867 -0.537000000477 58.0
4.82100009918 0.0329999998212 -0.527999997139 53.0
4.93699979782 0.00600000005215 -0.541000008583 53.0
1.0039999485 -0.0480000004172 -0.109999999404 224.0
0.925000011921 -0.0500000007451 -0.101000003517 1290.0
0.912999987602 -0.0540000014007 -0.10000000149 1668.0
0.910000026226 -0.0590000003576 -0.10000000149 1688.0
0.908999979496 -0.0649999976158 -0.10000000149 1741.0
0.907999992371 -0.070000000298 -0.0989999994636 1781.0
0.910000026226 -0.0750000029802 -0.10000000149 1817.0
0.911000013351 -0.0810000002384 -0.10000000149 1798.0
0.907999992371 -0.0860000029206 -0.10000000149 1720.0
0.908999979496 -0.0909999981523 -0.10000000149 1693.0
0.90600001812 -0.0960000008345 -0.0989999994636 1799.0
0.903999984264 -0.101000003517 -0.0989999994636 1723.0
0.903999984264 -0.105999998748 -0.0989999994636 1710.0
0.910000026226 -0.112000003457 -0.10000000149 1685.0
0.90600001812 -0.116999998689 -0.0989999994636 1688.0
0.903999984264 -0.122000001371 -0.0989999994636 1680.0
0.899999976158 -0.127000004053 -0.0989999994636 1761.0
0.901000022888 -0.131999999285 -0.0989999994636 1731.0
0.901000022888 -0.137999996543 -0.0989999994636 1712.0
0.903999984264 -0.143999993801 -0.0989999994636 1754.0
0.902000010014 -0.149000003934 -0.0989999994636 1769.0
0.898999989033 -0.152999997139 -0.0989999994636 1715.0
0.903999984264 -0.159999996424 -0.10000000149 1679.0
0.899999976158 -0.16400000453 -0.0989999994636 1705.0
0.898000001907 -0.168999999762 -0.0989999994636 1766.0
0.897000014782 -0.17499999702 -0.0989999994636 1750.0
0.896000027657 -0.180000007153 -0.0989999994636 1776.0
0.897000014782 -0.185000002384 -0.0989999994636 1739.0
0.897000014782 -0.190999999642 -0.0989999994636 1827.0
0.89099997282 -0.194999992847 -0.0989999994636 1889.0
0.893000006676 -0.201000005007 -0.0989999994636 1830.0
0.894999980927 -0.207000002265 -0.0989999994636 1866.0
0.89200001955 -0.211999997497 -0.0989999994636 1867.0
0.894999980927 -0.217999994755 -0.0989999994636 1878.0
0.887000024319 -0.221000000834 -0.0989999994636 1825.0
0.889999985695 -0.228000000119 -0.0989999994636 1845.0
0.888000011444 -0.232999995351 -0.0989999994636 1854.0
0.884000003338 -0.237000003457 -0.0989999994636 1848.0
0.884999990463 -0.243000000715 -0.0989999994636 1824.0
0.888000011444 -0.248999997973 -0.0989999994636 1805.0
0.89099997282 -0.256000012159 -0.10000000149 1869.0
0.882000029087 -0.259000003338 -0.0989999994636 1811.0
0.885999977589 -0.266000002623 -0.0989999994636 1749.0
0.883000016212 -0.270999997854 -0.0989999994636 1820.0
0.882000029087 -0.275999993086 -0.0989999994636 1852.0
0.883000016212 -0.282000005245 -0.0989999994636 1902.0
0.882000029087 -0.287999987602 -0.0989999994636 1877.0
0.876999974251 -0.291999995708 -0.0989999994636 1776.0
0.874000012875 -0.296000003815 -0.0989999994636 1791.0
0.879999995232 -0.303999990225 -0.10000000149 1798.0
0.874000012875 -0.307999998331 -0.0989999994636 1783.0
0.874000012875 -0.31400001049 -0.0989999994636 1801.0
0.876999974251 -0.321000009775 -0.10000000149 1955.0
0.873000025749 -0.324999988079 -0.0989999994636 1969.0
0.875999987125 -0.331999987364 -0.10000000149 1940.0
0.873000025749 -0.337000012398 -0.10000000149 1954.0
0.873000025749 -0.342999994755 -0.10000000149 1946.0
0.870999991894 -0.349000006914 -0.10000000149 1927.0
0.871999979019 -0.354999989271 -0.10000000149 1929.0
0.873000025749 -0.361999988556 -0.101000003517 1904.0
0.865000009537 -0.363999992609 -0.10000000149 1941.0
0.870999991894 -0.372999995947 -0.101000003517 1899.0
0.870000004768 -0.379000008106 -0.101000003517 1894.0
0.866999983788 -0.384000003338 -0.101000003517 1850.0
0.865999996662 -0.389999985695 -0.101000003517 1892.0
0.862999975681 -0.395000010729 -0.101000003517 1896.0
0.866999983788 -0.402999997139 -0.101000003517 1922.0
0.865999996662 -0.409000009298 -0.101000003517 1861.0
0.861000001431 -0.412999987602 -0.101000003517 1864.0
0.865000009537 -0.42199999094 -0.101999998093 1847.0
0.861999988556 -0.426999986172 -0.101999998093 1858.0
0.861000001431 -0.432999998331 -0.101999998093 1839.0
0.85799998045 -0.437999993563 -0.101999998093 1874.0
0.856999993324 -0.444000005722 -0.101999998093 1960.0
0.85900002718 -0.451999992132 -0.101999998093 1908.0
0.860000014305 -0.458999991417 -0.103000000119 1762.0
0.85900002718 -0.465999990702 -0.103000000119 1714.0
0.855000019073 -0.470999985933 -0.103000000119 1719.0
0.852999985218 -0.476000010967 -0.103000000119 1779.0
2.03099989891 1.17100000381 -0.270999997854 280.0
2.03600001335 1.15699994564 -0.270999997854 304.0
2.0569999218 1.15199995041 -0.272000014782 315.0
2.06500005722 1.13999998569 -0.273000001907 310.0
2.07299995422 1.12699997425 -0.273000001907 158.0
2.14599990845 1.14999997616 -0.282000005245 127.0
2.16199994087 1.14100003242 -0.282999992371 231.0
2.15100002289 1.11800003052 -0.280000001192 342.0
2.17600011826 1.11399996281 -0.282999992371 179.0
2.22199988365 1.1210000515 -0.287999987602 82.0
2.42100000381 1.14699995518 -0.310000002384 81.0
3.20199990273 1.21899998188 -0.397000014782 74.0
3.73799991608 1.34599995613 -0.46099999547 61.0
3.79699993134 1.34200000763 -0.467000007629 61.0
3.71199989319 1.28699994087 -0.456000000238 62.0
3.91400003433 1.33099997044 -0.479000002146 67.0
3.82500004768 1.27600002289 -0.467999994755 70.0
4.00600004196 1.30900001526 -0.488999992609 70.0
4.15299987793 1.33000004292 -0.505999982357 62.0
4.11199998856 1.28999996185 -0.5 63.0
4.18800020218 1.28699994087 -0.508000016212 63.0
4.27699995041 1.17700004578 -0.514999985695 64.0
4.15399980545 1.11699998379 -0.499000012875 59.0
4.22700023651 1.11000001431 -0.507000029087 55.0
4.28100013733 1.09700000286 -0.513000011444 61.0
4.18699979782 1.04700005054 -0.500999987125 61.0
4.10200023651 1.0 -0.490000009537 57.0
4.28800010681 1.01900005341 -0.510999977589 57.0
4.14099979401 0.958999991417 -0.493000000715 57.0
4.35300016403 0.981000006199 -0.518000006676 55.0
4.33199977875 0.922999978065 -0.513999998569 57.0
4.26000022888 0.882000029087 -0.504000008106 56.0
4.13199996948 0.829999983311 -0.488999992609 64.0
4.83900022507 0.943000018597 -0.572000026703 52.0
4.92700004578 0.930000007153 -0.580999970436 58.0
0.209000006318 0.0390000008047 -0.0250000003725 67.0
0.310000002384 0.0560000017285 -0.0370000004768 81.0
0.551999986172 0.0949999988079 -0.0649999976158 107.0
0.837000012398 0.138999998569 -0.097999997437 278.0
0.839999973774 0.134000003338 -0.0989999994636 238.0
0.769999980927 0.119000002742 -0.0900000035763 217.0
0.79699999094 0.118000000715 -0.0930000022054 250.0
0.832000017166 0.118000000715 -0.097000002861 287.0
0.82800000906 0.112999998033 -0.097000002861 335.0
0.741999983788 0.097000002861 -0.0869999974966 201.0
4.6890001297 0.57800000906 -0.54699999094 60.0
4.66400003433 0.54699999094 -0.544000029564 63.0
4.66300010681 0.519999980927 -0.542999982834 64.0
4.65899991989 0.49200001359 -0.542999982834 61.0
4.70599985123 0.469999998808 -0.547999978065 65.0
4.75099992752 0.446000009775 -0.551999986172 63.0
4.71999979019 0.416000008583 -0.549000024796 58.0
4.69600009918 0.386000007391 -0.545000016689 60.0
4.80499982834 0.36700001359 -0.558000028133 58.0
4.74399995804 0.335000008345 -0.550000011921 63.0
4.74700021744 0.307999998331 -0.550000011921 58.0
4.82899999619 0.284999996424 -0.559000015259 60.0
4.84000015259 0.256999999285 -0.560000002384 61.0
4.81199979782 0.228000000119 -0.556999981403 60.0
4.89900016785 0.203999996185 -0.566999971867 64.0
4.79699993134 0.172000005841 -0.555000007153 58.0
4.78599977493 0.143999993801 -0.552999973297 64.0
4.85200023651 0.118000000715 -0.56099998951 64.0
4.91200017929 0.0909999981523 -0.566999971867 60.0
4.86999988556 0.0619999989867 -0.561999976635 56.0
4.8220000267 0.0329999998212 -0.556999981403 56.0
4.8639998436 0.00499999988824 -0.56099998951 57.0
1.27100002766 -0.0109999999404 -0.146999999881 51.0
1.19299995899 -0.0170000009239 -0.137999996543 52.0
0.977999985218 -0.0469999983907 -0.112999998033 237.0
0.916000008583 -0.0489999987185 -0.105999998748 1305.0
0.912999987602 -0.0540000014007 -0.104999996722 1647.0
0.910000026226 -0.0599999986589 -0.104999996722 1662.0
0.908999979496 -0.0649999976158 -0.104999996722 1700.0
0.907000005245 -0.070000000298 -0.104999996722 1780.0
0.915000021458 -0.0759999975562 -0.105999998748 1775.0
0.908999979496 -0.0799999982119 -0.104999996722 1745.0
0.907000005245 -0.0860000029206 -0.104999996722 1705.0
0.916000008583 -0.0920000001788 -0.105999998748 1663.0
0.902000010014 -0.0960000008345 -0.104000002146 1765.0
0.90600001812 -0.101000003517 -0.104999996722 1722.0
0.908999979496 -0.107000000775 -0.104999996722 1712.0
0.907999992371 -0.112000003457 -0.104999996722 1676.0
0.901000022888 -0.116999998689 -0.104000002146 1671.0
0.902999997139 -0.122000001371 -0.104000002146 1661.0
0.903999984264 -0.12800000608 -0.104999996722 1737.0
0.902999997139 -0.133000001311 -0.104999996722 1711.0
0.903999984264 -0.137999996543 -0.104999996722 1711.0
0.899999976158 -0.143000006676 -0.104000002146 1714.0
0.894999980927 -0.146999999881 -0.104000002146 1731.0
0.898999989033 -0.153999999166 -0.104000002146 1664.0
0.902000010014 -0.158999994397 -0.104999996722 1672.0
0.902000010014 -0.165000006557 -0.104999996722 1681.0
0.897000014782 -0.168999999762 -0.104000002146 1731.0
0.894999980927 -0.173999994993 -0.104000002146 1731.0
0.897000014782 -0.180000007153 -0.104000002146 1783.0
0.899999976158 -0.186000004411 -0.104999996722 1736.0
0.896000027657 -0.190999999642 -0.104000002146 1793.0
0.893000006676 -0.195999994874 -0.104000002146 1857.0
0.889999985695 -0.20000000298 -0.104000002146 1824.0
0.89200001955 -0.206000000238 -0.104000002146 1844.0
0.893000006676 -0.211999997497 -0.104000002146 1847.0
0.889999985695 -0.216999992728 -0.104000002146 1847.0
0.888999998569 -0.222000002861 -0.104000002146 1819.0
0.888000011444 -0.226999998093 -0.104000002146 1832.0
0.887000024319 -0.232999995351 -0.104000002146 1852.0
0.894999980927 -0.239999994636 -0.104999996722 1806.0
0.887000024319 -0.244000002742 -0.104000002146 1836.0
0.885999977589 -0.248999997973 -0.104000002146 1810.0
0.879999995232 -0.252999991179 -0.104000002146 1834.0
0.888999998569 -0.261000007391 -0.104999996722 1800.0
0.884999990463 -0.266000002623 -0.104999996722 1778.0
0.882000029087 -0.270999997854 -0.104000002146 1798.0
0.882000029087 -0.275999993086 -0.104999996722 1827.0
0.876999974251 -0.280000001192 -0.104000002146 1909.0
0.884999990463 -0.28900000453 -0.104999996722 1868.0
0.878000020981 -0.291999995708 -0.104000002146 1779.0
0.876999974251 -0.298000007868 -0.104999996722 1773.0
0.882000029087 -0.305000007153 -0.104999996722 1785.0
0.875999987125 -0.308999985456 -0.104999996722 1752.0
0.876999974251 -0.314999997616 -0.104999996722 1748.0
0.875999987125 -0.321000009775 -0.104999996722 1922.0
0.871999979019 -0.324999988079 -0.104999996722 1935.0
0.869000017643 -0.330000013113 -0.104999996722 1939.0
0.876999974251 -0.338999986649 -0.105999998748 1916.0
0.871999979019 -0.342999994755 -0.104999996722 1923.0
0.875 -0.34999999404 -0.105999998748 1914.0
0.870000004768 -0.354000002146 -0.104999996722 1902.0
0.871999979019 -0.361000001431 -0.105999998748 1942.0
0.874000012875 -0.368999987841 -0.105999998748 1930.0
0.870999991894 -0.372999995947 -0.105999998748 1930.0
0.867999970913 -0.377999991179 -0.105999998748 1895.0
0.865000009537 -0.384000003338 -0.105999998748 1877.0
0.867999970913 -0.391000002623 -0.107000000775 1906.0
0.867999970913 -0.397000014782 -0.107000000775 1884.0
0.862999975681 -0.400999993086 -0.105999998748 1909.0
0.860000014305 -0.405999988317 -0.105999998748 1876.0
0.864000022411 -0.414999991655 -0.107000000775 1877.0
0.865000009537 -0.42199999094 -0.107000000775 1850.0
0.861000001431 -0.425999999046 -0.107000000775 1864.0
0.85799998045 -0.430999994278 -0.107000000775 1867.0
0.861999988556 -0.439999997616 -0.108000002801 1871.0
0.855000019073 -0.444000005722 -0.107000000775 1935.0
0.856999993324 -0.451000005007 -0.108000002801 1862.0
0.85900002718 -0.458999991417 -0.108000002801 1748.0
0.85900002718 -0.465999990702 -0.108999997377 1756.0
0.852999985218 -0.469999998808 -0.108000002801 1765.0
0.852999985218 -0.476000010967 -0.108000002801 1821.0
2.04200005531 1.1779999733 -0.286000013351 218.0
2.04200005531 1.16100001335 -0.284999996424 295.0
2.05599999428 1.15199995041 -0.286000013351 313.0
2.06599998474 1.14100003242 -0.286000013351 302.0
2.05900001526 1.12000000477 -0.284000009298 167.0
2.10100007057 1.12600004673 -0.28900000453 125.0
2.15899991989 1.13999998569 -0.296000003815 227.0
2.1740000248 1.13100004196 -0.298000007868 343.0
2.16499996185 1.10899996758 -0.294999986887 173.0
2.16400003433 1.09200000763 -0.293999999762 90.0
2.42000007629 1.14699995518 -0.326000005007 83.0
2.62700009346 1.16799998283 -0.34999999404 77.0
2.72900009155 1.15400004387 -0.360000014305 68.0
3.23699998856 1.23300004005 -0.42199999094 91.0
3.3069999218 1.23699998856 -0.430000007153 82.0
3.66000008583 1.31900000572 -0.474000006914 67.0
3.64100003242 1.2879999876 -0.469999998808 82.0
3.7539999485 1.3029999733 -0.483999997377 87.0
3.84800004959 1.30900001526 -0.495000004768 66.0
3.84800004959 1.2840000391 -0.493999987841 87.0
3.99900007248 1.30799996853 -0.512000024319 76.0
4.11100006104 1.31700003147 -0.526000022888 63.0
4.20499992371 0.870999991894 -0.523000001907 65.0
4.17100000381 0.837999999523 -0.518000006676 58.0
4.26599979401 0.832000017166 -0.528999984264 63.0
4.18200016022 0.790000021458 -0.518000006676 65.0
4.15899991989 0.759999990463 -0.514999985695 64.0
4.17500019073 0.737999975681 -0.51599997282 68.0
4.26200008392 0.727999985218 -0.527000010014 58.0
4.57899999619 0.754999995232 -0.564999997616 50.0
4.66200017929 0.712999999523 -0.574000000954 54.0
4.74900007248 0.698000013828 -0.583999991417 56.0
4.68499994278 0.633000016212 -0.575999975204 57.0
4.74700021744 0.612999975681 -0.583000004292 56.0
4.69999980927 0.578999996185 -0.575999975204 56.0
4.69999980927 0.551999986172 -0.575999975204 64.0
4.67600011826 0.521000027657 -0.572000026703 70.0
4.73500013351 0.5 -0.578999996185 67.0
4.71400022507 0.469999998808 -0.575999975204 65.0
4.72499990463 0.444000005722 -0.577000021935 64.0
4.73299980164 0.416999995708 -0.57800000906 60.0
4.72100019455 0.388000011444 -0.575999975204 62.0
4.74599981308 0.363000005484 -0.578999996185 58.0
4.77500009537 0.337000012398 -0.582000017166 61.0
4.77799987793 0.310000002384 -0.582000017166 58.0
4.79699993134 0.282999992371 -0.583999991417 61.0
4.80200004578 0.254999995232 -0.583999991417 60.0
4.77400016785 0.225999996066 -0.580999970436 59.0
4.78599977493 0.199000000954 -0.582000017166 60.0
4.81799983978 0.144999995828 -0.584999978542 64.0
4.92000007629 0.119000002742 -0.597000002861 61.0
4.86600017548 0.0900000035763 -0.591000020504 60.0
4.85900020599 0.0619999989867 -0.589999973774 62.0
4.94899988174 0.0340000018477 -0.600000023842 57.0
1.20399999619 -0.00999999977648 -0.145999997854 53.0
1.22300004959 -0.0179999992251 -0.148000001907 51.0
0.989000022411 -0.0480000004172 -0.119999997318 258.0
0.916999995708 -0.0489999987185 -0.111000001431 1283.0
0.917999982834 -0.054999999702 -0.111000001431 1634.0
0.912000000477 -0.0599999986589 -0.109999999404 1661.0
0.908999979496 -0.0649999976158 -0.109999999404 1642.0
0.908999979496 -0.070000000298 -0.109999999404 1734.0
0.907999992371 -0.0750000029802 -0.109999999404 1752.0
0.908999979496 -0.0810000002384 -0.109999999404 1719.0
0.910000026226 -0.0860000029206 -0.109999999404 1690.0
0.907999992371 -0.0909999981523 -0.109999999404 1642.0
0.903999984264 -0.0960000008345 -0.109999999404 1730.0
0.90600001812 -0.101000003517 -0.109999999404 1705.0
0.899999976158 -0.105999998748 -0.108999997377 1682.0
0.90600001812 -0.112000003457 -0.109999999404 1660.0
0.903999984264 -0.116999998689 -0.109999999404 1648.0
0.902999997139 -0.122000001371 -0.109999999404 1660.0
0.902000010014 -0.127000004053 -0.109999999404 1717.0
0.902999997139 -0.133000001311 -0.109999999404 1681.0
0.898999989033 -0.137999996543 -0.108999997377 1694.0
0.902999997139 -0.143999993801 -0.109999999404 1692.0
0.899999976158 -0.148000001907 -0.109999999404 1692.0
0.902000010014 -0.153999999166 -0.109999999404 1647.0
0.901000022888 -0.158999994397 -0.109999999404 1632.0
0.898999989033 -0.16400000453 -0.109999999404 1640.0
0.894999980927 -0.168999999762 -0.108999997377 1723.0
0.894999980927 -0.173999994993 -0.108999997377 1711.0
0.893000006676 -0.179000005126 -0.108999997377 1764.0
0.894999980927 -0.185000002384 -0.109999999404 1732.0
0.89099997282 -0.189999997616 -0.108999997377 1809.0
0.89099997282 -0.194999992847 -0.108999997377 1864.0
0.89200001955 -0.201000005007 -0.108999997377 1833.0
0.894999980927 -0.207000002265 -0.109999999404 1816.0
0.893000006676 -0.211999997497 -0.109999999404 1813.0
0.893000006676 -0.217999994755 -0.109999999404 1830.0
0.888999998569 -0.222000002861 -0.109999999404 1804.0
0.89099997282 -0.228000000119 -0.109999999404 1831.0
0.889999985695 -0.233999997377 -0.109999999404 1832.0
0.89200001955 -0.239999994636 -0.109999999404 1811.0
0.889999985695 -0.245000004768 -0.109999999404 1810.0
0.884000003338 -0.248999997973 -0.109999999404 1782.0
0.884000003338 -0.254000008106 -0.109999999404 1830.0
0.885999977589 -0.259999990463 -0.109999999404 1838.0
0.887000024319 -0.266999989748 -0.109999999404 1790.0
0.880999982357 -0.270000010729 -0.109999999404 1795.0
0.884999990463 -0.277000010014 -0.109999999404 1802.0
0.884999990463 -0.282999992371 -0.109999999404 1866.0
0.878000020981 -0.287000000477 -0.109999999404 1844.0
0.880999982357 -0.293000012636 -0.109999999404 1770.0
0.882000029087 -0.298999994993 -0.111000001431 1793.0
0.879999995232 -0.305000007153 -0.111000001431 1778.0
0.875 -0.308999985456 -0.109999999404 1755.0
0.875999987125 -0.314999997616 -0.109999999404 1752.0
0.878000020981 -0.321999996901 -0.111000001431 1859.0
0.873000025749 -0.326000005007 -0.109999999404 1891.0
0.873000025749 -0.331999987364 -0.111000001431 1900.0
0.875 -0.338999986649 -0.111000001431 1917.0
0.870999991894 -0.342999994755 -0.111000001431 1922.0
0.873000025749 -0.34999999404 -0.111000001431 1885.0
0.865000009537 -0.352999985218 -0.109999999404 1846.0
0.869000017643 -0.360000014305 -0.111000001431 1910.0
0.874000012875 -0.368999987841 -0.112000003457 1915.0
0.866999983788 -0.372000008821 -0.111000001431 1924.0
0.867999970913 -0.377999991179 -0.112000003457 1860.0
0.865000009537 -0.384000003338 -0.111000001431 1850.0
0.866999983788 -0.391000002623 -0.112000003457 1882.0
0.865999996662 -0.397000014782 -0.112000003457 1895.0
0.865000009537 -0.402999997139 -0.112000003457 1888.0
0.865999996662 -0.409999996424 -0.112999998033 1906.0
0.862999975681 -0.41400000453 -0.112000003457 1894.0
0.862999975681 -0.421000003815 -0.112999998033 1851.0
0.85900002718 -0.425999999046 -0.112000003457 1888.0
0.861999988556 -0.433999985456 -0.112999998033 1865.0
0.861000001431 -0.439999997616 -0.112999998033 1903.0
0.856000006199 -0.444000005722 -0.112999998033 1893.0
0.860000014305 -0.45300000906 -0.11400000006 1839.0
0.85900002718 -0.458999991417 -0.11400000006 1756.0
0.860000014305 -0.467000007629 -0.11400000006 1782.0
0.85799998045 -0.472999989986 -0.11400000006 1790.0
0.851000010967 -0.476000010967 -0.11400000006 1845.0
2.04099988937 1.1779999733 -0.298999994993 297.0
2.04699993134 1.16499996185 -0.298999994993 316.0
2.06200003624 1.15699994564 -0.300999999046 315.0
2.04299998283 1.1289999485 -0.29699999094 311.0
2.08200001717 1.13399994373 -0.300999999046 178.0
2.07399988174 1.11300003529 -0.298999994993 121.0
2.16300010681 1.14300000668 -0.31099998951 217.0
2.17100000381 1.12999999523 -0.31099998951 344.0
2.18400001526 1.12000000477 -0.312000006437 190.0
2.45199990273 1.1629999876 -0.345999985933 91.0
2.6740000248 1.19000005722 -0.372999995947 68.0
3.22199988365 1.25 -0.441000014544 85.0
3.24900007248 1.23800003529 -0.442999988794 111.0
3.32500004768 1.24399995804 -0.45300000906 91.0
3.6819999218 1.32799994946 -0.499000012875 89.0
3.67199993134 1.29999995232 -0.497000008821 120.0
3.68899989128 1.28100001812 -0.497999995947 121.0
3.84100008011 1.30799996853 -0.518000006676 75.0
3.83100008965 1.27900004387 -0.514999985695 133.0
4.007999897 1.31200003624 -0.537999987602 95.0
4.0640001297 1.3029999733 -0.545000016689 70.0
4.08699989319 0.79699999094 -0.532000005245 53.0
4.12799978256 0.77999997139 -0.536000013351 72.0
4.04500007629 0.740000009537 -0.524999976158 67.0
4.09100008011 0.723999977112 -0.52999997139 62.0
4.20699977875 0.71899998188 -0.545000016689 64.0
4.60500001907 0.759000003338 -0.596000015736 54.0
4.71799993515 0.694000005722 -0.60900002718 60.0
4.66699981689 0.602999985218 -0.600000023842 55.0
4.70100021362 0.579999983311 -0.603999972343 57.0
4.60200023651 0.541000008583 -0.591000020504 64.0
4.71500015259 0.526000022888 -0.605000019073 70.0
4.68300008774 0.495000004768 -0.601000010967 68.0
4.65899991989 0.465000003576 -0.597000002861 70.0
4.73999977112 0.444999992847 -0.606999993324 67.0
4.76700019836 0.419999986887 -0.610000014305 59.0
4.74900007248 0.391000002623 -0.606999993324 60.0
4.76499986649 0.363999992609 -0.60900002718 55.0
4.76800012589 0.337000012398 -0.60900002718 62.0
4.71600008011 0.305999994278 -0.601999998093 60.0
4.80999994278 0.284000009298 -0.614000022411 61.0
4.79099988937 0.254999995232 -0.611000001431 57.0
4.8109998703 0.228000000119 -0.612999975681 64.0
4.83500003815 0.201000005007 -0.615999996662 63.0
4.88100004196 0.17499999702 -0.621999979019 65.0
4.84100008011 0.144999995828 -0.615999996662 61.0
4.91499996185 0.119000002742 -0.625999987125 62.0
4.84899997711 0.0890000015497 -0.616999983788 61.0
4.88500022888 0.0619999989867 -0.621999979019 57.0
4.95699977875 0.0340000018477 -0.629999995232 59.0
5.01200008392 0.00499999988824 -0.637000024319 55.0
0.933000028133 -0.0450000017881 -0.118000000715 276.0
0.915000021458 -0.0489999987185 -0.115999996662 1273.0
0.912000000477 -0.0540000014007 -0.115999996662 1602.0
0.907000005245 -0.0590000003576 -0.115000002086 1648.0
0.907999992371 -0.0649999976158 -0.115000002086 1642.0
0.910000026226 -0.070000000298 -0.115999996662 1728.0
0.903999984264 -0.0750000029802 -0.115000002086 1725.0
0.910000026226 -0.0810000002384 -0.115999996662 1701.0
0.903999984264 -0.0850000008941 -0.115000002086 1654.0
0.907000005245 -0.0909999981523 -0.115000002086 1624.0
0.90600001812 -0.0960000008345 -0.115000002086 1704.0
0.90499997139 -0.101000003517 -0.115000002086 1675.0
0.901000022888 -0.105999998748 -0.115000002086 1678.0
0.903999984264 -0.112000003457 -0.115000002086 1654.0
0.90600001812 -0.116999998689 -0.115000002086 1641.0
0.902000010014 -0.122000001371 -0.115000002086 1659.0
0.902000010014 -0.12800000608 -0.115000002086 1708.0
0.896000027657 -0.131999999285 -0.11400000006 1653.0
0.90499997139 -0.138999998569 -0.115999996662 1662.0
0.899999976158 -0.143000006676 -0.115000002086 1654.0
0.902999997139 -0.149000003934 -0.115000002086 1651.0
0.902000010014 -0.153999999166 -0.115000002086 1653.0
0.897000014782 -0.158999994397 -0.115000002086 1631.0
0.899999976158 -0.165000006557 -0.115000002086 1626.0
0.896000027657 -0.168999999762 -0.115000002086 1714.0
0.897000014782 -0.17499999702 -0.115000002086 1703.0
0.898999989033 -0.180999994278 -0.115000002086 1715.0
0.897000014782 -0.186000004411 -0.115000002086 1679.0
0.893999993801 -0.190999999642 -0.115000002086 1790.0
0.889999985695 -0.194999992847 -0.11400000006 1846.0
0.888999998569 -0.20000000298 -0.11400000006 1824.0
0.888999998569 -0.206000000238 -0.115000002086 1807.0
0.893999993801 -0.211999997497 -0.115000002086 1823.0
0.889999985695 -0.216999992728 -0.115000002086 1827.0
0.889999985695 -0.223000004888 -0.115000002086 1805.0
0.884000003338 -0.226999998093 -0.11400000006 1840.0
0.888000011444 -0.232999995351 -0.115000002086 1830.0
0.888000011444 -0.238999992609 -0.115000002086 1796.0
0.888999998569 -0.245000004768 -0.115000002086 1820.0
0.888999998569 -0.25 -0.115000002086 1744.0
0.887000024319 -0.254999995232 -0.115000002086 1798.0
0.879999995232 -0.259000003338 -0.115000002086 1842.0
0.883000016212 -0.264999985695 -0.115000002086 1780.0
0.879000008106 -0.270000010729 -0.115000002086 1787.0
0.885999977589 -0.277999997139 -0.115999996662 1799.0
0.884000003338 -0.282999992371 -0.115999996662 1841.0
0.884999990463 -0.28900000453 -0.115999996662 1839.0
0.884000003338 -0.294999986887 -0.115999996662 1772.0
0.879999995232 -0.298999994993 -0.115999996662 1787.0
0.879000008106 -0.305000007153 -0.115999996662 1773.0
0.876999974251 -0.310000002384 -0.115999996662 1750.0
0.876999974251 -0.316000014544 -0.115999996662 1747.0
0.875999987125 -0.321000009775 -0.115999996662 1807.0
0.871999979019 -0.326000005007 -0.115999996662 1861.0
0.875999987125 -0.333000004292 -0.115999996662 1857.0
0.869000017643 -0.337000012398 -0.115999996662 1864.0
0.875999987125 -0.344999998808 -0.116999998689 1905.0
0.871999979019 -0.34999999404 -0.115999996662 1853.0
0.870000004768 -0.354999989271 -0.115999996662 1845.0
0.869000017643 -0.361000001431 -0.115999996662 1839.0
0.875 -0.370000004768 -0.118000000715 1877.0
0.871999979019 -0.375 -0.116999998689 1860.0
0.870999991894 -0.379999995232 -0.116999998689 1869.0
0.873000025749 -0.386999994516 -0.118000000715 1815.0
0.869000017643 -0.391999989748 -0.118000000715 1834.0
0.864000022411 -0.395999997854 -0.116999998689 1925.0
0.861999988556 -0.400999993086 -0.116999998689 1882.0
0.862999975681 -0.407999992371 -0.118000000715 1916.0
0.861999988556 -0.414999991655 -0.118000000715 1854.0
0.85900002718 -0.419999986887 -0.118000000715 1853.0
0.856000006199 -0.425000011921 -0.118000000715 1866.0
0.85900002718 -0.432999998331 -0.118000000715 1886.0
0.860000014305 -0.439999997616 -0.119000002742 1924.0
0.856999993324 -0.444999992847 -0.119000002742 1842.0
0.861000001431 -0.453999996185 -0.119000002742 1808.0
0.860000014305 -0.460000008345 -0.119999997318 1765.0
0.85799998045 -0.465999990702 -0.119999997318 1771.0
0.860000014305 -0.474000006914 -0.119999997318 1797.0
0.853999972343 -0.477999985218 -0.119999997318 1834.0
2.0569999218 1.18900001049 -0.314999997616 294.0
2.04800009727 1.16600000858 -0.312999993563 304.0
2.06599998474 1.15999996662 -0.314999997616 318.0
2.05200004578 1.13499999046 -0.312000006437 311.0
2.07500004768 1.13100004196 -0.31400001049 180.0
2.11999988556 1.13800001144 -0.319999992847 121.0
2.15000009537 1.13699996471 -0.323000013828 211.0
2.18300008774 1.13699996471 -0.326999992132 355.0
2.19600009918 1.12699997425 -0.32800000906 187.0
2.20300006866 1.11300003529 -0.32800000906 99.0
2.4849998951 1.17999994755 -0.365999996662 96.0
2.60500001907 1.17900002003 -0.381000012159 69.0
2.66400003433 1.12800002098 -0.386000007391 77.0
3.25500011444 1.26400005817 -0.465999990702 84.0
3.17700004578 1.2120000124 -0.453999996185 105.0
3.32399988174 1.24500000477 -0.472999989986 92.0
3.66199994087 1.3220000267 -0.518999993801 81.0
3.65599989891 1.29499995708 -0.51700001955 93.0
3.6970000267 1.2840000391 -0.522000014782 122.0
3.84400010109 1.30999994278 -0.541999995708 78.0
3.81399989128 1.27400004864 -0.537000000477 133.0
3.97199988365 1.29999995232 -0.558000028133 90.0
3.71700000763 0.838999986649 -0.509000003338 56.0
4.08300018311 0.772000014782 -0.555000007153 79.0
4.07499980927 0.745999991894 -0.552999973297 86.0
4.08699989319 0.722999989986 -0.554000020027 90.0
4.125 0.704999983311 -0.559000015259 77.0
4.67899990082 0.716000020504 -0.632000029087 58.0
4.63899993896 0.681999981403 -0.625999987125 57.0
4.59499979019 0.648999989033 -0.619000017643 57.0
4.64799976349 0.628000020981 -0.625999987125 61.0
4.68699979782 0.606000006199 -0.630999982357 60.0
4.75400018692 0.587000012398 -0.638999998569 58.0
4.71000003815 0.552999973297 -0.633000016212 63.0
4.65500020981 0.519999980927 -0.625 71.0
4.72800016403 0.5 -0.634000003338 67.0
4.65700006485 0.465000003576 -0.624000012875 61.0
4.69600009918 0.441000014544 -0.629000008106 63.0
4.6890001297 0.412999987602 -0.628000020981 60.0
4.75299978256 0.391000002623 -0.635999977589 59.0
4.74499988556 0.363000005484 -0.634999990463 56.0
4.75600004196 0.33599999547 -0.635999977589 65.0
4.82700014114 0.312999993563 -0.644999980927 57.0
4.84499979019 0.286000013351 -0.647000014782 59.0
4.75 0.252999991179 -0.634000003338 63.0
4.82000017166 0.228000000119 -0.643000006676 65.0
4.77600002289 0.199000000954 -0.637000024319 66.0
4.82700014114 0.172999992967 -0.643000006676 61.0
4.89499998093 0.146999999881 -0.652000010014 62.0
4.82100009918 0.116999998689 -0.64200001955 64.0
4.86899995804 0.0900000035763 -0.648000001907 66.0
4.88399982452 0.0619999989867 -0.649999976158 59.0
4.93800020218 0.0340000018477 -0.657000005245 62.0
4.96099996567 0.00499999988824 -0.660000026226 57.0
0.962999999523 -0.0469999983907 -0.12800000608 306.0
0.913999974728 -0.0489999987185 -0.122000001371 1285.0
0.908999979496 -0.0540000014007 -0.120999999344 1570.0
0.912999987602 -0.0599999986589 -0.120999999344 1624.0
0.911000013351 -0.0649999976158 -0.120999999344 1624.0
0.907999992371 -0.070000000298 -0.120999999344 1701.0
0.90600001812 -0.0750000029802 -0.119999997318 1711.0
0.90499997139 -0.0799999982119 -0.119999997318 1700.0
0.907999992371 -0.0860000029206 -0.120999999344 1666.0
0.902999997139 -0.0909999981523 -0.119999997318 1618.0
0.90600001812 -0.0960000008345 -0.120999999344 1660.0
0.907999992371 -0.101999998093 -0.120999999344 1662.0
0.902999997139 -0.107000000775 -0.119999997318 1658.0
0.899999976158 -0.112000003457 -0.119999997318 1643.0
0.899999976158 -0.116999998689 -0.119999997318 1622.0
0.897000014782 -0.122000001371 -0.119999997318 1653.0
0.90499997139 -0.12800000608 -0.120999999344 1680.0
0.902000010014 -0.133000001311 -0.119999997318 1640.0
0.901000022888 -0.137999996543 -0.119999997318 1634.0
0.901000022888 -0.143000006676 -0.119999997318 1653.0
0.899999976158 -0.149000003934 -0.119999997318 1629.0
0.901000022888 -0.153999999166 -0.120999999344 1600.0
0.898000001907 -0.158999994397 -0.119999997318 1601.0
0.898999989033 -0.165000006557 -0.119999997318 1595.0
0.898999989033 -0.170000001788 -0.119999997318 1666.0
0.893000006676 -0.173999994993 -0.119999997318 1684.0
0.89099997282 -0.179000005126 -0.119999997318 1709.0
0.89099997282 -0.185000002384 -0.119999997318 1667.0
0.893999993801 -0.190999999642 -0.119999997318 1782.0
0.893000006676 -0.195999994874 -0.119999997318 1835.0
0.893000006676 -0.202000007033 -0.119999997318 1805.0
0.888999998569 -0.206000000238 -0.119999997318 1775.0
0.893999993801 -0.212999999523 -0.120999999344 1802.0
0.89200001955 -0.217999994755 -0.119999997318 1809.0
0.887000024319 -0.222000002861 -0.119999997318 1814.0
0.89200001955 -0.229000002146 -0.120999999344 1833.0
0.887000024319 -0.232999995351 -0.119999997318 1858.0
0.887000024319 -0.238999992609 -0.119999997318 1781.0
0.884000003338 -0.244000002742 -0.119999997318 1794.0
0.888000011444 -0.25 -0.120999999344 1760.0
0.887000024319 -0.256000012159 -0.120999999344 1793.0
0.882000029087 -0.259999990463 -0.119999997318 1834.0
0.882000029087 -0.264999985695 -0.119999997318 1749.0
0.882000029087 -0.270999997854 -0.119999997318 1762.0
0.880999982357 -0.277000010014 -0.120999999344 1785.0
0.885999977589 -0.284000009298 -0.120999999344 1841.0
0.879000008106 -0.287000000477 -0.120999999344 1842.0
0.879000008106 -0.293000012636 -0.120999999344 1768.0
0.880999982357 -0.300000011921 -0.120999999344 1793.0
0.880999982357 -0.305000007153 -0.120999999344 1763.0
0.878000020981 -0.310000002384 -0.120999999344 1739.0
0.876999974251 -0.316000014544 -0.120999999344 1743.0
0.876999974251 -0.321999996901 -0.122000001371 1790.0
0.871999979019 -0.326000005007 -0.120999999344 1834.0
0.870000004768 -0.331000000238 -0.120999999344 1823.0
0.874000012875 -0.338999986649 -0.122000001371 1868.0
0.869000017643 -0.342999994755 -0.120999999344 1888.0
0.874000012875 -0.351000010967 -0.122000001371 1813.0
0.867999970913 -0.354999989271 -0.122000001371 1847.0
0.867999970913 -0.361000001431 -0.122000001371 1803.0
0.871999979019 -0.368000000715 -0.123000003397 1854.0
0.871999979019 -0.375 -0.123000003397 1835.0
0.865999996662 -0.379000008106 -0.122000001371 1879.0
0.865999996662 -0.384999990463 -0.123000003397 1793.0
0.861999988556 -0.388999998569 -0.122000001371 1849.0
0.865999996662 -0.397000014782 -0.123000003397 1918.0
0.864000022411 -0.402999997139 -0.123000003397 1883.0
0.860000014305 -0.407000005245 -0.123000003397 1873.0
0.865000009537 -0.416000008583 -0.123999997973 1811.0
0.865000009537 -0.423000007868 -0.123999997973 1830.0
0.862999975681 -0.428999990225 -0.123999997973 1829.0
0.856000006199 -0.432000011206 -0.123000003397 1884.0
0.85900002718 -0.439999997616 -0.123999997973 1888.0
0.856000006199 -0.444999992847 -0.123999997973 1771.0
0.85900002718 -0.45300000906 -0.125 1749.0
0.856999993324 -0.458999991417 -0.125 1748.0
0.852999985218 -0.463999986649 -0.125 1773.0
0.85799998045 -0.474000006914 -0.126000002027 1785.0
0.851999998093 -0.476999998093 -0.125 1805.0
1.99199998379 1.15199995041 -0.319000005722 219.0
2.04399991035 1.16499996185 -0.326000005007 265.0
2.06500005722 1.15999996662 -0.32800000906 306.0
2.05500006676 1.13699996471 -0.326000005007 310.0
2.07399988174 1.13100004196 -0.32800000906 189.0
2.12400007248 1.14100003242 -0.335000008345 110.0
2.17700004578 1.15199995041 -0.342000007629 202.0
2.17700004578 1.13499999046 -0.340999990702 342.0
2.17499995232 1.11699998379 -0.338999986649 191.0
2.1819999218 1.10300004482 -0.340000003576 93.0
2.4240000248 1.15199995041 -0.372999995947 97.0
2.41100001335 1.12699997425 -0.370000004768 72.0
2.46199989319 1.09700000286 -0.375 69.0
2.87800002098 1.21899998188 -0.435000002384 68.0
