ply
format ascii 1.0
element vertex 907
property float x
property float y
property float z
property float intensity
end_header
0.839999973774 -0.323000013828 -0.17499999702 1858.0
0.846000015736 -0.331999987364 -0.177000001073 1848.0
0.84399998188 -0.337000012398 -0.177000001073 1850.0
0.837999999523 -0.340000003576 -0.175999999046 1872.0
0.842000007629 -0.347999989986 -0.177000001073 1848.0
0.837000012398 -0.351000010967 -0.175999999046 1850.0
0.838999986649 -0.358000010252 -0.177000001073 1868.0
0.837000012398 -0.363999992609 -0.177000001073 1854.0
0.837000012398 -0.370000004768 -0.177000001073 1855.0
0.837999999523 -0.375999987125 -0.178000003099 1809.0
0.834999978542 -0.381000012159 -0.178000003099 1831.0
0.82800000906 -0.384000003338 -0.177000001073 1805.0
0.832000017166 -0.391999989748 -0.178000003099 1813.0
0.828999996185 -0.397000014782 -0.178000003099 1821.0
0.830999970436 -0.404000014067 -0.179000005126 1863.0
0.828999996185 -0.409999996424 -0.179000005126 1869.0
0.827000021935 -0.414999991655 -0.179000005126 1890.0
0.819000005722 -0.418000012636 -0.177000001073 1855.0
0.824999988079 -0.426999986172 -0.179000005126 1882.0
0.827000021935 -0.435000002384 -0.180000007153 1897.0
0.819000005722 -0.437000006437 -0.179000005126 1882.0
0.820999979973 -0.444999992847 -0.180000007153 1834.0
0.819000005722 -0.451000005007 -0.180000007153 1863.0
0.81400001049 -0.455000013113 -0.179000005126 1881.0
0.811999976635 -0.460000008345 -0.179000005126 1881.0
1.33599996567 0.78100001812 -0.31400001049 387.0
1.70299994946 0.981000006199 -0.398999989033 511.0
1.72500002384 0.978999972343 -0.402999997139 452.0
1.76199996471 0.986000001431 -0.409999996424 242.0
1.76600003242 0.973999977112 -0.409999996424 220.0
1.82899999619 0.992999970913 -0.423000007868 207.0
2.04699993134 1.09500002861 -0.472000002861 249.0
2.06100010872 1.08599996567 -0.474000006914 298.0
2.08100008965 1.08000004292 -0.476999998093 302.0
2.09400010109 1.07000005245 -0.479000002146 290.0
2.08599996567 1.04999995232 -0.47499999404 268.0
2.07399988174 1.02799999714 -0.470999985933 258.0
2.10299992561 1.02600002289 -0.476999998093 305.0
2.08699989319 1.00199997425 -0.472000002861 306.0
2.11999988556 1.00100004673 -0.477999985218 169.0
2.09599995613 0.975000023842 -0.470999985933 133.0
2.19600009918 1.0039999485 -0.49200001359 207.0
2.21000003815 0.994000017643 -0.493999987841 343.0
2.23200011253 0.987999975681 -0.497999995947 196.0
2.23200011253 0.971000015736 -0.497000008821 101.0
2.22399997711 0.952000021935 -0.493999987841 83.0
3.24699997902 1.03100001812 -0.697000026703 98.0
3.34699988365 1.03999996185 -0.717000007629 81.0
0.89099997282 0.127000004053 -0.184000000358 62.0
0.878000020981 0.119999997318 -0.180999994278 81.0
0.861999988556 0.097999997437 -0.178000003099 351.0
0.865999996662 0.0930000022054 -0.178000003099 313.0
0.852999985218 0.0869999974966 -0.17499999702 302.0
0.848999977112 0.0810000002384 -0.173999994993 370.0
0.833000004292 0.0750000029802 -0.171000003815 439.0
0.832000017166 0.070000000298 -0.171000003815 483.0
0.846000015736 0.0659999996424 -0.172999992967 505.0
0.842000007629 0.0610000006855 -0.172999992967 265.0
3.85599994659 0.0930000022054 -0.790000021458 53.0
3.81900000572 0.070000000298 -0.782000005245 54.0
3.67199993134 0.00300000002608 -0.750999987125 60.0
0.882000029087 -0.111000001431 -0.180999994278 752.0
0.880999982357 -0.115999996662 -0.180999994278 1602.0
0.884999990463 -0.120999999344 -0.181999996305 1591.0
0.885999977589 -0.127000004053 -0.181999996305 1661.0
0.879000008106 -0.130999997258 -0.180000007153 1684.0
0.882000029087 -0.136999994516 -0.180999994278 1674.0
0.876999974251 -0.141000002623 -0.180000007153 1673.0
0.883000016212 -0.148000001907 -0.181999996305 1688.0
0.875 -0.151999995112 -0.180000007153 1680.0
0.870999991894 -0.156000003219 -0.180000007153 1689.0
0.876999974251 -0.162000000477 -0.180999994278 1703.0
0.869000017643 -0.165999993682 -0.179000005126 1711.0
0.873000025749 -0.172000005841 -0.180000007153 1704.0
0.870000004768 -0.177000001073 -0.180000007153 1704.0
0.865999996662 -0.181999996305 -0.179000005126 1734.0
0.861999988556 -0.186000004411 -0.179000005126 1755.0
0.867999970913 -0.193000003695 -0.180000007153 1754.0
0.861000001431 -0.196999996901 -0.179000005126 1738.0
0.870999991894 -0.203999996185 -0.180999994278 1721.0
0.864000022411 -0.208000004292 -0.180000007153 1731.0
0.870000004768 -0.215000003576 -0.180999994278 1722.0
0.865000009537 -0.218999996781 -0.180000007153 1701.0
0.861999988556 -0.224000006914 -0.180000007153 1722.0
0.862999975681 -0.229000002146 -0.180000007153 1710.0
0.861000001431 -0.233999997377 -0.180000007153 1728.0
0.861999988556 -0.239999994636 -0.180999994278 1723.0
0.85799998045 -0.244000002742 -0.180000007153 1751.0
0.855000019073 -0.248999997973 -0.180000007153 1765.0
0.852999985218 -0.254000008106 -0.179000005126 1766.0
0.851999998093 -0.259000003338 -0.179000005126 1794.0
0.851999998093 -0.264999985695 -0.180000007153 1805.0
0.848999977112 -0.270000010729 -0.179000005126 1819.0
0.855000019073 -0.277000010014 -0.180999994278 1827.0
0.848999977112 -0.280999988317 -0.180000007153 1806.0
0.847999989986 -0.286000013351 -0.180000007153 1790.0
0.851000010967 -0.293000012636 -0.180999994278 1814.0
0.848999977112 -0.298000007868 -0.180999994278 1811.0
0.84399998188 -0.301999986172 -0.180000007153 1829.0
0.848999977112 -0.308999985456 -0.180999994278 1833.0
0.842999994755 -0.312999993563 -0.180999994278 1853.0
0.847999989986 -0.321000009775 -0.181999996305 1827.0
0.842999994755 -0.324999988079 -0.180999994278 1836.0
0.84500002861 -0.331000000238 -0.181999996305 1835.0
0.837000012398 -0.333999991417 -0.180999994278 1827.0
0.837999999523 -0.340000003576 -0.180999994278 1848.0
0.842000007629 -0.347999989986 -0.181999996305 1842.0
0.837000012398 -0.351999998093 -0.181999996305 1834.0
0.837999999523 -0.358000010252 -0.181999996305 1891.0
0.833000004292 -0.361999988556 -0.181999996305 1850.0
0.832000017166 -0.368000000715 -0.181999996305 1828.0
0.834999978542 -0.375999987125 -0.182999998331 1802.0
0.827000021935 -0.377999991179 -0.181999996305 1829.0
0.830999970436 -0.386000007391 -0.182999998331 1804.0
0.832000017166 -0.393000006676 -0.184000000358 1800.0
0.830999970436 -0.398999989033 -0.184000000358 1832.0
0.829999983311 -0.405000001192 -0.184000000358 1830.0
0.827000021935 -0.409000009298 -0.184000000358 1836.0
0.819000005722 -0.412000000477 -0.181999996305 1878.0
0.822000026703 -0.419999986887 -0.184000000358 1850.0
0.823000013828 -0.426999986172 -0.184000000358 1870.0
0.819000005722 -0.430999994278 -0.184000000358 1875.0
0.819999992847 -0.437999993563 -0.185000002384 1845.0
0.824000000954 -0.446999996901 -0.186000004411 1821.0
0.822000026703 -0.45300000906 -0.186000004411 1846.0
0.819000005722 -0.458000004292 -0.186000004411 1865.0
0.814999997616 -0.462000012398 -0.186000004411 1857.0
1.31200003624 0.768000006676 -0.317000001669 380.0
1.6970000267 0.978999972343 -0.409000009298 491.0
1.71300005913 0.973999977112 -0.412000000477 465.0
1.76800000668 0.990000009537 -0.423999994993 242.0
1.78299999237 0.98400002718 -0.425999999046 217.0
1.83500003815 0.998000025749 -0.437000006437 220.0
2.05200004578 1.09899997711 -0.486999988556 273.0
2.08699989319 1.10099995136 -0.493999987841 295.0
2.07800006866 1.08000004292 -0.490999996662 237.0
2.0569999218 1.0529999733 -0.483999997377 224.0
2.0680000782 1.04200005531 -0.485000014305 238.0
2.07899999619 1.03100001812 -0.486000001431 279.0
2.08800005913 1.01999998093 -0.486999988556 296.0
2.10100007057 1.00999999046 -0.488999992609 307.0
2.1099998951 0.998000025749 -0.490000009537 181.0
2.14899992943 1.0 -0.497000008821 123.0
2.20499992371 1.00999999046 -0.509000003338 196.0
2.21300005913 0.996999979019 -0.509999990463 337.0
2.21099996567 0.980000019073 -0.508000016212 209.0
2.22600007057 0.97000002861 -0.509999990463 92.0
3.24799990654 1.03199994564 -0.717999994755 122.0
3.3180000782 1.03199994564 -0.731999993324 99.0
3.36100006104 1.02300000191 -0.740000009537 79.0
0.887000024319 -0.111000001431 -0.187000006437 790.0
0.882000029087 -0.115999996662 -0.186000004411 1606.0
0.883000016212 -0.120999999344 -0.187000006437 1595.0
0.879999995232 -0.126000002027 -0.186000004411 1671.0
0.879000008106 -0.130999997258 -0.186000004411 1665.0
0.879000008106 -0.136999994516 -0.186000004411 1661.0
0.878000020981 -0.142000004649 -0.186000004411 1672.0
0.876999974251 -0.146999999881 -0.186000004411 1677.0
0.879000008106 -0.151999995112 -0.186000004411 1654.0
0.879000008106 -0.158000007272 -0.187000006437 1658.0
0.880999982357 -0.163000002503 -0.187000006437 1679.0
0.876999974251 -0.167999997735 -0.186000004411 1712.0
0.870999991894 -0.172000005841 -0.185000002384 1693.0
0.867999970913 -0.177000001073 -0.185000002384 1683.0
0.866999983788 -0.181999996305 -0.185000002384 1711.0
0.870000004768 -0.187999993563 -0.186000004411 1731.0
0.866999983788 -0.193000003695 -0.185000002384 1738.0
0.866999983788 -0.197999998927 -0.185000002384 1729.0
0.866999983788 -0.203999996185 -0.186000004411 1710.0
0.873000025749 -0.209999993443 -0.187000006437 1718.0
0.870000004768 -0.215000003576 -0.187000006437 1719.0
0.865000009537 -0.218999996781 -0.186000004411 1694.0
0.862999975681 -0.224000006914 -0.186000004411 1707.0
0.862999975681 -0.230000004172 -0.186000004411 1720.0
0.862999975681 -0.234999999404 -0.186000004411 1719.0
0.856000006199 -0.238999992609 -0.185000002384 1719.0
0.861999988556 -0.246000006795 -0.186000004411 1732.0
0.856000006199 -0.25 -0.185000002384 1761.0
0.855000019073 -0.254999995232 -0.185000002384 1756.0
0.851999998093 -0.259999990463 -0.185000002384 1763.0
0.856000006199 -0.266999989748 -0.186000004411 1777.0
0.851000010967 -0.270999997854 -0.185000002384 1812.0
0.855000019073 -0.277000010014 -0.186000004411 1805.0
0.853999972343 -0.282999992371 -0.186000004411 1788.0
0.84500002861 -0.284999996424 -0.185000002384 1784.0
0.848999977112 -0.293000012636 -0.186000004411 1803.0
0.848999977112 -0.298000007868 -0.186000004411 1798.0
0.847999989986 -0.303999990225 -0.186000004411 1788.0
0.850000023842 -0.310000002384 -0.187000006437 1809.0
0.851000010967 -0.316000014544 -0.187999993563 1812.0
0.846000015736 -0.319999992847 -0.187000006437 1803.0
0.842999994755 -0.324999988079 -0.187000006437 1806.0
0.842000007629 -0.331000000238 -0.187000006437 1800.0
0.839999973774 -0.33599999547 -0.187000006437 1799.0
0.837999999523 -0.340999990702 -0.187000006437 1803.0
0.837000012398 -0.345999985933 -0.187000006437 1801.0
0.837000012398 -0.351999998093 -0.187000006437 1790.0
0.838999986649 -0.358999997377 -0.187999993563 1823.0
0.833000004292 -0.363000005484 -0.187000006437 1823.0
0.838999986649 -0.370999991894 -0.188999995589 1784.0
0.836000025272 -0.375999987125 -0.188999995589 1777.0
0.837000012398 -0.38299998641 -0.188999995589 1800.0
0.830999970436 -0.386000007391 -0.187999993563 1805.0
0.832000017166 -0.393000006676 -0.188999995589 1782.0
0.82800000906 -0.398000001907 -0.187999993563 1798.0
0.825999975204 -0.402999997139 -0.188999995589 1799.0
0.827000021935 -0.409999996424 -0.188999995589 1801.0
0.823000013828 -0.41400000453 -0.188999995589 1827.0
0.820999979973 -0.419999986887 -0.188999995589 1806.0
0.823000013828 -0.428000003099 -0.189999997616 1809.0
0.815999984741 -0.430000007153 -0.188999995589 1812.0
0.819999992847 -0.43900001049 -0.189999997616 1812.0
0.819999992847 -0.446000009775 -0.190999999642 1791.0
0.820999979973 -0.45300000906 -0.192000001669 1826.0
0.815999984741 -0.456999987364 -0.190999999642 1835.0
0.814999997616 -0.462999999523 -0.190999999642 1833.0
1.24500000477 0.728999972343 -0.310000002384 401.0
1.69799995422 0.980000019073 -0.421000003815 485.0
1.7009999752 0.967999994755 -0.421000003815 490.0
1.75499999523 0.98400002718 -0.432999998331 259.0
1.76300001144 0.973999977112 -0.432999998331 221.0
1.80799996853 0.98400002718 -0.442999988794 213.0
2.02999997139 1.08899998665 -0.495999991894 185.0
2.07100009918 1.09399998188 -0.504000008106 197.0
2.07899999619 1.08200001717 -0.504999995232 206.0
2.0759999752 1.06400001049 -0.503000020981 249.0
2.07999992371 1.0490000248 -0.501999974251 261.0
2.07100009918 1.02799999714 -0.497999995947 226.0
2.10800004005 1.03100001812 -0.505999982357 264.0
2.10500001907 1.01300001144 -0.504000008106 307.0
2.10700011253 0.998000025749 -0.503000020981 184.0
2.12299990654 0.989000022411 -0.504999995232 127.0
2.20700001717 1.01199996471 -0.523999989033 186.0
2.2009999752 0.992999970913 -0.521000027657 341.0
2.25500011444 1.0 -0.532999992371 206.0
2.23799991608 0.976000010967 -0.527999997139 102.0
3.242000103 1.0529999733 -0.739000022411 62.0
3.2349998951 1.02900004387 -0.736000001431 125.0
3.28699994087 1.02400004864 -0.745999991894 94.0
0.887000024319 -0.112000003457 -0.193000003695 834.0
0.884000003338 -0.115999996662 -0.192000001669 1582.0
0.883000016212 -0.120999999344 -0.192000001669 1562.0
0.883000016212 -0.127000004053 -0.192000001669 1646.0
0.879999995232 -0.131999999285 -0.190999999642 1649.0
0.876999974251 -0.136000007391 -0.190999999642 1632.0
0.878000020981 -0.142000004649 -0.190999999642 1626.0
0.876999974251 -0.146999999881 -0.190999999642 1641.0
0.875999987125 -0.151999995112 -0.190999999642 1639.0
0.876999974251 -0.158000007272 -0.190999999642 1627.0
0.875 -0.162000000477 -0.190999999642 1683.0
0.875999987125 -0.167999997735 -0.192000001669 1670.0
0.873000025749 -0.172999992967 -0.190999999642 1671.0
0.869000017643 -0.177000001073 -0.189999997616 1674.0
0.871999979019 -0.182999998331 -0.190999999642 1692.0
0.866999983788 -0.187999993563 -0.189999997616 1715.0
0.870999991894 -0.194000005722 -0.190999999642 1715.0
0.866999983788 -0.197999998927 -0.190999999642 1696.0
0.865000009537 -0.202999994159 -0.190999999642 1678.0
0.862999975681 -0.208000004292 -0.189999997616 1699.0
0.865000009537 -0.21400000155 -0.190999999642 1692.0
0.861000001431 -0.218999996781 -0.189999997616 1672.0
0.861999988556 -0.224000006914 -0.190999999642 1690.0
0.861999988556 -0.230000004172 -0.190999999642 1682.0
0.864000022411 -0.236000001431 -0.190999999642 1692.0
0.855000019073 -0.238999992609 -0.189999997616 1713.0
0.860000014305 -0.246000006795 -0.190999999642 1700.0
0.85799998045 -0.250999987125 -0.190999999642 1720.0
0.85799998045 -0.256000012159 -0.190999999642 1715.0
0.855000019073 -0.261000007391 -0.190999999642 1733.0
0.856999993324 -0.266999989748 -0.192000001669 1759.0
0.852999985218 -0.270999997854 -0.190999999642 1776.0
0.856999993324 -0.279000014067 -0.192000001669 1775.0
0.852999985218 -0.282999992371 -0.190999999642 1780.0
0.848999977112 -0.287000000477 -0.190999999642 1780.0
0.848999977112 -0.293000012636 -0.190999999642 1804.0
0.850000023842 -0.298999994993 -0.192000001669 1808.0
0.84399998188 -0.303000003099 -0.190999999642 1779.0
0.847000002861 -0.310000002384 -0.192000001669 1795.0
0.842000007629 -0.31400001049 -0.190999999642 1793.0
0.842000007629 -0.319000005722 -0.190999999642 1771.0
0.841000020504 -0.324999988079 -0.192000001669 1768.0
0.839999973774 -0.330000013113 -0.192000001669 1775.0
0.842000007629 -0.337000012398 -0.193000003695 1763.0
0.836000025272 -0.340999990702 -0.192000001669 1757.0
0.842000007629 -0.349000006914 -0.193000003695 1764.0
0.842000007629 -0.354999989271 -0.194000005722 1771.0
0.836000025272 -0.358000010252 -0.193000003695 1776.0
0.833999991417 -0.363999992609 -0.193000003695 1788.0
0.830999970436 -0.368000000715 -0.192000001669 1763.0
0.82800000906 -0.372999995947 -0.192000001669 1757.0
0.825999975204 -0.379000008106 -0.192000001669 1791.0
0.830999970436 -0.386999994516 -0.194000005722 1781.0
0.836000025272 -0.395999997854 -0.195999994874 1771.0
0.830999970436 -0.40000000596 -0.194999992847 1779.0
0.824000000954 -0.402999997139 -0.194000005722 1778.0
0.825999975204 -0.409999996424 -0.194999992847 1776.0
0.827000021935 -0.416999995708 -0.194999992847 1779.0
0.824000000954 -0.42199999094 -0.194999992847 1774.0
0.819000005722 -0.425999999046 -0.194999992847 1773.0
0.820999979973 -0.433999985456 -0.195999994874 1768.0
0.819999992847 -0.439999997616 -0.195999994874 1787.0
0.819999992847 -0.446000009775 -0.195999994874 1766.0
0.815999984741 -0.451000005007 -0.195999994874 1796.0
0.81400001049 -0.456999987364 -0.195999994874 1802.0
0.81400001049 -0.462999999523 -0.196999996901 1786.0
1.20299994946 0.705999970436 -0.307999998331 399.0
1.70000004768 0.98299998045 -0.433999985456 468.0
1.71700000763 0.978999972343 -0.437000006437 492.0
1.72699999809 0.97000002861 -0.437999993563 279.0
1.77900004387 0.98400002718 -0.449999988079 217.0
1.83000004292 0.998000025749 -0.46099999547 210.0
1.97500002384 1.06099998951 -0.495999991894 200.0
2.06200003624 1.0909999609 -0.51599997282 238.0
2.10400009155 1.09599995613 -0.524999976158 241.0
2.06500005722 1.05900001526 -0.513999998569 190.0
2.05599999428 1.03900003433 -0.509999990463 146.0
2.05599999428 1.02199995518 -0.509000003338 141.0
2.0680000782 1.01199996471 -0.509999990463 252.0
2.09400010109 1.00899994373 -0.514999985695 323.0
2.08400011063 0.987999975681 -0.510999977589 203.0
2.12299990654 0.990999996662 -0.519999980927 120.0
2.18400001526 1.00300002098 -0.532999992371 184.0
2.21199989319 0.999000012875 -0.538999974728 332.0
2.22300004959 0.986999988556 -0.540000021458 223.0
2.25999999046 0.986999988556 -0.547999978065 107.0
3.25999999046 1.0379999876 -0.762000024319 98.0
3.28999996185 1.02600002289 -0.768000006676 82.0
0.883000016212 -0.111000001431 -0.196999996901 866.0
0.884000003338 -0.116999998689 -0.196999996901 1567.0
0.880999982357 -0.120999999344 -0.196999996901 1563.0
0.882000029087 -0.127000004053 -0.196999996901 1612.0
0.879000008106 -0.131999999285 -0.196999996901 1623.0
0.882000029087 -0.136999994516 -0.196999996901 1611.0
0.873000025749 -0.141000002623 -0.195999994874 1639.0
0.875999987125 -0.146999999881 -0.195999994874 1632.0
0.875 -0.151999995112 -0.195999994874 1628.0
0.870000004768 -0.156000003219 -0.194999992847 1644.0
0.879999995232 -0.16400000453 -0.197999998927 1656.0
0.874000012875 -0.167999997735 -0.196999996901 1699.0
0.871999979019 -0.172999992967 -0.195999994874 1669.0
0.871999979019 -0.178000003099 -0.195999994874 1662.0
0.865999996662 -0.181999996305 -0.194999992847 1701.0
0.870999991894 -0.188999995589 -0.196999996901 1702.0
0.866999983788 -0.193000003695 -0.195999994874 1687.0
0.867999970913 -0.199000000954 -0.195999994874 1670.0
0.869000017643 -0.203999996185 -0.196999996901 1701.0
0.867999970913 -0.209999993443 -0.196999996901 1709.0
0.862999975681 -0.21400000155 -0.195999994874 1709.0
0.85799998045 -0.217999994755 -0.194999992847 1682.0
0.85799998045 -0.223000004888 -0.194999992847 1693.0
0.85799998045 -0.229000002146 -0.195999994874 1710.0
0.85799998045 -0.233999997377 -0.195999994874 1714.0
0.861000001431 -0.240999996662 -0.196999996901 1718.0
0.853999972343 -0.244000002742 -0.194999992847 1716.0
0.85900002718 -0.250999987125 -0.196999996901 1698.0
0.851999998093 -0.254999995232 -0.194999992847 1709.0
0.852999985218 -0.261000007391 -0.195999994874 1730.0
0.856999993324 -0.266999989748 -0.196999996901 1720.0
0.850000023842 -0.270999997854 -0.195999994874 1749.0
0.856999993324 -0.279000014067 -0.197999998927 1753.0
0.847999989986 -0.280999988317 -0.195999994874 1731.0
0.847000002861 -0.287000000477 -0.195999994874 1767.0
0.850000023842 -0.293999999762 -0.196999996901 1792.0
0.84500002861 -0.298000007868 -0.195999994874 1775.0
0.847999989986 -0.303999990225 -0.196999996901 1761.0
0.84500002861 -0.308999985456 -0.196999996901 1777.0
0.848999977112 -0.317000001669 -0.197999998927 1782.0
0.847999989986 -0.321999996901 -0.197999998927 1754.0
0.841000020504 -0.324999988079 -0.196999996901 1767.0
0.838999986649 -0.330000013113 -0.196999996901 1761.0
0.841000020504 -0.337000012398 -0.197999998927 1759.0
0.841000020504 -0.342999994755 -0.197999998927 1762.0
0.841000020504 -0.349000006914 -0.199000000954 1754.0
0.838999986649 -0.354000002146 -0.199000000954 1771.0
0.836000025272 -0.358999997377 -0.197999998927 1776.0
0.837000012398 -0.365999996662 -0.199000000954 1758.0
0.832000017166 -0.368999987841 -0.197999998927 1776.0
0.829999983311 -0.375 -0.197999998927 1761.0
0.833999991417 -0.38299998641 -0.20000000298 1775.0
0.832000017166 -0.388000011444 -0.20000000298 1779.0
0.82800000906 -0.393000006676 -0.199000000954 1761.0
0.833000004292 -0.400999993086 -0.201000005007 1769.0
0.829999983311 -0.405999988317 -0.201000005007 1765.0
0.824000000954 -0.409999996424 -0.20000000298 1773.0
0.823000013828 -0.414999991655 -0.20000000298 1775.0
0.824999988079 -0.423000007868 -0.201000005007 1762.0
0.823000013828 -0.428000003099 -0.201000005007 1769.0
0.820999979973 -0.433999985456 -0.201000005007 1772.0
0.816999971867 -0.437999993563 -0.201000005007 1779.0
0.816999971867 -0.444999992847 -0.201000005007 1760.0
0.818000018597 -0.45300000906 -0.202000007033 1781.0
0.818000018597 -0.458999991417 -0.202999994159 1789.0
0.815999984741 -0.465000003576 -0.202999994159 1794.0
1.1779999733 0.691999971867 -0.310000002384 410.0
1.65999996662 0.962000012398 -0.435000002384 457.0
1.72599995136 0.985000014305 -0.451000005007 501.0
1.74899995327 0.98400002718 -0.456000000238 284.0
1.78699994087 0.990000009537 -0.463999986649 216.0
1.80499994755 0.985000014305 -0.467000007629 220.0
1.87600004673 1.00800001621 -0.483999997377 167.0
2.04500007629 1.08299994469 -0.526000022888 141.0
2.06699991226 1.07799994946 -0.52999997139 128.0
2.02399992943 1.03999996185 -0.518000006676 83.0
1.95799994469 0.990000009537 -0.499000012875 80.0
2.02099990845 1.00600004196 -0.513999998569 153.0
2.10199999809 1.02999997139 -0.532999992371 243.0
2.08200001717 1.0039999485 -0.526000022888 265.0
2.10100007057 0.996999979019 -0.52999997139 196.0
2.07899999619 0.971000015736 -0.523000001907 120.0
2.16700005531 0.995999991894 -0.544000029564 146.0
2.21499991417 1.00100004673 -0.554000020027 296.0
2.20799994469 0.981999993324 -0.550999999046 221.0
2.27399992943 0.994000017643 -0.565999984741 113.0
0.883000016212 -0.111000001431 -0.202999994159 928.0
0.883000016212 -0.115999996662 -0.202999994159 1567.0
0.885999977589 -0.122000001371 -0.203999996185 1555.0
0.879999995232 -0.127000004053 -0.202000007033 1618.0
0.875999987125 -0.130999997258 -0.201000005007 1627.0
0.878000020981 -0.136999994516 -0.202000007033 1622.0
0.880999982357 -0.143000006676 -0.202999994159 1630.0
0.874000012875 -0.146999999881 -0.201000005007 1649.0
0.876999974251 -0.152999997139 -0.202000007033 1643.0
0.870999991894 -0.157000005245 -0.201000005007 1638.0
0.875 -0.163000002503 -0.202000007033 1663.0
0.875 -0.167999997735 -0.202000007033 1696.0
0.870999991894 -0.172999992967 -0.201000005007 1694.0
0.865999996662 -0.177000001073 -0.20000000298 1698.0
0.869000017643 -0.182999998331 -0.201000005007 1691.0
0.875 -0.189999997616 -0.202999994159 1713.0
0.860000014305 -0.192000001669 -0.20000000298 1703.0
0.870000004768 -0.20000000298 -0.202000007033 1704.0
0.864000022411 -0.203999996185 -0.201000005007 1699.0
0.861999988556 -0.209000006318 -0.201000005007 1715.0
0.862999975681 -0.21400000155 -0.201000005007 1716.0
0.861999988556 -0.218999996781 -0.201000005007 1691.0
0.862999975681 -0.22499999404 -0.202000007033 1706.0
0.856999993324 -0.229000002146 -0.201000005007 1733.0
0.860000014305 -0.234999999404 -0.201000005007 1727.0
0.856999993324 -0.239999994636 -0.201000005007 1733.0
0.860000014305 -0.246000006795 -0.202000007033 1710.0
0.853999972343 -0.25 -0.201000005007 1709.0
0.855000019073 -0.256000012159 -0.201000005007 1704.0
0.856999993324 -0.261999994516 -0.202000007033 1721.0
0.853999972343 -0.266999989748 -0.202000007033 1721.0
0.856000006199 -0.273000001907 -0.202999994159 1735.0
0.848999977112 -0.277000010014 -0.201000005007 1711.0
0.846000015736 -0.280999988317 -0.201000005007 1719.0
0.84399998188 -0.286000013351 -0.201000005007 1747.0
0.851999998093 -0.294999986887 -0.202999994159 1762.0
0.84500002861 -0.298000007868 -0.202000007033 1772.0
0.84500002861 -0.303999990225 -0.202000007033 1754.0
0.846000015736 -0.310000002384 -0.202000007033 1767.0
0.846000015736 -0.316000014544 -0.202999994159 1792.0
0.839999973774 -0.319000005722 -0.202000007033 1769.0
0.84399998188 -0.326999992132 -0.202999994159 1782.0
0.838999986649 -0.331000000238 -0.202999994159 1761.0
0.837000012398 -0.33599999547 -0.202000007033 1772.0
0.839999973774 -0.342999994755 -0.202999994159 1770.0
0.833999991417 -0.345999985933 -0.202000007033 1763.0
0.836000025272 -0.352999985218 -0.202999994159 1772.0
0.837999999523 -0.361000001431 -0.203999996185 1788.0
0.838999986649 -0.36700001359 -0.204999998212 1764.0
0.837999999523 -0.372999995947 -0.204999998212 1768.0
0.829999983311 -0.375 -0.203999996185 1759.0
0.833999991417 -0.38299998641 -0.204999998212 1789.0
0.82800000906 -0.386999994516 -0.203999996185 1758.0
0.82800000906 -0.393000006676 -0.204999998212 1751.0
0.828999996185 -0.40000000596 -0.206000000238 1763.0
0.827000021935 -0.405000001192 -0.206000000238 1769.0
0.824000000954 -0.409999996424 -0.204999998212 1762.0
0.825999975204 -0.418000012636 -0.206000000238 1764.0
0.824000000954 -0.423000007868 -0.206000000238 1755.0
0.822000026703 -0.428000003099 -0.206000000238 1760.0
0.818000018597 -0.432999998331 -0.206000000238 1768.0
0.816999971867 -0.43900001049 -0.206000000238 1752.0
0.820999979973 -0.448000013828 -0.208000004292 1724.0
0.819000005722 -0.453999996185 -0.208000004292 1800.0
0.816999971867 -0.458999991417 -0.208000004292 1776.0
0.818000018597 -0.467000007629 -0.209000006318 1763.0
1.15799999237 0.680999994278 -0.312999993563 419.0
1.6590000391 0.962000012398 -0.446999996901 442.0
1.70799994469 0.976000010967 -0.458000004292 504.0
1.73800003529 0.978999972343 -0.465000003576 309.0
1.77999997139 0.987999975681 -0.47499999404 219.0
1.8220000267 0.995999991894 -0.483999997377 215.0
1.8259999752 0.98299998045 -0.483999997377 139.0
1.94500005245 0.985000014305 -0.509000003338 76.0
2.04299998283 1.01800000668 -0.532999992371 88.0
2.02699995041 0.995000004768 -0.527999997139 130.0
2.07299995422 1.00100004673 -0.537999987602 153.0
2.06599998474 0.981999993324 -0.535000026226 134.0
2.11299991608 0.987999975681 -0.546000003815 109.0
2.13499999046 0.981999993324 -0.550000011921 124.0
2.20000004768 0.995999991894 -0.564999997616 223.0
2.23200011253 0.994000017643 -0.572000026703 233.0
2.21300005913 0.96899998188 -0.565999984741 113.0
0.888000011444 -0.112000003457 -0.209000006318 976.0
0.884999990463 -0.116999998689 -0.209000006318 1599.0
0.878000020981 -0.120999999344 -0.207000002265 1603.0
0.875999987125 -0.126000002027 -0.207000002265 1604.0
0.879000008106 -0.131999999285 -0.208000004292 1615.0
0.879999995232 -0.136999994516 -0.208000004292 1615.0
0.878000020981 -0.142000004649 -0.208000004292 1640.0
0.876999974251 -0.148000001907 -0.208000004292 1650.0
0.875 -0.152999997139 -0.207000002265 1647.0
0.870999991894 -0.157000005245 -0.206000000238 1646.0
0.870999991894 -0.163000002503 -0.207000002265 1658.0
0.875 -0.168999999762 -0.208000004292 1669.0
0.876999974251 -0.173999994993 -0.208000004292 1672.0
0.873000025749 -0.179000005126 -0.208000004292 1687.0
0.866999983788 -0.182999998331 -0.206000000238 1692.0
0.865999996662 -0.187999993563 -0.206000000238 1707.0
0.874000012875 -0.194999992847 -0.208000004292 1707.0
0.861000001431 -0.197999998927 -0.206000000238 1705.0
0.862999975681 -0.203999996185 -0.206000000238 1688.0
0.85799998045 -0.208000004292 -0.204999998212 1697.0
0.864000022411 -0.215000003576 -0.207000002265 1700.0
0.862999975681 -0.219999998808 -0.207000002265 1680.0
0.861000001431 -0.22499999404 -0.207000002265 1700.0
0.85900002718 -0.230000004172 -0.206000000238 1707.0
0.861999988556 -0.236000001431 -0.207000002265 1717.0
0.856000006199 -0.239999994636 -0.206000000238 1724.0
0.855000019073 -0.245000004768 -0.206000000238 1714.0
0.851999998093 -0.25 -0.206000000238 1724.0
0.85799998045 -0.256999999285 -0.208000004292 1706.0
0.851999998093 -0.261000007391 -0.207000002265 1726.0
0.85900002718 -0.268999993801 -0.209000006318 1748.0
0.848999977112 -0.270999997854 -0.206000000238 1748.0
0.847000002861 -0.275999993086 -0.206000000238 1730.0
0.84399998188 -0.280999988317 -0.206000000238 1742.0
0.850000023842 -0.28900000453 -0.208000004292 1751.0
0.850000023842 -0.293999999762 -0.208000004292 1768.0
0.847999989986 -0.298999994993 -0.208000004292 1737.0
0.842000007629 -0.303000003099 -0.207000002265 1729.0
0.84399998188 -0.310000002384 -0.208000004292 1760.0
0.84500002861 -0.316000014544 -0.208000004292 1774.0
0.836000025272 -0.317999988794 -0.206000000238 1749.0
0.839999973774 -0.326000005007 -0.208000004292 1765.0
0.838999986649 -0.331000000238 -0.208000004292 1764.0
0.836000025272 -0.33599999547 -0.208000004292 1773.0
0.838999986649 -0.342999994755 -0.209000006318 1773.0
0.837000012398 -0.347999989986 -0.209000006318 1767.0
0.834999978542 -0.352999985218 -0.209000006318 1762.0
0.832000017166 -0.358000010252 -0.208000004292 1783.0
0.833000004292 -0.365000009537 -0.209000006318 1785.0
0.82800000906 -0.368999987841 -0.208000004292 1761.0
0.833000004292 -0.377000004053 -0.209999993443 1749.0
0.828999996185 -0.381999999285 -0.209999993443 1753.0
0.829999983311 -0.388000011444 -0.209999993443 1768.0
0.829999983311 -0.393999993801 -0.21099999547 1742.0
0.82800000906 -0.40000000596 -0.21099999547 1756.0
0.824000000954 -0.404000014067 -0.209999993443 1769.0
0.822000026703 -0.409999996424 -0.209999993443 1762.0
0.823000013828 -0.416000008583 -0.21099999547 1760.0
0.818000018597 -0.421000003815 -0.209999993443 1748.0
0.824000000954 -0.430000007153 -0.211999997497 1763.0
0.818000018597 -0.433999985456 -0.211999997497 1754.0
0.827000021935 -0.444999992847 -0.21400000155 1746.0
0.815999984741 -0.446000009775 -0.211999997497 1733.0
0.814999997616 -0.451999992132 -0.212999999523 1749.0
0.818000018597 -0.46099999547 -0.21400000155 1759.0
0.813000023365 -0.463999986649 -0.212999999523 1752.0
1.13800001144 0.670000016689 -0.314999997616 431.0
1.60199999809 0.930000007153 -0.442999988794 430.0
1.70500004292 0.976000010967 -0.469999998808 508.0
1.73000001907 0.976000010967 -0.47499999404 332.0
1.79700005054 0.998000025749 -0.49200001359 225.0
1.81900000572 0.995999991894 -0.495999991894 218.0
1.84599995613 0.995000004768 -0.501999974251 153.0
1.91900002956 1.01900005341 -0.519999980927 83.0
1.91199994087 0.97000002861 -0.513999998569 80.0
1.90699994564 0.952000021935 -0.510999977589 94.0
1.97200000286 0.96899998188 -0.527000010014 105.0
2.00300002098 0.96899998188 -0.533999979496 135.0
2.00699996948 0.954999983311 -0.532999992371 130.0
2.10299992561 0.985000014305 -0.558000028133 120.0
2.16100001335 0.995999991894 -0.570999979973 146.0
2.21199989319 1.00199997425 -0.583000004292 290.0
2.20900011063 0.985000014305 -0.580999970436 250.0
2.257999897 0.990000009537 -0.592000007629 130.0
1.13800001144 -0.137999996543 -0.27500000596 58.0
0.882000029087 -0.111000001431 -0.212999999523 1008.0
0.883000016212 -0.116999998689 -0.21400000155 1539.0
0.879000008106 -0.122000001371 -0.212999999523 1548.0
0.879999995232 -0.127000004053 -0.212999999523 1602.0
0.878000020981 -0.131999999285 -0.212999999523 1608.0
0.880999982357 -0.137999996543 -0.21400000155 1611.0
0.878000020981 -0.143000006676 -0.212999999523 1630.0
0.880999982357 -0.148000001907 -0.21400000155 1619.0
0.876999974251 -0.152999997139 -0.212999999523 1627.0
0.874000012875 -0.158000007272 -0.212999999523 1632.0
0.871999979019 -0.163000002503 -0.211999997497 1633.0
0.875 -0.168999999762 -0.212999999523 1664.0
0.870999991894 -0.172999992967 -0.211999997497 1668.0
0.866999983788 -0.178000003099 -0.211999997497 1662.0
0.865000009537 -0.182999998331 -0.21099999547 1686.0
0.865999996662 -0.187999993563 -0.211999997497 1681.0
0.865000009537 -0.194000005722 -0.211999997497 1688.0
0.866999983788 -0.199000000954 -0.211999997497 1681.0
0.865000009537 -0.203999996185 -0.211999997497 1683.0
0.861999988556 -0.209000006318 -0.211999997497 1699.0
0.861999988556 -0.21400000155 -0.211999997497 1678.0
0.862999975681 -0.219999998808 -0.211999997497 1689.0
0.85799998045 -0.224000006914 -0.21099999547 1688.0
0.85799998045 -0.230000004172 -0.211999997497 1701.0
0.860000014305 -0.236000001431 -0.212999999523 1701.0
0.861999988556 -0.241999998689 -0.212999999523 1703.0
0.856999993324 -0.246000006795 -0.211999997497 1702.0
0.856000006199 -0.250999987125 -0.211999997497 1717.0
0.853999972343 -0.256999999285 -0.211999997497 1710.0
0.856999993324 -0.263000011444 -0.212999999523 1712.0
0.851999998093 -0.266999989748 -0.211999997497 1723.0
0.851000010967 -0.272000014782 -0.211999997497 1753.0
0.852999985218 -0.279000014067 -0.212999999523 1723.0
0.850000023842 -0.282999992371 -0.212999999523 1750.0
0.851999998093 -0.289999991655 -0.212999999523 1732.0
0.847000002861 -0.293999999762 -0.212999999523 1757.0
0.847000002861 -0.300000011921 -0.212999999523 1734.0
0.847000002861 -0.305000007153 -0.212999999523 1734.0
0.841000020504 -0.308999985456 -0.211999997497 1742.0
0.842999994755 -0.314999997616 -0.212999999523 1751.0
0.84399998188 -0.321999996901 -0.21400000155 1774.0
0.839999973774 -0.326000005007 -0.212999999523 1761.0
0.834999978542 -0.330000013113 -0.212999999523 1772.0
0.837000012398 -0.337000012398 -0.212999999523 1791.0
0.841000020504 -0.344000011683 -0.215000003576 1769.0
0.832000017166 -0.347000002861 -0.212999999523 1757.0
0.833999991417 -0.354000002146 -0.21400000155 1759.0
0.833000004292 -0.358999997377 -0.21400000155 1787.0
0.836000025272 -0.365999996662 -0.215000003576 1777.0
0.834999978542 -0.372000008821 -0.216000005603 1775.0
0.829999983311 -0.375999987125 -0.215000003576 1759.0
0.830999970436 -0.38299998641 -0.216000005603 1739.0
0.829999983311 -0.388999998569 -0.216000005603 1760.0
0.824999988079 -0.393000006676 -0.215000003576 1755.0
0.832000017166 -0.402000010014 -0.216999992728 1752.0
0.828999996185 -0.407000005245 -0.216999992728 1769.0
0.824000000954 -0.411000013351 -0.216999992728 1773.0
0.822000026703 -0.416999995708 -0.216999992728 1760.0
0.818000018597 -0.421000003815 -0.216000005603 1753.0
0.820999979973 -0.428999990225 -0.216999992728 1744.0
0.819999992847 -0.435000002384 -0.217999994755 1750.0
0.818000018597 -0.441000014544 -0.217999994755 1736.0
0.824999988079 -0.451999992132 -0.219999998808 1722.0
0.816999971867 -0.453999996185 -0.218999996781 1767.0
0.81400001049 -0.458999991417 -0.218999996781 1761.0
0.81099998951 -0.463999986649 -0.218999996781 1752.0
1.12800002098 0.665000021458 -0.319999992847 442.0
1.57400000095 0.915000021458 -0.446000009775 412.0
1.70500004292 0.976999998093 -0.481999993324 504.0
1.72399997711 0.972999989986 -0.485000014305 355.0
1.76300001144 0.981000006199 -0.495000004768 232.0
1.7840000391 0.977999985218 -0.499000012875 229.0
1.80200004578 0.972999989986 -0.503000020981 168.0
1.91999995708 1.02100002766 -0.533999979496 87.0
1.92100000381 1.00600004196 -0.532999992371 88.0
1.85899996758 0.958999991417 -0.513999998569 86.0
1.91900002956 0.973999977112 -0.528999984264 100.0
1.94900000095 0.975000023842 -0.536000013351 113.0
1.94400000572 0.955999970436 -0.532999992371 136.0
1.97599995136 0.957000017166 -0.540000021458 138.0
2.06500005722 0.98400002718 -0.563000023365 123.0
2.09999990463 0.985000014305 -0.570999979973 125.0
2.14599990845 0.990000009537 -0.582000017166 167.0
2.21399998665 1.00499999523 -0.598999977112 305.0
2.21499991417 0.989000022411 -0.597999989986 276.0
2.21199989319 0.971000015736 -0.59500002861 132.0
2.39199995995 1.03299999237 -0.64200001955 72.0
0.880999982357 -0.111000001431 -0.217999994755 1074.0
0.879000008106 -0.116999998689 -0.217999994755 1491.0
0.885999977589 -0.123000003397 -0.219999998808 1494.0
0.879000008106 -0.127000004053 -0.218999996781 1588.0
0.879999995232 -0.133000001311 -0.218999996781 1588.0
0.879999995232 -0.137999996543 -0.218999996781 1600.0
0.879000008106 -0.143000006676 -0.218999996781 1616.0
0.879000008106 -0.148000001907 -0.218999996781 1629.0
0.873000025749 -0.152999997139 -0.217999994755 1620.0
0.870999991894 -0.158000007272 -0.216999992728 1633.0
0.875999987125 -0.16400000453 -0.218999996781 1649.0
0.870000004768 -0.167999997735 -0.216999992728 1658.0
0.869000017643 -0.172999992967 -0.216999992728 1686.0
0.870999991894 -0.179000005126 -0.217999994755 1663.0
0.870000004768 -0.184000000358 -0.217999994755 1665.0
0.867999970913 -0.188999995589 -0.217999994755 1688.0
0.861000001431 -0.193000003695 -0.216000005603 1684.0
0.865000009537 -0.199000000954 -0.216999992728 1681.0
0.865000009537 -0.204999998212 -0.217999994755 1683.0
0.864000022411 -0.209999993443 -0.217999994755 1679.0
0.864000022411 -0.215000003576 -0.217999994755 1698.0
0.865999996662 -0.221000000834 -0.218999996781 1694.0
0.853999972343 -0.224000006914 -0.216000005603 1689.0
0.862999975681 -0.231999993324 -0.217999994755 1695.0
0.856999993324 -0.236000001431 -0.216999992728 1684.0
0.856999993324 -0.240999996662 -0.217999994755 1708.0
0.85799998045 -0.24699999392 -0.217999994755 1698.0
0.85799998045 -0.252000004053 -0.217999994755 1718.0
0.852999985218 -0.256000012159 -0.216999992728 1716.0
0.851999998093 -0.261999994516 -0.216999992728 1715.0
0.850000023842 -0.266999989748 -0.216999992728 1738.0
0.855000019073 -0.273999989033 -0.218999996781 1736.0
0.84399998188 -0.275999993086 -0.216000005603 1728.0
0.847000002861 -0.282999992371 -0.216999992728 1757.0
0.850000023842 -0.28900000453 -0.218999996781 1735.0
0.848999977112 -0.294999986887 -0.218999996781 1756.0
0.839999973774 -0.298000007868 -0.216999992728 1731.0
0.84399998188 -0.305000007153 -0.217999994755 1734.0
0.839999973774 -0.308999985456 -0.217999994755 1757.0
0.841000020504 -0.314999997616 -0.217999994755 1767.0
0.84500002861 -0.323000013828 -0.219999998808 1769.0
0.842999994755 -0.32800000906 -0.219999998808 1760.0
0.84399998188 -0.333999991417 -0.219999998808 1765.0
0.834999978542 -0.337000012398 -0.217999994755 1783.0
0.833000004292 -0.342000007629 -0.217999994755 1774.0
0.839999973774 -0.34999999404 -0.221000000834 1771.0
0.837999999523 -0.356000006199 -0.221000000834 1753.0
0.834999978542 -0.361000001431 -0.219999998808 1759.0
0.833000004292 -0.365999996662 -0.219999998808 1788.0
0.836000025272 -0.372999995947 -0.221000000834 1763.0
0.834999978542 -0.379000008106 -0.222000002861 1745.0
0.830999970436 -0.384000003338 -0.221000000834 1753.0
0.82800000906 -0.388000011444 -0.221000000834 1764.0
0.82800000906 -0.395000010729 -0.222000002861 1761.0
0.829999983311 -0.402000010014 -0.223000004888 1752.0
0.827000021935 -0.407000005245 -0.222000002861 1773.0
0.827000021935 -0.41400000453 -0.223000004888 1758.0
0.822000026703 -0.416999995708 -0.222000002861 1770.0
0.822000026703 -0.423999994993 -0.223000004888 1751.0
0.819000005722 -0.428999990225 -0.223000004888 1764.0
0.818000018597 -0.435000002384 -0.223000004888 1751.0
0.815999984741 -0.441000014544 -0.223000004888 1750.0
0.816999971867 -0.448000013828 -0.224000006914 1750.0
0.816999971867 -0.453999996185 -0.22499999404 1759.0
0.81099998951 -0.458000004292 -0.224000006914 1764.0
0.811999976635 -0.465999990702 -0.22499999404 1785.0
1.11399996281 0.657999992371 -0.324000000954 451.0
1.50600004196 0.876999974251 -0.437000006437 394.0
1.69500005245 0.972999989986 -0.490999996662 509.0
1.72899997234 0.977999985218 -0.499000012875 385.0
1.77100002766 0.986999988556 -0.509999990463 230.0
1.78600001335 0.980000019073 -0.512000024319 239.0
1.81799995899 0.98299998045 -0.519999980927 191.0
1.7879999876 0.952000021935 -0.509999990463 95.0
1.84899997711 0.97000002861 -0.526000022888 95.0
1.84399998188 0.952000021935 -0.523000001907 114.0
1.9279999733 0.981000006199 -0.545000016689 146.0
1.91900002956 0.959999978542 -0.541000008583 149.0
1.93499994278 0.953999996185 -0.544000029564 140.0
2.01900005341 0.978999972343 -0.565999984741 140.0
2.07800006866 0.991999983788 -0.580999970436 127.0
2.11400008202 0.992999970913 -0.588999986649 136.0
2.14499998093 0.990999996662 -0.596000015736 147.0
2.19600009918 0.998000025749 -0.60900002718 293.0
2.21399998665 0.990000009537 -0.611999988556 298.0
2.242000103 0.986000001431 -0.619000017643 141.0
0.888000011444 -0.112999998033 -0.225999996066 1123.0
0.879000008106 -0.116999998689 -0.224000006914 1521.0
0.879000008106 -0.122000001371 -0.224000006914 1540.0
0.878000020981 -0.127000004053 -0.224000006914 1580.0
0.878000020981 -0.131999999285 -0.224000006914 1594.0
0.874000012875 -0.136999994516 -0.223000004888 1603.0
0.876999974251 -0.143000006676 -0.224000006914 1607.0
0.876999974251 -0.148000001907 -0.224000006914 1631.0
0.873000025749 -0.152999997139 -0.223000004888 1639.0
0.876999974251 -0.158999994397 -0.224000006914 1628.0
0.871999979019 -0.163000002503 -0.223000004888 1637.0
0.876999974251 -0.170000001788 -0.22499999404 1663.0
0.867999970913 -0.172999992967 -0.223000004888 1678.0
0.869000017643 -0.179000005126 -0.223000004888 1684.0
0.867999970913 -0.184000000358 -0.223000004888 1675.0
0.866999983788 -0.188999995589 -0.223000004888 1682.0
0.867999970913 -0.194999992847 -0.224000006914 1676.0
0.870999991894 -0.201000005007 -0.22499999404 1658.0
0.867999970913 -0.206000000238 -0.224000006914 1678.0
0.865999996662 -0.21099999547 -0.224000006914 1696.0
0.861000001431 -0.215000003576 -0.223000004888 1692.0
0.861999988556 -0.219999998808 -0.223000004888 1683.0
0.85900002718 -0.22499999404 -0.223000004888 1678.0
0.853999972343 -0.229000002146 -0.222000002861 1691.0
0.855000019073 -0.234999999404 -0.222000002861 1683.0
0.861000001431 -0.241999998689 -0.224000006914 1686.0
0.855000019073 -0.246000006795 -0.223000004888 1681.0
0.85900002718 -0.252999991179 -0.224000006914 1703.0
0.850000023842 -0.256000012159 -0.222000002861 1725.0
0.856999993324 -0.263999998569 -0.224000006914 1723.0
0.847999989986 -0.266999989748 -0.222000002861 1724.0
0.852999985218 -0.273999989033 -0.224000006914 1715.0
0.848999977112 -0.277999997139 -0.223000004888 1715.0
0.84500002861 -0.282999992371 -0.223000004888 1723.0
0.84500002861 -0.287999987602 -0.223000004888 1726.0
0.848999977112 -0.294999986887 -0.224000006914 1743.0
0.84500002861 -0.300000011921 -0.224000006914 1735.0
0.846000015736 -0.305999994278 -0.224000006914 1720.0
0.841000020504 -0.310000002384 -0.223000004888 1740.0
0.837000012398 -0.31400001049 -0.223000004888 1759.0
0.846000015736 -0.324000000954 -0.225999996066 1752.0
0.842999994755 -0.32800000906 -0.22499999404 1758.0
0.839999973774 -0.333000004292 -0.22499999404 1761.0
0.834999978542 -0.337000012398 -0.224000006914 1769.0
0.84399998188 -0.347000002861 -0.226999998093 1783.0
0.833999991417 -0.347999989986 -0.22499999404 1743.0
0.837000012398 -0.356000006199 -0.225999996066 1762.0
0.833999991417 -0.361000001431 -0.225999996066 1774.0
0.830999970436 -0.365000009537 -0.22499999404 1744.0
0.833999991417 -0.372999995947 -0.226999998093 1757.0
0.832000017166 -0.377999991179 -0.226999998093 1751.0
0.825999975204 -0.381999999285 -0.225999996066 1771.0
0.827000021935 -0.388000011444 -0.225999996066 1778.0
0.829999983311 -0.395999997854 -0.228000000119 1750.0
0.82800000906 -0.402000010014 -0.228000000119 1750.0
0.825999975204 -0.407000005245 -0.228000000119 1763.0
0.823000013828 -0.412000000477 -0.228000000119 1778.0
0.822000026703 -0.418000012636 -0.228000000119 1777.0
0.819000005722 -0.423000007868 -0.228000000119 1745.0
0.819999992847 -0.430000007153 -0.229000002146 1770.0
0.813000023365 -0.432999998331 -0.226999998093 1758.0
0.814999997616 -0.441000014544 -0.229000002146 1737.0
0.818000018597 -0.449000000954 -0.230000004172 1720.0
0.814999997616 -0.453999996185 -0.230000004172 1738.0
0.814999997616 -0.46099999547 -0.231000006199 1737.0
0.81400001049 -0.467000007629 -0.231000006199 1754.0
1.12300002575 0.665000021458 -0.335000008345 460.0
1.43099999428 0.834999978542 -0.425999999046 386.0
1.70500004292 0.980000019073 -0.505999982357 498.0
1.7159999609 0.972000002861 -0.508000016212 414.0
1.79100000858 1.0 -0.527999997139 256.0
1.7990000248 0.989000022411 -0.528999984264 314.0
1.80099999905 0.975000023842 -0.527999997139 289.0
1.7879999876 0.953999996185 -0.522000014782 176.0
1.85300004482 0.972999989986 -0.540000021458 156.0
1.83099997044 0.947000026703 -0.532000005245 169.0
1.90299999714 0.96899998188 -0.550999999046 159.0
1.91400003433 0.959999978542 -0.552999973297 153.0
1.98699998856 0.981000006199 -0.572000026703 139.0
2.02999997139 0.986000001431 -0.583000004292 126.0
2.04399991035 0.976999998093 -0.584999978542 125.0
2.10199999809 0.989000022411 -0.600000023842 132.0
2.16300010681 1.00100004673 -0.615999996662 155.0
2.2009999752 1.00199997425 -0.625 284.0
2.19400000572 0.981999993324 -0.621999979019 311.0
2.25200009346 0.991999983788 -0.637000024319 153.0
2.26300001144 0.980000019073 -0.638000011444 75.0
0.887000024319 -0.112999998033 -0.231000006199 1163.0
0.884999990463 -0.118000000715 -0.231000006199 1534.0
0.884000003338 -0.123000003397 -0.231000006199 1553.0
0.879000008106 -0.127000004053 -0.229000002146 1602.0
0.883000016212 -0.133000001311 -0.231000006199 1607.0
0.870000004768 -0.136999994516 -0.226999998093 1617.0
0.876999974251 -0.143000006676 -0.229000002146 1634.0
0.876999974251 -0.148000001907 -0.230000004172 1656.0
0.873000025749 -0.152999997139 -0.229000002146 1647.0
0.873000025749 -0.158000007272 -0.229000002146 1637.0
0.874000012875 -0.16400000453 -0.229000002146 1642.0
0.873000025749 -0.168999999762 -0.229000002146 1659.0
0.867999970913 -0.172999992967 -0.228000000119 1679.0
0.866999983788 -0.179000005126 -0.228000000119 1682.0
0.867999970913 -0.184000000358 -0.228000000119 1684.0
0.860000014305 -0.187999993563 -0.226999998093 1692.0
0.862999975681 -0.194000005722 -0.228000000119 1683.0
0.865000009537 -0.20000000298 -0.229000002146 1679.0
0.865999996662 -0.206000000238 -0.229000002146 1677.0
0.85900002718 -0.209000006318 -0.226999998093 1690.0
0.869000017643 -0.216999992728 -0.230000004172 1687.0
0.864000022411 -0.221000000834 -0.229000002146 1677.0
0.861999988556 -0.225999996066 -0.229000002146 1686.0
0.856999993324 -0.231000006199 -0.228000000119 1690.0
0.856999993324 -0.236000001431 -0.228000000119 1683.0
0.856000006199 -0.241999998689 -0.228000000119 1692.0
0.856999993324 -0.24699999392 -0.229000002146 1686.0
0.85900002718 -0.252999991179 -0.230000004172 1688.0
0.85799998045 -0.259000003338 -0.230000004172 1701.0
0.852999985218 -0.263000011444 -0.229000002146 1713.0
0.853999972343 -0.268999993801 -0.229000002146 1717.0
0.851000010967 -0.273999989033 -0.229000002146 1736.0
0.851999998093 -0.280000001192 -0.230000004172 1711.0
0.847000002861 -0.284000009298 -0.229000002146 1720.0
0.84500002861 -0.28900000453 -0.228000000119 1724.0
0.846000015736 -0.294999986887 -0.229000002146 1734.0
0.84500002861 -0.300000011921 -0.229000002146 1736.0
0.847000002861 -0.307000011206 -0.230000004172 1730.0
0.842000007629 -0.31099998951 -0.229000002146 1738.0
0.839999973774 -0.316000014544 -0.229000002146 1750.0
0.842000007629 -0.321999996901 -0.230000004172 1748.0
0.836000025272 -0.326000005007 -0.229000002146 1754.0
0.838999986649 -0.333000004292 -0.230000004172 1744.0
0.838999986649 -0.338999986649 -0.231000006199 1755.0
0.837999999523 -0.344999998808 -0.231000006199 1752.0
0.837000012398 -0.351000010967 -0.231000006199 1742.0
0.837000012398 -0.356999993324 -0.231999993324 1742.0
0.837000012398 -0.363000005484 -0.231999993324 1756.0
0.833999991417 -0.36700001359 -0.231999993324 1732.0
0.829999983311 -0.372000008821 -0.231000006199 1747.0
0.829999983311 -0.377999991179 -0.231999993324 1759.0
0.829999983311 -0.384999990463 -0.231999993324 1768.0
0.828999996185 -0.389999985695 -0.231999993324 1771.0
0.827000021935 -0.395999997854 -0.232999995351 1759.0
0.824000000954 -0.40000000596 -0.231999993324 1734.0
0.825999975204 -0.407999992371 -0.232999995351 1764.0
0.825999975204 -0.41400000453 -0.233999997377 1760.0
0.818000018597 -0.416999995708 -0.232999995351 1766.0
0.819000005722 -0.423999994993 -0.232999995351 1756.0
0.820999979973 -0.430999994278 -0.233999997377 1756.0
0.816999971867 -0.43599998951 -0.233999997377 1740.0
0.816999971867 -0.442999988794 -0.234999999404 1721.0
0.815999984741 -0.449000000954 -0.234999999404 1700.0
0.816999971867 -0.456000000238 -0.236000001431 1731.0
0.815999984741 -0.462000012398 -0.237000003457 1732.0
0.811999976635 -0.467000007629 -0.236000001431 1761.0
