ply
format ascii 1.0
element vertex 932
property float x
property float y
property float z
property float intensity
end_header
4.61100006104 1.46000003815 -1.43900001049 152.0
4.60900020599 1.42900002003 -1.43599998951 152.0
4.63899993896 1.40699994564 -1.44299995899 154.0
4.625 1.37199997902 -1.43599998951 144.0
4.66499996185 1.35300004482 -1.44599997997 147.0
4.63500022888 1.31400001049 -1.43499994278 145.0
4.65999984741 1.28999996185 -1.44000005722 145.0
4.62699985504 1.25100004673 -1.4279999733 147.0
4.66800022125 1.23199999332 -1.43799996376 154.0
4.69199991226 1.20700001717 -1.44299995899 148.0
4.69999980927 1.17900002003 -1.44400000572 151.0
4.70499992371 1.14999997616 -1.44400000572 143.0
4.71099996567 1.12199997902 -1.44299995899 134.0
4.71500015259 1.09200000763 -1.44299995899 131.0
4.73799991608 1.06799995899 -1.44799995422 130.0
4.74700021744 1.03900003433 -1.44900000095 133.0
4.72900009155 1.00600004196 -1.44099998474 130.0
4.73999977112 0.977999985218 -1.44299995899 126.0
4.74700021744 0.949999988079 -1.44400000572 126.0
4.74800014496 0.920000016689 -1.44200003147 129.0
4.77500009537 0.896000027657 -1.44900000095 121.0
4.73600006104 0.85900002718 -1.43599998951 126.0
4.76000022888 0.833999991417 -1.44099998474 125.0
4.77799987793 0.808000028133 -1.44599997997 121.0
4.76900005341 0.777000010014 -1.44099998474 119.0
4.80200004578 0.751999974251 -1.45000004768 118.0
4.80499982834 0.723999977112 -1.45000004768 117.0
4.79699993134 0.693000018597 -1.44599997997 127.0
4.77299976349 0.660000026226 -1.43700003624 119.0
4.8029999733 0.634999990463 -1.44500005245 119.0
4.8060002327 0.606000006199 -1.44500005245 118.0
4.82800006866 0.579999983311 -1.4509999752 115.0
4.81199979782 0.549000024796 -1.44500005245 108.0
4.82100009918 0.521000027657 -1.4470000267 111.0
4.80399990082 0.490000009537 -1.44099998474 109.0
4.84600019455 0.465000003576 -1.45200002193 112.0
0.0240000002086 0.00300000002608 -0.00600000005215 107.0
4.84999990463 0.407000005245 -1.45200002193 104.0
4.83099985123 0.375999987125 -1.44500005245 98.0
4.84899997711 0.349000006914 -1.45000004768 99.0
4.8189997673 0.317000001669 -1.44000005722 96.0
4.84499979019 0.289999991655 -1.44799995422 93.0
4.85400009155 0.261999994516 -1.45000004768 89.0
4.85799980164 0.232999995351 -1.45000004768 93.0
4.8639998436 0.203999996185 -1.45200002193 84.0
4.82000017166 0.173999994993 -1.43799996376 83.0
4.85099983215 0.145999997854 -1.4470000267 84.0
0.0209999997169 0.00200000009499 -0.00499999988824 86.0
4.82800006866 0.0879999995232 -1.44000005722 91.0
4.84000015259 0.0590000003576 -1.44299995899 85.0
4.86199998856 0.0299999993294 -1.44900000095 82.0
0.0289999991655 0.00200000009499 -0.00800000037998 88.0
0.0340000018477 0.00200000009499 -0.00899999961257 85.0
4.8639998436 -0.0560000017285 -1.44900000095 93.0
0.558000028133 -0.00700000021607 -0.165000006557 151.0
0.964999973774 -0.019999999553 -0.287000000477 978.0
0.97000002861 -0.0260000005364 -0.287999987602 1158.0
0.967999994755 -0.0320000015199 -0.287999987602 1153.0
0.966000020504 -0.0370000004768 -0.287000000477 1161.0
0.96899998188 -0.0430000014603 -0.287999987602 1162.0
0.967000007629 -0.0489999987185 -0.287000000477 1185.0
0.966000020504 -0.054999999702 -0.287000000477 1186.0
0.966000020504 -0.0599999986589 -0.287000000477 1186.0
0.967000007629 -0.0659999996424 -0.287999987602 1188.0
0.961000025272 -0.0719999969006 -0.286000013351 1202.0
0.958000004292 -0.0769999995828 -0.284999996424 1206.0
0.959999978542 -0.082999996841 -0.286000013351 1200.0
0.958999991417 -0.0890000015497 -0.286000013351 1206.0
0.953999996185 -0.0939999967813 -0.284000009298 1214.0
0.952000021935 -0.0989999994636 -0.284000009298 1150.0
0.85799998045 -0.0939999967813 -0.256000012159 391.0
0.674000024796 -0.0780000016093 -0.201000005007 208.0
0.64200001955 -0.0769999995828 -0.190999999642 208.0
0.662999987602 -0.0839999988675 -0.197999998927 205.0
0.648000001907 -0.0860000029206 -0.193000003695 205.0
0.638999998569 -0.0890000015497 -0.190999999642 205.0
0.649999976158 -0.0939999967813 -0.194000005722 205.0
0.666000008583 -0.101000003517 -0.199000000954 213.0
0.639999985695 -0.101000003517 -0.192000001669 204.0
0.638000011444 -0.104000002146 -0.190999999642 205.0
0.643999993801 -0.108999997377 -0.193000003695 215.0
0.601999998093 -0.104999996722 -0.180999994278 210.0
0.620999991894 -0.112999998033 -0.186000004411 201.0
0.705999970436 -0.133000001311 -0.211999997497 230.0
0.921000003815 -0.180000007153 -0.277000010014 907.0
0.934000015259 -0.188999995589 -0.282000005245 1189.0
0.926999986172 -0.193000003695 -0.280000001192 1178.0
0.93599998951 -0.201000005007 -0.282999992371 1184.0
0.930000007153 -0.204999998212 -0.280999988317 1177.0
0.924000024796 -0.209999993443 -0.279000014067 1158.0
0.927999973297 -0.216999992728 -0.280999988317 1170.0
0.930000007153 -0.223000004888 -0.282000005245 1166.0
0.925000011921 -0.228000000119 -0.280999988317 1154.0
0.924000024796 -0.232999995351 -0.280999988317 1167.0
0.919000029564 -0.238000005484 -0.280000001192 1151.0
0.917999982834 -0.244000002742 -0.280000001192 1150.0
0.913999974728 -0.248999997973 -0.279000014067 1150.0
0.919000029564 -0.256000012159 -0.280999988317 1117.0
0.841000020504 -0.239999994636 -0.256999999285 495.0
0.583999991417 -0.168999999762 -0.179000005126 219.0
0.580999970436 -0.172000005841 -0.178000003099 205.0
0.583000004292 -0.175999999046 -0.179000005126 207.0
0.555000007153 -0.171000003815 -0.170000001788 205.0
0.555000007153 -0.17499999702 -0.171000003815 200.0
0.554000020027 -0.178000003099 -0.171000003815 211.0
0.535000026226 -0.175999999046 -0.165000006557 211.0
0.569999992847 -0.190999999642 -0.175999999046 208.0
0.554000020027 -0.189999997616 -0.172000005841 200.0
0.565999984741 -0.197999998927 -0.175999999046 213.0
0.541999995708 -0.193000003695 -0.167999997735 203.0
0.537999987602 -0.194999992847 -0.167999997735 206.0
0.660000026226 -0.245000004768 -0.206000000238 292.0
0.880999982357 -0.335000008345 -0.275999993086 937.0
0.893999993801 -0.345999985933 -0.280000001192 1121.0
0.893000006676 -0.351999998093 -0.280999988317 1117.0
0.888000011444 -0.356000006199 -0.280000001192 1099.0
0.89099997282 -0.363999992609 -0.280999988317 1117.0
0.888000011444 -0.368999987841 -0.280999988317 1118.0
0.885999977589 -0.375 -0.280999988317 1101.0
0.888999998569 -0.38299998641 -0.282999992371 1088.0
0.884000003338 -0.386999994516 -0.282000005245 1099.0
0.876999974251 -0.391000002623 -0.280000001192 1083.0
0.883000016212 -0.40000000596 -0.282999992371 1081.0
0.880999982357 -0.405999988317 -0.282999992371 1066.0
0.870999991894 -0.407999992371 -0.280000001192 1038.0
0.799000024796 -0.379999995232 -0.256999999285 479.0
0.522000014782 -0.250999987125 -0.167999997735 221.0
0.465000003576 -0.225999996066 -0.15000000596 202.0
0.449999988079 -0.222000002861 -0.145999997854 204.0
0.444999992847 -0.223000004888 -0.143999993801 197.0
0.426999986172 -0.216999992728 -0.138999998569 198.0
0.402999997139 -0.208000004292 -0.130999997258 200.0
0.388999998569 -0.203999996185 -0.127000004053 207.0
0.386999994516 -0.206000000238 -0.127000004053 193.0
0.381999999285 -0.206000000238 -0.126000002027 190.0
0.412000000477 -0.225999996066 -0.136000007391 198.0
0.338999986649 -0.187999993563 -0.112000003457 195.0
0.690999984741 -0.395000010729 -0.230000004172 361.0
0.833000004292 -0.483999997377 -0.277999997139 747.0
4.17700004578 2.50500011444 -1.46500003338 247.0
4.17000007629 2.46399998665 -1.45700001717 246.0
4.20800018311 2.45000004768 -1.4659999609 239.0
4.21500015259 2.41799998283 -1.46300005913 247.0
4.23199987411 2.39100003242 -1.46399998665 240.0
4.25 2.36599993706 -1.4659999609 237.0
4.24700021744 2.32899999619 -1.46000003815 245.0
4.26999998093 2.30599999428 -1.46399998665 235.0
0.00999999977648 0.00499999988824 -0.00200000009499 236.0
4.3060002327 2.2539999485 -1.46700000763 219.0
4.32299995422 2.22799992561 -1.46800005436 225.0
4.32499980927 2.19400000572 -1.46500003338 222.0
4.34000015259 2.16799998283 -1.4659999609 225.0
4.32399988174 2.125 -1.45599997044 217.0
4.367000103 2.11199998856 -1.46700000763 215.0
4.36100006104 2.07500004768 -1.46099996567 209.0
4.39499998093 2.0569999218 -1.46800005436 211.0
4.40700006485 2.02900004387 -1.46800005436 214.0
4.41400003433 1.99899995327 -1.46700000763 215.0
4.42399978638 1.97000002861 -1.4659999609 203.0
4.44500017166 1.94599997997 -1.47000002861 204.0
4.44199991226 1.91100001335 -1.46500003338 205.0
4.45800018311 1.88499999046 -1.46700000763 198.0
4.45399999619 1.85099995136 -1.4620000124 196.0
0.0189999993891 0.00700000021607 -0.00499999988824 185.0
4.50899982452 1.80799996853 -1.47300004959 188.0
4.5110001564 1.77600002289 -1.47000002861 186.0
4.52500009537 1.74899995327 -1.47200000286 181.0
4.49700021744 1.70700001717 -1.46000003815 180.0
4.53700017929 1.69000005722 -1.46899998188 168.0
4.53999996185 1.6590000391 -1.46700000763 171.0
4.54300022125 1.62800002098 -1.46500003338 166.0
4.55000019073 1.59899997711 -1.46500003338 159.0
4.54500007629 1.56599998474 -1.46000003815 162.0
4.5720000267 1.54400002956 -1.4659999609 161.0
4.58400011063 1.51699995995 -1.46700000763 158.0
4.60099983215 1.49100005627 -1.47000002861 161.0
4.61999988556 1.4659999609 -1.47300004959 155.0
4.61000013351 1.43099999428 -1.46700000763 155.0
4.62699985504 1.40600001812 -1.47000002861 152.0
4.63899993896 1.37800002098 -1.47200000286 154.0
4.61899995804 1.34200000763 -1.46300005913 145.0
4.62799978256 1.31400001049 -1.46300005913 153.0
4.64400005341 1.2879999876 -1.4659999609 146.0
4.64699983597 1.25800001621 -1.46500003338 148.0
4.63700008392 1.22500002384 -1.45899999142 150.0
4.67000007629 1.20399999619 -1.46800005436 150.0
4.70399999619 1.18200004101 -1.47599995136 150.0
4.69799995422 1.14999997616 -1.47200000286 145.0
4.70499992371 1.12199997902 -1.47200000286 145.0
4.72200012207 1.09599995613 -1.47599995136 145.0
4.7389998436 1.06900000572 -1.47899997234 132.0
4.69099998474 1.02900004387 -1.46300005913 134.0
4.73799991608 1.00899994373 -1.47500002384 134.0
4.74700021744 0.981000006199 -1.47599995136 132.0
4.75899982452 0.953999996185 -1.47800004482 129.0
4.76599979401 0.925000011921 -1.47899997234 135.0
4.74700021744 0.89200001955 -1.47099995613 126.0
4.77699995041 0.867999970913 -1.47899997234 126.0
4.78000020981 0.838999986649 -1.47899997234 118.0
4.76499986649 0.805999994278 -1.47300004959 120.0
4.78399991989 0.77999997139 -1.47699999809 117.0
4.79699993134 0.753000020981 -1.48000001907 121.0
4.80200004578 0.723999977112 -1.48000001907 122.0
4.77099990845 0.689999997616 -1.46899998188 114.0
4.79300022125 0.663999974728 -1.47500002384 114.0
4.78900003433 0.634000003338 -1.47200000286 118.0
4.76700019836 0.601999998093 -1.46399998665 116.0
4.80900001526 0.57800000906 -1.47599995136 116.0
4.81300020218 0.549000024796 -1.47599995136 113.0
4.82000017166 0.521000027657 -1.47800004482 115.0
4.80499982834 0.490000009537 -1.47200000286 112.0
0.0170000009239 0.00300000002608 -0.00400000018999 111.0
4.82899999619 0.435000002384 -1.47800004482 106.0
0.0250000003725 0.00300000002608 -0.00700000021607 106.0
0.0219999998808 0.00300000002608 -0.00600000005215 100.0
4.84100008011 0.347999989986 -1.47899997234 97.0
4.83300018311 0.319000005722 -1.47599995136 97.0
4.84499979019 0.291000008583 -1.47899997234 91.0
4.85500001907 0.261999994516 -1.48099994659 98.0
4.83300018311 0.231999993324 -1.47399997711 89.0
4.84200000763 0.202999994159 -1.47699999809 86.0
4.84399986267 0.17499999702 -1.47699999809 92.0
4.80800008774 0.144999995828 -1.46500003338 89.0
4.82600021362 0.115999996662 -1.47000002861 87.0
4.85900020599 0.0879999995232 -1.48000001907 86.0
4.83799982071 0.0590000003576 -1.47300004959 86.0
4.85500001907 0.0299999993294 -1.47800004482 84.0
4.8060002327 0.0010000000475 -1.46300005913 87.0
0.00600000005215 0.00200000009499 -0.0010000000475 90.0
0.0419999994338 0.0010000000475 -0.0120000001043 93.0
0.583000004292 -0.00800000037998 -0.177000001073 157.0
0.964999973774 -0.019999999553 -0.293000012636 978.0
0.954999983311 -0.0260000005364 -0.289999991655 828.0
0.944000005722 -0.0309999994934 -0.287000000477 747.0
0.939999997616 -0.0359999984503 -0.286000013351 810.0
0.950999975204 -0.0430000014603 -0.28900000453 870.0
0.954999983311 -0.0480000004172 -0.289999991655 961.0
0.958000004292 -0.0540000014007 -0.291000008583 1021.0
0.955999970436 -0.0599999986589 -0.291000008583 1053.0
0.95300000906 -0.0649999976158 -0.289999991655 1092.0
0.958000004292 -0.0710000023246 -0.291000008583 1145.0
0.952000021935 -0.0769999995828 -0.289999991655 1163.0
0.954999983311 -0.082999996841 -0.289999991655 1163.0
0.957000017166 -0.0890000015497 -0.291000008583 1166.0
0.95300000906 -0.0939999967813 -0.289999991655 1184.0
0.953999996185 -0.10000000149 -0.289999991655 1111.0
0.842999994755 -0.0930000022054 -0.256999999285 369.0
0.643999993801 -0.0740000009537 -0.195999994874 204.0
0.630999982357 -0.0759999975562 -0.192000001669 204.0
0.64099997282 -0.0810000002384 -0.194999992847 206.0
0.643999993801 -0.0860000029206 -0.195999994874 201.0
0.633000016212 -0.0879999995232 -0.193000003695 197.0
0.625999987125 -0.0909999981523 -0.190999999642 207.0
0.643999993801 -0.097999997437 -0.196999996901 201.0
0.616999983788 -0.097000002861 -0.187999993563 202.0
0.628000020981 -0.103000000119 -0.192000001669 207.0
0.615000009537 -0.104000002146 -0.187999993563 202.0
0.60799998045 -0.107000000775 -0.186000004411 202.0
0.600000023842 -0.108999997377 -0.184000000358 191.0
0.703999996185 -0.133000001311 -0.216000005603 243.0
0.922999978065 -0.180999994278 -0.284000009298 912.0
0.93599998951 -0.189999997616 -0.287999987602 1155.0
0.930000007153 -0.194000005722 -0.287000000477 1134.0
0.934000015259 -0.201000005007 -0.287999987602 1134.0
0.930999994278 -0.206000000238 -0.287999987602 1133.0
0.926999986172 -0.21099999547 -0.287000000477 1130.0
0.933000028133 -0.217999994755 -0.28900000453 1111.0
0.926999986172 -0.223000004888 -0.287000000477 1103.0
0.925999999046 -0.228000000119 -0.287000000477 1111.0
0.935000002384 -0.237000003457 -0.289999991655 1112.0
0.922999978065 -0.239999994636 -0.287000000477 1118.0
0.925999999046 -0.246000006795 -0.287999987602 1105.0
0.92199999094 -0.250999987125 -0.287999987602 1110.0
0.924000024796 -0.25799998641 -0.287999987602 1053.0
0.811999976635 -0.231000006199 -0.254000008106 422.0
0.563000023365 -0.163000002503 -0.175999999046 209.0
0.568000018597 -0.167999997735 -0.178000003099 201.0
0.549000024796 -0.165999993682 -0.172000005841 202.0
0.566999971867 -0.17499999702 -0.178000003099 199.0
0.559000015259 -0.177000001073 -0.175999999046 207.0
0.552999973297 -0.178000003099 -0.173999994993 209.0
0.555000007153 -0.182999998331 -0.17499999702 211.0
0.579999983311 -0.194999992847 -0.182999998331 206.0
0.547999978065 -0.187999993563 -0.172999992967 204.0
0.51700001955 -0.180999994278 -0.16400000453 208.0
0.558000028133 -0.199000000954 -0.177000001073 208.0
0.527000010014 -0.192000001669 -0.167999997735 209.0
0.731999993324 -0.273000001907 -0.233999997377 326.0
0.884999990463 -0.337000012398 -0.282999992371 947.0
0.898000001907 -0.347999989986 -0.287999987602 1092.0
0.896000027657 -0.354000002146 -0.287999987602 1093.0
0.884999990463 -0.356000006199 -0.284999996424 1088.0
0.879000008106 -0.360000014305 -0.284000009298 1078.0
0.888000011444 -0.370000004768 -0.287000000477 1076.0
0.876999974251 -0.372000008821 -0.284000009298 1060.0
0.884999990463 -0.381999999285 -0.287999987602 1063.0
0.884000003338 -0.388000011444 -0.287999987602 1070.0
0.878000020981 -0.391999989748 -0.287000000477 1058.0
0.879000008106 -0.398999989033 -0.287999987602 1053.0
0.874000012875 -0.402999997139 -0.287000000477 1032.0
0.864000022411 -0.405000001192 -0.284000009298 952.0
0.748000025749 -0.356000006199 -0.246000006795 416.0
0.481000006199 -0.231000006199 -0.158999994397 213.0
0.416000008583 -0.202000007033 -0.136999994516 201.0
0.419999986887 -0.207000002265 -0.138999998569 205.0
0.42199999094 -0.211999997497 -0.140000000596 200.0
0.402000010014 -0.204999998212 -0.134000003338 195.0
0.407000005245 -0.21099999547 -0.136000007391 197.0
0.381000012159 -0.20000000298 -0.127000004053 193.0
0.400999993086 -0.21400000155 -0.134000003338 195.0
0.372000008821 -0.201000005007 -0.125 192.0
0.370999991894 -0.203999996185 -0.125 187.0
0.361000001431 -0.201000005007 -0.122000001371 197.0
0.722999989986 -0.41400000453 -0.246000006795 419.0
0.836000025272 -0.486999988556 -0.286000013351 741.0
0.00899999961257 0.00400000018999 -0.00200000009499 251.0
0.0149999996647 0.00800000037998 -0.00400000018999 252.0
0.0179999992251 0.00899999961257 -0.00499999988824 259.0
4.21500015259 2.42199993134 -1.49500000477 249.0
4.22399997711 2.39199995995 -1.49300003052 245.0
0.00600000005215 0.00200000009499 -0.0010000000475 247.0
4.25099992752 2.33500003815 -1.49300003052 239.0
4.26399993896 2.30599999428 -1.49300003052 249.0
4.27199983597 2.27500009537 -1.49100005627 242.0
4.28599977493 2.24799990654 -1.49100005627 229.0
0.00600000005215 0.00200000009499 -0.0010000000475 232.0
4.32499980927 2.19799995422 -1.4960000515 227.0
4.32899999619 2.16599988937 -1.49300003052 226.0
4.35200023651 2.14299988747 -1.49699997902 218.0
4.34299993515 2.10400009155 -1.49000000954 223.0
4.38399982452 2.08999991417 -1.5 223.0
4.38199996948 2.05500006676 -1.49500000477 219.0
4.38999986649 2.02500009537 -1.49399995804 220.0
4.39699983597 1.99500000477 -1.49199998379 219.0
4.42500019073 1.97399997711 -1.49800002575 214.0
4.43400001526 1.94500005245 -1.49699997902 211.0
4.45200014114 1.91900002956 -1.5 209.0
4.43699979782 1.8789999485 -1.49100005627 207.0
4.46600008011 1.85899996758 -1.49699997902 203.0
4.47300004959 1.82899999619 -1.4960000515 197.0
4.44099998474 1.7840000391 -1.48199999332 190.0
4.49499988556 1.77300000191 -1.4960000515 192.0
4.5110001564 1.74699997902 -1.49800002575 180.0
4.5 1.71099996567 -1.49199998379 181.0
4.54899978638 1.6970000267 -1.50499999523 179.0
4.53800010681 1.66100001335 -1.49800002575 179.0
4.51800012589 1.62199997902 -1.48800003529 169.0
4.55399990082 1.60300004482 -1.49699997902 165.0
4.57800006866 1.58000004292 -1.50199997425 170.0
4.57800006866 1.54799997807 -1.49899995327 160.0
4.59499979019 1.52199995518 -1.50199997425 160.0
4.59600019455 1.49199998379 -1.49899995327 156.0
4.59299993515 1.45899999142 -1.4960000515 160.0
4.61499977112 1.43499994278 -1.5 153.0
4.59100008011 1.39699995518 -1.49000000954 160.0
4.62400007248 1.37600004673 -1.49800002575 154.0
4.61499977112 1.34300005436 -1.49300003052 147.0
4.63399982452 1.31799995899 -1.4960000515 145.0
4.63899993896 1.2879999876 -1.4960000515 153.0
4.66400003433 1.26499998569 -1.50100004673 151.0
4.64900016785 1.23000001907 -1.49399995804 147.0
4.66400003433 1.20399999619 -1.49699997902 153.0
4.69199991226 1.18099999428 -1.5039999485 151.0
4.6859998703 1.14900004864 -1.5 148.0
4.70800018311 1.12399995327 -1.50499999523 145.0
4.68699979782 1.08899998665 -1.4960000515 142.0
4.71299982071 1.06500005722 -1.50300002098 139.0
4.71799993515 1.03600001335 -1.50199997425 134.0
4.72300004959 1.00699996948 -1.50199997425 126.0
4.74599981308 0.981999993324 -1.50800001621 130.0
4.74900007248 0.95300000906 -1.50699996948 128.0
4.73600006104 0.921000003815 -1.50100004673 129.0
4.74300003052 0.89200001955 -1.50199997425 130.0
4.76800012589 0.866999983788 -1.50800001621 124.0
4.75199985504 0.834999978542 -1.50100004673 121.0
0.00899999961257 0.00200000009499 -0.00200000009499 119.0
4.78200006485 0.78100001812 -1.50800001621 120.0
4.76599979401 0.749000012875 -1.50100004673 118.0
4.78100013733 0.722000002861 -1.50499999523 115.0
4.80100011826 0.694999992847 -1.50999999046 114.0
4.79300022125 0.665000021458 -1.50600004196 125.0
4.79400014877 0.635999977589 -1.50499999523 126.0
4.78499984741 0.605000019073 -1.50100004673 116.0
4.79400014877 0.577000021935 -1.50300002098 116.0
4.78200006485 0.54699999094 -1.49800002575 117.0
4.82399988174 0.522000014782 -1.50999999046 115.0
4.80499982834 0.490999996662 -1.50300002098 116.0
0.00800000037998 0.00200000009499 -0.00200000009499 115.0
4.80200004578 0.432999998331 -1.5 106.0
4.78800010681 0.402999997139 -1.49500000477 104.0
0.00700000021607 0.00200000009499 -0.0010000000475 101.0
0.0109999999404 0.00200000009499 -0.00200000009499 103.0
4.81699991226 0.317999988794 -1.50199997425 100.0
4.82899999619 0.289999991655 -1.50499999523 99.0
4.82600021362 0.261000007391 -1.5039999485 90.0
0.00600000005215 0.00200000009499 -0.0010000000475 87.0
0.0120000001043 0.00200000009499 -0.00300000002608 90.0
4.84100008011 0.17499999702 -1.50699996948 92.0
4.80000019073 0.143999993801 -1.49399995804 85.0
4.84600019455 0.116999998689 -1.50800001621 84.0
4.81500005722 0.0869999974966 -1.49800002575 88.0
4.84700012207 0.0590000003576 -1.50800001621 97.0
4.80399990082 0.0299999993294 -1.49399995804 91.0
0.00800000037998 0.00200000009499 -0.00200000009499 90.0
4.83599996567 -0.0270000007004 -1.50300002098 84.0
0.00899999961257 0.00200000009499 -0.00200000009499 91.0
0.616999983788 -0.00800000037998 -0.190999999642 173.0
0.962999999523 -0.019999999553 -0.298999994993 964.0
0.89099997282 -0.0240000002086 -0.275999993086 458.0
0.663999974728 -0.0209999997169 -0.206000000238 198.0
0.666999995708 -0.0250000003725 -0.207000002265 208.0
0.677999973297 -0.0299999993294 -0.209999993443 208.0
0.73400002718 -0.0370000004768 -0.226999998093 227.0
0.737999975681 -0.0410000011325 -0.229000002146 242.0
0.741999983788 -0.0460000000894 -0.230000004172 262.0
0.77999997139 -0.0529999993742 -0.241999998689 300.0
0.805000007153 -0.0599999986589 -0.25 329.0
0.851000010967 -0.0680000036955 -0.263999998569 378.0
0.853999972343 -0.0740000009537 -0.264999985695 423.0
0.889999985695 -0.082000002265 -0.275999993086 483.0
0.885999977589 -0.0869999974966 -0.27500000596 541.0
0.898999989033 -0.0939999967813 -0.280000001192 586.0
0.920000016689 -0.101999998093 -0.286000013351 652.0
0.903999984264 -0.104999996722 -0.280999988317 609.0
0.884999990463 -0.108999997377 -0.275999993086 568.0
0.884999990463 -0.11400000006 -0.275999993086 518.0
0.860000014305 -0.115999996662 -0.268000006676 462.0
0.841000020504 -0.118000000715 -0.261999994516 416.0
0.82800000906 -0.122000001371 -0.259000003338 378.0
0.823000013828 -0.126000002027 -0.256999999285 356.0
0.801999986172 -0.127000004053 -0.250999987125 322.0
0.774999976158 -0.12800000608 -0.241999998689 301.0
0.751999974251 -0.12800000608 -0.234999999404 288.0
0.736000001431 -0.129999995232 -0.231000006199 261.0
0.730000019073 -0.134000003338 -0.229000002146 249.0
0.750999987125 -0.142000004649 -0.234999999404 291.0
0.92199999094 -0.180999994278 -0.289999991655 893.0
0.933000028133 -0.188999995589 -0.293000012636 1055.0
0.929000020027 -0.194000005722 -0.291999995708 1064.0
0.925000011921 -0.199000000954 -0.291000008583 1071.0
0.930000007153 -0.206000000238 -0.293000012636 1068.0
0.926999986172 -0.21099999547 -0.293000012636 1066.0
0.929000020027 -0.217999994755 -0.293999999762 1071.0
0.925000011921 -0.223000004888 -0.293000012636 1065.0
0.92199999094 -0.228000000119 -0.291999995708 1078.0
0.926999986172 -0.234999999404 -0.293999999762 1077.0
0.916000008583 -0.238000005484 -0.291000008583 1068.0
0.916000008583 -0.244000002742 -0.291000008583 1079.0
0.919000029564 -0.250999987125 -0.293000012636 1080.0
0.912000000477 -0.254999995232 -0.291000008583 1009.0
0.790000021458 -0.22499999404 -0.252000004053 383.0
0.580999970436 -0.168999999762 -0.186000004411 209.0
0.580999970436 -0.172000005841 -0.186000004411 201.0
0.577000021935 -0.17499999702 -0.185000002384 208.0
0.56400001049 -0.17499999702 -0.180999994278 201.0
0.584999978542 -0.185000002384 -0.187999993563 206.0
0.546000003815 -0.175999999046 -0.175999999046 212.0
0.552999973297 -0.181999996305 -0.178000003099 202.0
0.565999984741 -0.189999997616 -0.181999996305 210.0
0.586000025272 -0.202000007033 -0.189999997616 203.0
0.528999984264 -0.185000002384 -0.171000003815 205.0
0.547999978065 -0.195999994874 -0.178000003099 203.0
0.569000005722 -0.207000002265 -0.185000002384 215.0
0.754000008106 -0.282000005245 -0.246000006795 373.0
0.894999980927 -0.342000007629 -0.293000012636 960.0
0.89200001955 -0.347000002861 -0.291999995708 1051.0
0.89099997282 -0.352999985218 -0.293000012636 1057.0
0.882000029087 -0.354999989271 -0.289999991655 1044.0
0.887000024319 -0.363999992609 -0.293000012636 1054.0
0.887000024319 -0.370000004768 -0.293000012636 1031.0
0.884999990463 -0.375999987125 -0.293000012636 1028.0
0.879999995232 -0.381000012159 -0.291999995708 1021.0
0.878000020981 -0.386000007391 -0.291999995708 1012.0
0.874000012875 -0.391000002623 -0.291000008583 996.0
0.875 -0.398000001907 -0.291999995708 969.0
0.873000025749 -0.404000014067 -0.291999995708 934.0
0.860000014305 -0.404000014067 -0.28900000453 825.0
0.703999996185 -0.335000008345 -0.237000003457 335.0
0.505999982357 -0.243000000715 -0.170000001788 223.0
0.504999995232 -0.24699999392 -0.170000001788 218.0
0.493999987841 -0.246000006795 -0.166999995708 222.0
0.495000004768 -0.25 -0.167999997735 234.0
0.503000020981 -0.25799998641 -0.171000003815 228.0
0.528999984264 -0.275999993086 -0.180999994278 233.0
0.54699999094 -0.289999991655 -0.187000006437 240.0
0.550999999046 -0.296000003815 -0.188999995589 252.0
0.552999973297 -0.301999986172 -0.189999997616 253.0
0.587999999523 -0.326999992132 -0.202999994159 263.0
0.59399998188 -0.335000008345 -0.206000000238 305.0
0.758000016212 -0.43599998951 -0.263999998569 490.0
0.791000008583 -0.46099999547 -0.275999993086 586.0
0.0149999996647 0.00800000037998 -0.00400000018999 262.0
0.0280000008643 0.0149999996647 -0.00899999961257 254.0
4.16699981689 2.43499994278 -1.51400005817 257.0
0.00899999961257 0.00400000018999 -0.00200000009499 250.0
4.21999979019 2.39400005341 -1.52300000191 258.0
4.21400022507 2.35500001907 -1.51600003242 251.0
4.25 2.33899998665 -1.52400004864 248.0
4.26300001144 2.30999994278 -1.52400004864 234.0
0.0130000002682 0.00600000005215 -0.00300000002608 242.0
4.29199981689 2.25500011444 -1.52499997616 246.0
4.29600000381 2.22199988365 -1.52199995518 228.0
4.31599998474 2.19799995422 -1.52499997616 236.0
4.3189997673 2.16499996185 -1.52100002766 235.0
4.33900022507 2.1400001049 -1.52400004864 238.0
4.33400011063 2.10400009155 -1.51800000668 221.0
4.34499979019 2.07500004768 -1.51699995995 221.0
4.37699985504 2.05599999428 -1.52499997616 220.0
0.00800000037998 0.00300000002608 -0.00200000009499 221.0
4.38199996948 1.99199998379 -1.51900005341 213.0
4.41200017929 1.97200000286 -1.52499997616 219.0
4.42199993134 1.94299995899 -1.52499997616 210.0
4.42299985886 1.90999996662 -1.52100002766 208.0
4.44000005722 1.88399994373 -1.52300000191 213.0
4.47499990463 1.86600005627 -1.53199994564 209.0
4.48299980164 1.8370000124 -1.53100001812 206.0
4.46500015259 1.79700005054 -1.52100002766 199.0
4.48400020599 1.77199995518 -1.52400004864 197.0
4.48999977112 1.74199998379 -1.52300000191 190.0
4.47499990463 1.70399999619 -1.51499998569 183.0
4.5110001564 1.68599998951 -1.52300000191 186.0
4.5110001564 1.65400004387 -1.51999998093 186.0
4.53100013733 1.6289999485 -1.52400004864 173.0
4.53800010681 1.60000002384 -1.52300000191 172.0
4.56599998474 1.57799994946 -1.52999997139 170.0
4.55700016022 1.54400002956 -1.52300000191 172.0
4.58199977875 1.52100002766 -1.52900004387 160.0
4.57999992371 1.48899996281 -1.52499997616 161.0
4.60900020599 1.46700000763 -1.53199994564 167.0
4.59999990463 1.43299996853 -1.52699995041 160.0
4.63199996948 1.41199994087 -1.53499996662 157.0
4.59700012207 1.37000000477 -1.52100002766 154.0
4.6360001564 1.35099995136 -1.53100001812 151.0
4.58699989319 1.30599999428 -1.51199996471 158.0
4.63500022888 1.28900003433 -1.52600002289 150.0
4.62099981308 1.25499999523 -1.51900005341 152.0
4.63500022888 1.22899997234 -1.52100002766 151.0
4.65899991989 1.20500004292 -1.52699995041 161.0
4.67199993134 1.1779999733 -1.52900004387 143.0
4.66800022125 1.14600002766 -1.52499997616 149.0
4.66699981689 1.11600005627 -1.52300000191 156.0
4.6970000267 1.09300005436 -1.53100001812 147.0
4.67999982834 1.05900001526 -1.52300000191 141.0
4.70900011063 1.03600001335 -1.52999997139 136.0
4.73999977112 1.01300001144 -1.53900003433 140.0
4.7389998436 0.981999993324 -1.53699994087 131.0
4.71700000763 0.948000013828 -1.52799999714 129.0
4.73000001907 0.921000003815 -1.52999997139 136.0
4.71500015259 0.888000011444 -1.52400004864 131.0
4.73999977112 0.864000022411 -1.52999997139 120.0
4.74800014496 0.834999978542 -1.53100001812 126.0
4.74499988556 0.805000007153 -1.52900004387 121.0
4.77400016785 0.78100001812 -1.53699994087 122.0
0.0419999994338 0.00700000021607 -0.0120000001043 121.0
0.0299999993294 0.00499999988824 -0.00899999961257 119.0
4.76900005341 0.691999971867 -1.53100001812 114.0
4.78200006485 0.663999974728 -1.5340000391 114.0
4.77699995041 0.634000003338 -1.53100001812 120.0
0.0170000009239 0.00300000002608 -0.00400000018999 112.0
4.77299976349 0.574999988079 -1.52699995041 116.0
4.78100013733 0.54699999094 -1.52900004387 116.0
4.80100011826 0.519999980927 -1.5340000391 112.0
0.0170000009239 0.00300000002608 -0.00499999988824 118.0
0.00600000005215 0.00200000009499 -0.0010000000475 107.0
4.79099988937 0.432000011206 -1.52799999714 112.0
4.78999996185 0.402999997139 -1.52699995041 110.0
4.79300022125 0.375 -1.52699995041 102.0
4.80399990082 0.345999985933 -1.52999997139 96.0
4.83199977875 0.319000005722 -1.5379999876 99.0
4.81500005722 0.28900000453 -1.53199994564 98.0
4.82299995422 0.261000007391 -1.5340000391 101.0
0.019999999553 0.00200000009499 -0.00499999988824 100.0
0.00499999988824 0.00200000009499 -0.0010000000475 92.0
4.83900022507 0.17499999702 -1.5379999876 99.0
4.82800006866 0.144999995828 -1.5340000391 95.0
4.82299995422 0.115999996662 -1.53199994564 93.0
4.8220000267 0.0869999974966 -1.53100001812 96.0
0.00999999977648 0.00200000009499 -0.00200000009499 93.0
0.0309999994934 0.00200000009499 -0.00899999961257 98.0
0.0179999992251 0.00200000009499 -0.00499999988824 97.0
4.83799982071 -0.0270000007004 -1.53600001335 99.0
0.0579999983311 0.0010000000475 -0.0170000009239 95.0
0.663999974728 -0.00899999961257 -0.209999993443 186.0
0.958999991417 -0.019999999553 -0.303000003099 946.0
0.870999991894 -0.0230000000447 -0.275999993086 426.0
0.669000029564 -0.0209999997169 -0.211999997497 194.0
0.632000029087 -0.0240000002086 -0.20000000298 194.0
0.646000027657 -0.0280000008643 -0.203999996185 198.0
0.646000027657 -0.0320000015199 -0.203999996185 198.0
0.625 -0.035000000149 -0.197999998927 189.0
0.630999982357 -0.0390000008047 -0.199000000954 192.0
0.620000004768 -0.0419999994338 -0.195999994874 194.0
0.610000014305 -0.0450000017881 -0.193000003695 193.0
0.611999988556 -0.0480000004172 -0.194000005722 197.0
0.632000029087 -0.0540000014007 -0.20000000298 196.0
0.617999970913 -0.0560000017285 -0.195999994874 196.0
0.65600001812 -0.0640000030398 -0.208000004292 200.0
0.810000002384 -0.0850000008941 -0.256999999285 303.0
0.944999992847 -0.104999996722 -0.300000011921 976.0
0.949000000954 -0.111000001431 -0.301999986172 1091.0
0.949000000954 -0.116999998689 -0.301999986172 1099.0
0.948000013828 -0.122000001371 -0.301999986172 1088.0
0.939999997616 -0.127000004053 -0.298999994993 1077.0
0.941999971867 -0.133000001311 -0.300000011921 1063.0
0.939999997616 -0.138999998569 -0.300000011921 1045.0
0.93599998951 -0.143999993801 -0.298000007868 1022.0
0.938000023365 -0.15000000596 -0.298999994993 1000.0
0.936999976635 -0.155000001192 -0.298999994993 985.0
0.933000028133 -0.16099999845 -0.298000007868 972.0
0.931999981403 -0.165999993682 -0.298000007868 930.0
0.930999994278 -0.172000005841 -0.298000007868 906.0
0.924000024796 -0.175999999046 -0.296000003815 815.0
0.850000023842 -0.166999995708 -0.273000001907 430.0
0.814999997616 -0.165000006557 -0.261000007391 377.0
0.816999971867 -0.171000003815 -0.261999994516 400.0
0.84500002861 -0.181999996305 -0.272000014782 427.0
0.851000010967 -0.188999995589 -0.273999989033 450.0
0.85900002718 -0.195999994874 -0.277000010014 463.0
0.839999973774 -0.196999996901 -0.270999997854 487.0
0.853999972343 -0.206000000238 -0.275999993086 511.0
0.852999985218 -0.21099999547 -0.275999993086 527.0
0.864000022411 -0.218999996781 -0.280000001192 545.0
0.85799998045 -0.223000004888 -0.277999997139 552.0
0.875 -0.232999995351 -0.284000009298 574.0
0.866999983788 -0.237000003457 -0.282000005245 597.0
0.866999983788 -0.241999998689 -0.282000005245 595.0
0.842999994755 -0.240999996662 -0.27500000596 552.0
0.861000001431 -0.252000004053 -0.280999988317 550.0
0.842999994755 -0.252000004053 -0.275999993086 535.0
0.837000012398 -0.256000012159 -0.273999989033 534.0
0.833999991417 -0.261000007391 -0.273000001907 513.0
0.830999970436 -0.266000002623 -0.273000001907 506.0
0.820999979973 -0.268000006676 -0.270000010729 510.0
0.827000021935 -0.275999993086 -0.273000001907 491.0
0.822000026703 -0.279000014067 -0.270999997854 497.0
0.814999997616 -0.282999992371 -0.270000010729 487.0
0.818000018597 -0.28900000453 -0.270999997854 491.0
0.81099998951 -0.291999995708 -0.268999993801 488.0
0.819999992847 -0.301999986172 -0.273000001907 479.0
0.837999999523 -0.31400001049 -0.279000014067 572.0
0.85799998045 -0.32800000906 -0.286000013351 705.0
0.856000006199 -0.333000004292 -0.286000013351 696.0
0.847999989986 -0.33599999547 -0.284000009298 690.0
0.852999985218 -0.344000011683 -0.286000013351 678.0
0.847000002861 -0.347999989986 -0.284999996424 657.0
0.837999999523 -0.34999999404 -0.282999992371 649.0
0.837999999523 -0.356999993324 -0.282999992371 641.0
0.825999975204 -0.358000010252 -0.280000001192 615.0
0.836000025272 -0.368000000715 -0.284000009298 597.0
0.819999992847 -0.36700001359 -0.279000014067 582.0
0.808000028133 -0.368000000715 -0.275999993086 556.0
0.802999973297 -0.370999991894 -0.27500000596 527.0
0.77999997139 -0.36700001359 -0.266999989748 483.0
0.796000003815 -0.379999995232 -0.273000001907 500.0
0.809000015259 -0.393000006676 -0.279000014067 527.0
0.795000016689 -0.391999989748 -0.273999989033 535.0
0.810000002384 -0.407000005245 -0.280999988317 554.0
0.805000007153 -0.409999996424 -0.280000001192 554.0
0.79699999094 -0.412999987602 -0.277999997139 569.0
0.802999973297 -0.423000007868 -0.280999988317 586.0
0.805999994278 -0.430999994278 -0.282000005245 595.0
0.819999992847 -0.444999992847 -0.287999987602 602.0
0.819000005722 -0.451000005007 -0.28900000453 622.0
0.808000028133 -0.451999992132 -0.286000013351 620.0
0.810000002384 -0.460000008345 -0.287000000477 643.0
0.702000021935 -0.404000014067 -0.248999997973 391.0
0.536000013351 -0.312000006437 -0.190999999642 255.0
0.0130000002682 0.00700000021607 -0.00400000018999 278.0
4.15600013733 2.47000002861 -1.54700005054 267.0
0.00999999977648 0.00499999988824 -0.00300000002608 270.0
0.0149999996647 0.00700000021607 -0.00400000018999 269.0
0.0209999997169 0.0109999999404 -0.00600000005215 261.0
4.21700000763 2.36100006104 -1.5490000248 261.0
0.00899999961257 0.00400000018999 -0.00200000009499 261.0
4.25299978256 2.30999994278 -1.55200004578 246.0
4.26000022888 2.27800011635 -1.54999995232 254.0
4.26900005341 2.24699997902 -1.54799997807 248.0
4.29699993134 2.22699999809 -1.55400002003 250.0
4.30399990082 2.19600009918 -1.55200004578 236.0
4.29600000381 2.15799999237 -1.54499995708 226.0
4.3140001297 2.13199996948 -1.54700005054 230.0
4.33300018311 2.10700011253 -1.5490000248 230.0
4.34399986267 2.07899999619 -1.5490000248 230.0
4.36299991608 2.05399990082 -1.55099999905 222.0
4.36600017548 2.02099990845 -1.54799997807 236.0
4.3860001564 1.99699997902 -1.55099999905 229.0
4.39799976349 1.96899998188 -1.55200004578 224.0
4.41800022125 1.94400000572 -1.55499994755 225.0
4.4310002327 1.91700005531 -1.55499994755 220.0
4.43499994278 1.88600003719 -1.5529999733 223.0
4.42999982834 1.85099995136 -1.54799997807 210.0
4.45499992371 1.82799994946 -1.5529999733 196.0
4.47599983215 1.80400002003 -1.55700004101 201.0
4.47200012207 1.76999998093 -1.55200004578 201.0
4.48400020599 1.74300003052 -1.55200004578 190.0
4.49599981308 1.71500003338 -1.5529999733 195.0
4.51000022888 1.68799996376 -1.55499994755 184.0
4.52299976349 1.66100001335 -1.55599999428 182.0
4.51200008392 1.625 -1.5490000248 181.0
4.52199983597 1.59700000286 -1.5490000248 179.0
4.54500007629 1.57400000095 -1.55400002003 173.0
4.55800008774 1.54700005054 -1.55499994755 172.0
4.55900001526 1.51600003242 -1.5529999733 170.0
4.58599996567 1.49300003052 -1.55900001526 169.0
4.58699989319 1.4620000124 -1.55599999428 169.0
4.58400011063 1.42999994755 -1.5529999733 162.0
4.57100009918 1.39600002766 -1.54600000381 157.0
4.58900022507 1.37000000477 -1.5490000248 154.0
4.61199998856 1.34599995613 -1.55499994755 155.0
4.63000011444 1.32099997997 -1.55799996853 160.0
4.62599992752 1.28900003433 -1.55400002003 150.0
4.62400007248 1.25800001621 -1.55099999905 161.0
4.625 1.22800004482 -1.5490000248 151.0
4.65299987793 1.20500004292 -1.55599999428 155.0
4.68300008774 1.18200004101 -1.56400001049 152.0
4.68400001526 1.15199995041 -1.56200003624 153.0
4.67399978638 1.11899995804 -1.55599999428 147.0
4.67999982834 1.0909999609 -1.55599999428 158.0
4.66900014877 1.05799996853 -1.55099999905 145.0
4.71400022507 1.03900003433 -1.56400001049 141.0
4.69299983978 1.0039999485 -1.55499994755 136.0
4.71000003815 0.977999985218 -1.55900001526 142.0
4.72399997711 0.950999975204 -1.56200003624 130.0
4.73600006104 0.924000024796 -1.56400001049 127.0
4.72800016403 0.89200001955 -1.55900001526 124.0
4.74100017548 0.865000009537 -1.56200003624 123.0
4.72100019455 0.832000017166 -1.55400002003 128.0
4.71799993515 0.801999986172 -1.55099999905 120.0
4.757999897 0.778999984264 -1.56299996376 126.0
4.74900007248 0.748000025749 -1.55900001526 119.0
4.76999998093 0.722000002861 -1.56400001049 122.0
4.78399991989 0.694999992847 -1.56700003147 126.0
4.78900003433 0.666000008583 -1.56799995899 126.0
4.77799987793 0.634999990463 -1.56299996376 117.0
4.75400018692 0.602999985218 -1.55400002003 124.0
4.79099988937 0.57800000906 -1.56500005722 119.0
4.79199981689 0.549000024796 -1.56400001049 117.0
4.78100013733 0.518999993801 -1.55900001526 119.0
4.80800008774 0.493000000715 -1.56700003147 117.0
4.80399990082 0.462999999523 -1.56500005722 112.0
0.0209999997169 0.00300000002608 -0.00600000005215 109.0
0.0209999997169 0.00300000002608 -0.00600000005215 109.0
0.0289999991655 0.00400000018999 -0.00800000037998 108.0
0.0109999999404 0.00200000009499 -0.00300000002608 105.0
4.80100011826 0.317999988794 -1.55999994278 101.0
0.0299999993294 0.00300000002608 -0.00899999961257 98.0
0.0619999989867 0.00499999988824 -0.0189999993891 98.0
4.8109998703 0.231999993324 -1.56099998951 97.0
0.0130000002682 0.00200000009499 -0.00300000002608 96.0
4.8140001297 0.173999994993 -1.56099998951 98.0
4.8060002327 0.144999995828 -1.55799996853 91.0
0.0179999992251 0.00200000009499 -0.00499999988824 96.0
0.0320000015199 0.00200000009499 -0.00899999961257 92.0
0.0130000002682 0.00200000009499 -0.00300000002608 100.0
4.82999992371 0.0299999993294 -1.56500005722 97.0
0.00899999961257 0.00200000009499 -0.00200000009499 94.0
4.8109998703 -0.0270000007004 -1.55799996853 98.0
0.0240000002086 0.0010000000475 -0.00700000021607 96.0
0.666000008583 -0.00899999961257 -0.215000003576 209.0
0.962000012398 -0.019999999553 -0.31099998951 933.0
0.860000014305 -0.0230000000447 -0.277999997139 405.0
0.637000024319 -0.019999999553 -0.204999998212 191.0
0.634999990463 -0.0240000002086 -0.204999998212 190.0
0.619000017643 -0.0270000007004 -0.20000000298 187.0
0.592000007629 -0.0289999991655 -0.190999999642 194.0
0.583999991417 -0.0320000015199 -0.187999993563 193.0
0.638999998569 -0.0390000008047 -0.206000000238 184.0
0.623000025749 -0.0419999994338 -0.201000005007 192.0
0.578999996185 -0.0419999994338 -0.187000006437 190.0
0.610000014305 -0.0480000004172 -0.196999996901 196.0
0.610000014305 -0.0520000010729 -0.196999996901 186.0
0.617999970913 -0.0560000017285 -0.20000000298 186.0
0.600000023842 -0.0579999983311 -0.194000005722 189.0
0.782000005245 -0.082000002265 -0.252999991179 306.0
0.944000005722 -0.104999996722 -0.305999994278 955.0
0.949999988079 -0.111000001431 -0.307999998331 1070.0
0.948000013828 -0.116999998689 -0.307999998331 1072.0
0.945999979973 -0.122000001371 -0.307000011206 1047.0
0.944999992847 -0.12800000608 -0.307000011206 1050.0
0.947000026703 -0.134000003338 -0.307999998331 1037.0
0.943000018597 -0.138999998569 -0.307000011206 1044.0
0.941999971867 -0.144999995828 -0.307000011206 1023.0
0.940999984741 -0.150999993086 -0.305999994278 1027.0
0.939999997616 -0.156000003219 -0.307000011206 1023.0
0.93900001049 -0.162000000477 -0.305999994278 1024.0
0.935000002384 -0.166999995708 -0.305000007153 1024.0
0.934000015259 -0.172999992967 -0.305000007153 1033.0
0.925000011921 -0.177000001073 -0.303000003099 881.0
0.725000023842 -0.142000004649 -0.237000003457 283.0
0.566999971867 -0.11400000006 -0.186000004411 192.0
0.552999973297 -0.11400000006 -0.180999994278 189.0
0.564999997616 -0.120999999344 -0.185000002384 193.0
0.544000029564 -0.119999997318 -0.178000003099 197.0
0.56400001049 -0.127000004053 -0.185000002384 198.0
0.577000021935 -0.134000003338 -0.189999997616 196.0
0.569999992847 -0.136000007391 -0.187999993563 204.0
0.559000015259 -0.136999994516 -0.184000000358 197.0
0.577000021935 -0.144999995828 -0.189999997616 196.0
0.545000016689 -0.141000002623 -0.180000007153 199.0
0.559000015259 -0.148000001907 -0.185000002384 207.0
0.569000005722 -0.153999999166 -0.187999993563 208.0
0.739000022411 -0.207000002265 -0.245000004768 328.0
0.90600001812 -0.259999990463 -0.301999986172 903.0
0.910000026226 -0.266999989748 -0.303000003099 1009.0
0.908999979496 -0.273000001907 -0.303000003099 1019.0
0.907000005245 -0.277999997139 -0.303000003099 1007.0
0.903999984264 -0.284000009298 -0.303000003099 995.0
0.90499997139 -0.289999991655 -0.303999990225 1021.0
0.907999992371 -0.29699999094 -0.305000007153 1019.0
0.897000014782 -0.300000011921 -0.301999986172 1005.0
0.897000014782 -0.305999994278 -0.301999986172 991.0
0.897000014782 -0.312000006437 -0.303000003099 989.0
0.889999985695 -0.316000014544 -0.300999999046 984.0
0.898000001907 -0.324999988079 -0.303999990225 970.0
0.889999985695 -0.32800000906 -0.301999986172 965.0
0.852999985218 -0.319999992847 -0.289999991655 678.0
0.639999985695 -0.244000002742 -0.217999994755 269.0
0.550000011921 -0.212999999523 -0.187000006437 234.0
0.565999984741 -0.223000004888 -0.193000003695 223.0
0.509000003338 -0.203999996185 -0.173999994993 222.0
0.550000011921 -0.22499999404 -0.188999995589 217.0
0.532000005245 -0.221000000834 -0.182999998331 211.0
0.504999995232 -0.212999999523 -0.173999994993 213.0
0.513000011444 -0.221000000834 -0.177000001073 219.0
0.479000002146 -0.209000006318 -0.165999993682 207.0
0.472999989986 -0.209999993443 -0.16400000453 200.0
0.437999993563 -0.196999996901 -0.151999995112 203.0
0.418999999762 -0.192000001669 -0.145999997854 204.0
0.697000026703 -0.32800000906 -0.244000002742 332.0
0.846000015736 -0.405999988317 -0.29699999094 727.0
0.856000006199 -0.416999995708 -0.300999999046 790.0
0.851000010967 -0.421000003815 -0.300000011921 774.0
0.860000014305 -0.432999998331 -0.303999990225 791.0
0.850000023842 -0.433999985456 -0.300999999046 767.0
0.838999986649 -0.43599998951 -0.298000007868 777.0
0.847000002861 -0.446999996901 -0.301999986172 745.0
0.838999986649 -0.449000000954 -0.300000011921 762.0
0.837999999523 -0.456000000238 -0.300999999046 751.0
0.833000004292 -0.460000008345 -0.300000011921 731.0
0.830999970436 -0.465999990702 -0.300000011921 742.0
0.814999997616 -0.463999986649 -0.294999986887 704.0
0.625 -0.358999997377 -0.226999998093 321.0
0.331000000238 -0.190999999642 -0.119999997318 196.0
4.12599992752 2.49399995804 -1.5720000267 275.0
4.14599990845 2.46900010109 -1.57400000095 274.0
4.16599988937 2.44400000572 -1.5759999752 273.0
4.18400001526 2.41899991035 -1.57799994946 279.0
0.00499999988824 0.00200000009499 -0.0010000000475 270.0
4.20399999619 2.35800004005 -1.57500004768 262.0
4.22700023651 2.33500003815 -1.57899999619 259.0
4.23999977112 2.3069999218 -1.57899999619 259.0
0.0140000004321 0.00600000005215 -0.00400000018999 254.0
4.25899982452 2.24699997902 -1.5759999752 255.0
4.28599977493 2.22600007057 -1.58200001717 259.0
4.29500007629 2.19600009918 -1.58000004292 240.0
4.3060002327 2.16599988937 -1.58000004292 247.0
4.32800006866 2.14299988747 -1.58299994469 249.0
4.32000017166 2.10500001907 -1.5759999752 241.0
4.34700012207 2.08400011063 -1.58099997044 236.0
4.35400009155 2.0529999733 -1.58000004292 231.0
4.37300014496 2.02800011635 -1.58200001717 236.0
4.37799978256 1.99699997902 -1.58000004292 233.0
4.36999988556 1.96000003815 -1.57299995422 226.0
0.00700000021607 0.00300000002608 -0.0010000000475 226.0
4.40600013733 1.90999996662 -1.57799994946 233.0
4.4359998703 1.88999998569 -1.58500003815 217.0
4.45200014114 1.86300003529 -1.5870000124 217.0
4.44600009918 1.82799994946 -1.58099997044 214.0
4.45800018311 1.79999995232 -1.58200001717 203.0
4.48799991608 1.77999997139 -1.58899998665 207.0
4.46500015259 1.73800003529 -1.57700002193 198.0
4.47100019455 1.70899999142 -1.5759999752 194.0
4.5110001564 1.69200003147 -1.5870000124 199.0
4.50699996948 1.65799999237 -1.58200001717 189.0
4.51200008392 1.62800002098 -1.58000004292 183.0
4.53200006485 1.60399997234 -1.58399999142 179.0
4.54199981689 1.57500004768 -1.58399999142 177.0
4.54099988937 1.54400002956 -1.58099997044 175.0
4.54300022125 1.51300001144 -1.57899999619 171.0
4.53800010681 1.48000001907 -1.57400000095 170.0
4.57100009918 1.46000003815 -1.58299994469 164.0
4.60300016403 1.43900001049 -1.5909999609 166.0
4.57399988174 1.39900004864 -1.57799994946 164.0
4.59399986267 1.37399995327 -1.58200001717 157.0
4.61100006104 1.34800004959 -1.58599996567 163.0
4.58599996567 1.30999994278 -1.57500004768 158.0
4.632999897 1.29299998283 -1.58800005913 151.0
4.58900022507 1.25 -1.57000005245 155.0
4.617000103 1.22800004482 -1.57799994946 154.0
4.63000011444 1.2009999752 -1.58000004292 151.0
4.6360001564 1.17200005054 -1.57899999619 150.0
4.64300012589 1.14400005341 -1.58000004292 148.0
4.69199991226 1.12600004673 -1.59399998188 150.0
4.69000005722 1.09500002861 -1.5909999609 145.0
4.69299983978 1.06599998474 -1.59000003338 144.0
0.00999999977648 0.00300000002608 -0.00200000009499 140.0
4.6859998703 1.0039999485 -1.58399999142 134.0
0.0240000002086 0.00600000005215 -0.00700000021607 133.0
0.0260000005364 0.00600000005215 -0.00800000037998 131.0
4.72499990463 0.922999978065 -1.59200000763 130.0
4.71299982071 0.89099997282 -1.58599996567 129.0
4.73500013351 0.865000009537 -1.59200000763 126.0
4.7389998436 0.836000025272 -1.5909999609 126.0
4.757999897 0.810000002384 -1.59599995613 134.0
4.72599983215 0.774999976158 -1.58399999142 126.0
0.00700000021607 0.00200000009499 -0.0010000000475 122.0
0.0189999993891 0.00400000018999 -0.00499999988824 120.0
4.74100017548 0.689999997616 -1.58500003815 124.0
4.77199983597 0.665000021458 -1.59399998188 122.0
4.76200008392 0.634000003338 -1.58899998665 121.0
4.77199983597 0.606000006199 -1.5909999609 120.0
0.0120000001043 0.00300000002608 -0.00300000002608 120.0
0.0240000002086 0.00400000018999 -0.00700000021607 119.0
4.76300001144 0.518000006676 -1.58500003815 114.0
4.79099988937 0.49200001359 -1.59300005436 119.0
4.78900003433 0.462000012398 -1.5909999609 117.0
4.76800012589 0.430999994278 -1.58399999142 108.0
4.78800010681 0.404000014067 -1.58899998665 106.0
4.80200004578 0.375999987125 -1.59300005436 109.0
4.76599979401 0.344999998808 -1.58000004292 99.0
4.78200006485 0.317000001669 -1.58500003815 104.0
4.78200006485 0.287999987602 -1.58399999142 101.0
4.79699993134 0.259999990463 -1.58899998665 98.0
4.79300022125 0.231000006199 -1.5870000124 103.0
4.8140001297 0.202999994159 -1.59300005436 100.0
0.0280000008643 0.00300000002608 -0.00800000037998 92.0
4.80700016022 0.144999995828 -1.59000003338 97.0
0.00499999988824 0.00200000009499 -0.0010000000475 96.0
0.0270000007004 0.00200000009499 -0.00800000037998 97.0
0.0179999992251 0.00200000009499 -0.00499999988824 93.0
4.82499980927 0.0299999993294 -1.59500002861 99.0
0.00499999988824 0.00200000009499 -0.0010000000475 89.0
