ply
format ascii 1.0
element vertex 925
property float x
property float y
property float z
property float intensity
end_header
4.44299983978 1.6629999876 -0.605000019073 158.0
4.50099992752 1.65400004387 -0.611999988556 150.0
4.53399991989 1.63499999046 -0.615000009537 142.0
4.46299982071 1.57899999619 -0.603999972343 155.0
4.49300003052 1.55999994278 -0.606999993324 154.0
4.48999977112 1.52900004387 -0.605000019073 156.0
4.49300003052 1.5 -0.603999972343 161.0
4.53200006485 1.48300004005 -0.60900002718 162.0
4.50199985504 1.44400000572 -0.602999985218 156.0
4.47900009155 1.40699994564 -0.598999977112 160.0
4.48500013351 1.37999999523 -0.598999977112 162.0
4.48299980164 1.35000002384 -0.597999989986 159.0
4.47700023651 1.31900000572 -0.596000015736 164.0
4.49399995804 1.29499995708 -0.597000002861 164.0
4.51399993896 1.27199995518 -0.598999977112 169.0
4.47700023651 1.23399996758 -0.592999994755 164.0
4.54799985886 1.22399997711 -0.601000010967 151.0
4.78499984741 1.25800001621 -0.632000029087 125.0
4.80000019073 1.23199999332 -0.633000016212 131.0
4.73799991608 1.18599998951 -0.624000012875 147.0
4.73799991608 1.15699994564 -0.623000025749 156.0
4.75199985504 1.13100004196 -0.624000012875 151.0
4.79199981689 1.11000001431 -0.628000020981 142.0
4.76499986649 1.07500004768 -0.624000012875 144.0
4.81300020218 1.05599999428 -0.629000008106 138.0
4.80499982834 1.02499997616 -0.626999974251 145.0
4.81799983978 0.998000025749 -0.628000020981 142.0
4.84600019455 0.973999977112 -0.630999982357 140.0
4.86600017548 0.949000000954 -0.633000016212 134.0
4.83699989319 0.913999974728 -0.629000008106 140.0
4.84600019455 0.885999977589 -0.629000008106 135.0
4.8639998436 0.860000014305 -0.630999982357 131.0
4.87900018692 0.833999991417 -0.632000029087 135.0
4.90600013733 0.809000015259 -0.634999990463 130.0
4.87200021744 0.773999989033 -0.629999995232 130.0
4.89699983597 0.749000012875 -0.632000029087 128.0
4.91099977493 0.722000002861 -0.633000016212 133.0
4.90399980545 0.691999971867 -0.632000029087 128.0
4.92999982834 0.666000008583 -0.634999990463 130.0
4.95100021362 0.639999985695 -0.637000024319 125.0
4.92199993134 0.606999993324 -0.633000016212 131.0
4.98699998856 0.586000025272 -0.64099997282 129.0
4.94999980927 0.551999986172 -0.634999990463 127.0
4.95800018311 0.523999989033 -0.635999977589 126.0
4.96400022507 0.495999991894 -0.635999977589 126.0
5.00500011444 0.469999998808 -0.64099997282 115.0
0.143999993801 0.0140000004321 -0.0179999992251 84.0
0.305000007153 0.0260000005364 -0.0390000008047 75.0
0.418000012636 0.0329999998212 -0.0529999993742 85.0
0.437000006437 0.0320000015199 -0.0560000017285 83.0
0.319999992847 0.0219999998808 -0.0410000011325 82.0
0.24699999392 0.01600000076 -0.0320000015199 73.0
0.208000004292 0.0120000001043 -0.0270000007004 72.0
0.185000002384 0.00999999977648 -0.0240000002086 71.0
0.141000002623 0.00700000021607 -0.0179999992251 66.0
0.204999998212 0.00899999961257 -0.0260000005364 64.0
0.224000006914 0.00800000037998 -0.0280000008643 68.0
0.185000002384 0.00600000005215 -0.0240000002086 64.0
0.279000014067 0.00700000021607 -0.035000000149 63.0
0.203999996185 0.00400000018999 -0.0260000005364 65.0
0.27500000596 0.00300000002608 -0.035000000149 68.0
0.259000003338 0.00200000009499 -0.0329999998212 66.0
0.252999991179 0.0 -0.0320000015199 70.0
0.22499999404 0.0 -0.0289999991655 67.0
0.855000019073 -0.0109999999404 -0.108999997377 230.0
0.986999988556 -0.0189999993891 -0.125 1072.0
0.991999983788 -0.0250000003725 -0.126000002027 1192.0
0.989000022411 -0.0309999994934 -0.126000002027 1184.0
0.987999975681 -0.0359999984503 -0.125 1193.0
0.990999996662 -0.0419999994338 -0.126000002027 1204.0
0.98299998045 -0.0480000004172 -0.125 1226.0
0.981000006199 -0.0529999993742 -0.125 1216.0
0.986000001431 -0.0590000003576 -0.125 1215.0
0.98299998045 -0.0649999976158 -0.125 1229.0
0.985000014305 -0.0710000023246 -0.125 1235.0
0.978999972343 -0.0759999975562 -0.123999997973 1233.0
0.981000006199 -0.082000002265 -0.125 1253.0
0.978999972343 -0.0869999974966 -0.123999997973 1240.0
0.976999998093 -0.0930000022054 -0.123999997973 1254.0
0.978999972343 -0.097999997437 -0.123999997973 1249.0
0.921000003815 -0.097999997437 -0.116999998689 553.0
0.791999995708 -0.0879999995232 -0.101000003517 206.0
0.76599997282 -0.0900000035763 -0.097000002861 199.0
0.737999975681 -0.0909999981523 -0.0939999967813 201.0
0.787999987602 -0.101999998093 -0.10000000149 202.0
0.75 -0.101000003517 -0.0960000008345 198.0
0.754999995232 -0.105999998748 -0.0960000008345 205.0
0.751999974251 -0.109999999404 -0.0960000008345 207.0
0.750999987125 -0.11400000006 -0.0960000008345 210.0
0.776000022888 -0.123000003397 -0.0989999994636 212.0
0.768999993801 -0.126000002027 -0.097999997437 215.0
0.758000016212 -0.128999993205 -0.097000002861 212.0
0.759999990463 -0.134000003338 -0.097000002861 214.0
0.76599997282 -0.140000000596 -0.097999997437 219.0
0.920000016689 -0.173999994993 -0.118000000715 569.0
0.952000021935 -0.186000004411 -0.122000001371 1312.0
0.955999970436 -0.193000003695 -0.123000003397 1375.0
0.949999988079 -0.196999996901 -0.122000001371 1387.0
0.952000021935 -0.202999994159 -0.122000001371 1391.0
0.952000021935 -0.209000006318 -0.122000001371 1399.0
0.948000013828 -0.21400000155 -0.122000001371 1403.0
0.948000013828 -0.219999998808 -0.122000001371 1404.0
0.945999979973 -0.22499999404 -0.122000001371 1426.0
0.945999979973 -0.231000006199 -0.122000001371 1413.0
0.944000005722 -0.236000001431 -0.122000001371 1413.0
0.941999971867 -0.241999998689 -0.122000001371 1425.0
0.938000023365 -0.24699999392 -0.120999999344 1437.0
0.938000023365 -0.252000004053 -0.122000001371 1432.0
0.934000015259 -0.256999999285 -0.120999999344 1356.0
0.852999985218 -0.239999994636 -0.111000001431 444.0
0.742999970913 -0.212999999523 -0.097000002861 237.0
0.760999977589 -0.223000004888 -0.0989999994636 235.0
0.753000020981 -0.225999996066 -0.097999997437 231.0
0.722000002861 -0.221000000834 -0.0939999967813 231.0
0.736999988556 -0.230000004172 -0.0960000008345 227.0
0.722999989986 -0.231000006199 -0.0949999988079 232.0
0.717000007629 -0.232999995351 -0.0939999967813 234.0
0.723999977112 -0.240999996662 -0.0949999988079 230.0
0.731999993324 -0.247999995947 -0.0960000008345 231.0
0.727999985218 -0.252000004053 -0.0960000008345 232.0
0.694999992847 -0.244000002742 -0.0920000001788 233.0
0.704999983311 -0.252999991179 -0.0930000022054 237.0
0.726000010967 -0.264999985695 -0.0960000008345 246.0
0.90600001812 -0.337999999523 -0.119999997318 1116.0
0.912999987602 -0.347000002861 -0.120999999344 1475.0
0.911000013351 -0.352999985218 -0.120999999344 1490.0
0.910000026226 -0.358999997377 -0.120999999344 1500.0
0.908999979496 -0.365000009537 -0.120999999344 1507.0
0.908999979496 -0.370999991894 -0.122000001371 1504.0
0.907999992371 -0.377000004053 -0.122000001371 1500.0
0.90600001812 -0.38299998641 -0.122000001371 1512.0
0.903999984264 -0.388000011444 -0.122000001371 1513.0
0.897000014782 -0.391999989748 -0.120999999344 1512.0
0.901000022888 -0.40000000596 -0.122000001371 1507.0
0.897000014782 -0.405000001192 -0.122000001371 1522.0
0.898000001907 -0.412000000477 -0.122000001371 1515.0
0.874000012875 -0.407000005245 -0.119000002742 1211.0
0.757000029087 -0.356999993324 -0.103000000119 355.0
0.658999979496 -0.316000014544 -0.0900000035763 248.0
0.634000003338 -0.307999998331 -0.0869999974966 246.0
0.658999979496 -0.326000005007 -0.0909999981523 249.0
0.639999985695 -0.321000009775 -0.0879999995232 245.0
0.65600001812 -0.333999991417 -0.0909999981523 250.0
0.624000012875 -0.321999996901 -0.0860000029206 246.0
0.60900002718 -0.319999992847 -0.0839999988675 249.0
0.628000020981 -0.335000008345 -0.0869999974966 239.0
0.620999991894 -0.33599999547 -0.0869999974966 247.0
0.619000017643 -0.340000003576 -0.0869999974966 248.0
0.588999986649 -0.32800000906 -0.082999996841 247.0
4.30000019073 2.48600006104 -0.660000026226 128.0
4.27600002289 2.43600010872 -0.653999984264 107.0
4.33900022507 2.43600010872 -0.661000013351 124.0
4.38399982452 2.42499995232 -0.666000008583 124.0
4.28599977493 2.33599996567 -0.648999989033 117.0
4.39400005341 2.3599998951 -0.662999987602 138.0
4.34399986267 2.29800009727 -0.653999984264 131.0
4.39400005341 2.28999996185 -0.658999979496 120.0
4.4279999733 2.27300000191 -0.662000000477 135.0
4.41200017929 2.23000001907 -0.657999992371 134.0
4.08500003815 2.03299999237 -0.606999993324 131.0
4.23799991608 2.07699990273 -0.628000020981 129.0
4.33400011063 2.09100008011 -0.64099997282 133.0
4.41499996185 2.09699988365 -0.651000022888 143.0
4.32000017166 2.01900005341 -0.634999990463 157.0
4.21799993515 1.94000005722 -0.617999970913 180.0
4.29500007629 1.94400000572 -0.628000020981 160.0
4.34299993515 1.93400001526 -0.633000016212 172.0
4.30900001526 1.88699996471 -0.626999974251 181.0
4.44299983978 1.91400003433 -0.644999980927 167.0
4.41800022125 1.8710000515 -0.639999985695 155.0
4.46199989319 1.85800004005 -0.643999993801 150.0
4.50899982452 1.84500002861 -0.649999976158 149.0
4.55100011826 1.83000004292 -0.653999984264 142.0
4.56199979782 1.8029999733 -0.653999984264 134.0
4.57899999619 1.77799999714 -0.65499997139 127.0
4.57399988174 1.74399995804 -0.652999997139 136.0
4.56799983978 1.71099996567 -0.651000022888 133.0
4.54799985886 1.67200005054 -0.646000027657 138.0
4.53100013733 1.63499999046 -0.643000006676 132.0
4.55200004578 1.61199998856 -0.643999993801 124.0
4.60099983215 1.59800004959 -0.649999976158 117.0
4.56500005722 1.55499994755 -0.643999993801 113.0
4.58300018311 1.53100001812 -0.644999980927 118.0
4.57499980927 1.49800002575 -0.643000006676 124.0
4.5529999733 1.46099996567 -0.638000011444 136.0
4.57000017166 1.43599998951 -0.638999998569 144.0
4.53399991989 1.39499998093 -0.633000016212 145.0
4.53000020981 1.36500000954 -0.632000029087 152.0
4.50099992752 1.32700002193 -0.625999987125 166.0
4.53200006485 1.30700004101 -0.629999995232 161.0
4.48400020599 1.26499998569 -0.621999979019 163.0
4.52400016785 1.24699997902 -0.626999974251 164.0
4.55999994278 1.22800004482 -0.630999982357 144.0
4.78100013733 1.25699996948 -0.660000026226 125.0
4.77299976349 1.22599995136 -0.657999992371 130.0
4.74900007248 1.18900001049 -0.653999984264 148.0
4.73400020599 1.15600001812 -0.651000022888 155.0
4.77500009537 1.13600003719 -0.65499997139 148.0
4.77899980545 1.10800004005 -0.65499997139 150.0
4.8060002327 1.08500003815 -0.657999992371 149.0
4.79899978638 1.0529999733 -0.65600001812 137.0
4.80000019073 1.02400004864 -0.65499997139 137.0
4.81699991226 0.998000025749 -0.657000005245 140.0
4.8220000267 0.97000002861 -0.657000005245 137.0
4.84299993515 0.944999992847 -0.658999979496 140.0
4.85900020599 0.917999982834 -0.660000026226 134.0
4.84000015259 0.885999977589 -0.657000005245 139.0
4.86600017548 0.861000001431 -0.660000026226 136.0
4.88199996948 0.834999978542 -0.661000013351 132.0
4.86299991608 0.801999986172 -0.657999992371 133.0
4.88700008392 0.777000010014 -0.661000013351 140.0
4.88999986649 0.748000025749 -0.660000026226 135.0
4.92299985886 0.723999977112 -0.663999974728 129.0
4.90100002289 0.691999971867 -0.661000013351 132.0
4.91200017929 0.663999974728 -0.662000000477 137.0
4.9390001297 0.638999998569 -0.665000021458 134.0
4.92899990082 0.60799998045 -0.662999987602 138.0
4.95100021362 0.582000017166 -0.665000021458 130.0
4.95100021362 0.551999986172 -0.665000021458 127.0
4.9439997673 0.523000001907 -0.662999987602 131.0
4.96700000763 0.495999991894 -0.666000008583 133.0
4.97100019455 0.467000007629 -0.666000008583 114.0
0.0920000001788 0.00899999961257 -0.0120000001043 81.0
0.189999997616 0.0170000009239 -0.0250000003725 78.0
0.41400000453 0.0329999998212 -0.054999999702 82.0
0.423000007868 0.0309999994934 -0.0570000000298 87.0
0.354000002146 0.0240000002086 -0.0469999983907 83.0
0.135000005364 0.00899999961257 -0.0179999992251 73.0
0.166999995708 0.00999999977648 -0.0219999998808 77.0
0.0860000029206 0.00600000005215 -0.0109999999404 73.0
0.189999997616 0.00899999961257 -0.0250000003725 71.0
0.182999998331 0.00800000037998 -0.0240000002086 70.0
0.15000000596 0.00600000005215 -0.019999999553 74.0
0.195999994874 0.00600000005215 -0.0260000005364 74.0
0.138999998569 0.00400000018999 -0.0179999992251 69.0
0.104999996722 0.00300000002608 -0.0140000004321 71.0
0.202999994159 0.00300000002608 -0.0270000007004 68.0
0.123999997973 0.00200000009499 -0.01600000076 71.0
0.184000000358 0.0010000000475 -0.0240000002086 72.0
0.180000007153 0.0 -0.0240000002086 71.0
0.874000012875 -0.0120000001043 -0.115999996662 236.0
0.991999983788 -0.0189999993891 -0.131999999285 1070.0
0.985000014305 -0.0250000003725 -0.130999997258 1077.0
0.985000014305 -0.0309999994934 -0.130999997258 1089.0
0.98400002718 -0.0359999984503 -0.130999997258 1093.0
0.981000006199 -0.0419999994338 -0.129999995232 1115.0
0.977999985218 -0.0469999983907 -0.129999995232 1156.0
0.980000019073 -0.0529999993742 -0.129999995232 1159.0
0.981999993324 -0.0590000003576 -0.129999995232 1184.0
0.98299998045 -0.0649999976158 -0.130999997258 1192.0
0.981000006199 -0.070000000298 -0.129999995232 1214.0
0.978999972343 -0.0759999975562 -0.129999995232 1226.0
0.980000019073 -0.082000002265 -0.129999995232 1233.0
0.975000023842 -0.0869999974966 -0.129999995232 1232.0
0.977999985218 -0.0930000022054 -0.129999995232 1247.0
0.972999989986 -0.097999997437 -0.129999995232 1239.0
0.913999974728 -0.097000002861 -0.122000001371 526.0
0.750999987125 -0.0839999988675 -0.10000000149 213.0
0.771000027657 -0.0909999981523 -0.103000000119 211.0
0.782999992371 -0.097000002861 -0.104000002146 205.0
0.773999989033 -0.10000000149 -0.103000000119 214.0
0.758000016212 -0.101999998093 -0.101000003517 208.0
0.77999997139 -0.109999999404 -0.104000002146 212.0
0.759999990463 -0.112000003457 -0.101000003517 214.0
0.758000016212 -0.115999996662 -0.101000003517 213.0
0.762000024319 -0.120999999344 -0.101999998093 211.0
0.745999991894 -0.123000003397 -0.10000000149 218.0
0.762000024319 -0.129999995232 -0.101999998093 218.0
0.751999974251 -0.133000001311 -0.101000003517 216.0
0.772000014782 -0.141000002623 -0.103000000119 218.0
0.915000021458 -0.172999992967 -0.123000003397 588.0
0.955999970436 -0.187000006437 -0.12800000608 1329.0
0.952000021935 -0.192000001669 -0.12800000608 1384.0
0.955999970436 -0.199000000954 -0.12800000608 1382.0
0.955999970436 -0.203999996185 -0.128999993205 1406.0
0.950999975204 -0.209000006318 -0.12800000608 1396.0
0.952000021935 -0.215000003576 -0.12800000608 1390.0
0.950999975204 -0.221000000834 -0.12800000608 1403.0
0.944999992847 -0.22499999404 -0.127000004053 1414.0
0.944999992847 -0.231000006199 -0.12800000608 1419.0
0.944000005722 -0.236000001431 -0.12800000608 1419.0
0.939999997616 -0.240999996662 -0.127000004053 1434.0
0.943000018597 -0.247999995947 -0.12800000608 1427.0
0.940999984741 -0.254000008106 -0.12800000608 1429.0
0.93900001049 -0.259000003338 -0.127000004053 1340.0
0.848999977112 -0.238999992609 -0.115000002086 431.0
0.722999989986 -0.208000004292 -0.097999997437 242.0
0.745000004768 -0.218999996781 -0.101000003517 237.0
0.712000012398 -0.212999999523 -0.097000002861 230.0
0.708999991417 -0.216999992728 -0.097000002861 233.0
0.742999970913 -0.232999995351 -0.101999998093 228.0
0.722000002861 -0.231000006199 -0.0989999994636 237.0
0.73299998045 -0.238999992609 -0.101000003517 234.0
0.737999975681 -0.245000004768 -0.101000003517 234.0
0.716000020504 -0.243000000715 -0.0989999994636 232.0
0.75 -0.259000003338 -0.103000000119 234.0
0.697000026703 -0.245000004768 -0.0960000008345 229.0
0.70300000906 -0.252000004053 -0.097000002861 237.0
0.76700001955 -0.280999988317 -0.105999998748 268.0
0.90600001812 -0.338999986649 -0.126000002027 1151.0
0.910000026226 -0.345999985933 -0.126000002027 1474.0
0.912999987602 -0.354000002146 -0.127000004053 1492.0
0.912999987602 -0.360000014305 -0.127000004053 1511.0
0.912000000477 -0.365999996662 -0.12800000608 1508.0
0.903999984264 -0.368999987841 -0.127000004053 1507.0
0.907000005245 -0.377000004053 -0.127000004053 1504.0
0.902000010014 -0.381000012159 -0.127000004053 1513.0
0.898000001907 -0.386000007391 -0.126000002027 1514.0
0.898000001907 -0.393000006676 -0.127000004053 1503.0
0.897000014782 -0.398999989033 -0.127000004053 1500.0
0.893999993801 -0.404000014067 -0.127000004053 1510.0
0.897000014782 -0.412000000477 -0.12800000608 1506.0
0.882000029087 -0.412000000477 -0.126000002027 1159.0
0.757000029087 -0.358000010252 -0.108000002801 338.0
0.67199999094 -0.321999996901 -0.0960000008345 243.0
0.661000013351 -0.321999996901 -0.0949999988079 243.0
0.64099997282 -0.317000001669 -0.0920000001788 251.0
0.661000013351 -0.331999987364 -0.0949999988079 243.0
0.649999976158 -0.331999987364 -0.0939999967813 247.0
0.658999979496 -0.340999990702 -0.0949999988079 242.0
0.610000014305 -0.321000009775 -0.0890000015497 233.0
0.623000025749 -0.333000004292 -0.0909999981523 245.0
0.639999985695 -0.347000002861 -0.0930000022054 248.0
0.580999970436 -0.319000005722 -0.0850000008941 252.0
0.59500002861 -0.331999987364 -0.0869999974966 257.0
4.31699991226 2.49799990654 -0.690999984741 126.0
4.27400016785 2.43700003624 -0.681999981403 113.0
4.34800004959 2.44400000572 -0.691999971867 140.0
4.36800003052 2.41799998283 -0.691999971867 132.0
4.31599998474 2.35500001907 -0.681999981403 117.0
4.38999986649 2.3599998951 -0.691999971867 133.0
4.40399980545 2.33200001717 -0.691999971867 129.0
4.36000013351 2.27399992943 -0.683000028133 120.0
4.44999980927 2.28600001335 -0.694999992847 141.0
4.40199995041 2.22699999809 -0.685000002384 132.0
4.19099998474 2.08800005913 -0.649999976158 133.0
4.19799995422 2.05900001526 -0.649999976158 134.0
4.34000015259 2.09500002861 -0.670000016689 134.0
4.382999897 2.08299994469 -0.674000024796 147.0
4.32399988174 2.02300000191 -0.663999974728 159.0
4.2389998436 1.9509999752 -0.648999989033 175.0
4.30999994278 1.95200002193 -0.657999992371 165.0
4.34899997711 1.93799996376 -0.662000000477 167.0
4.32499980927 1.89600002766 -0.657000005245 187.0
4.40600013733 1.89900004864 -0.666999995708 148.0
4.49599981308 1.90499997139 -0.679000020027 137.0
4.53200006485 1.88800001144 -0.683000028133 129.0
4.55000019073 1.86300003529 -0.684000015259 124.0
4.5640001297 1.8370000124 -0.685000002384 135.0
4.55800008774 1.8029999733 -0.681999981403 134.0
4.58799982071 1.78299999237 -0.685000002384 128.0
4.58900022507 1.75100004673 -0.684000015259 133.0
4.5689997673 1.7120000124 -0.679000020027 132.0
4.58599996567 1.68700003624 -0.680000007153 130.0
4.54199981689 1.63999998569 -0.67199999094 120.0
4.60900020599 1.63300001621 -0.680999994278 119.0
4.59800004959 1.59800004959 -0.677999973297 128.0
4.65600013733 1.5870000124 -0.685000002384 122.0
4.64900016785 1.55400002003 -0.683000028133 122.0
4.55399990082 1.49199998379 -0.667999982834 110.0
4.68200016022 1.50300002098 -0.685000002384 121.0
4.617000103 1.45200002193 -0.674000024796 122.0
4.63399982452 1.42700004578 -0.675999999046 117.0
4.64499998093 1.39999997616 -0.675999999046 113.0
4.5529999733 1.34300005436 -0.662000000477 143.0
4.50199985504 1.2990000248 -0.652999997139 160.0
4.48999977112 1.26699995995 -0.649999976158 161.0
4.48699998856 1.23800003529 -0.648999989033 168.0
4.57600021362 1.23300004005 -0.661000013351 144.0
4.77199983597 1.25600004196 -0.688000023365 120.0
4.79199981689 1.23099994659 -0.689999997616 122.0
4.76200008392 1.19400000572 -0.684000015259 148.0
4.7389998436 1.15799999237 -0.680000007153 150.0
4.78700017929 1.13999998569 -0.68599998951 151.0
4.75199985504 1.10199999809 -0.680000007153 143.0
4.78800010681 1.08099997044 -0.684000015259 140.0
4.80999994278 1.05599999428 -0.686999976635 145.0
4.80900001526 1.02699995041 -0.68599998951 149.0
4.82100009918 1.0 -0.68599998951 139.0
4.81199979782 0.967999994755 -0.684000015259 138.0
4.82700014114 0.941999971867 -0.68599998951 140.0
4.86499977112 0.920000016689 -0.689999997616 138.0
4.85799980164 0.889999985695 -0.68900001049 135.0
4.86899995804 0.861999988556 -0.68900001049 136.0
4.88899993896 0.836000025272 -0.691999971867 132.0
4.89099979401 0.806999981403 -0.690999984741 133.0
4.88399982452 0.777000010014 -0.68900001049 136.0
4.88199996948 0.746999979019 -0.688000023365 129.0
4.89900016785 0.721000015736 -0.689999997616 132.0
4.91800022125 0.694000005722 -0.691999971867 133.0
4.90799999237 0.663999974728 -0.689999997616 135.0
4.92500019073 0.637000024319 -0.691999971867 134.0
4.92399978638 0.60799998045 -0.690999984741 134.0
4.94199991226 0.580999970436 -0.693000018597 131.0
4.95900011063 0.554000020027 -0.694999992847 137.0
4.94899988174 0.523000001907 -0.693000018597 132.0
4.95200014114 0.495000004768 -0.693000018597 135.0
5.00699996948 0.470999985933 -0.699999988079 121.0
0.127000004053 0.0120000001043 -0.0179999992251 85.0
0.140000000596 0.0130000002682 -0.0189999993891 80.0
0.282000005245 0.0230000000447 -0.0390000008047 86.0
0.287999987602 0.0219999998808 -0.0399999991059 80.0
0.141000002623 0.00999999977648 -0.019999999553 77.0
0.104999996722 0.00700000021607 -0.0149999996647 78.0
0.125 0.00700000021607 -0.0170000009239 70.0
0.108999997377 0.00600000005215 -0.0149999996647 82.0
0.173999994993 0.00800000037998 -0.0240000002086 80.0
0.168999999762 0.00700000021607 -0.0230000000447 73.0
0.109999999404 0.00400000018999 -0.0149999996647 70.0
0.109999999404 0.00400000018999 -0.0149999996647 73.0
0.119000002742 0.00300000002608 -0.01600000076 75.0
0.16099999845 0.00300000002608 -0.0219999998808 69.0
0.159999996424 0.00200000009499 -0.0219999998808 71.0
0.171000003815 0.0010000000475 -0.0240000002086 70.0
0.158999994397 0.0 -0.0219999998808 73.0
0.879999995232 -0.0120000001043 -0.122000001371 259.0
0.978999972343 -0.0189999993891 -0.136000007391 1024.0
0.930000007153 -0.0230000000447 -0.128999993205 467.0
0.884999990463 -0.0270000007004 -0.123000003397 315.0
0.887000024319 -0.0329999998212 -0.123000003397 331.0
0.915000021458 -0.0390000008047 -0.127000004053 352.0
0.907000005245 -0.0439999997616 -0.126000002027 384.0
0.912999987602 -0.0489999987185 -0.127000004053 415.0
0.922999978065 -0.054999999702 -0.12800000608 449.0
0.935000002384 -0.0619999989867 -0.129999995232 488.0
0.930999994278 -0.0670000016689 -0.128999993205 534.0
0.943000018597 -0.0729999989271 -0.130999997258 568.0
0.949000000954 -0.0790000036359 -0.131999999285 601.0
0.939999997616 -0.0839999988675 -0.130999997258 639.0
0.95300000906 -0.0900000035763 -0.131999999285 679.0
0.95300000906 -0.0960000008345 -0.131999999285 713.0
0.949000000954 -0.101000003517 -0.131999999285 689.0
0.930999994278 -0.104999996722 -0.128999993205 654.0
0.925000011921 -0.108999997377 -0.128999993205 635.0
0.93599998951 -0.115999996662 -0.129999995232 592.0
0.92199999094 -0.119999997318 -0.12800000608 559.0
0.915000021458 -0.123999997973 -0.127000004053 537.0
0.916000008583 -0.129999995232 -0.12800000608 511.0
0.902000010014 -0.133000001311 -0.126000002027 478.0
0.901000022888 -0.137999996543 -0.126000002027 455.0
0.893999993801 -0.143000006676 -0.125 437.0
0.893000006676 -0.148000001907 -0.125 420.0
0.879999995232 -0.150999993086 -0.123000003397 398.0
0.871999979019 -0.155000001192 -0.122000001371 390.0
0.869000017643 -0.158999994397 -0.122000001371 377.0
0.925000011921 -0.17499999702 -0.128999993205 676.0
0.949000000954 -0.186000004411 -0.133000001311 1191.0
0.947000026703 -0.190999999642 -0.133000001311 1242.0
0.948000013828 -0.196999996901 -0.133000001311 1259.0
0.947000026703 -0.202999994159 -0.133000001311 1279.0
0.944999992847 -0.208000004292 -0.133000001311 1279.0
0.945999979973 -0.21400000155 -0.133000001311 1298.0
0.944999992847 -0.218999996781 -0.133000001311 1308.0
0.944000005722 -0.22499999404 -0.133000001311 1327.0
0.939999997616 -0.230000004172 -0.133000001311 1340.0
0.935000002384 -0.233999997377 -0.131999999285 1349.0
0.939999997616 -0.241999998689 -0.133000001311 1366.0
0.93599998951 -0.246000006795 -0.131999999285 1371.0
0.935000002384 -0.252000004053 -0.131999999285 1370.0
0.927999973297 -0.256000012159 -0.131999999285 1266.0
0.847999989986 -0.238999992609 -0.119999997318 403.0
0.769999980927 -0.222000002861 -0.109999999404 267.0
0.77999997139 -0.229000002146 -0.111000001431 268.0
0.768999993801 -0.231000006199 -0.109999999404 264.0
0.763999998569 -0.233999997377 -0.108999997377 267.0
0.755999982357 -0.237000003457 -0.108000002801 275.0
0.802999973297 -0.256999999285 -0.115000002086 261.0
0.759999990463 -0.247999995947 -0.108999997377 266.0
0.757000029087 -0.252000004053 -0.108999997377 269.0
0.748000025749 -0.254000008106 -0.108000002801 268.0
0.748000025749 -0.259000003338 -0.108000002801 262.0
0.741999983788 -0.261999994516 -0.107000000775 259.0
0.755999982357 -0.272000014782 -0.108999997377 260.0
0.77999997139 -0.286000013351 -0.112999998033 305.0
0.907999992371 -0.340000003576 -0.131999999285 1181.0
0.912000000477 -0.347000002861 -0.131999999285 1433.0
0.910000026226 -0.352999985218 -0.131999999285 1464.0
0.915000021458 -0.361000001431 -0.133000001311 1462.0
0.902000010014 -0.361999988556 -0.131999999285 1468.0
0.902000010014 -0.368999987841 -0.131999999285 1454.0
0.901000022888 -0.375 -0.131999999285 1477.0
0.90499997139 -0.38299998641 -0.133000001311 1475.0
0.902999997139 -0.388000011444 -0.133000001311 1464.0
0.898999989033 -0.393000006676 -0.133000001311 1477.0
0.899999976158 -0.40000000596 -0.133000001311 1448.0
0.894999980927 -0.405000001192 -0.133000001311 1473.0
0.893999993801 -0.411000013351 -0.133000001311 1474.0
0.869000017643 -0.405999988317 -0.128999993205 1076.0
0.763999998569 -0.361999988556 -0.11400000006 356.0
0.716000020504 -0.344000011683 -0.107000000775 289.0
0.699999988079 -0.340999990702 -0.104999996722 292.0
0.712999999523 -0.354000002146 -0.107000000775 286.0
0.694000005722 -0.349000006914 -0.104000002146 291.0
0.688000023365 -0.351000010967 -0.104000002146 291.0
0.661000013351 -0.342999994755 -0.10000000149 285.0
0.677999973297 -0.356999993324 -0.103000000119 300.0
0.689999997616 -0.368999987841 -0.104999996722 309.0
0.690999984741 -0.375 -0.104999996722 301.0
0.675999999046 -0.372000008821 -0.103000000119 313.0
0.689999997616 -0.386000007391 -0.105999998748 316.0
4.34000015259 2.51300001144 -0.723999977112 134.0
4.30999994278 2.46000003815 -0.717000007629 130.0
4.36199998856 2.45300006866 -0.722999989986 144.0
4.35300016403 2.41300010681 -0.71899998188 141.0
4.34200000763 2.3710000515 -0.714999973774 124.0
4.41300010681 2.37400007248 -0.723999977112 140.0
0.00700000021607 0.00300000002608 -0.0010000000475 132.0
4.4359998703 2.31500005722 -0.723999977112 130.0
4.47499990463 2.30100011826 -0.727999985218 138.0
4.43800020218 2.24699997902 -0.72000002861 141.0
4.23699998856 2.11199998856 -0.685000002384 126.0
4.28599977493 2.10400009155 -0.690999984741 125.0
4.36000013351 2.10700011253 -0.700999975204 139.0
4.45200014114 2.11800003052 -0.713999986649 134.0
4.4470000267 2.08200001717 -0.711000025272 143.0
4.31699991226 1.98899996281 -0.68900001049 165.0
4.36499977112 1.97800004482 -0.694000005722 158.0
4.375 1.9509999752 -0.694000005722 158.0
4.34100008011 1.90400004387 -0.686999976635 169.0
4.44799995422 1.91900002956 -0.702000021935 149.0
4.52699995041 1.91999995708 -0.712999999523 131.0
4.53700017929 1.89199995995 -0.712999999523 122.0
4.51900005341 1.85199999809 -0.708000004292 122.0
4.52899980545 1.82400000095 -0.708000004292 130.0
4.52299976349 1.78999996185 -0.704999983311 121.0
4.50699996948 1.75199997425 -0.700999975204 126.0
4.51800012589 1.72500002384 -0.702000021935 123.0
4.52299976349 1.69599997997 -0.700999975204 123.0
4.59100008011 1.69000005722 -0.709999978542 119.0
4.54500007629 1.64199995995 -0.700999975204 118.0
4.59800004959 1.62999999523 -0.708000004292 116.0
4.57600021362 1.59200000763 -0.70300000906 118.0
4.59299993515 1.56700003147 -0.703999996185 113.0
4.60799980164 1.54100000858 -0.704999983311 119.0
4.57800006866 1.50100004673 -0.699000000954 112.0
4.58099985123 1.47200000286 -0.699000000954 110.0
4.60300016403 1.44900000095 -0.700999975204 110.0
4.66200017929 1.43700003624 -0.708000004292 105.0
4.67500019073 1.40999996662 -0.708999991417 106.0
4.60699987411 1.36000001431 -0.698000013828 131.0
4.50299978256 1.29999995232 -0.680999994278 160.0
4.492000103 1.26900005341 -0.677999973297 162.0
4.51499986649 1.2460000515 -0.680000007153 164.0
4.55100011826 1.22699999809 -0.685000002384 147.0
4.77799987793 1.25800001621 -0.717999994755 124.0
4.80100011826 1.23399996758 -0.72000002861 133.0
4.76399993896 1.19500005245 -0.713999986649 149.0
4.75400018692 1.1629999876 -0.711000025272 154.0
4.77500009537 1.13800001144 -0.712999999523 145.0
4.80900001526 1.11600005627 -0.717000007629 147.0
4.76999998093 1.07799994946 -0.711000025272 138.0
4.78100013733 1.05099999905 -0.711000025272 138.0
4.80200004578 1.02600002289 -0.712999999523 140.0
4.80100011826 0.995999991894 -0.712000012398 140.0
4.78399991989 0.963999986649 -0.708999991417 140.0
4.82399988174 0.941999971867 -0.713999986649 139.0
4.84999990463 0.917999982834 -0.717000007629 135.0
4.84399986267 0.887000024319 -0.716000020504 131.0
4.87799978256 0.864000022411 -0.72000002861 136.0
4.87900018692 0.834999978542 -0.71899998188 138.0
4.86800003052 0.804000020027 -0.717000007629 137.0
4.88999986649 0.777999997139 -0.71899998188 133.0
4.8860001564 0.748000025749 -0.717999994755 135.0
4.91699981689 0.723999977112 -0.722000002861 132.0
4.90399980545 0.693000018597 -0.72000002861 138.0
4.90600013733 0.663999974728 -0.71899998188 134.0
4.92199993134 0.637000024319 -0.721000015736 136.0
4.94299983978 0.610000014305 -0.722999989986 134.0
4.94500017166 0.580999970436 -0.722999989986 140.0
4.92000007629 0.549000024796 -0.71899998188 135.0
4.93800020218 0.522000014782 -0.721000015736 137.0
4.96199989319 0.495999991894 -0.723999977112 133.0
4.95699977875 0.465999990702 -0.722999989986 118.0
0.134000003338 0.0130000002682 -0.0189999993891 90.0
0.215000003576 0.0189999993891 -0.0309999994934 82.0
0.186000004411 0.01600000076 -0.0270000007004 82.0
0.149000003934 0.0120000001043 -0.0219999998808 88.0
0.172999992967 0.0130000002682 -0.0250000003725 82.0
0.136000007391 0.00899999961257 -0.019999999553 90.0
0.125 0.00800000037998 -0.0179999992251 82.0
0.134000003338 0.00800000037998 -0.0189999993891 86.0
0.12800000608 0.00700000021607 -0.0179999992251 95.0
0.146999999881 0.00700000021607 -0.0209999997169 88.0
0.192000001669 0.00700000021607 -0.0280000008643 83.0
0.104000002146 0.00400000018999 -0.0149999996647 81.0
0.182999998331 0.00499999988824 -0.0260000005364 84.0
0.166999995708 0.00400000018999 -0.0240000002086 82.0
0.229000002146 0.00300000002608 -0.0329999998212 86.0
0.122000001371 0.00200000009499 -0.0179999992251 69.0
0.112999998033 0.0010000000475 -0.01600000076 73.0
0.165000006557 0.0 -0.0240000002086 71.0
0.873000025749 -0.0120000001043 -0.126000002027 270.0
0.98299998045 -0.0189999993891 -0.142000004649 1013.0
0.893999993801 -0.0230000000447 -0.128999993205 360.0
0.742999970913 -0.0230000000447 -0.107000000775 190.0
0.76599997282 -0.0280000008643 -0.111000001431 190.0
0.745000004768 -0.0309999994934 -0.108000002801 182.0
0.745000004768 -0.035000000149 -0.108000002801 191.0
0.754999995232 -0.0399999991059 -0.108999997377 189.0
0.740999996662 -0.0439999997616 -0.107000000775 196.0
0.76599997282 -0.0500000007451 -0.111000001431 199.0
0.774999976158 -0.054999999702 -0.112000003457 202.0
0.748000025749 -0.0570000000298 -0.108000002801 195.0
0.751999974251 -0.0619999989867 -0.108999997377 202.0
0.753000020981 -0.0659999996424 -0.108999997377 211.0
0.763000011444 -0.0719999969006 -0.109999999404 204.0
0.819999992847 -0.082000002265 -0.119000002742 237.0
0.967000007629 -0.103000000119 -0.140000000596 953.0
0.967999994755 -0.108999997377 -0.140000000596 1261.0
0.971000015736 -0.115000002086 -0.141000002623 1277.0
0.96899998188 -0.119999997318 -0.141000002623 1275.0
0.964999973774 -0.126000002027 -0.140000000596 1272.0
0.967000007629 -0.131999999285 -0.140000000596 1277.0
0.964999973774 -0.136999994516 -0.140000000596 1288.0
0.962999999523 -0.142000004649 -0.140000000596 1278.0
0.958000004292 -0.146999999881 -0.138999998569 1266.0
0.954999983311 -0.152999997139 -0.138999998569 1268.0
0.957000017166 -0.158999994397 -0.138999998569 1273.0
0.95300000906 -0.16400000453 -0.138999998569 1264.0
0.949999988079 -0.168999999762 -0.137999996543 1245.0
0.948000013828 -0.173999994993 -0.137999996543 1251.0
0.936999976635 -0.178000003099 -0.136999994516 844.0
0.861999988556 -0.167999997735 -0.126000002027 370.0
0.85799998045 -0.172999992967 -0.125 358.0
0.865999996662 -0.180000007153 -0.127000004053 371.0
0.864000022411 -0.185000002384 -0.126000002027 388.0
0.869000017643 -0.190999999642 -0.127000004053 410.0
0.865999996662 -0.195999994874 -0.127000004053 424.0
0.876999974251 -0.202999994159 -0.128999993205 443.0
0.89099997282 -0.211999997497 -0.130999997258 477.0
0.880999982357 -0.215000003576 -0.129999995232 499.0
0.883000016212 -0.221000000834 -0.129999995232 515.0
0.880999982357 -0.225999996066 -0.129999995232 538.0
0.889999985695 -0.233999997377 -0.130999997258 573.0
0.887000024319 -0.238999992609 -0.130999997258 586.0
0.893999993801 -0.24699999392 -0.131999999285 646.0
0.919000029564 -0.259999990463 -0.136000007391 926.0
0.921000003815 -0.266000002623 -0.136999994516 984.0
0.917999982834 -0.270999997854 -0.136000007391 961.0
0.907999992371 -0.273999989033 -0.135000005364 950.0
0.90499997139 -0.279000014067 -0.135000005364 939.0
0.90499997139 -0.284999996424 -0.135000005364 915.0
0.899999976158 -0.28900000453 -0.134000003338 904.0
0.899999976158 -0.294999986887 -0.135000005364 899.0
0.902999997139 -0.301999986172 -0.135000005364 882.0
0.897000014782 -0.305999994278 -0.135000005364 877.0
0.897000014782 -0.312000006437 -0.135000005364 863.0
0.89099997282 -0.316000014544 -0.134000003338 847.0
0.888000011444 -0.319999992847 -0.134000003338 839.0
0.888000011444 -0.326999992132 -0.134000003338 843.0
0.89200001955 -0.333999991417 -0.135000005364 856.0
0.893999993801 -0.340999990702 -0.135000005364 857.0
0.884999990463 -0.344000011683 -0.134000003338 857.0
0.887000024319 -0.351000010967 -0.135000005364 872.0
0.884000003338 -0.354999989271 -0.135000005364 876.0
0.879999995232 -0.360000014305 -0.134000003338 888.0
0.880999982357 -0.36700001359 -0.135000005364 883.0
0.879999995232 -0.372999995947 -0.135000005364 892.0
0.876999974251 -0.377999991179 -0.135000005364 898.0
0.867999970913 -0.379999995232 -0.134000003338 903.0
0.875999987125 -0.389999985695 -0.135000005364 892.0
0.860000014305 -0.388999998569 -0.133000001311 900.0
0.871999979019 -0.400999993086 -0.135000005364 912.0
0.85900002718 -0.400999993086 -0.133000001311 812.0
0.856000006199 -0.405999988317 -0.133000001311 814.0
0.851999998093 -0.411000013351 -0.133000001311 817.0
0.853999972343 -0.418000012636 -0.134000003338 816.0
0.848999977112 -0.42199999094 -0.133000001311 819.0
0.846000015736 -0.426999986172 -0.133000001311 822.0
0.846000015736 -0.433999985456 -0.133000001311 829.0
0.842999994755 -0.43900001049 -0.133000001311 838.0
0.839999973774 -0.444000005722 -0.133000001311 844.0
0.842999994755 -0.45300000906 -0.134000003338 834.0
0.838999986649 -0.456999987364 -0.134000003338 867.0
0.837999999523 -0.462999999523 -0.134000003338 869.0
0.838999986649 -0.470999985933 -0.134000003338 880.0
0.391999989748 0.225999996066 -0.0680000036955 193.0
0.294999986887 0.166999995708 -0.0509999990463 162.0
0.202000007033 0.112999998033 -0.035000000149 168.0
0.170000001788 0.0930000022054 -0.0289999991655 154.0
0.0860000029206 0.0460000000894 -0.0140000004321 130.0
0.120999999344 0.0640000030398 -0.0209999997169 154.0
0.0590000003576 0.0299999993294 -0.00999999977648 149.0
4.45599985123 2.32800006866 -0.755999982357 138.0
0.0270000007004 0.0130000002682 -0.00400000018999 145.0
0.0289999991655 0.0140000004321 -0.00499999988824 143.0
4.27600002289 2.132999897 -0.71899998188 135.0
4.32800006866 2.12599992752 -0.726000010967 129.0
4.42399978638 2.13899993896 -0.740000009537 134.0
4.54099988937 2.16100001335 -0.758000016212 127.0
4.51800012589 2.117000103 -0.751999974251 135.0
4.41900014877 2.03699994087 -0.73299998045 149.0
4.41400003433 2.00200009346 -0.731000006199 153.0
4.46099996567 1.99100005627 -0.736000001431 150.0
4.40500020981 1.93299996853 -0.725000023842 161.0
4.49800014496 1.94200003147 -0.739000022411 146.0
4.59200000763 1.94900000095 -0.751999974251 122.0
4.54099988937 1.89499998093 -0.741999983788 127.0
4.57999992371 1.8789999485 -0.746999979019 128.0
4.55999994278 1.83800005913 -0.741999983788 119.0
4.57399988174 1.81099998951 -0.741999983788 123.0
4.54199981689 1.76699995995 -0.736000001431 125.0
4.56199979782 1.74300003052 -0.736999988556 123.0
4.57499980927 1.71700000763 -0.737999975681 115.0
4.58099985123 1.68799996376 -0.736999988556 117.0
4.57899999619 1.65600001812 -0.735000014305 114.0
4.58699989319 1.62699997425 -0.735000014305 123.0
4.59700012207 1.60000002384 -0.735000014305 115.0
4.58599996567 1.56599998474 -0.731999993324 115.0
4.61899995804 1.54600000381 -0.736000001431 114.0
4.65299987793 1.52699995041 -0.740000009537 116.0
4.69500017166 1.50899994373 -0.745000004768 109.0
4.69899988174 1.48000001907 -0.744000017643 109.0
4.70100021362 1.45000004768 -0.742999970913 108.0
4.72300004959 1.42599999905 -0.745999991894 109.0
4.66900014877 1.3789999485 -0.736000001431 123.0
4.55900001526 1.31700003147 -0.717000007629 153.0
4.55999994278 1.28900003433 -0.716000020504 157.0
4.55999994278 1.25899994373 -0.714999973774 152.0
4.59399986267 1.24000000954 -0.71899998188 140.0
4.76900005341 1.25699996948 -0.745999991894 114.0
4.79199981689 1.23199999332 -0.748000025749 123.0
4.78399991989 1.20000004768 -0.745999991894 145.0
4.75500011444 1.16400003433 -0.740000009537 141.0
4.79199981689 1.14300000668 -0.745000004768 141.0
4.80100011826 1.11500000954 -0.745000004768 141.0
4.80800008774 1.0870000124 -0.745000004768 135.0
4.79400014877 1.05400002003 -0.741999983788 134.0
4.83400011063 1.03299999237 -0.746999979019 138.0
4.82399988174 1.00199997425 -0.745000004768 139.0
4.83599996567 0.973999977112 -0.745999991894 136.0
4.85799980164 0.949000000954 -0.748000025749 135.0
4.86899995804 0.92199999094 -0.749000012875 130.0
4.882999897 0.894999980927 -0.750999987125 130.0
4.88000011444 0.865000009537 -0.749000012875 131.0
4.88700008392 0.837000012398 -0.75 126.0
4.88399982452 0.806999981403 -0.748000025749 126.0
4.90299987793 0.78100001812 -0.750999987125 133.0
4.88999986649 0.749000012875 -0.748000025749 130.0
4.88700008392 0.72000002861 -0.746999979019 138.0
4.89599990845 0.691999971867 -0.748000025749 136.0
4.90000009537 0.662999987602 -0.748000025749 129.0
4.92500019073 0.638000011444 -0.750999987125 135.0
4.92100000381 0.60799998045 -0.75 135.0
4.96999979019 0.584999978542 -0.755999982357 139.0
4.95599985123 0.554000020027 -0.754000008106 134.0
4.96099996567 0.524999976158 -0.754000008106 137.0
4.96099996567 0.495999991894 -0.753000020981 141.0
4.97900009155 0.469000011683 -0.755999982357 124.0
0.0419999994338 0.00499999988824 -0.00600000005215 85.0
0.123000003397 0.0109999999404 -0.0189999993891 84.0
0.0869999974966 0.00800000037998 -0.0130000002682 78.0
0.126000002027 0.00999999977648 -0.0189999993891 82.0
0.143999993801 0.0109999999404 -0.0219999998808 85.0
0.116999998689 0.00800000037998 -0.0170000009239 81.0
0.0399999991059 0.00400000018999 -0.00600000005215 88.0
0.105999998748 0.00600000005215 -0.01600000076 87.0
0.122000001371 0.00700000021607 -0.0179999992251 101.0
0.101999998093 0.00499999988824 -0.0149999996647 88.0
0.107000000775 0.00499999988824 -0.01600000076 84.0
0.108000002801 0.00400000018999 -0.01600000076 86.0
0.148000001907 0.00400000018999 -0.0219999998808 84.0
0.134000003338 0.00300000002608 -0.019999999553 85.0
0.123999997973 0.00200000009499 -0.0189999993891 81.0
0.0379999987781 0.00200000009499 -0.00600000005215 66.0
0.070000000298 0.0010000000475 -0.00999999977648 70.0
0.0920000001788 0.0010000000475 -0.0140000004321 67.0
0.883000016212 -0.0120000001043 -0.133000001311 289.0
0.980000019073 -0.0189999993891 -0.148000001907 1010.0
0.89099997282 -0.0219999998808 -0.134000003338 353.0
0.755999982357 -0.0230000000447 -0.11400000006 187.0
0.76700001955 -0.0280000008643 -0.115000002086 193.0
0.736000001431 -0.0309999994934 -0.111000001431 185.0
0.740000009537 -0.035000000149 -0.111000001431 185.0
0.768000006676 -0.0410000011325 -0.115999996662 190.0
0.735000014305 -0.0439999997616 -0.111000001431 191.0
0.760999977589 -0.0500000007451 -0.115000002086 194.0
0.749000012875 -0.0529999993742 -0.112999998033 194.0
0.745999991894 -0.0570000000298 -0.112000003457 195.0
0.76599997282 -0.0630000010133 -0.115000002086 195.0
0.751999974251 -0.0659999996424 -0.112999998033 200.0
0.745000004768 -0.070000000298 -0.112000003457 198.0
0.794000029564 -0.0799999982119 -0.119999997318 238.0
0.962000012398 -0.103000000119 -0.144999995828 983.0
0.973999977112 -0.109999999404 -0.146999999881 1273.0
0.967000007629 -0.115000002086 -0.145999997854 1286.0
0.96899998188 -0.120999999344 -0.145999997854 1295.0
0.97000002861 -0.126000002027 -0.146999999881 1302.0
0.963999986649 -0.130999997258 -0.145999997854 1302.0
0.964999973774 -0.136999994516 -0.145999997854 1305.0
0.958999991417 -0.142000004649 -0.144999995828 1322.0
0.962999999523 -0.148000001907 -0.145999997854 1320.0
0.958000004292 -0.152999997139 -0.144999995828 1345.0
0.961000025272 -0.158999994397 -0.145999997854 1355.0
0.962000012398 -0.165000006557 -0.145999997854 1351.0
0.958999991417 -0.171000003815 -0.145999997854 1362.0
0.955999970436 -0.175999999046 -0.144999995828 1360.0
0.924000024796 -0.17499999702 -0.140000000596 838.0
0.782000005245 -0.152999997139 -0.119000002742 249.0
0.759000003338 -0.152999997139 -0.115000002086 226.0
0.758000016212 -0.157000005245 -0.115000002086 221.0
0.745000004768 -0.158999994397 -0.11400000006 227.0
0.748000025749 -0.16400000453 -0.11400000006 224.0
0.750999987125 -0.168999999762 -0.115000002086 222.0
0.726000010967 -0.167999997735 -0.111000001431 222.0
0.73299998045 -0.173999994993 -0.112000003457 227.0
0.751999974251 -0.184000000358 -0.115000002086 227.0
0.754000008106 -0.188999995589 -0.115999996662 230.0
0.736999988556 -0.188999995589 -0.112999998033 229.0
0.754000008106 -0.197999998927 -0.115999996662 226.0
0.749000012875 -0.201000005007 -0.115000002086 229.0
0.853999972343 -0.236000001431 -0.131999999285 399.0
0.930000007153 -0.263000011444 -0.143000006676 1301.0
0.934000015259 -0.270000010729 -0.143999993801 1451.0
0.933000028133 -0.275999993086 -0.143999993801 1450.0
0.929000020027 -0.280999988317 -0.143999993801 1440.0
0.927999973297 -0.286000013351 -0.143999993801 1453.0
0.925999999046 -0.291999995708 -0.143999993801 1454.0
0.924000024796 -0.29699999094 -0.143999993801 1465.0
0.925999999046 -0.303999990225 -0.143999993801 1453.0
0.922999978065 -0.308999985456 -0.143999993801 1459.0
0.916000008583 -0.312999993563 -0.143000006676 1467.0
0.919000029564 -0.319999992847 -0.143999993801 1455.0
0.920000016689 -0.326000005007 -0.143999993801 1446.0
0.912000000477 -0.330000013113 -0.143000006676 1446.0
0.902000010014 -0.331999987364 -0.142000004649 1338.0
0.836000025272 -0.312999993563 -0.131999999285 432.0
0.722999989986 -0.27500000596 -0.11400000006 259.0
0.709999978542 -0.27500000596 -0.112000003457 259.0
0.748000025749 -0.294999986887 -0.118000000715 270.0
0.726999998093 -0.291999995708 -0.115000002086 267.0
0.73400002718 -0.300000011921 -0.116999998689 263.0
0.712999999523 -0.296000003815 -0.112999998033 269.0
0.717000007629 -0.303000003099 -0.11400000006 269.0
0.711000025272 -0.305000007153 -0.11400000006 277.0
0.722000002861 -0.316000014544 -0.115999996662 275.0
0.717999994755 -0.319000005722 -0.115000002086 279.0
0.700999975204 -0.316000014544 -0.112999998033 278.0
0.717999994755 -0.330000013113 -0.115999996662 286.0
0.861000001431 -0.402999997139 -0.138999998569 728.0
0.884000003338 -0.419999986887 -0.143000006676 1404.0
0.884999990463 -0.426999986172 -0.143999993801 1450.0
0.876999974251 -0.430000007153 -0.143000006676 1447.0
0.879999995232 -0.437999993563 -0.143999993801 1450.0
0.878000020981 -0.444000005722 -0.143999993801 1457.0
0.871999979019 -0.448000013828 -0.143000006676 1467.0
0.870000004768 -0.453999996185 -0.143000006676 1457.0
0.869000017643 -0.460000008345 -0.143000006676 1450.0
0.870000004768 -0.467999994755 -0.143999993801 1442.0
0.869000017643 -0.474000006914 -0.143999993801 1470.0
0.865000009537 -0.479000002146 -0.143999993801 1458.0
0.862999975681 -0.485000014305 -0.143999993801 1441.0
0.810000002384 0.469000011683 -0.145999997854 575.0
0.799000024796 0.456000000238 -0.143000006676 570.0
0.806999981403 0.453999996185 -0.143999993801 531.0
0.790000021458 0.437999993563 -0.141000002623 501.0
0.797999978065 0.43599998951 -0.142000004649 474.0
0.76700001955 0.412000000477 -0.136000007391 449.0
0.762000024319 0.404000014067 -0.135000005364 419.0
0.75 0.391000002623 -0.131999999285 384.0
0.708999991417 0.365000009537 -0.125 349.0
0.68900001049 0.349000006914 -0.120999999344 319.0
0.629999995232 0.31400001049 -0.109999999404 273.0
0.59500002861 0.291999995708 -0.103000000119 246.0
0.572000026703 0.275999993086 -0.0989999994636 227.0
0.56099998951 0.266999989748 -0.097000002861 215.0
0.469999998808 0.219999998808 -0.0810000002384 199.0
0.286000013351 0.130999997258 -0.0489999987185 184.0
0.202000007033 0.0909999981523 -0.0340000018477 166.0
0.21099999547 0.0939999967813 -0.0359999984503 160.0
0.082000002265 0.035000000149 -0.0140000004321 159.0
0.0710000023246 0.0299999993294 -0.0120000001043 144.0
0.0579999983311 0.0240000002086 -0.00999999977648 136.0
0.0489999987185 0.019999999553 -0.00800000037998 133.0
0.00700000021607 0.00200000009499 -0.0010000000475 128.0
4.65399980545 1.87699997425 -0.787000000477 121.0
4.64799976349 1.84200000763 -0.783999979496 119.0
4.64699983597 1.80900001526 -0.782000005245 120.0
4.63199996948 1.77199995518 -0.777999997139 125.0
4.59999990463 1.72800004482 -0.771000027657 123.0
4.59999990463 1.69599997997 -0.768999993801 118.0
4.61499977112 1.66999995708 -0.769999980927 120.0
4.65199995041 1.65199995041 -0.773999989033 121.0
4.63399982452 1.61399996281 -0.769999980927 116.0
4.67600011826 1.59800004959 -0.774999976158 115.0
4.66200017929 1.56099998951 -0.772000014782 118.0
4.6779999733 1.53600001335 -0.773000001907 114.0
4.68400001526 1.50699996948 -0.772000014782 114.0
4.72300004959 1.48899996281 -0.777000010014 109.0
4.75500011444 1.46800005436 -0.78100001812 106.0
4.73999977112 1.43200004101 -0.777000010014 112.0
4.64099979401 1.37199997902 -0.759999990463 131.0
4.62300014496 1.3370000124 -0.755999982357 140.0
4.58199977875 1.29600000381 -0.748000025749 141.0
4.61199998856 1.27499997616 -0.750999987125 146.0
4.68400001526 1.26499998569 -0.762000024319 133.0
4.83199977875 1.27400004864 -0.785000026226 113.0
4.82899999619 1.24300003052 -0.782999992371 118.0
4.81300020218 1.20899999142 -0.77999997139 128.0
4.82100009918 1.17999994755 -0.77999997139 134.0
4.79300022125 1.14400005341 -0.773999989033 133.0
4.84399986267 1.12600004673 -0.78100001812 126.0
4.83300018311 1.09300005436 -0.777999997139 125.0
4.81300020218 1.05900001526 -0.773999989033 125.0
4.85799980164 1.03900003433 -0.78100001812 123.0
4.875 1.01300001144 -0.782000005245 123.0
4.87699985504 0.98299998045 -0.782000005245 122.0
4.88500022888 0.954999983311 -0.782000005245 124.0
4.89499998093 0.926999986172 -0.782999992371 117.0
4.882999897 0.894999980927 -0.77999997139 121.0
4.90700006485 0.870000004768 -0.782999992371 112.0
4.9359998703 0.846000015736 -0.787000000477 113.0
4.95100021362 0.818000018597 -0.787999987602 120.0
4.92100000381 0.783999979496 -0.782999992371 116.0
4.94000005722 0.757000029087 -0.785000026226 118.0
4.94999980927 0.728999972343 -0.786000013351 115.0
4.96000003815 0.700999975204 -0.787000000477 125.0
4.95800018311 0.67199999094 -0.786000013351 119.0
4.95399999619 0.64200001955 -0.785000026226 118.0
4.96400022507 0.614000022411 -0.786000013351 125.0
4.9470000267 0.582000017166 -0.782000005245 115.0
4.95900011063 0.554000020027 -0.783999979496 117.0
0.0149999996647 0.00300000002608 -0.00200000009499 122.0
4.99300003052 0.499000012875 -0.787999987602 122.0
0.0430000014603 0.00499999988824 -0.00700000021607 111.0
