ply
format ascii 1.0
element vertex 939
property float x
property float y
property float z
property float intensity
end_header
0.980000019073 -0.172000005841 0.108999997377 133.0
0.985000014305 -0.179000005126 0.108999997377 136.0
0.999000012875 -0.187999993563 0.111000001431 135.0
0.962999999523 -0.187000006437 0.107000000775 133.0
0.98299998045 -0.196999996901 0.109999999404 134.0
0.963999986649 -0.199000000954 0.108000002801 139.0
0.991999983788 -0.209999993443 0.111000001431 139.0
1.02199995518 -0.223000004888 0.11400000006 138.0
0.958999991417 -0.215000003576 0.107000000775 132.0
0.976999998093 -0.22499999404 0.109999999404 132.0
0.987999975681 -0.233999997377 0.111000001431 135.0
0.986000001431 -0.238999992609 0.111000001431 132.0
0.98400002718 -0.245000004768 0.111000001431 127.0
0.949000000954 -0.241999998689 0.107000000775 129.0
0.973999977112 -0.254000008106 0.109999999404 126.0
0.995000004768 -0.266000002623 0.112999998033 130.0
0.981999993324 -0.268999993801 0.111000001431 128.0
0.96899998188 -0.272000014782 0.109999999404 128.0
0.962999999523 -0.275999993086 0.109999999404 127.0
0.978999972343 -0.287000000477 0.112000003457 125.0
0.967000007629 -0.28900000453 0.109999999404 123.0
0.945999979973 -0.28900000453 0.108000002801 121.0
0.955999970436 -0.298999994993 0.109999999404 121.0
0.958000004292 -0.305000007153 0.109999999404 123.0
0.981999993324 -0.319000005722 0.112999998033 120.0
0.949000000954 -0.314999997616 0.108999997377 122.0
0.972999989986 -0.328999996185 0.112000003457 119.0
0.944000005722 -0.326000005007 0.108999997377 121.0
0.989000022411 -0.347999989986 0.115000002086 112.0
0.963999986649 -0.344999998808 0.112000003457 124.0
0.966000020504 -0.352999985218 0.112999998033 118.0
0.948000013828 -0.352999985218 0.111000001431 119.0
0.955999970436 -0.361999988556 0.112000003457 112.0
0.981999993324 -0.379000008106 0.115000002086 113.0
0.952000021935 -0.374000012875 0.112000003457 116.0
0.90600001812 -0.361999988556 0.107000000775 112.0
0.939999997616 -0.381999999285 0.111000001431 109.0
0.990000009537 -0.409000009298 0.116999998689 111.0
0.964999973774 -0.405999988317 0.115000002086 104.0
0.952000021935 -0.407000005245 0.112999998033 103.0
0.947000026703 -0.412000000477 0.112999998033 108.0
0.912999987602 -0.404000014067 0.108999997377 104.0
0.936999976635 -0.421000003815 0.112000003457 102.0
0.949000000954 -0.433999985456 0.11400000006 105.0
0.958000004292 -0.444999992847 0.115999996662 99.0
0.97000002861 -0.458000004292 0.116999998689 101.0
0.921000003815 -0.441000014544 0.112000003457 97.0
0.967999994755 -0.470999985933 0.118000000715 93.0
0.925000011921 -0.456999987364 0.112999998033 92.0
0.921000003815 -0.462000012398 0.112999998033 83.0
0.912999987602 -0.465000003576 0.112000003457 87.0
0.930999994278 -0.481999993324 0.11400000006 91.0
0.935000002384 -0.49200001359 0.115000002086 92.0
0.902999997139 -0.481999993324 0.112000003457 95.0
0.899999976158 -0.486999988556 0.112000003457 89.0
0.908999979496 -0.499000012875 0.112999998033 88.0
0.90499997139 -0.504000008106 0.112999998033 86.0
0.926999986172 0.533999979496 0.104999996722 807.0
0.92199999094 0.523999989033 0.104000002146 813.0
0.922999978065 0.51700001955 0.104000002146 801.0
0.925000011921 0.509999990463 0.104000002146 778.0
0.929000020027 0.504999995232 0.104000002146 769.0
0.930000007153 0.497999995947 0.104000002146 768.0
0.93599998951 0.493999987841 0.104999996722 759.0
0.929000020027 0.483000010252 0.104000002146 753.0
0.93599998951 0.479999989271 0.104000002146 748.0
0.931999981403 0.469999998808 0.103000000119 751.0
0.930999994278 0.462000012398 0.103000000119 730.0
0.934000015259 0.456999987364 0.103000000119 736.0
0.93599998951 0.451000005007 0.103000000119 751.0
0.945999979973 0.449000000954 0.104000002146 732.0
0.941999971867 0.439999997616 0.103000000119 739.0
0.948000013828 0.435000002384 0.104000002146 729.0
0.943000018597 0.425999999046 0.103000000119 729.0
0.941999971867 0.418999999762 0.103000000119 732.0
0.939999997616 0.411000013351 0.101999998093 729.0
0.945999979973 0.407000005245 0.103000000119 720.0
0.944000005722 0.398999989033 0.101999998093 720.0
0.950999975204 0.395000010729 0.103000000119 725.0
0.962999999523 0.393999993801 0.104000002146 711.0
0.958000004292 0.384999990463 0.103000000119 724.0
0.958000004292 0.377999991179 0.103000000119 709.0
0.958999991417 0.372000008821 0.103000000119 709.0
0.958999991417 0.365999996662 0.103000000119 713.0
0.962000012398 0.360000014305 0.103000000119 703.0
0.955999970436 0.351999998093 0.101999998093 697.0
0.971000015736 0.34999999404 0.103000000119 706.0
0.961000025272 0.340000003576 0.101999998093 698.0
0.967999994755 0.337000012398 0.103000000119 695.0
0.96899998188 0.330000013113 0.103000000119 705.0
0.972000002861 0.324999988079 0.103000000119 702.0
0.96899998188 0.317999988794 0.101999998093 711.0
0.977999985218 0.31400001049 0.103000000119 699.0
0.972000002861 0.305999994278 0.103000000119 702.0
0.976000010967 0.300999999046 0.103000000119 718.0
0.972000002861 0.293000012636 0.101999998093 716.0
0.991999983788 0.293000012636 0.104000002146 729.0
0.986000001431 0.284999996424 0.104000002146 739.0
0.985000014305 0.279000014067 0.103000000119 758.0
0.986000001431 0.273000001907 0.103000000119 761.0
0.987999975681 0.266999989748 0.103000000119 777.0
0.989000022411 0.261000007391 0.103000000119 804.0
0.991999983788 0.256000012159 0.104000002146 820.0
0.985000014305 0.247999995947 0.103000000119 833.0
0.994000017643 0.244000002742 0.104000002146 844.0
1.0 0.238999992609 0.104000002146 857.0
0.991999983788 0.231000006199 0.103000000119 877.0
0.999000012875 0.226999998093 0.104000002146 887.0
0.991999983788 0.218999996781 0.103000000119 876.0
0.999000012875 0.21400000155 0.104000002146 843.0
1.00300002098 0.209000006318 0.104000002146 854.0
0.995999991894 0.202000007033 0.103000000119 864.0
1.00499999523 0.196999996901 0.104000002146 860.0
1.0039999485 0.190999999642 0.104000002146 872.0
1.01100003719 0.186000004411 0.104999996722 880.0
1.00999999046 0.180000007153 0.104000002146 872.0
1.00999999046 0.173999994993 0.104000002146 901.0
1.00999999046 0.167999997735 0.104000002146 921.0
1.00800001621 0.162000000477 0.104000002146 931.0
1.00899994373 0.156000003219 0.104000002146 932.0
1.01600003242 0.150999993086 0.104999996722 938.0
1.01300001144 0.144999995828 0.104000002146 914.0
1.01600003242 0.138999998569 0.104999996722 893.0
1.00800001621 0.131999999285 0.104000002146 886.0
1.01800000668 0.127000004053 0.104999996722 878.0
1.01800000668 0.120999999344 0.104999996722 871.0
1.02400004864 0.115999996662 0.104999996722 871.0
1.02499997616 0.109999999404 0.104999996722 855.0
1.02699995041 0.104999996722 0.105999998748 841.0
1.02799999714 0.0989999994636 0.105999998748 843.0
1.02900004387 0.0930000022054 0.105999998748 848.0
1.03499996662 0.0869999974966 0.105999998748 851.0
1.02799999714 0.0810000002384 0.105999998748 852.0
1.0340000391 0.0750000029802 0.105999998748 848.0
1.02799999714 0.0689999982715 0.105999998748 851.0
1.03600001335 0.0630000010133 0.105999998748 849.0
1.03600001335 0.0570000000298 0.105999998748 834.0
1.03699994087 0.0509999990463 0.107000000775 831.0
1.03900003433 0.0460000000894 0.107000000775 826.0
1.0379999876 0.0399999991059 0.107000000775 822.0
1.04600000381 0.0340000018477 0.108000002801 812.0
1.0379999876 0.0280000008643 0.107000000775 804.0
1.04200005531 0.0219999998808 0.107000000775 799.0
1.04100000858 0.01600000076 0.107000000775 757.0
1.06099998951 0.00999999977648 0.108999997377 497.0
1.17499995232 0.00400000018999 0.120999999344 72.0
2.41300010681 -0.104000002146 0.252000004053 66.0
2.39299988747 -0.116999998689 0.25 73.0
2.37400007248 -0.129999995232 0.247999995947 87.0
2.31999993324 -0.140000000596 0.241999998689 112.0
2.32999992371 -0.153999999166 0.244000002742 96.0
2.3259999752 -0.167999997735 0.243000000715 66.0
2.32899999619 -0.208000004292 0.244000002742 90.0
2.29099988937 -0.217999994755 0.239999994636 133.0
1.61899995804 -0.163000002503 0.168999999762 76.0
1.02699995041 -0.108000002801 0.107000000775 124.0
0.999000012875 -0.111000001431 0.104000002146 123.0
0.971000015736 -0.112999998033 0.101000003517 125.0
0.992999970913 -0.122000001371 0.103000000119 135.0
0.992999970913 -0.12800000608 0.103000000119 128.0
0.995999991894 -0.134000003338 0.104000002146 134.0
0.976999998093 -0.136999994516 0.101999998093 131.0
0.978999972343 -0.143000006676 0.101999998093 136.0
0.98400002718 -0.15000000596 0.103000000119 133.0
0.992999970913 -0.157000005245 0.104000002146 131.0
0.976999998093 -0.159999996424 0.101999998093 133.0
0.981999993324 -0.166999995708 0.103000000119 139.0
0.989000022411 -0.173999994993 0.104000002146 131.0
1.0039999485 -0.182999998331 0.105999998748 139.0
0.980000019073 -0.184000000358 0.103000000119 138.0
1.00699996948 -0.194999992847 0.105999998748 129.0
0.986999988556 -0.196999996901 0.104000002146 133.0
1.00100004673 -0.206000000238 0.105999998748 135.0
0.958999991417 -0.202999994159 0.101000003517 140.0
1.00800001621 -0.219999998808 0.107000000775 127.0
0.981000006199 -0.219999998808 0.104000002146 138.0
0.97000002861 -0.223000004888 0.103000000119 132.0
0.978999972343 -0.231999993324 0.104000002146 132.0
0.991999983788 -0.240999996662 0.105999998748 136.0
0.976000010967 -0.243000000715 0.104000002146 133.0
1.0039999485 -0.256000012159 0.107000000775 135.0
1.00300002098 -0.261999994516 0.107000000775 131.0
0.977999985218 -0.261999994516 0.104999996722 135.0
0.991999983788 -0.272000014782 0.107000000775 135.0
0.955999970436 -0.268000006676 0.103000000119 134.0
0.977999985218 -0.280000001192 0.104999996722 132.0
0.952000021935 -0.279000014067 0.103000000119 122.0
0.962999999523 -0.287999987602 0.104000002146 126.0
0.985000014305 -0.300999999046 0.107000000775 122.0
0.92199999094 -0.287000000477 0.10000000149 127.0
0.980000019073 -0.312000006437 0.107000000775 128.0
0.944000005722 -0.307000011206 0.103000000119 125.0
0.976000010967 -0.324000000954 0.107000000775 120.0
0.972000002861 -0.328999996185 0.105999998748 118.0
0.986000001431 -0.340000003576 0.108000002801 123.0
0.941999971867 -0.331000000238 0.103000000119 119.0
0.963999986649 -0.344999998808 0.105999998748 122.0
0.972999989986 -0.354999989271 0.107000000775 117.0
0.957000017166 -0.356000006199 0.105999998748 117.0
0.963999986649 -0.365000009537 0.107000000775 123.0
0.959999978542 -0.370000004768 0.107000000775 114.0
0.939999997616 -0.368999987841 0.104999996722 112.0
0.930999994278 -0.372000008821 0.104000002146 114.0
0.945999979973 -0.384000003338 0.105999998748 105.0
0.957000017166 -0.395999997854 0.107000000775 111.0
0.998000025749 -0.419999986887 0.112000003457 109.0
0.917999982834 -0.391999989748 0.103000000119 106.0
0.944999992847 -0.411000013351 0.107000000775 106.0
0.959999978542 -0.423999994993 0.108999997377 99.0
0.948000013828 -0.425999999046 0.108000002801 103.0
0.912000000477 -0.416000008583 0.104000002146 103.0
0.911000013351 -0.42199999094 0.104000002146 103.0
0.912999987602 -0.430000007153 0.104000002146 96.0
0.954999983311 -0.456999987364 0.109999999404 92.0
0.908999979496 -0.442000001669 0.104999996722 98.0
0.940999984741 -0.465000003576 0.108999997377 96.0
0.879999995232 -0.441000014544 0.101999998093 95.0
0.950999975204 -0.485000014305 0.111000001431 92.0
0.976999998093 -0.505999982357 0.11400000006 89.0
0.907000005245 -0.476000010967 0.105999998748 91.0
0.952000021935 -0.508000016212 0.112000003457 97.0
0.949000000954 -0.513000011444 0.112000003457 91.0
0.926999986172 -0.509000003338 0.108999997377 94.0
0.959999978542 -0.535000026226 0.11400000006 88.0
0.949000000954 0.54699999094 0.101999998093 298.0
0.93900001049 0.532999992371 0.10000000149 301.0
0.925999999046 0.518000006676 0.0989999994636 280.0
0.936999976635 0.51599997282 0.0989999994636 278.0
0.908999979496 0.493999987841 0.0960000008345 266.0
0.950999975204 0.509000003338 0.101000003517 250.0
0.950999975204 0.500999987125 0.10000000149 384.0
0.939999997616 0.488999992609 0.0989999994636 270.0
0.936999976635 0.479999989271 0.097999997437 270.0
0.93900001049 0.472999989986 0.097999997437 358.0
0.943000018597 0.46099999547 0.097999997437 352.0
0.948000013828 0.456000000238 0.097999997437 334.0
0.939999997616 0.444999992847 0.097000002861 337.0
0.925000011921 0.430999994278 0.0949999988079 322.0
0.920000016689 0.416000008583 0.0949999988079 297.0
0.89200001955 0.395999997854 0.0909999981523 293.0
0.925000011921 0.404000014067 0.0949999988079 295.0
0.922999978065 0.397000014782 0.0939999967813 269.0
0.902999997139 0.381999999285 0.0920000001788 271.0
0.931999981403 0.388000011444 0.0949999988079 260.0
0.902999997139 0.368999987841 0.0920000001788 255.0
0.924000024796 0.370999991894 0.0939999967813 247.0
0.912999987602 0.361000001431 0.0920000001788 254.0
0.92199999094 0.358000010252 0.0930000022054 255.0
0.916999995708 0.349000006914 0.0920000001788 259.0
0.936999976635 0.344000011683 0.0939999967813 242.0
0.920000016689 0.331999987364 0.0920000001788 235.0
0.929000020027 0.328999996185 0.0930000022054 235.0
0.959999978542 0.333000004292 0.0960000008345 234.0
0.936999976635 0.307000011206 0.0930000022054 225.0
0.935000002384 0.300000011921 0.0930000022054 223.0
0.933000028133 0.287999987602 0.0930000022054 242.0
1.00499999523 0.289999991655 0.10000000149 271.0
1.00800001621 0.277999997139 0.10000000149 294.0
1.00699996948 0.272000014782 0.0989999994636 291.0
0.990000009537 0.261000007391 0.097999997437 318.0
1.01100003719 0.259999990463 0.10000000149 320.0
1.02499997616 0.25799998641 0.101000003517 328.0
1.02199995518 0.25 0.10000000149 244.0
1.02799999714 0.246000006795 0.101000003517 244.0
1.02799999714 0.238999992609 0.101000003517 254.0
1.04799997807 0.237000003457 0.103000000119 255.0
1.01400005817 0.224000006914 0.0989999994636 246.0
1.02499997616 0.219999998808 0.10000000149 209.0
1.03499996662 0.216000005603 0.101000003517 219.0
1.05400002003 0.212999999523 0.103000000119 239.0
1.01400005817 0.199000000954 0.0989999994636 244.0
1.03699994087 0.196999996901 0.101000003517 255.0
1.03699994087 0.190999999642 0.101000003517 267.0
1.04100000858 0.186000004411 0.101999998093 276.0
1.02400004864 0.175999999046 0.10000000149 283.0
1.03699994087 0.172000005841 0.101000003517 295.0
1.03699994087 0.165999993682 0.101000003517 305.0
1.01999998093 0.158000007272 0.0989999994636 315.0
1.03100001812 0.152999997139 0.10000000149 323.0
1.03999996185 0.148000001907 0.101000003517 319.0
1.03100001812 0.141000002623 0.10000000149 319.0
1.03299999237 0.135000005364 0.10000000149 329.0
1.04499995708 0.130999997258 0.101999998093 331.0
1.04100000858 0.123999997973 0.101000003517 343.0
1.0340000391 0.116999998689 0.10000000149 363.0
1.04400002956 0.112000003457 0.101000003517 378.0
1.04299998283 0.105999998748 0.101000003517 388.0
1.04299998283 0.10000000149 0.101000003517 402.0
1.04700005054 0.0939999967813 0.101999998093 431.0
1.04499995708 0.0879999995232 0.101000003517 443.0
1.03999996185 0.082000002265 0.101000003517 453.0
1.0529999733 0.0769999995828 0.101999998093 462.0
1.04700005054 0.070000000298 0.101999998093 475.0
1.04299998283 0.0640000030398 0.101000003517 480.0
1.04299998283 0.0579999983311 0.101000003517 487.0
1.04200005531 0.0520000010729 0.101000003517 477.0
1.0490000248 0.0460000000894 0.101999998093 486.0
1.05400002003 0.0399999991059 0.101999998093 486.0
1.05400002003 0.0340000018477 0.101999998093 491.0
1.0529999733 0.0280000008643 0.101999998093 485.0
1.0490000248 0.0219999998808 0.101999998093 476.0
1.05799996853 0.01600000076 0.103000000119 432.0
1.08399999142 0.00999999977648 0.104999996722 191.0
2.41000008583 -0.0900000035763 0.237000003457 63.0
2.39499998093 -0.103000000119 0.236000001431 181.0
2.38400006294 -0.116999998689 0.234999999404 214.0
2.35700011253 -0.128999993205 0.232999995351 187.0
2.31900000572 -0.140000000596 0.229000002146 189.0
2.31500005722 -0.152999997139 0.229000002146 163.0
2.36999988556 -0.171000003815 0.233999997377 94.0
2.33400011063 -0.209000006318 0.231000006199 103.0
2.29200005531 -0.217999994755 0.226999998093 193.0
1.74699997902 -0.175999999046 0.172999992967 92.0
1.02600002289 -0.108000002801 0.101000003517 124.0
0.986000001431 -0.108999997377 0.097000002861 131.0
0.994000017643 -0.115999996662 0.097999997437 133.0
1.00499999523 -0.123000003397 0.0989999994636 130.0
0.990999996662 -0.127000004053 0.097000002861 136.0
1.00199997425 -0.135000005364 0.0989999994636 141.0
1.0 -0.140000000596 0.097999997437 140.0
0.991999983788 -0.144999995828 0.097999997437 138.0
1.01699995995 -0.155000001192 0.10000000149 137.0
1.00199997425 -0.158000007272 0.0989999994636 134.0
0.98299998045 -0.16099999845 0.097000002861 138.0
0.966000020504 -0.16400000453 0.0960000008345 139.0
1.02100002766 -0.179000005126 0.101000003517 137.0
0.98299998045 -0.179000005126 0.097999997437 133.0
0.985000014305 -0.185000002384 0.097999997437 137.0
0.977999985218 -0.188999995589 0.097000002861 138.0
0.986000001431 -0.196999996901 0.097999997437 132.0
0.981000006199 -0.202000007033 0.097999997437 140.0
0.949000000954 -0.201000005007 0.0949999988079 136.0
0.977999985218 -0.212999999523 0.097999997437 137.0
0.978999972343 -0.218999996781 0.097999997437 138.0
0.96899998188 -0.223000004888 0.097000002861 138.0
0.963999986649 -0.228000000119 0.097000002861 134.0
0.975000023842 -0.236000001431 0.097999997437 141.0
0.97000002861 -0.240999996662 0.097999997437 139.0
1.0039999485 -0.256000012159 0.101000003517 138.0
0.972000002861 -0.254000008106 0.097999997437 137.0
0.975000023842 -0.261000007391 0.0989999994636 136.0
0.959999978542 -0.263000011444 0.097000002861 138.0
0.980000019073 -0.273999989033 0.0989999994636 130.0
0.96899998188 -0.277000010014 0.0989999994636 136.0
0.957000017166 -0.280000001192 0.097000002861 126.0
1.0 -0.298999994993 0.101999998093 127.0
0.950999975204 -0.291000008583 0.097000002861 129.0
0.961000025272 -0.300000011921 0.097999997437 124.0
0.999000012875 -0.317999988794 0.103000000119 129.0
0.966000020504 -0.31400001049 0.0989999994636 123.0
0.995000004768 -0.330000013113 0.103000000119 122.0
0.976999998093 -0.330000013113 0.101000003517 127.0
0.949000000954 -0.326999992132 0.097999997437 121.0
0.962000012398 -0.337999999523 0.10000000149 122.0
0.952000021935 -0.340999990702 0.0989999994636 127.0
0.972999989986 -0.354999989271 0.101000003517 116.0
0.957000017166 -0.354999989271 0.10000000149 111.0
0.945999979973 -0.358000010252 0.0989999994636 123.0
0.962999999523 -0.370999991894 0.101000003517 109.0
0.955999970436 -0.375 0.10000000149 111.0
0.977999985218 -0.391000002623 0.103000000119 114.0
0.963999986649 -0.391999989748 0.101999998093 111.0
0.919000029564 -0.379999995232 0.097000002861 109.0
0.93599998951 -0.393000006676 0.0989999994636 109.0
0.941999971867 -0.402000010014 0.10000000149 104.0
0.943000018597 -0.409999996424 0.101000003517 104.0
0.949999988079 -0.419999986887 0.101999998093 103.0
0.944000005722 -0.423999994993 0.101000003517 98.0
0.933000028133 -0.425000011921 0.10000000149 106.0
0.916000008583 -0.425000011921 0.0989999994636 103.0
0.958000004292 -0.451000005007 0.104000002146 104.0
0.948000013828 -0.453999996185 0.103000000119 102.0
0.922999978065 -0.449000000954 0.10000000149 99.0
0.916999995708 -0.45300000906 0.10000000149 96.0
0.976999998093 -0.490000009537 0.107000000775 100.0
0.955999970436 -0.486999988556 0.104999996722 93.0
0.972999989986 -0.503000020981 0.107000000775 92.0
0.898999989033 -0.472000002861 0.0989999994636 89.0
0.880999982357 -0.469000011683 0.097000002861 88.0
0.938000023365 -0.508000016212 0.104000002146 87.0
0.90600001812 -0.497000008821 0.101000003517 92.0
0.936999976635 -0.522000014782 0.104999996722 93.0
3.87400007248 1.80799996853 0.381999999285 72.0
3.91599988937 1.79799997807 0.386000007391 72.0
3.882999897 1.75499999523 0.381999999285 76.0
4.03200006485 1.79200005531 0.395999997854 69.0
3.95700001717 1.73000001907 0.386999994516 78.0
3.84800004959 1.65499997139 0.375999987125 66.0
3.92600011826 1.65999996662 0.38299998641 72.0
3.9430000782 1.63999998569 0.384000003338 74.0
4.03000020981 1.64699995518 0.391999989748 69.0
4.10099983215 1.64800000191 0.398000001907 64.0
3.92100000381 1.54799997807 0.379999995232 62.0
3.97399997711 1.54100000858 0.384000003338 64.0
3.97900009155 1.51600003242 0.384000003338 66.0
4.01700019836 1.50300002098 0.386999994516 64.0
4.08300018311 1.47200000286 0.391999989748 67.0
3.91199994087 1.38399994373 0.375 66.0
3.98699998856 1.38399994373 0.381999999285 68.0
4.01800012589 1.36800003052 0.384000003338 63.0
3.97600007057 1.32799994946 0.379000008106 64.0
4.01200008392 1.31299996376 0.381999999285 64.0
3.992000103 1.28100001812 0.379999995232 66.0
3.93099999428 1.23500001431 0.374000012875 64.0
3.96700000763 1.22099995613 0.377000004053 70.0
1.12000000477 0.0419999994338 0.101999998093 99.0
2.38899993896 -0.103000000119 0.221000000834 231.0
2.38899993896 -0.116999998689 0.222000002861 265.0
2.36299991608 -0.128999993205 0.218999996781 217.0
2.32399988174 -0.140000000596 0.216000005603 193.0
2.32399988174 -0.153999999166 0.216000005603 158.0
2.34299993515 -0.168999999762 0.217999994755 88.0
2.31100010872 -0.207000002265 0.215000003576 103.0
2.29800009727 -0.218999996781 0.21400000155 191.0
1.6970000267 -0.171000003815 0.158000007272 97.0
1.02699995041 -0.108000002801 0.0949999988079 121.0
0.994000017643 -0.109999999404 0.0920000001788 134.0
0.998000025749 -0.116999998689 0.0920000001788 131.0
0.976000010967 -0.119999997318 0.0900000035763 136.0
0.990000009537 -0.127000004053 0.0920000001788 134.0
0.986000001431 -0.131999999285 0.0909999981523 130.0
0.961000025272 -0.135000005364 0.0890000015497 137.0
0.990000009537 -0.144999995828 0.0920000001788 129.0
1.01999998093 -0.155000001192 0.0949999988079 133.0
0.986000001431 -0.156000003219 0.0920000001788 145.0
0.990999996662 -0.162000000477 0.0920000001788 141.0
0.994000017643 -0.168999999762 0.0930000022054 140.0
1.01199996471 -0.178000003099 0.0939999967813 139.0
0.989000022411 -0.180000007153 0.0920000001788 140.0
0.955999970436 -0.179000005126 0.0890000015497 141.0
1.00999999046 -0.195999994874 0.0949999988079 142.0
0.980000019073 -0.195999994874 0.0920000001788 137.0
0.947000026703 -0.194999992847 0.0890000015497 135.0
0.973999977112 -0.206000000238 0.0920000001788 139.0
0.976999998093 -0.212999999523 0.0920000001788 132.0
0.986000001431 -0.221000000834 0.0930000022054 136.0
0.96899998188 -0.223000004888 0.0909999981523 139.0
0.952000021935 -0.22499999404 0.0900000035763 142.0
0.962000012398 -0.232999995351 0.0909999981523 139.0
0.966000020504 -0.239999994636 0.0920000001788 145.0
0.995999991894 -0.254000008106 0.0949999988079 141.0
0.975000023842 -0.254000008106 0.0930000022054 135.0
0.958999991417 -0.256000012159 0.0909999981523 142.0
0.989000022411 -0.270999997854 0.0939999967813 135.0
0.950999975204 -0.266000002623 0.0909999981523 135.0
0.972999989986 -0.277999997139 0.0930000022054 135.0
0.958999991417 -0.280999988317 0.0920000001788 127.0
0.936999976635 -0.280000001192 0.0900000035763 129.0
0.976999998093 -0.298999994993 0.0939999967813 128.0
0.961000025272 -0.300000011921 0.0930000022054 129.0
0.994000017643 -0.317000001669 0.0960000008345 121.0
0.975000023842 -0.317000001669 0.0939999967813 123.0
0.963999986649 -0.319999992847 0.0939999967813 127.0
0.962999999523 -0.324999988079 0.0939999967813 129.0
0.948000013828 -0.326999992132 0.0920000001788 128.0
0.957000017166 -0.33599999547 0.0930000022054 116.0
0.940999984741 -0.337000012398 0.0920000001788 119.0
0.947000026703 -0.344999998808 0.0930000022054 122.0
0.962000012398 -0.356999993324 0.0939999967813 125.0
0.930000007153 -0.351999998093 0.0920000001788 122.0
0.976999998093 -0.375999987125 0.0960000008345 117.0
0.949000000954 -0.372000008821 0.0939999967813 117.0
0.924000024796 -0.368999987841 0.0920000001788 113.0
0.964999973774 -0.391999989748 0.0960000008345 111.0
0.975000023842 -0.402999997139 0.097000002861 105.0
0.922999978065 -0.386999994516 0.0920000001788 112.0
0.921000003815 -0.393000006676 0.0920000001788 102.0
0.908999979496 -0.395000010729 0.0909999981523 101.0
0.935000002384 -0.412999987602 0.0939999967813 106.0
0.921000003815 -0.412999987602 0.0930000022054 110.0
0.944000005722 -0.430999994278 0.0960000008345 108.0
0.939999997616 -0.43599998951 0.0949999988079 107.0
0.927999973297 -0.437000006437 0.0939999967813 102.0
0.96899998188 -0.463999986649 0.0989999994636 103.0
0.898000001907 -0.43599998951 0.0920000001788 103.0
0.939999997616 -0.463999986649 0.097000002861 91.0
0.944000005722 -0.472999989986 0.097000002861 91.0
0.936999976635 -0.476999998093 0.097000002861 102.0
0.929000020027 -0.479999989271 0.0960000008345 93.0
0.925000011921 -0.485000014305 0.0960000008345 95.0
0.921000003815 -0.490000009537 0.0960000008345 95.0
0.936999976635 -0.505999982357 0.097999997437 87.0
0.896000027657 -0.490999996662 0.0939999967813 93.0
0.917999982834 -0.510999977589 0.097000002861 94.0
3.52300000191 1.77600002289 0.328999996185 81.0
3.53500008583 1.75499999523 0.328999996185 83.0
3.85500001907 1.79799997807 0.356000006199 76.0
3.90400004387 1.79100000858 0.360000014305 77.0
3.92100000381 1.77100002766 0.361000001431 77.0
3.95799994469 1.75800001621 0.363000005484 78.0
3.95000004768 1.72599995136 0.361999988556 82.0
3.91700005531 1.68299996853 0.358000010252 81.0
3.99499988556 1.68900001049 0.365000009537 72.0
3.90899991989 1.62399995327 0.356000006199 79.0
4.00899982452 1.63800001144 0.365000009537 79.0
3.87700009346 1.55700004101 0.351999998093 78.0
3.9279999733 1.54999995232 0.356000006199 76.0
3.94000005722 1.52799999714 0.356000006199 71.0
3.99099993706 1.51999998093 0.360000014305 85.0
3.96399998665 1.48199999332 0.356999993324 77.0
3.98300004005 1.4620000124 0.358000010252 69.0
3.97900009155 1.43400001526 0.358000010252 82.0
3.97399997711 1.40600001812 0.356999993324 77.0
3.96000003815 1.37399995327 0.354999989271 76.0
3.99699997902 1.36000001431 0.358000010252 71.0
3.94099998474 1.31500005722 0.351999998093 73.0
3.95399999619 1.29400002956 0.352999985218 78.0
4.08900022507 1.31099998951 0.363999992609 66.0
4.05800008774 1.27499997616 0.361000001431 70.0
3.98600006104 1.22599995136 0.354000002146 82.0
4.01999998093 1.21099996567 0.356999993324 73.0
2.40599989891 -0.0900000035763 0.209000006318 91.0
2.382999897 -0.103000000119 0.207000002265 232.0
2.39499998093 -0.116999998689 0.208000004292 259.0
2.35500001907 -0.128999993205 0.204999998212 213.0
2.33299994469 -0.141000002623 0.202999994159 192.0
2.33200001717 -0.155000001192 0.202999994159 151.0
2.36299991608 -0.21099999547 0.206000000238 112.0
2.3029999733 -0.218999996781 0.201000005007 190.0
1.73599994183 -0.17499999702 0.150999993086 97.0
1.01199996471 -0.105999998748 0.0869999974966 132.0
0.972999989986 -0.108000002801 0.0839999988675 134.0
0.987999975681 -0.115000002086 0.0850000008941 138.0
0.986999988556 -0.120999999344 0.0850000008941 136.0
0.986999988556 -0.127000004053 0.0860000029206 134.0
1.00800001621 -0.135000005364 0.0869999974966 136.0
0.967999994755 -0.136000007391 0.0839999988675 137.0
0.949999988079 -0.138999998569 0.082000002265 135.0
0.991999983788 -0.150999993086 0.0860000029206 134.0
0.977999985218 -0.153999999166 0.0850000008941 141.0
0.998000025749 -0.163000002503 0.0869999974966 141.0
0.981000006199 -0.165999993682 0.0860000029206 137.0
0.995000004768 -0.17499999702 0.0869999974966 139.0
0.981999993324 -0.178000003099 0.0860000029206 134.0
0.994000017643 -0.187000006437 0.0869999974966 146.0
0.989000022411 -0.192000001669 0.0869999974966 138.0
0.98400002718 -0.196999996901 0.0860000029206 138.0
0.972999989986 -0.20000000298 0.0860000029206 142.0
0.967000007629 -0.204999998212 0.0850000008941 139.0
0.950999975204 -0.207000002265 0.0839999988675 142.0
0.971000015736 -0.216999992728 0.0860000029206 135.0
0.987999975681 -0.226999998093 0.0869999974966 146.0
0.97000002861 -0.229000002146 0.0860000029206 147.0
0.963999986649 -0.232999995351 0.0850000008941 143.0
0.987999975681 -0.246000006795 0.0879999995232 136.0
0.972000002861 -0.247999995947 0.0860000029206 134.0
0.985000014305 -0.256999999285 0.0879999995232 134.0
0.950999975204 -0.254000008106 0.0850000008941 134.0
0.973999977112 -0.266000002623 0.0869999974966 135.0
0.972000002861 -0.272000014782 0.0869999974966 140.0
0.98299998045 -0.280999988317 0.0879999995232 134.0
0.958999991417 -0.280999988317 0.0860000029206 134.0
0.945999979973 -0.282000005245 0.0850000008941 128.0
0.990000009537 -0.301999986172 0.0890000015497 133.0
0.976999998093 -0.305000007153 0.0879999995232 129.0
0.954999983311 -0.303999990225 0.0860000029206 127.0
0.945999979973 -0.307000011206 0.0860000029206 127.0
0.958000004292 -0.317000001669 0.0869999974966 126.0
0.941999971867 -0.317999988794 0.0860000029206 128.0
0.978999972343 -0.337000012398 0.0890000015497 123.0
0.964999973774 -0.338999986649 0.0879999995232 127.0
0.930999994278 -0.333000004292 0.0850000008941 114.0
0.938000023365 -0.342000007629 0.0860000029206 120.0
0.940999984741 -0.349000006914 0.0869999974966 117.0
0.975000023842 -0.368999987841 0.0900000035763 115.0
0.955999970436 -0.368000000715 0.0879999995232 114.0
0.944000005722 -0.370000004768 0.0869999974966 113.0
0.916999995708 -0.365999996662 0.0850000008941 113.0
0.947000026703 -0.384000003338 0.0879999995232 108.0
0.950999975204 -0.391999989748 0.0890000015497 113.0
0.949000000954 -0.398000001907 0.0890000015497 114.0
0.954999983311 -0.407999992371 0.0900000035763 111.0
0.916999995708 -0.398000001907 0.0860000029206 105.0
0.947000026703 -0.418000012636 0.0890000015497 113.0
0.950999975204 -0.426999986172 0.0900000035763 103.0
0.944000005722 -0.430000007153 0.0900000035763 99.0
0.977999985218 -0.45300000906 0.0930000022054 104.0
0.941999971867 -0.442999988794 0.0900000035763 101.0
0.95300000906 -0.456000000238 0.0909999981523 103.0
0.935000002384 -0.453999996185 0.0900000035763 100.0
0.927999973297 -0.458000004292 0.0890000015497 98.0
0.935000002384 -0.467999994755 0.0900000035763 94.0
0.879000008106 -0.446999996901 0.0850000008941 92.0
0.902000010014 -0.465999990702 0.0879999995232 94.0
0.939999997616 -0.493000000715 0.0920000001788 89.0
0.954999983311 -0.508000016212 0.0930000022054 92.0
0.977999985218 -0.527999997139 0.0960000008345 90.0
0.902000010014 -0.493999987841 0.0890000015497 85.0
0.929000020027 -0.51700001955 0.0920000001788 92.0
2.70399999619 1.55700004101 0.239999994636 82.0
3.05800008774 1.63600003719 0.268000006676 92.0
3.11100006104 1.63999998569 0.272000014782 88.0
3.15100002289 1.63600003719 0.27500000596 89.0
3.50999999046 1.76900005341 0.305000007153 113.0
3.52800011635 1.75 0.305999994278 106.0
3.53200006485 1.72599995136 0.305999994278 85.0
3.82299995422 1.78199994564 0.328999996185 94.0
3.8599998951 1.76999998093 0.331000000238 108.0
3.85199999809 1.73899996281 0.330000013113 116.0
3.89599990845 1.73000001907 0.333000004292 109.0
3.84999990463 1.68200004101 0.328999996185 107.0
3.97699999809 1.70899999142 0.338999986649 104.0
3.89599990845 1.64600002766 0.331000000238 107.0
3.88899993896 1.61600005627 0.330000013113 103.0
3.96399998665 1.61899995804 0.33599999547 107.0
3.93899989128 1.58099997044 0.333000004292 109.0
3.9240000248 1.54700005054 0.331000000238 105.0
3.89299988747 1.50800001621 0.32800000906 106.0
3.91199994087 1.48899996281 0.328999996185 106.0
3.93799996376 1.47200000286 0.331000000238 109.0
3.95799994469 1.45299994946 0.331999987364 107.0
3.94799995422 1.42200005054 0.331000000238 111.0
3.97699999809 1.40600001812 0.333000004292 107.0
3.96700000763 1.37600004673 0.331000000238 100.0
3.9509999752 1.34399998188 0.328999996185 104.0
4.02400016785 1.34200000763 0.335000008345 99.0
3.97499990463 1.29999995232 0.330000013113 107.0
3.94400000572 1.26400005817 0.326999992132 102.0
3.97099995613 1.2460000515 0.328999996185 108.0
4.007999897 1.23199999332 0.331999987364 116.0
3.9849998951 1.20000004768 0.330000013113 71.0
2.41400003433 -0.104000002146 0.195999994874 241.0
2.39499998093 -0.116999998689 0.194000005722 268.0
2.35500001907 -0.128999993205 0.190999999642 219.0
2.31299996376 -0.140000000596 0.187999993563 194.0
2.33500003815 -0.155000001192 0.189999997616 146.0
2.46099996567 -0.206000000238 0.20000000298 51.0
2.38499999046 -0.212999999523 0.194000005722 138.0
2.30500006676 -0.219999998808 0.187999993563 194.0
1.64400005341 -0.165000006557 0.134000003338 98.0
0.995999991894 -0.104999996722 0.0799999982119 133.0
1.01199996471 -0.112000003457 0.082000002265 130.0
0.989000022411 -0.115000002086 0.0799999982119 138.0
1.01300001144 -0.123999997973 0.082000002265 136.0
1.00199997425 -0.128999993205 0.0810000002384 139.0
0.981999993324 -0.131999999285 0.0790000036359 137.0
0.990999996662 -0.138999998569 0.0799999982119 141.0
1.00999999046 -0.146999999881 0.082000002265 144.0
0.991999983788 -0.150999993086 0.0810000002384 138.0
1.0 -0.158000007272 0.0810000002384 140.0
1.00199997425 -0.16400000453 0.082000002265 151.0
0.98299998045 -0.166999995708 0.0799999982119 144.0
0.990999996662 -0.173999994993 0.0810000002384 143.0
1.00199997425 -0.181999996305 0.082000002265 148.0
0.976000010967 -0.182999998331 0.0799999982119 143.0
0.985000014305 -0.190999999642 0.0810000002384 135.0
0.975000023842 -0.194999992847 0.0799999982119 146.0
0.98400002718 -0.202000007033 0.0810000002384 144.0
0.985000014305 -0.208000004292 0.0810000002384 144.0
0.98400002718 -0.21400000155 0.0810000002384 141.0
0.978999972343 -0.218999996781 0.0810000002384 137.0
0.981000006199 -0.225999996066 0.0810000002384 140.0
0.961000025272 -0.226999998093 0.0790000036359 142.0
0.996999979019 -0.241999998689 0.082999996841 143.0
0.981000006199 -0.244000002742 0.0810000002384 144.0
0.957000017166 -0.243000000715 0.0790000036359 139.0
0.976999998093 -0.254999995232 0.0810000002384 137.0
0.98299998045 -0.261999994516 0.082000002265 134.0
0.949000000954 -0.259000003338 0.0790000036359 137.0
0.976999998093 -0.273000001907 0.082000002265 133.0
0.97000002861 -0.277999997139 0.0810000002384 135.0
0.963999986649 -0.282000005245 0.0810000002384 127.0
0.948000013828 -0.282999992371 0.0799999982119 127.0
0.957000017166 -0.291999995708 0.0810000002384 131.0
0.961000025272 -0.298999994993 0.0810000002384 129.0
0.931999981403 -0.296000003815 0.0790000036359 124.0
0.992999970913 -0.321999996901 0.0839999988675 129.0
0.97000002861 -0.321000009775 0.082000002265 125.0
0.975000023842 -0.328999996185 0.082999996841 126.0
0.985000014305 -0.338999986649 0.0839999988675 124.0
0.95300000906 -0.333999991417 0.0810000002384 122.0
0.947000026703 -0.338999986649 0.0810000002384 119.0
0.96899998188 -0.352999985218 0.082999996841 123.0
0.961000025272 -0.356999993324 0.082999996841 119.0
0.93599998951 -0.354000002146 0.0810000002384 114.0
0.945999979973 -0.363999992609 0.082000002265 118.0
0.957000017166 -0.375 0.082999996841 114.0
0.940999984741 -0.375 0.082000002265 111.0
0.972999989986 -0.395000010729 0.0850000008941 118.0
0.977999985218 -0.404000014067 0.0850000008941 105.0
0.916000008583 -0.384000003338 0.0799999982119 112.0
0.899999976158 -0.384000003338 0.0790000036359 116.0
0.908999979496 -0.393999993801 0.0799999982119 104.0
0.961000025272 -0.423999994993 0.0850000008941 101.0
0.953999996185 -0.428000003099 0.0839999988675 103.0
0.926999986172 -0.42199999094 0.082000002265 99.0
0.967000007629 -0.448000013828 0.0860000029206 104.0
0.889999985695 -0.418999999762 0.0790000036359 97.0
0.92199999094 -0.439999997616 0.082000002265 99.0
0.962999999523 -0.467999994755 0.0860000029206 104.0
0.953999996185 -0.469999998808 0.0860000029206 97.0
0.929000020027 -0.465000003576 0.0839999988675 95.0
0.912999987602 -0.463999986649 0.082999996841 95.0
0.945999979973 -0.488999992609 0.0860000029206 95.0
0.952000021935 -0.499000012875 0.0869999974966 98.0
0.910000026226 -0.483999997377 0.082999996841 94.0
0.972000002861 -0.524999976158 0.0890000015497 99.0
0.916999995708 -0.501999974251 0.0839999988675 96.0
0.901000022888 -0.500999987125 0.082999996841 86.0
3.10400009155 1.63600003719 0.252000004053 82.0
3.21700000763 1.66999995708 0.259999990463 88.0
3.52699995041 1.8029999733 0.284999996424 93.0
3.51799988747 1.77199995518 0.282999992371 98.0
3.54800009727 1.75999999046 0.284999996424 95.0
3.89599990845 1.81500005722 0.31099998951 87.0
3.91199994087 1.79400002956 0.31099998951 106.0
3.88599991798 1.75300002098 0.308999985456 100.0
3.99499988556 1.77300000191 0.317000001669 99.0
3.88400006294 1.69599997997 0.307000011206 104.0
3.90400004387 1.67599999905 0.307999998331 97.0
3.90400004387 1.64900004864 0.307999998331 95.0
3.9279999733 1.63100004196 0.308999985456 92.0
3.96000003815 1.61600005627 0.31099998951 89.0
3.96199989319 1.58899998665 0.310000002384 90.0
3.95700001717 1.55999994278 0.310000002384 93.0
3.95499992371 1.53100001812 0.308999985456 92.0
4.00299978256 1.52199995518 0.312000006437 100.0
3.99699997902 1.49300003052 0.31099998951 92.0
3.97399997711 1.45700001717 0.308999985456 96.0
3.96700000763 1.4279999733 0.307999998331 95.0
3.96399998665 1.40100002289 0.307000011206 98.0
4.007999897 1.38900005817 0.310000002384 92.0
4.01800012589 1.36600005627 0.310000002384 93.0
4.02099990845 1.3409999609 0.310000002384 100.0
3.98300004005 1.30200004578 0.307000011206 98.0
4.00500011444 1.28299999237 0.307999998331 90.0
3.97699999809 1.24800002575 0.305999994278 92.0
4.02299976349 1.23599994183 0.308999985456 97.0
3.94099998474 1.18599998951 0.301999986172 75.0
2.4509999752 -0.0920000001788 0.184000000358 100.0
2.40499997139 -0.104000002146 0.180999994278 246.0
2.38499999046 -0.116999998689 0.180000007153 265.0
2.34699988365 -0.12800000608 0.177000001073 219.0
2.32299995422 -0.140000000596 0.17499999702 200.0
2.3259999752 -0.153999999166 0.175999999046 144.0
2.32800006866 -0.167999997735 0.175999999046 102.0
2.51099991798 -0.209999993443 0.189999997616 53.0
2.3789999485 -0.212999999523 0.180000007153 129.0
2.32100009918 -0.221000000834 0.175999999046 193.0
1.625 -0.163000002503 0.123000003397 96.0
1.00600004196 -0.105999998748 0.0750000029802 131.0
0.994000017643 -0.109999999404 0.0740000009537 131.0
0.977999985218 -0.11400000006 0.0729999989271 143.0
0.998000025749 -0.122000001371 0.0750000029802 134.0
0.986999988556 -0.127000004053 0.0740000009537 136.0
0.971000015736 -0.129999995232 0.0729999989271 141.0
1.0039999485 -0.141000002623 0.0750000029802 145.0
0.985000014305 -0.143999993801 0.0740000009537 141.0
0.963999986649 -0.145999997854 0.0729999989271 140.0
0.962999999523 -0.151999995112 0.0719999969006 147.0
0.975000023842 -0.159999996424 0.0740000009537 148.0
0.995999991894 -0.168999999762 0.0750000029802 148.0
1.01400005817 -0.178000003099 0.0769999995828 143.0
0.989000022411 -0.180000007153 0.0750000029802 140.0
0.966000020504 -0.180999994278 0.0729999989271 140.0
1.00600004196 -0.194999992847 0.0759999975562 150.0
0.981999993324 -0.195999994874 0.0750000029802 144.0
0.990000009537 -0.203999996185 0.0750000029802 142.0
0.978999972343 -0.207000002265 0.0750000029802 149.0
0.96899998188 -0.21099999547 0.0740000009537 145.0
0.963999986649 -0.216000005603 0.0740000009537 144.0
0.96899998188 -0.223000004888 0.0740000009537 139.0
0.962000012398 -0.226999998093 0.0740000009537 137.0
0.971000015736 -0.234999999404 0.0750000029802 138.0
0.981000006199 -0.244000002742 0.0750000029802 138.0
0.966000020504 -0.246000006795 0.0740000009537 135.0
0.980000019073 -0.256000012159 0.0759999975562 137.0
0.947000026703 -0.252999991179 0.0729999989271 144.0
0.976000010967 -0.266999989748 0.0759999975562 138.0
0.972000002861 -0.272000014782 0.0750000029802 138.0
0.975000023842 -0.279000014067 0.0759999975562 138.0
0.96899998188 -0.282999992371 0.0750000029802 133.0
0.955999970436 -0.286000013351 0.0750000029802 127.0
0.966000020504 -0.294999986887 0.0750000029802 132.0
0.96899998188 -0.301999986172 0.0759999975562 127.0
0.947000026703 -0.300999999046 0.0740000009537 135.0
0.978999972343 -0.317999988794 0.0769999995828 129.0
0.972999989986 -0.321999996901 0.0769999995828 128.0
0.962999999523 -0.324999988079 0.0759999975562 126.0
0.975000023842 -0.33599999547 0.0769999995828 125.0
0.98299998045 -0.344999998808 0.0780000016093 122.0
0.916000008583 -0.326999992132 0.0729999989271 123.0
0.97000002861 -0.354000002146 0.0769999995828 131.0
0.962999999523 -0.356999993324 0.0769999995828 123.0
0.945999979973 -0.358000010252 0.0759999975562 121.0
0.959999978542 -0.368999987841 0.0769999995828 118.0
0.958000004292 -0.375 0.0769999995828 117.0
0.921000003815 -0.36700001359 0.0740000009537 119.0
0.945999979973 -0.38299998641 0.0759999975562 109.0
0.93900001049 -0.386999994516 0.0759999975562 109.0
0.962999999523 -0.404000014067 0.0780000016093 112.0
0.926999986172 -0.395999997854 0.0750000029802 109.0
0.927999973297 -0.402000010014 0.0759999975562 109.0
0.940999984741 -0.414999991655 0.0769999995828 108.0
0.920000016689 -0.412000000477 0.0759999975562 102.0
0.93599998951 -0.425999999046 0.0769999995828 104.0
0.959999978542 -0.444000005722 0.0790000036359 103.0
0.934000015259 -0.43900001049 0.0769999995828 102.0
0.912000000477 -0.435000002384 0.0759999975562 99.0
0.966000020504 -0.469000011683 0.0810000002384 102.0
0.945999979973 -0.465999990702 0.0790000036359 102.0
0.912000000477 -0.456999987364 0.0759999975562 99.0
0.916000008583 -0.465000003576 0.0769999995828 97.0
0.931999981403 -0.481000006199 0.0790000036359 94.0
0.963999986649 -0.504999995232 0.082000002265 96.0
0.963999986649 -0.513000011444 0.082000002265 95.0
0.908999979496 -0.490999996662 0.0769999995828 91.0
0.925999999046 -0.507000029087 0.0790000036359 91.0
0.931999981403 -0.518000006676 0.0799999982119 93.0
3.60299992561 1.78600001335 0.266999989748 82.0
3.992000103 1.85899996758 0.293000012636 76.0
3.98099994659 1.82400000095 0.291999995708 77.0
3.96300005913 1.78699994087 0.289999991655 79.0
3.99300003052 1.77100002766 0.291000008583 75.0
3.93899989128 1.71899998188 0.287000000477 81.0
4.05499982834 1.74000000954 0.294999986887 70.0
4.02400016785 1.69799995422 0.291999995708 75.0
3.91100001335 1.62300002575 0.282999992371 70.0
4.00400018692 1.63300001621 0.289999991655 70.0
4.11199998856 1.64900004864 0.29699999094 66.0
4.04799985886 1.59500002861 0.291999995708 70.0
4.05800008774 1.57099997997 0.291999995708 70.0
3.97300004959 1.51100003719 0.284999996424 69.0
4.05499982834 1.51400005817 0.291000008583 70.0
4.11800003052 1.50999999046 0.294999986887 67.0
4.10200023651 1.47599995136 0.293000012636 67.0
3.96900010109 1.40199995041 0.282999992371 67.0
4.07899999619 1.4129999876 0.291000008583 75.0
4.15700006485 1.4129999876 0.296000003815 70.0
4.08900022507 1.36300003529 0.291000008583 70.0
4.15799999237 1.35800004005 0.294999986887 67.0
4.02799987793 1.28900003433 0.286000013351 63.0
4.11000013351 1.26199996471 0.291000008583 66.0
2.39599990845 -0.0900000035763 0.165999993682 108.0
2.40400004387 -0.104000002146 0.166999995708 252.0
2.39400005341 -0.116999998689 0.165999993682 270.0
2.36100006104 -0.128999993205 0.16400000453 210.0
2.31500005722 -0.140000000596 0.16099999845 186.0
2.33200001717 -0.153999999166 0.162000000477 144.0
2.34299993515 -0.168999999762 0.163000002503 103.0
2.32899999619 -0.208000004292 0.163000002503 119.0
2.28600001335 -0.217999994755 0.159999996424 195.0
1.64199995995 -0.165000006557 0.11400000006 96.0
0.995000004768 -0.104000002146 0.0689999982715 136.0
0.98400002718 -0.108999997377 0.0680000036955 135.0
0.996999979019 -0.115999996662 0.0689999982715 137.0
0.972999989986 -0.119000002742 0.0670000016689 138.0
0.98400002718 -0.126000002027 0.0680000036955 140.0
0.978999972343 -0.130999997258 0.0680000036955 138.0
0.996999979019 -0.140000000596 0.0689999982715 140.0
0.986999988556 -0.143999993801 0.0680000036955 145.0
0.98400002718 -0.149000003934 0.0680000036955 140.0
0.995999991894 -0.157000005245 0.0689999982715 143.0
0.987999975681 -0.162000000477 0.0689999982715 148.0
0.990999996662 -0.167999997735 0.0689999982715 151.0
0.995000004768 -0.17499999702 0.0689999982715 143.0
0.975000023842 -0.177000001073 0.0680000036955 142.0
0.980000019073 -0.184000000358 0.0689999982715 145.0
0.980000019073 -0.189999997616 0.0689999982715 144.0
0.961000025272 -0.192000001669 0.0670000016689 150.0
0.980000019073 -0.202000007033 0.0689999982715 147.0
0.981999993324 -0.208000004292 0.0689999982715 143.0
0.990000009537 -0.216000005603 0.070000000298 138.0
0.977999985218 -0.218999996781 0.0689999982715 145.0
0.978999972343 -0.22499999404 0.0689999982715 143.0
0.985000014305 -0.231999993324 0.070000000298 139.0
0.940999984741 -0.228000000119 0.0670000016689 138.0
0.972000002861 -0.240999996662 0.0689999982715 141.0
0.992999970913 -0.252999991179 0.0710000023246 140.0
0.990999996662 -0.259000003338 0.0710000023246 139.0
0.972000002861 -0.259999990463 0.0689999982715 137.0
0.966000020504 -0.263999998569 0.0689999982715 142.0
0.98400002718 -0.27500000596 0.070000000298 137.0
0.980000019073 -0.280000001192 0.070000000298 137.0
0.976000010967 -0.284999996424 0.070000000298 136.0
0.986000001431 -0.294999986887 0.0710000023246 130.0
0.981000006199 -0.298999994993 0.0710000023246 131.0
0.933000028133 -0.291000008583 0.0670000016689 128.0
0.978999972343 -0.31099998951 0.0710000023246 133.0
0.957000017166 -0.310000002384 0.0689999982715 132.0
0.973999977112 -0.321999996901 0.0710000023246 135.0
0.958000004292 -0.323000013828 0.070000000298 122.0
0.919000029564 -0.316000014544 0.0670000016689 125.0
0.971000015736 -0.340999990702 0.0710000023246 121.0
0.972999989986 -0.347999989986 0.0710000023246 121.0
0.949000000954 -0.344999998808 0.070000000298 122.0
0.962000012398 -0.356999993324 0.0710000023246 120.0
0.939999997616 -0.354999989271 0.0689999982715 119.0
0.940999984741 -0.361999988556 0.070000000298 115.0
0.944999992847 -0.370000004768 0.070000000298 115.0
0.952000021935 -0.379000008106 0.0710000023246 114.0
0.948000013828 -0.384000003338 0.0710000023246 111.0
0.912000000477 -0.375999987125 0.0680000036955 111.0
0.933000028133 -0.391000002623 0.070000000298 108.0
0.944999992847 -0.402999997139 0.0710000023246 110.0
0.948000013828 -0.411000013351 0.0710000023246 106.0
0.926999986172 -0.409000009298 0.070000000298 109.0
0.957000017166 -0.428999990225 0.0729999989271 105.0
0.945999979973 -0.430999994278 0.0719999969006 102.0
0.940999984741 -0.435000002384 0.0719999969006 99.0
0.924000024796 -0.433999985456 0.0710000023246 105.0
0.945999979973 -0.451999992132 0.0729999989271 101.0
0.962000012398 -0.467000007629 0.0740000009537 94.0
0.943000018597 -0.465000003576 0.0729999989271 89.0
0.925999999046 -0.462999999523 0.0719999969006 102.0
0.981999993324 -0.499000012875 0.0759999975562 95.0
0.885999977589 -0.456000000238 0.0689999982715 96.0
0.903999984264 -0.472999989986 0.0710000023246 89.0
0.947000026703 -0.504000008106 0.0740000009537 101.0
0.902000010014 -0.486000001431 0.0710000023246 90.0
0.920000016689 -0.504000008106 0.0729999989271 90.0
0.908999979496 -0.504999995232 0.0719999969006 94.0
4.07700014114 1.86699998379 0.273000001907 70.0
3.84599995613 1.73300004005 0.256999999285 75.0
4.14200019836 1.83599996567 0.275999993086 69.0
4.09999990463 1.7879999876 0.273000001907 72.0
4.19500017166 1.7990000248 0.279000014067 65.0
4.05900001526 1.7120000124 0.268999993801 68.0
4.10699987411 1.70399999619 0.272000014782 69.0
4.17500019073 1.70200002193 0.275999993086 67.0
4.18200016022 1.67599999905 0.275999993086 65.0
4.09899997711 1.61399996281 0.270000010729 64.0
4.0609998703 1.57099997997 0.266999989748 72.0
4.0689997673 1.51900005341 0.266999989748 65.0
4.10400009155 1.5039999485 0.268999993801 66.0
4.06799983978 1.46300005913 0.266000002623 69.0
4.09399986267 1.44500005245 0.266999989748 70.0
4.22300004959 1.4620000124 0.27500000596 61.0
4.23500013351 1.43900001049 0.275999993086 60.0
4.07299995422 1.3029999733 0.263999998569 59.0
4.08599996567 1.28100001812 0.264999985695 68.0
4.44299983978 1.36399996281 0.287999987602 56.0
2.42000007629 -0.0909999981523 0.153999999166 129.0
2.39599990845 -0.104000002146 0.152999997139 258.0
2.40400004387 -0.118000000715 0.152999997139 280.0
2.36199998856 -0.128999993205 0.150999993086 213.0
2.32399988174 -0.141000002623 0.148000001907 195.0
2.31500005722 -0.152999997139 0.148000001907 147.0
2.39599990845 -0.172999992967 0.152999997139 82.0
