ply
format ascii 1.0
element vertex 913
property float x
property float y
property float z
property float intensity
end_header
4.85599994659 0.202999994159 -0.138999998569 58.0
4.85400009155 0.17499999702 -0.137999996543 58.0
4.88899993896 0.148000001907 -0.138999998569 56.0
4.84899997711 0.119000002742 -0.137999996543 53.0
4.85200023651 0.0909999981523 -0.137999996543 52.0
4.86100006104 0.0630000010133 -0.137999996543 56.0
4.94000005722 0.0359999984503 -0.140000000596 53.0
2.32999992371 -0.0209999997169 -0.0659999996424 47.0
0.92199999094 -0.0439999997616 -0.0260000005364 1659.0
0.92199999094 -0.0489999987185 -0.0260000005364 1719.0
0.919000029564 -0.0540000014007 -0.0260000005364 1697.0
0.915000021458 -0.0590000003576 -0.0260000005364 1764.0
0.913999974728 -0.0640000030398 -0.0260000005364 1696.0
0.921000003815 -0.070000000298 -0.0260000005364 1757.0
0.915000021458 -0.0750000029802 -0.0260000005364 1783.0
0.912000000477 -0.0799999982119 -0.0260000005364 1764.0
0.913999974728 -0.0850000008941 -0.0260000005364 1778.0
0.911000013351 -0.0900000035763 -0.0260000005364 1724.0
0.919000029564 -0.097000002861 -0.0260000005364 1692.0
0.907999992371 -0.101000003517 -0.0260000005364 1699.0
0.912999987602 -0.105999998748 -0.0260000005364 1672.0
0.911000013351 -0.112000003457 -0.0260000005364 1689.0
0.913999974728 -0.116999998689 -0.0260000005364 1665.0
0.915000021458 -0.123000003397 -0.0260000005364 1640.0
0.908999979496 -0.127000004053 -0.0260000005364 1651.0
0.912000000477 -0.133000001311 -0.0260000005364 1690.0
0.907999992371 -0.137999996543 -0.0260000005364 1661.0
0.908999979496 -0.143000006676 -0.0260000005364 1674.0
0.912000000477 -0.149000003934 -0.0260000005364 1738.0
0.907999992371 -0.153999999166 -0.0260000005364 1764.0
0.912999987602 -0.159999996424 -0.0260000005364 1848.0
0.907000005245 -0.16400000453 -0.0260000005364 1847.0
0.908999979496 -0.170000001788 -0.0260000005364 1807.0
0.907000005245 -0.17499999702 -0.0260000005364 1817.0
0.902999997139 -0.180000007153 -0.0260000005364 1816.0
0.902000010014 -0.185000002384 -0.0250000003725 1833.0
0.899999976158 -0.189999997616 -0.0250000003725 1820.0
0.90600001812 -0.196999996901 -0.0260000005364 1791.0
0.901000022888 -0.201000005007 -0.0250000003725 1823.0
0.899999976158 -0.207000002265 -0.0250000003725 1838.0
0.901000022888 -0.211999997497 -0.0250000003725 1825.0
0.898999989033 -0.217999994755 -0.0250000003725 1773.0
0.902000010014 -0.224000006914 -0.0250000003725 1760.0
0.896000027657 -0.228000000119 -0.0250000003725 1778.0
0.902000010014 -0.234999999404 -0.0260000005364 1777.0
0.898999989033 -0.239999994636 -0.0250000003725 1789.0
0.894999980927 -0.244000002742 -0.0250000003725 1737.0
0.894999980927 -0.25 -0.0250000003725 1703.0
0.894999980927 -0.254999995232 -0.0250000003725 1703.0
0.89200001955 -0.259999990463 -0.0250000003725 1700.0
0.894999980927 -0.266999989748 -0.0250000003725 1739.0
0.89200001955 -0.272000014782 -0.0250000003725 1733.0
0.888999998569 -0.275999993086 -0.0250000003725 1743.0
0.893999993801 -0.284000009298 -0.0250000003725 1718.0
0.889999985695 -0.287999987602 -0.0250000003725 1714.0
0.889999985695 -0.293999999762 -0.0250000003725 1761.0
0.888000011444 -0.298999994993 -0.0250000003725 1782.0
0.89200001955 -0.305999994278 -0.0250000003725 1789.0
0.89099997282 -0.312000006437 -0.0250000003725 1784.0
0.888000011444 -0.317000001669 -0.0250000003725 1841.0
0.887000024319 -0.323000013828 -0.0250000003725 1825.0
0.885999977589 -0.32800000906 -0.0250000003725 1817.0
0.880999982357 -0.331999987364 -0.0250000003725 1847.0
0.884999990463 -0.340000003576 -0.0250000003725 1793.0
0.885999977589 -0.345999985933 -0.0250000003725 1788.0
0.884000003338 -0.351999998093 -0.0250000003725 1815.0
0.880999982357 -0.356000006199 -0.0250000003725 1756.0
0.875999987125 -0.361000001431 -0.0250000003725 1718.0
0.884999990463 -0.370000004768 -0.0250000003725 1713.0
0.879999995232 -0.375 -0.0250000003725 1727.0
0.879000008106 -0.381000012159 -0.0250000003725 1677.0
0.880999982357 -0.386999994516 -0.0250000003725 1719.0
0.875999987125 -0.391999989748 -0.0250000003725 1726.0
0.875 -0.398000001907 -0.0250000003725 1721.0
0.875999987125 -0.405000001192 -0.0250000003725 1729.0
0.875 -0.411000013351 -0.0250000003725 1743.0
0.870999991894 -0.414999991655 -0.0250000003725 1799.0
0.874000012875 -0.423000007868 -0.0250000003725 1774.0
0.878000020981 -0.432000011206 -0.0260000005364 1789.0
0.871999979019 -0.435000002384 -0.0250000003725 1733.0
0.874000012875 -0.442999988794 -0.0260000005364 1752.0
0.870999991894 -0.448000013828 -0.0250000003725 1779.0
0.865999996662 -0.45300000906 -0.0250000003725 1745.0
0.869000017643 -0.46099999547 -0.0260000005364 1755.0
0.869000017643 -0.467999994755 -0.0260000005364 1730.0
0.865000009537 -0.472999989986 -0.0260000005364 1724.0
0.865000009537 -0.479999989271 -0.0260000005364 1758.0
2.04399991035 1.17200005054 -0.0850000008941 313.0
2.04600000381 1.15600001812 -0.0839999988675 304.0
2.06200003624 1.14800000191 -0.0850000008941 176.0
2.09400010109 1.14900004864 -0.0860000029206 118.0
2.09299993515 1.13199996948 -0.0850000008941 228.0
2.16300010681 1.15199995041 -0.0879999995232 383.0
2.21600008011 1.1629999876 -0.0900000035763 192.0
2.28800010681 1.18299996853 -0.0920000001788 95.0
3.26200008392 1.28100001812 -0.123999997973 104.0
3.34899997711 1.29200005531 -0.127000004053 86.0
3.47799992561 1.31799995899 -0.131999999285 72.0
3.68799996376 1.37199997902 -0.138999998569 91.0
3.71099996567 1.35599994659 -0.140000000596 122.0
3.71900010109 1.33399999142 -0.140000000596 113.0
3.85599994659 1.35699999332 -0.144999995828 81.0
3.82100009918 1.31900000572 -0.143000006676 137.0
3.90199995041 1.3220000267 -0.145999997854 122.0
4.02199983597 1.33500003815 -0.15000000596 135.0
4.0640001297 1.32299995422 -0.150999993086 134.0
4.03399991989 1.28699994087 -0.149000003934 132.0
4.08400011063 1.27600002289 -0.150999993086 135.0
4.03299999237 1.23399996758 -0.149000003934 124.0
4.02799987793 1.20700001717 -0.148000001907 128.0
4.10500001907 1.20399999619 -0.150999993086 126.0
4.03900003433 1.1590000391 -0.148000001907 136.0
4.07299995422 1.14300000668 -0.149000003934 138.0
4.08799982071 1.1210000515 -0.149000003934 139.0
4.0720000267 1.0909999609 -0.148000001907 138.0
4.0609998703 1.06299996376 -0.146999999881 136.0
4.10500001907 1.0490000248 -0.149000003934 143.0
4.07499980927 1.01600003242 -0.146999999881 140.0
4.08300018311 0.991999983788 -0.146999999881 146.0
4.09899997711 0.971000015736 -0.148000001907 143.0
4.07899999619 0.940999984741 -0.146999999881 126.0
4.08799982071 0.917999982834 -0.146999999881 138.0
4.04300022125 0.883000016212 -0.144999995828 145.0
4.07800006866 0.865999996662 -0.145999997854 144.0
4.08799982071 0.84399998188 -0.145999997854 142.0
4.07100009918 0.815999984741 -0.144999995828 140.0
4.04400014877 0.786000013351 -0.143999993801 124.0
4.08500003815 0.768999993801 -0.144999995828 137.0
4.05499982834 0.739000022411 -0.143999993801 120.0
4.27600002289 0.754000008106 -0.150999993086 89.0
4.4889998436 0.763999998569 -0.158999994397 68.0
4.55700016022 0.749000012875 -0.16099999845 77.0
4.60200023651 0.728999972343 -0.162000000477 78.0
4.58300018311 0.699000000954 -0.16099999845 74.0
4.59000015259 0.672999978065 -0.16099999845 72.0
4.63700008392 0.652000010014 -0.163000002503 65.0
4.6970000267 0.633000016212 -0.16400000453 63.0
4.632999897 0.597000002861 -0.162000000477 66.0
4.65399980545 0.573000013828 -0.162000000477 65.0
4.68200016022 0.549000024796 -0.163000002503 66.0
4.69600009918 0.523000001907 -0.163000002503 66.0
4.63899993896 0.490000009537 -0.16099999845 68.0
4.7389998436 0.472999989986 -0.165000006557 64.0
4.6970000267 0.441000014544 -0.163000002503 63.0
4.73600006104 0.416999995708 -0.16400000453 60.0
4.69500017166 0.386000007391 -0.162000000477 56.0
4.75299978256 0.363999992609 -0.16400000453 61.0
4.78800010681 0.337999999523 -0.165000006557 59.0
4.80200004578 0.312000006437 -0.165999993682 58.0
4.82000017166 0.284999996424 -0.165999993682 60.0
4.81500005722 0.256999999285 -0.165999993682 56.0
4.83599996567 0.230000004172 -0.165999993682 59.0
4.80900001526 0.201000005007 -0.165000006557 57.0
4.85400009155 0.17499999702 -0.165999993682 60.0
4.89400005341 0.148000001907 -0.167999997735 58.0
4.86499977112 0.119000002742 -0.165999993682 53.0
4.86299991608 0.0909999981523 -0.165999993682 56.0
4.90399980545 0.0640000030398 -0.167999997735 50.0
4.93499994278 0.0359999984503 -0.167999997735 48.0
0.920000016689 -0.0439999997616 -0.0320000015199 1703.0
0.920000016689 -0.0489999987185 -0.0320000015199 1733.0
0.920000016689 -0.0540000014007 -0.0309999994934 1689.0
0.916999995708 -0.0590000003576 -0.0309999994934 1750.0
0.915000021458 -0.0640000030398 -0.0309999994934 1661.0
0.915000021458 -0.070000000298 -0.0309999994934 1719.0
0.907000005245 -0.0740000009537 -0.0309999994934 1798.0
0.915000021458 -0.0799999982119 -0.0309999994934 1744.0
0.916000008583 -0.0860000029206 -0.0309999994934 1738.0
0.913999974728 -0.0909999981523 -0.0309999994934 1734.0
0.913999974728 -0.0960000008345 -0.0309999994934 1700.0
0.911000013351 -0.101000003517 -0.0309999994934 1704.0
0.910000026226 -0.105999998748 -0.0309999994934 1653.0
0.915000021458 -0.112000003457 -0.0309999994934 1666.0
0.908999979496 -0.116999998689 -0.0309999994934 1664.0
0.912999987602 -0.123000003397 -0.0309999994934 1643.0
0.907999992371 -0.127000004053 -0.0309999994934 1642.0
0.907999992371 -0.133000001311 -0.0309999994934 1663.0
0.907999992371 -0.137999996543 -0.0309999994934 1674.0
0.910000026226 -0.143999993801 -0.0309999994934 1661.0
0.911000013351 -0.149000003934 -0.0309999994934 1721.0
0.907999992371 -0.153999999166 -0.0309999994934 1716.0
0.907999992371 -0.158999994397 -0.0309999994934 1822.0
0.907000005245 -0.165000006557 -0.0309999994934 1855.0
0.90499997139 -0.170000001788 -0.0309999994934 1805.0
0.90499997139 -0.17499999702 -0.0309999994934 1823.0
0.898000001907 -0.179000005126 -0.0309999994934 1793.0
0.902999997139 -0.185000002384 -0.0309999994934 1844.0
0.897000014782 -0.189999997616 -0.0309999994934 1853.0
0.90499997139 -0.196999996901 -0.0309999994934 1816.0
0.902000010014 -0.202000007033 -0.0309999994934 1821.0
0.901000022888 -0.207000002265 -0.0309999994934 1848.0
0.903999984264 -0.212999999523 -0.0309999994934 1852.0
0.902000010014 -0.217999994755 -0.0309999994934 1818.0
0.897000014782 -0.223000004888 -0.0309999994934 1773.0
0.896000027657 -0.228000000119 -0.0309999994934 1769.0
0.897000014782 -0.233999997377 -0.0309999994934 1775.0
0.898999989033 -0.239999994636 -0.0309999994934 1770.0
0.893999993801 -0.244000002742 -0.0309999994934 1769.0
0.896000027657 -0.25 -0.0309999994934 1730.0
0.89200001955 -0.254999995232 -0.0309999994934 1694.0
0.893000006676 -0.261000007391 -0.0309999994934 1689.0
0.898999989033 -0.268000006676 -0.0309999994934 1698.0
0.897000014782 -0.273000001907 -0.0309999994934 1707.0
0.893000006676 -0.277999997139 -0.0309999994934 1706.0
0.89200001955 -0.282999992371 -0.0309999994934 1694.0
0.893000006676 -0.28900000453 -0.0309999994934 1692.0
0.888999998569 -0.293999999762 -0.0309999994934 1740.0
0.884999990463 -0.298000007868 -0.0299999993294 1768.0
0.89200001955 -0.305999994278 -0.0309999994934 1783.0
0.888000011444 -0.31099998951 -0.0309999994934 1800.0
0.887000024319 -0.316000014544 -0.0309999994934 1833.0
0.885999977589 -0.321999996901 -0.0309999994934 1847.0
0.885999977589 -0.32800000906 -0.0309999994934 1867.0
0.884000003338 -0.333000004292 -0.0309999994934 1833.0
0.882000029087 -0.338999986649 -0.0309999994934 1811.0
0.883000016212 -0.344999998808 -0.0309999994934 1829.0
0.883000016212 -0.351000010967 -0.0309999994934 1828.0
0.884000003338 -0.358000010252 -0.0309999994934 1798.0
0.879999995232 -0.361999988556 -0.0309999994934 1766.0
0.880999982357 -0.368999987841 -0.0309999994934 1778.0
0.879999995232 -0.375 -0.0309999994934 1769.0
0.875999987125 -0.379000008106 -0.0309999994934 1727.0
0.879000008106 -0.386999994516 -0.0309999994934 1724.0
0.876999974251 -0.393000006676 -0.0309999994934 1749.0
0.875999987125 -0.398000001907 -0.0309999994934 1718.0
0.874000012875 -0.404000014067 -0.0309999994934 1772.0
0.876999974251 -0.412000000477 -0.0309999994934 1765.0
0.874000012875 -0.416999995708 -0.0309999994934 1817.0
0.874000012875 -0.423000007868 -0.0309999994934 1759.0
0.873000025749 -0.428999990225 -0.0309999994934 1764.0
0.874000012875 -0.437000006437 -0.0309999994934 1743.0
0.871999979019 -0.442000001669 -0.0309999994934 1767.0
0.870000004768 -0.448000013828 -0.0309999994934 1783.0
0.869000017643 -0.453999996185 -0.0309999994934 1741.0
0.870999991894 -0.462000012398 -0.0309999994934 1745.0
0.865000009537 -0.465999990702 -0.0309999994934 1751.0
0.866999983788 -0.474000006914 -0.0309999994934 1742.0
0.864000022411 -0.479999989271 -0.0309999994934 1754.0
2.02099990845 1.1590000391 -0.097000002861 316.0
2.0529999733 1.16100001335 -0.097999997437 313.0
2.08200001717 1.1590000391 -0.0989999994636 177.0
2.07299995422 1.13800001144 -0.097999997437 123.0
2.14599990845 1.16100001335 -0.101000003517 234.0
2.15899991989 1.15100002289 -0.101999998093 373.0
2.22499990463 1.16799998283 -0.104000002146 185.0
2.24900007248 1.1629999876 -0.104999996722 93.0
3.23200011253 1.26900005341 -0.143000006676 112.0
3.30599999428 1.27600002289 -0.145999997854 96.0
3.59599995613 1.36300003529 -0.158000007272 72.0
3.71099996567 1.38100004196 -0.163000002503 89.0
3.71900010109 1.35899996758 -0.163000002503 124.0
3.71000003815 1.33099997044 -0.162000000477 115.0
3.81500005722 1.34300005436 -0.165999993682 94.0
3.80999994278 1.31599998474 -0.165999993682 127.0
3.96199989319 1.34200000763 -0.172000005841 111.0
4.0110001564 1.33200001717 -0.172999992967 141.0
4.06300020218 1.32299995422 -0.17499999702 133.0
4.03599977493 1.2879999876 -0.173999994993 124.0
4.04099988937 1.26300001144 -0.173999994993 140.0
4.03700017929 1.23599994183 -0.172999992967 121.0
4.06300020218 1.21800005436 -0.173999994993 120.0
4.07399988174 1.19500005245 -0.173999994993 135.0
4.09100008011 1.1740000248 -0.173999994993 135.0
4.07800006866 1.14400005341 -0.172999992967 132.0
4.07600021362 1.11800003052 -0.172999992967 129.0
4.08099985123 1.09300005436 -0.172999992967 137.0
4.06500005722 1.06400001049 -0.172000005841 142.0
4.05000019073 1.03499996662 -0.171000003815 145.0
4.10699987411 1.02400004864 -0.172999992967 143.0
4.09800004959 0.995999991894 -0.172000005841 143.0
4.10200023651 0.972000002861 -0.172000005841 143.0
4.06699991226 0.938000023365 -0.170000001788 127.0
4.06599998474 0.912999987602 -0.170000001788 150.0
4.03700017929 0.882000029087 -0.167999997735 136.0
4.08099985123 0.866999983788 -0.170000001788 148.0
4.10400009155 0.847000002861 -0.171000003815 152.0
4.06300020218 0.81400001049 -0.168999999762 142.0
4.13399982452 0.802999973297 -0.171000003815 121.0
4.06799983978 0.76599997282 -0.167999997735 129.0
4.08099985123 0.744000017643 -0.168999999762 119.0
4.27299976349 0.753000020981 -0.175999999046 78.0
4.54899978638 0.774999976158 -0.187000006437 68.0
4.59200000763 0.754999995232 -0.188999995589 74.0
4.60300016403 0.728999972343 -0.188999995589 73.0
4.64799976349 0.708999991417 -0.190999999642 70.0
4.61199998856 0.675999999046 -0.188999995589 67.0
4.62400007248 0.651000022888 -0.188999995589 66.0
4.64200019836 0.625999987125 -0.188999995589 62.0
4.63199996948 0.597000002861 -0.188999995589 70.0
4.61800003052 0.568000018597 -0.187999993563 70.0
4.70699977875 0.551999986172 -0.190999999642 75.0
4.68699979782 0.522000014782 -0.189999997616 66.0
4.70200014114 0.495999991894 -0.190999999642 63.0
4.72100019455 0.470999985933 -0.190999999642 65.0
4.71299982071 0.442000001669 -0.190999999642 62.0
4.76499986649 0.419999986887 -0.193000003695 64.0
4.76999998093 0.391999989748 -0.193000003695 61.0
4.72599983215 0.361000001431 -0.190999999642 64.0
4.84700012207 0.342000007629 -0.194999992847 53.0
4.71799993515 0.305999994278 -0.189999997616 56.0
4.79899978638 0.284000009298 -0.193000003695 59.0
4.7389998436 0.252999991179 -0.189999997616 63.0
4.8109998703 0.229000002146 -0.193000003695 58.0
4.86199998856 0.202999994159 -0.194999992847 58.0
4.88000011444 0.175999999046 -0.195999994874 55.0
4.90299987793 0.148000001907 -0.195999994874 58.0
4.9310002327 0.120999999344 -0.196999996901 51.0
4.90799999237 0.0920000001788 -0.195999994874 57.0
4.88399982452 0.0640000030398 -0.194999992847 55.0
5.02099990845 0.0359999984503 -0.20000000298 47.0
0.922999978065 -0.0439999997616 -0.0370000004768 1702.0
0.921000003815 -0.0489999987185 -0.0370000004768 1771.0
0.916999995708 -0.0540000014007 -0.0370000004768 1738.0
0.913999974728 -0.0590000003576 -0.0370000004768 1741.0
0.916999995708 -0.0649999976158 -0.0370000004768 1706.0
0.916000008583 -0.070000000298 -0.0370000004768 1690.0
0.912000000477 -0.0750000029802 -0.0359999984503 1752.0
0.916000008583 -0.0799999982119 -0.0370000004768 1713.0
0.912000000477 -0.0850000008941 -0.0359999984503 1712.0
0.916000008583 -0.0909999981523 -0.0370000004768 1727.0
0.915000021458 -0.0960000008345 -0.0370000004768 1704.0
0.910000026226 -0.101000003517 -0.0359999984503 1700.0
0.910000026226 -0.105999998748 -0.0359999984503 1648.0
0.913999974728 -0.112000003457 -0.0359999984503 1654.0
0.908999979496 -0.116999998689 -0.0359999984503 1657.0
0.912000000477 -0.122000001371 -0.0359999984503 1657.0
0.903999984264 -0.127000004053 -0.0359999984503 1673.0
0.908999979496 -0.133000001311 -0.0359999984503 1673.0
0.911000013351 -0.137999996543 -0.0359999984503 1716.0
0.902000010014 -0.142000004649 -0.0359999984503 1682.0
0.90499997139 -0.148000001907 -0.0359999984503 1670.0
0.90600001812 -0.153999999166 -0.0359999984503 1710.0
0.907000005245 -0.158999994397 -0.0359999984503 1819.0
0.907999992371 -0.165000006557 -0.0359999984503 1857.0
0.907000005245 -0.170000001788 -0.0359999984503 1826.0
0.903999984264 -0.17499999702 -0.0359999984503 1814.0
0.903999984264 -0.180000007153 -0.0359999984503 1818.0
0.902000010014 -0.185000002384 -0.0359999984503 1822.0
0.902999997139 -0.190999999642 -0.0359999984503 1847.0
0.899999976158 -0.195999994874 -0.0359999984503 1828.0
0.899999976158 -0.201000005007 -0.0359999984503 1847.0
0.903999984264 -0.208000004292 -0.0359999984503 1821.0
0.902000010014 -0.212999999523 -0.0359999984503 1867.0
0.899999976158 -0.217999994755 -0.0359999984503 1837.0
0.896000027657 -0.222000002861 -0.0359999984503 1792.0
0.897000014782 -0.228000000119 -0.0359999984503 1793.0
0.893999993801 -0.232999995351 -0.0359999984503 1749.0
0.896000027657 -0.238999992609 -0.0359999984503 1755.0
0.897000014782 -0.245000004768 -0.0359999984503 1766.0
0.89200001955 -0.248999997973 -0.0359999984503 1774.0
0.894999980927 -0.256000012159 -0.0359999984503 1738.0
0.897000014782 -0.261999994516 -0.0359999984503 1731.0
0.888000011444 -0.264999985695 -0.0359999984503 1690.0
0.89200001955 -0.272000014782 -0.0359999984503 1719.0
0.89200001955 -0.277999997139 -0.0359999984503 1721.0
0.889999985695 -0.282999992371 -0.0359999984503 1704.0
0.89099997282 -0.28900000453 -0.0359999984503 1680.0
0.888999998569 -0.293999999762 -0.0359999984503 1704.0
0.89200001955 -0.300999999046 -0.0359999984503 1798.0
0.888000011444 -0.305000007153 -0.0359999984503 1807.0
0.888999998569 -0.312000006437 -0.0359999984503 1809.0
0.887000024319 -0.317000001669 -0.0359999984503 1838.0
0.888999998569 -0.323000013828 -0.0359999984503 1862.0
0.884999990463 -0.32800000906 -0.0359999984503 1868.0
0.884999990463 -0.333999991417 -0.0359999984503 1862.0
0.882000029087 -0.338999986649 -0.0359999984503 1864.0
0.883000016212 -0.344999998808 -0.0359999984503 1843.0
0.880999982357 -0.34999999404 -0.0359999984503 1813.0
0.884999990463 -0.358000010252 -0.0359999984503 1795.0
0.884000003338 -0.363999992609 -0.0359999984503 1803.0
0.884000003338 -0.370000004768 -0.0359999984503 1830.0
0.879000008106 -0.374000012875 -0.0359999984503 1813.0
0.882000029087 -0.381999999285 -0.0359999984503 1758.0
0.880999982357 -0.388000011444 -0.0359999984503 1781.0
0.873000025749 -0.391000002623 -0.0359999984503 1751.0
0.876999974251 -0.398999989033 -0.0359999984503 1737.0
0.873000025749 -0.402999997139 -0.0359999984503 1795.0
0.874000012875 -0.409999996424 -0.0359999984503 1769.0
0.873000025749 -0.416000008583 -0.0359999984503 1821.0
0.871999979019 -0.423000007868 -0.0359999984503 1765.0
0.873000025749 -0.428999990225 -0.0359999984503 1739.0
0.869000017643 -0.433999985456 -0.0359999984503 1736.0
0.869000017643 -0.441000014544 -0.0359999984503 1769.0
0.870000004768 -0.448000013828 -0.0370000004768 1772.0
0.870999991894 -0.456000000238 -0.0370000004768 1762.0
0.865000009537 -0.458999991417 -0.0359999984503 1745.0
0.870999991894 -0.469000011683 -0.0370000004768 1765.0
0.869000017643 -0.47499999404 -0.0370000004768 1760.0
0.865999996662 -0.481000006199 -0.0370000004768 1737.0
2.04200005531 1.17100000381 -0.111000001431 297.0
2.03999996185 1.15299999714 -0.111000001431 280.0
2.08699989319 1.1629999876 -0.112999998033 161.0
2.11400008202 1.16100001335 -0.11400000006 109.0
2.12599992752 1.14999997616 -0.11400000006 222.0
2.16700005531 1.15499997139 -0.115999996662 355.0
2.17700004578 1.14300000668 -0.115999996662 189.0
2.25200009346 1.16499996185 -0.119999997318 80.0
3.25999999046 1.28100001812 -0.16400000453 109.0
3.29800009727 1.27300000191 -0.165999993682 91.0
3.52200007439 1.33500003815 -0.177000001073 67.0
3.617000103 1.34599995613 -0.180999994278 98.0
3.73099994659 1.36399996281 -0.186000004411 112.0
3.72699999809 1.3370000124 -0.185000002384 114.0
3.85500001907 1.35699999332 -0.190999999642 87.0
3.82299995422 1.32000005245 -0.188999995589 132.0
3.94899988174 1.33800005913 -0.194999992847 117.0
4.02600002289 1.3370000124 -0.197999998927 142.0
4.04899978638 1.31799995899 -0.199000000954 132.0
4.08300018311 1.3029999733 -0.20000000298 133.0
4.09399986267 1.27999997139 -0.20000000298 127.0
4.08500003815 1.25100004673 -0.20000000298 123.0
4.08300018311 1.22399997711 -0.199000000954 119.0
4.07999992371 1.1970000267 -0.199000000954 129.0
4.07100009918 1.16799998283 -0.197999998927 130.0
4.07299995422 1.14300000668 -0.196999996901 136.0
4.08799982071 1.1210000515 -0.197999998927 138.0
4.09000015259 1.09599995613 -0.196999996901 132.0
4.05700016022 1.06200003624 -0.194999992847 133.0
4.11100006104 1.04999995232 -0.197999998927 133.0
4.06799983978 1.01400005817 -0.194999992847 136.0
4.09899997711 0.995999991894 -0.195999994874 145.0
4.07899999619 0.966000020504 -0.194999992847 136.0
4.08699989319 0.943000018597 -0.194999992847 129.0
4.07800006866 0.916000008583 -0.194000005722 143.0
4.07700014114 0.89099997282 -0.194000005722 140.0
4.09000015259 0.869000017643 -0.194000005722 141.0
4.11100006104 0.847999989986 -0.194999992847 143.0
4.13199996948 0.82800000906 -0.195999994874 132.0
4.08799982071 0.794000029564 -0.193000003695 123.0
4.0689997673 0.76599997282 -0.192000001669 133.0
4.08599996567 0.745000004768 -0.193000003695 122.0
4.32600021362 0.763000011444 -0.203999996185 74.0
4.54699993134 0.773999989033 -0.21400000155 68.0
4.5529999733 0.748000025749 -0.21400000155 77.0
4.5560002327 0.722000002861 -0.21400000155 75.0
4.61600017548 0.703999996185 -0.216000005603 71.0
4.64499998093 0.680999994278 -0.216999992728 68.0
4.64099979401 0.652999997139 -0.216999992728 71.0
4.6779999733 0.630999982357 -0.217999994755 68.0
4.65700006485 0.600000023842 -0.216999992728 62.0
4.61000013351 0.566999971867 -0.21400000155 68.0
4.67700004578 0.547999978065 -0.216999992728 67.0
4.65600013733 0.518000006676 -0.216000005603 70.0
4.67000007629 0.493000000715 -0.216999992728 68.0
4.69799995422 0.467999994755 -0.217999994755 60.0
4.73299980164 0.444000005722 -0.218999996781 62.0
4.78499984741 0.421000003815 -0.221000000834 66.0
4.72200012207 0.388000011444 -0.217999994755 64.0
4.79400014877 0.365999996662 -0.221000000834 61.0
4.78100013733 0.337999999523 -0.219999998808 56.0
4.75899982452 0.308999985456 -0.218999996781 60.0
4.80100011826 0.284000009298 -0.221000000834 60.0
4.76200008392 0.254000008106 -0.218999996781 54.0
4.84100008011 0.230000004172 -0.222000002861 56.0
4.80200004578 0.201000005007 -0.219999998808 54.0
4.84800004959 0.17499999702 -0.222000002861 56.0
4.92600011826 0.149000003934 -0.225999996066 54.0
4.82000017166 0.118000000715 -0.221000000834 55.0
4.85500001907 0.0909999981523 -0.222000002861 53.0
0.921000003815 -0.0439999997616 -0.0419999994338 1712.0
0.921000003815 -0.0489999987185 -0.0419999994338 1790.0
0.913999974728 -0.0540000014007 -0.0419999994338 1831.0
0.916999995708 -0.0590000003576 -0.0419999994338 1735.0
0.916999995708 -0.0649999976158 -0.0419999994338 1721.0
0.921000003815 -0.070000000298 -0.0419999994338 1658.0
0.920000016689 -0.0750000029802 -0.0419999994338 1721.0
0.913999974728 -0.0799999982119 -0.0419999994338 1732.0
0.912000000477 -0.0850000008941 -0.0419999994338 1733.0
0.915000021458 -0.0909999981523 -0.0419999994338 1749.0
0.911000013351 -0.0960000008345 -0.0419999994338 1752.0
0.910000026226 -0.101000003517 -0.0419999994338 1717.0
0.915000021458 -0.107000000775 -0.0419999994338 1724.0
0.910000026226 -0.112000003457 -0.0419999994338 1683.0
0.913999974728 -0.116999998689 -0.0419999994338 1709.0
0.908999979496 -0.122000001371 -0.0419999994338 1744.0
0.902000010014 -0.126000002027 -0.0410000011325 1727.0
0.907999992371 -0.133000001311 -0.0410000011325 1705.0
0.908999979496 -0.137999996543 -0.0419999994338 1747.0
0.90499997139 -0.143000006676 -0.0410000011325 1715.0
0.902999997139 -0.148000001907 -0.0410000011325 1686.0
0.908999979496 -0.153999999166 -0.0419999994338 1665.0
0.907000005245 -0.158999994397 -0.0410000011325 1786.0
0.90499997139 -0.16400000453 -0.0410000011325 1861.0
0.902000010014 -0.168999999762 -0.0410000011325 1850.0
0.90600001812 -0.17499999702 -0.0410000011325 1791.0
0.902000010014 -0.180000007153 -0.0410000011325 1837.0
0.898000001907 -0.185000002384 -0.0410000011325 1790.0
0.903999984264 -0.190999999642 -0.0410000011325 1775.0
0.901000022888 -0.195999994874 -0.0410000011325 1847.0
0.898999989033 -0.201000005007 -0.0410000011325 1848.0
0.901000022888 -0.207000002265 -0.0410000011325 1803.0
0.901000022888 -0.212999999523 -0.0410000011325 1871.0
0.897000014782 -0.216999992728 -0.0410000011325 1776.0
0.899999976158 -0.223000004888 -0.0410000011325 1795.0
0.894999980927 -0.228000000119 -0.0410000011325 1792.0
0.896000027657 -0.232999995351 -0.0410000011325 1776.0
0.898999989033 -0.239999994636 -0.0410000011325 1786.0
0.893999993801 -0.244000002742 -0.0410000011325 1801.0
0.889999985695 -0.248999997973 -0.0410000011325 1789.0
0.893000006676 -0.254999995232 -0.0410000011325 1750.0
0.889999985695 -0.259999990463 -0.0410000011325 1731.0
0.893000006676 -0.266000002623 -0.0410000011325 1708.0
0.89200001955 -0.272000014782 -0.0410000011325 1725.0
0.89200001955 -0.277999997139 -0.0410000011325 1727.0
0.888999998569 -0.282999992371 -0.0410000011325 1689.0
0.889999985695 -0.28900000453 -0.0410000011325 1671.0
0.885999977589 -0.293000012636 -0.0410000011325 1714.0
0.885999977589 -0.298999994993 -0.0410000011325 1777.0
0.884999990463 -0.303999990225 -0.0410000011325 1820.0
0.889999985695 -0.312000006437 -0.0410000011325 1823.0
0.889999985695 -0.317999988794 -0.0419999994338 1857.0
0.885999977589 -0.323000013828 -0.0410000011325 1868.0
0.887000024319 -0.328999996185 -0.0410000011325 1890.0
0.884000003338 -0.333999991417 -0.0410000011325 1889.0
0.880999982357 -0.338999986649 -0.0410000011325 1864.0
0.879000008106 -0.344000011683 -0.0410000011325 1879.0
0.878000020981 -0.34999999404 -0.0410000011325 1856.0
0.883000016212 -0.358000010252 -0.0419999994338 1807.0
0.879999995232 -0.363000005484 -0.0419999994338 1813.0
0.879999995232 -0.368999987841 -0.0419999994338 1847.0
0.875999987125 -0.372999995947 -0.0410000011325 1800.0
0.876999974251 -0.379999995232 -0.0419999994338 1795.0
0.875 -0.384999990463 -0.0419999994338 1803.0
0.873000025749 -0.391000002623 -0.0419999994338 1788.0
0.878000020981 -0.40000000596 -0.0419999994338 1779.0
0.875999987125 -0.405000001192 -0.0419999994338 1806.0
0.875 -0.411000013351 -0.0419999994338 1797.0
0.874000012875 -0.416999995708 -0.0419999994338 1812.0
0.870999991894 -0.42199999094 -0.0419999994338 1762.0
0.874000012875 -0.430000007153 -0.0419999994338 1730.0
0.871999979019 -0.43599998951 -0.0419999994338 1765.0
0.870000004768 -0.441000014544 -0.0419999994338 1800.0
0.866999983788 -0.446999996901 -0.0419999994338 1798.0
0.867999970913 -0.453999996185 -0.0419999994338 1761.0
0.867999970913 -0.46099999547 -0.0419999994338 1764.0
0.869000017643 -0.469000011683 -0.0419999994338 1804.0
0.864000022411 -0.472000002861 -0.0419999994338 1739.0
0.865999996662 -0.481000006199 -0.0419999994338 1706.0
2.05399990082 1.1779999733 -0.125 208.0
2.04500007629 1.15600001812 -0.123999997973 201.0
2.1099998951 1.17599999905 -0.12800000608 133.0
2.09400010109 1.14999997616 -0.126000002027 92.0
2.11500000954 1.14499998093 -0.127000004053 166.0
2.21499991417 1.18099999428 -0.133000001311 267.0
2.17499995232 1.14300000668 -0.129999995232 138.0
2.2650001049 1.17200005054 -0.135000005364 91.0
3.03299999237 1.25499999523 -0.172999992967 76.0
3.2349998951 1.27100002766 -0.182999998331 98.0
3.28800010681 1.26900005341 -0.185000002384 88.0
3.51699995995 1.33299994469 -0.197999998927 62.0
3.70799994469 1.35500001907 -0.208000004292 111.0
3.71700000763 1.33299994469 -0.208000004292 105.0
3.82899999619 1.34800004959 -0.212999999523 85.0
3.79999995232 1.31299996376 -0.21099999547 123.0
3.93499994278 1.33299994469 -0.217999994755 105.0
4.05000019073 1.34500002861 -0.224000006914 133.0
4.08900022507 1.33200001717 -0.225999996066 134.0
4.0560002327 1.29400002956 -0.223000004888 127.0
4.09600019455 1.28100001812 -0.22499999404 134.0
4.08199977875 1.25 -0.224000006914 121.0
4.02600002289 1.20700001717 -0.219999998808 123.0
4.08699989319 1.19900000095 -0.223000004888 132.0
4.05700016022 1.16400003433 -0.221000000834 126.0
4.08900022507 1.14699995518 -0.223000004888 129.0
4.08500003815 1.12000000477 -0.222000002861 135.0
4.07899999619 1.09300005436 -0.221000000834 136.0
4.07399988174 1.06599998474 -0.221000000834 137.0
4.12400007248 1.05400002003 -0.223000004888 125.0
4.09299993515 1.01999998093 -0.221000000834 133.0
4.02299976349 0.977999985218 -0.216999992728 135.0
4.08400011063 0.967999994755 -0.219999998808 132.0
4.10099983215 0.945999979973 -0.219999998808 126.0
4.09399986267 0.920000016689 -0.218999996781 137.0
4.11100006104 0.898000001907 -0.219999998808 136.0
4.08400011063 0.867999970913 -0.217999994755 137.0
4.09999990463 0.846000015736 -0.218999996781 141.0
4.09700012207 0.820999979973 -0.217999994755 125.0
4.0689997673 0.791000008583 -0.216000005603 118.0
4.06799983978 0.76599997282 -0.216000005603 128.0
4.08300018311 0.744000017643 -0.216000005603 117.0
4.28900003433 0.755999982357 -0.226999998093 72.0
4.56300020218 0.777000010014 -0.240999996662 71.0
4.58300018311 0.753000020981 -0.241999998689 73.0
4.6139998436 0.731000006199 -0.243000000715 78.0
4.61299991608 0.703999996185 -0.243000000715 72.0
4.67999982834 0.68599998951 -0.246000006795 65.0
4.64699983597 0.653999984264 -0.244000002742 70.0
4.60900020599 0.620999991894 -0.241999998689 70.0
4.66499996185 0.601000010967 -0.244000002742 73.0
4.63100004196 0.569999992847 -0.241999998689 67.0
4.61999988556 0.541000008583 -0.241999998689 67.0
4.6970000267 0.523000001907 -0.245000004768 70.0
4.68499994278 0.493999987841 -0.244000002742 65.0
4.67000007629 0.465000003576 -0.243000000715 66.0
4.7610001564 0.446999996901 -0.247999995947 66.0
4.75199985504 0.418000012636 -0.24699999392 60.0
4.76499986649 0.391999989748 -0.247999995947 62.0
4.74900007248 0.363000005484 -0.24699999392 63.0
4.76999998093 0.337000012398 -0.24699999392 60.0
4.76800012589 0.308999985456 -0.24699999392 56.0
4.8220000267 0.284999996424 -0.25 57.0
4.8109998703 0.256000012159 -0.248999997973 60.0
4.85200023651 0.231000006199 -0.250999987125 59.0
4.8140001297 0.201000005007 -0.248999997973 57.0
4.91099977493 0.177000001073 -0.254000008106 54.0
4.91900014877 0.149000003934 -0.254000008106 58.0
4.92100000381 0.119999997318 -0.254000008106 55.0
4.86499977112 0.0909999981523 -0.250999987125 55.0
4.94999980927 0.0640000030398 -0.254999995232 55.0
1.64300000668 -0.0619999989867 -0.0839999988675 63.0
0.917999982834 -0.0439999997616 -0.0469999983907 1733.0
0.917999982834 -0.0489999987185 -0.0469999983907 1802.0
0.916000008583 -0.0540000014007 -0.0469999983907 1879.0
0.910000026226 -0.0590000003576 -0.0469999983907 1807.0
0.910000026226 -0.0640000030398 -0.0469999983907 1777.0
0.912999987602 -0.070000000298 -0.0469999983907 1667.0
0.916000008583 -0.0750000029802 -0.0469999983907 1729.0
0.913999974728 -0.0799999982119 -0.0469999983907 1745.0
0.911000013351 -0.0850000008941 -0.0469999983907 1717.0
0.911000013351 -0.0909999981523 -0.0469999983907 1771.0
0.910000026226 -0.0960000008345 -0.0469999983907 1770.0
0.907999992371 -0.101000003517 -0.0469999983907 1739.0
0.912000000477 -0.107000000775 -0.0469999983907 1707.0
0.907999992371 -0.111000001431 -0.0469999983907 1733.0
0.910000026226 -0.116999998689 -0.0469999983907 1734.0
0.907999992371 -0.122000001371 -0.0469999983907 1809.0
0.907999992371 -0.127000004053 -0.0469999983907 1731.0
0.910000026226 -0.133000001311 -0.0469999983907 1693.0
0.908999979496 -0.137999996543 -0.0469999983907 1765.0
0.907999992371 -0.143000006676 -0.0469999983907 1768.0
0.902999997139 -0.148000001907 -0.0469999983907 1765.0
0.907000005245 -0.153999999166 -0.0469999983907 1714.0
0.90600001812 -0.158999994397 -0.0469999983907 1790.0
0.90600001812 -0.165000006557 -0.0469999983907 1908.0
0.898999989033 -0.168999999762 -0.0460000000894 1866.0
0.902000010014 -0.17499999702 -0.0469999983907 1772.0
0.90499997139 -0.180999994278 -0.0469999983907 1815.0
0.899999976158 -0.185000002384 -0.0460000000894 1817.0
0.902999997139 -0.190999999642 -0.0469999983907 1773.0
0.899999976158 -0.195999994874 -0.0469999983907 1806.0
0.902000010014 -0.202000007033 -0.0469999983907 1777.0
0.901000022888 -0.207000002265 -0.0469999983907 1716.0
0.901000022888 -0.212999999523 -0.0469999983907 1793.0
0.897000014782 -0.216999992728 -0.0460000000894 1768.0
0.898999989033 -0.223000004888 -0.0469999983907 1780.0
0.893999993801 -0.228000000119 -0.0460000000894 1807.0
0.897000014782 -0.233999997377 -0.0469999983907 1801.0
0.897000014782 -0.239999994636 -0.0469999983907 1802.0
0.894999980927 -0.244000002742 -0.0469999983907 1810.0
0.897000014782 -0.250999987125 -0.0469999983907 1796.0
0.894999980927 -0.256000012159 -0.0469999983907 1804.0
0.888999998569 -0.259999990463 -0.0460000000894 1764.0
0.89099997282 -0.266000002623 -0.0460000000894 1724.0
0.888000011444 -0.270999997854 -0.0460000000894 1718.0
0.885999977589 -0.275999993086 -0.0460000000894 1716.0
0.889999985695 -0.282999992371 -0.0469999983907 1705.0
0.888999998569 -0.287999987602 -0.0469999983907 1700.0
0.885999977589 -0.293000012636 -0.0460000000894 1760.0
0.888999998569 -0.300000011921 -0.0469999983907 1796.0
0.884999990463 -0.305000007153 -0.0469999983907 1857.0
0.887000024319 -0.31099998951 -0.0469999983907 1827.0
0.884000003338 -0.316000014544 -0.0469999983907 1854.0
0.882000029087 -0.321000009775 -0.0469999983907 1867.0
0.884000003338 -0.32800000906 -0.0469999983907 1873.0
0.879999995232 -0.331999987364 -0.0469999983907 1900.0
0.879999995232 -0.337999999523 -0.0469999983907 1853.0
0.883000016212 -0.344999998808 -0.0469999983907 1918.0
0.884999990463 -0.351999998093 -0.0469999983907 1890.0
0.882000029087 -0.356999993324 -0.0469999983907 1831.0
0.882000029087 -0.363999992609 -0.0469999983907 1811.0
0.879999995232 -0.368999987841 -0.0469999983907 1864.0
0.879000008106 -0.375 -0.0469999983907 1800.0
0.878000020981 -0.379999995232 -0.0469999983907 1781.0
0.879000008106 -0.386999994516 -0.0469999983907 1784.0
0.873000025749 -0.391000002623 -0.0469999983907 1791.0
0.875 -0.398000001907 -0.0469999983907 1809.0
0.871999979019 -0.402999997139 -0.0469999983907 1761.0
0.871999979019 -0.409999996424 -0.0469999983907 1807.0
0.873000025749 -0.416999995708 -0.0469999983907 1794.0
0.869000017643 -0.421000003815 -0.0469999983907 1784.0
0.871999979019 -0.428999990225 -0.0469999983907 1735.0
0.874000012875 -0.437000006437 -0.0480000004172 1848.0
0.865999996662 -0.439999997616 -0.0469999983907 1836.0
0.867999970913 -0.446999996901 -0.0469999983907 1802.0
0.862999975681 -0.451999992132 -0.0469999983907 1791.0
0.870999991894 -0.462999999523 -0.0480000004172 1838.0
0.865999996662 -0.467000007629 -0.0480000004172 1837.0
0.862999975681 -0.472000002861 -0.0480000004172 1742.0
0.865000009537 -0.479999989271 -0.0480000004172 1668.0
1.99800002575 1.14600002766 -0.135000005364 161.0
2.04600000381 1.15699994564 -0.137999996543 147.0
2.08400011063 1.16199994087 -0.140000000596 122.0
2.04600000381 1.12399995327 -0.136999994516 89.0
2.10100007057 1.13699996471 -0.140000000596 118.0
2.15899991989 1.15100002289 -0.143000006676 190.0
2.16499996185 1.13699996471 -0.143000006676 112.0
3.27099990845 1.28499996662 -0.204999998212 70.0
3.25699996948 1.25699996948 -0.203999996185 74.0
3.67700004578 1.36899995804 -0.229000002146 78.0
3.72199988365 1.36099994183 -0.231000006199 86.0
3.73000001907 1.33899998665 -0.231000006199 83.0
3.84299993515 1.35300004482 -0.237000003457 82.0
3.88199996948 1.3409999609 -0.238999992609 103.0
3.9509999752 1.33899998665 -0.243000000715 94.0
4.09499979019 1.36099994183 -0.250999987125 110.0
4.02400016785 1.31099998951 -0.246000006795 111.0
4.09499979019 1.30700004101 -0.25 109.0
4.08199977875 1.27600002289 -0.248999997973 110.0
4.09600019455 1.2539999485 -0.248999997973 101.0
4.09299993515 1.22699999809 -0.248999997973 102.0
4.05700016022 1.19000005722 -0.246000006795 118.0
4.05800008774 1.16499996185 -0.246000006795 114.0
4.07700014114 1.14400005341 -0.246000006795 115.0
4.10500001907 1.12600004673 -0.24699999392 120.0
4.06599998474 1.09000003338 -0.245000004768 124.0
4.0689997673 1.06500005722 -0.244000002742 120.0
4.09499979019 1.04600000381 -0.246000006795 120.0
4.14599990845 1.0340000391 -0.247999995947 129.0
4.0640001297 0.987999975681 -0.243000000715 123.0
4.10799980164 0.973999977112 -0.245000004768 126.0
4.07000017166 0.93900001049 -0.241999998689 109.0
4.07100009918 0.915000021458 -0.241999998689 130.0
4.08300018311 0.89200001955 -0.241999998689 132.0
4.09000015259 0.869000017643 -0.243000000715 129.0
4.07000017166 0.839999973774 -0.240999996662 138.0
4.11000013351 0.823000013828 -0.243000000715 127.0
4.1360001564 0.804000020027 -0.244000002742 121.0
4.10200023651 0.772000014782 -0.241999998689 124.0
4.11600017548 0.75 -0.241999998689 115.0
4.25699996948 0.750999987125 -0.25 68.0
4.59299993515 0.782000005245 -0.270000010729 63.0
4.57499980927 0.751999974251 -0.268000006676 72.0
4.62400007248 0.73299998045 -0.270999997854 80.0
4.58900022507 0.699999988079 -0.268000006676 70.0
4.6360001564 0.680000007153 -0.270999997854 71.0
4.58300018311 0.644999980927 -0.266999989748 67.0
4.64499998093 0.625999987125 -0.270999997854 68.0
4.617000103 0.59500002861 -0.268999993801 66.0
4.65500020981 0.573000013828 -0.270999997854 67.0
4.67100000381 0.54699999094 -0.270999997854 68.0
4.70900011063 0.523999989033 -0.273000001907 67.0
4.70699977875 0.497000008821 -0.273000001907 64.0
4.69600009918 0.467999994755 -0.272000014782 63.0
4.73199987411 0.444000005722 -0.273999989033 63.0
4.66599988937 0.411000013351 -0.270000010729 60.0
4.71199989319 0.386999994516 -0.272000014782 59.0
4.72700023651 0.361000001431 -0.273000001907 64.0
4.73699998856 0.335000008345 -0.273000001907 55.0
4.79699993134 0.31099998951 -0.275999993086 57.0
4.74100017548 0.280000001192 -0.273000001907 58.0
4.83799982071 0.25799998641 -0.277999997139 58.0
4.83599996567 0.230000004172 -0.277999997139 62.0
4.86600017548 0.202999994159 -0.280000001192 60.0
4.89300012589 0.175999999046 -0.280999988317 58.0
4.90999984741 0.148000001907 -0.282000005245 58.0
4.88700008392 0.119000002742 -0.280000001192 57.0
4.82000017166 0.0900000035763 -0.275999993086 54.0
4.96099996567 0.0640000030398 -0.284000009298 50.0
4.91699981689 0.035000000149 -0.282000005245 48.0
0.915000021458 -0.0439999997616 -0.0520000010729 1742.0
0.915000021458 -0.0489999987185 -0.0520000010729 1794.0
0.910000026226 -0.0540000014007 -0.0520000010729 1878.0
0.912999987602 -0.0590000003576 -0.0520000010729 1850.0
0.911000013351 -0.0640000030398 -0.0520000010729 1826.0
0.912000000477 -0.070000000298 -0.0520000010729 1700.0
0.912000000477 -0.0750000029802 -0.0520000010729 1714.0
0.912999987602 -0.0799999982119 -0.0520000010729 1752.0
0.912000000477 -0.0850000008941 -0.0520000010729 1743.0
0.915000021458 -0.0909999981523 -0.0520000010729 1818.0
0.907000005245 -0.0949999988079 -0.0520000010729 1776.0
0.908999979496 -0.101000003517 -0.0520000010729 1754.0
0.908999979496 -0.105999998748 -0.0520000010729 1719.0
0.907000005245 -0.111000001431 -0.0520000010729 1767.0
0.90499997139 -0.115999996662 -0.0520000010729 1767.0
0.908999979496 -0.122000001371 -0.0520000010729 1779.0
0.907000005245 -0.127000004053 -0.0520000010729 1758.0
0.90600001812 -0.131999999285 -0.0520000010729 1730.0
0.910000026226 -0.137999996543 -0.0520000010729 1769.0
0.907999992371 -0.143000006676 -0.0520000010729 1800.0
0.903999984264 -0.148000001907 -0.0520000010729 1814.0
0.908999979496 -0.153999999166 -0.0520000010729 1736.0
0.90600001812 -0.158999994397 -0.0520000010729 1738.0
0.902999997139 -0.16400000453 -0.0520000010729 1829.0
0.90499997139 -0.170000001788 -0.0520000010729 1884.0
0.899999976158 -0.173999994993 -0.0520000010729 1854.0
0.902000010014 -0.180000007153 -0.0520000010729 1804.0
0.902999997139 -0.186000004411 -0.0520000010729 1818.0
0.899999976158 -0.190999999642 -0.0520000010729 1804.0
0.899999976158 -0.195999994874 -0.0520000010729 1770.0
0.901000022888 -0.202000007033 -0.0520000010729 1734.0
0.894999980927 -0.206000000238 -0.0520000010729 1698.0
0.902999997139 -0.212999999523 -0.0520000010729 1790.0
0.893999993801 -0.216999992728 -0.0520000010729 1801.0
0.897000014782 -0.223000004888 -0.0520000010729 1796.0
0.894999980927 -0.228000000119 -0.0520000010729 1845.0
0.893999993801 -0.232999995351 -0.0520000010729 1855.0
0.89099997282 -0.238000005484 -0.0520000010729 1804.0
0.893000006676 -0.244000002742 -0.0520000010729 1758.0
0.896000027657 -0.25 -0.0520000010729 1793.0
0.89200001955 -0.254999995232 -0.0520000010729 1850.0
0.894999980927 -0.261999994516 -0.0520000010729 1822.0
0.887000024319 -0.264999985695 -0.0520000010729 1750.0
0.888000011444 -0.270999997854 -0.0520000010729 1735.0
0.888000011444 -0.277000010014 -0.0520000010729 1753.0
0.889999985695 -0.282999992371 -0.0520000010729 1806.0
0.888000011444 -0.287999987602 -0.0520000010729 1725.0
0.888000011444 -0.293999999762 -0.0520000010729 1820.0
0.887000024319 -0.298999994993 -0.0520000010729 1788.0
0.887000024319 -0.305000007153 -0.0520000010729 1874.0
0.884000003338 -0.310000002384 -0.0520000010729 1853.0
0.887000024319 -0.317000001669 -0.0520000010729 1886.0
0.882000029087 -0.321000009775 -0.0520000010729 1884.0
0.884999990463 -0.32800000906 -0.0520000010729 1892.0
0.882000029087 -0.333000004292 -0.0520000010729 1906.0
0.883000016212 -0.338999986649 -0.0520000010729 1880.0
0.879000008106 -0.344000011683 -0.0520000010729 1925.0
0.882000029087 -0.351000010967 -0.0520000010729 1897.0
0.883000016212 -0.358000010252 -0.0520000010729 1860.0
0.875999987125 -0.361000001431 -0.0520000010729 1823.0
0.876999974251 -0.368000000715 -0.0520000010729 1810.0
0.873000025749 -0.372000008821 -0.0520000010729 1757.0
0.875999987125 -0.379999995232 -0.0520000010729 1731.0
0.882000029087 -0.388999998569 -0.0529999993742 1740.0
0.874000012875 -0.391000002623 -0.0520000010729 1812.0
0.878000020981 -0.40000000596 -0.0529999993742 1797.0
0.873000025749 -0.404000014067 -0.0529999993742 1770.0
0.873000025749 -0.409999996424 -0.0529999993742 1794.0
0.874000012875 -0.416999995708 -0.0529999993742 1802.0
0.874000012875 -0.423999994993 -0.0529999993742 1782.0
0.870000004768 -0.428999990225 -0.0529999993742 1804.0
0.867999970913 -0.433999985456 -0.0529999993742 1872.0
0.870000004768 -0.442000001669 -0.0529999993742 1856.0
0.867999970913 -0.448000013828 -0.0529999993742 1833.0
0.869000017643 -0.455000013113 -0.0529999993742 1823.0
0.865000009537 -0.460000008345 -0.0529999993742 1848.0
0.866999983788 -0.467000007629 -0.0529999993742 1853.0
0.864000022411 -0.472999989986 -0.0529999993742 1701.0
0.865000009537 -0.479999989271 -0.0529999993742 1679.0
0.989000022411 0.566999971867 -0.0729999989271 363.0
1.02499997616 0.578999996185 -0.0759999975562 307.0
1.01499998569 0.564999997616 -0.0750000029802 249.0
1.00300002098 0.550999999046 -0.0740000009537 218.0
1.15199995041 0.623000025749 -0.0839999988675 169.0
1.57299995422 0.838999986649 -0.115000002086 156.0
1.26400005817 0.663999974728 -0.0920000001788 125.0
1.01499998569 0.524999976158 -0.0740000009537 124.0
3.73799991608 1.36699998379 -0.254999995232 66.0
3.85599994659 1.38399994373 -0.261999994516 62.0
4.0110001564 1.38600003719 -0.272000014782 73.0
4.1139998436 1.39400005341 -0.277999997139 64.0
4.1890001297 1.39199995995 -0.282000005245 80.0
4.21400022507 1.37300002575 -0.284000009298 88.0
4.17500019073 1.33299994469 -0.280000001192 81.0
4.22800016403 1.3220000267 -0.282999992371 85.0
4.21099996567 1.28999996185 -0.282000005245 73.0
4.10699987411 1.23099994659 -0.273999989033 76.0
4.1970000267 1.23199999332 -0.280000001192 85.0
4.14200019836 1.18900001049 -0.27500000596 84.0
4.16599988937 1.16999995708 -0.277000010014 79.0
4.14400005341 1.13699996471 -0.27500000596 91.0
4.11299991608 1.10300004482 -0.272000014782 86.0
4.17399978638 1.09300005436 -0.275999993086 91.0
4.12699985504 1.05499994755 -0.272000014782 87.0
4.15000009537 1.03499996662 -0.273000001907 89.0
4.12799978256 1.0039999485 -0.270999997854 93.0
4.16699981689 0.987999975681 -0.273000001907 98.0
4.18499994278 0.966000020504 -0.273999989033 87.0
4.09200000763 0.920000016689 -0.268000006676 105.0
4.09499979019 0.894999980927 -0.266999989748 108.0
4.14400005341 0.880999982357 -0.270000010729 118.0
4.11299991608 0.848999977112 -0.268000006676 118.0
4.10500001907 0.823000013828 -0.266999989748 110.0
4.10400009155 0.797999978065 -0.266000002623 101.0
4.132999897 0.777999997139 -0.268000006676 108.0
4.14099979401 0.754999995232 -0.268000006676 104.0
4.30200004578 0.759000003338 -0.277999997139 69.0
4.57700014114 0.751999974251 -0.294999986887 70.0
4.59000015259 0.726999998093 -0.296000003815 77.0
4.65700006485 0.709999978542 -0.300000011921 68.0
4.625 0.677999973297 -0.29699999094 60.0
4.59499979019 0.647000014782 -0.294999986887 66.0
4.68699979782 0.632000029087 -0.300999999046 61.0
4.63700008392 0.597999989986 -0.29699999094 67.0
4.63500022888 0.569999992847 -0.29699999094 66.0
4.65600013733 0.546000003815 -0.298000007868 71.0
4.64900016785 0.518000006676 -0.29699999094 70.0
4.70100021362 0.495999991894 -0.300000011921 68.0
4.78200006485 0.476999998093 -0.305000007153 63.0
4.67100000381 0.437999993563 -0.29699999094 61.0
4.75199985504 0.418000012636 -0.301999986172 67.0
4.75899982452 0.391000002623 -0.303000003099 62.0
4.73500013351 0.361999988556 -0.300999999046 61.0
4.77500009537 0.337000012398 -0.303000003099 60.0
4.75299978256 0.307999998331 -0.301999986172 62.0
4.82000017166 0.284999996424 -0.305999994278 62.0
4.8220000267 0.256999999285 -0.305000007153 62.0
4.81199979782 0.229000002146 -0.305000007153 61.0
4.85799980164 0.202999994159 -0.307000011206 60.0
4.80999994278 0.172999992967 -0.303999990225 62.0
4.87799978256 0.146999999881 -0.307999998331 59.0
4.94099998474 0.120999999344 -0.312000006437 62.0
4.94999980927 0.0920000001788 -0.312000006437 53.0
4.94799995422 0.0640000030398 -0.312000006437 56.0
0.920000016689 -0.0439999997616 -0.0579999983311 1702.0
0.922999978065 -0.0489999987185 -0.0579999983311 1790.0
0.910000026226 -0.0540000014007 -0.0570000000298 1894.0
0.913999974728 -0.0590000003576 -0.0579999983311 1855.0
0.912000000477 -0.0640000030398 -0.0579999983311 1811.0
0.912000000477 -0.070000000298 -0.0570000000298 1734.0
0.913999974728 -0.0750000029802 -0.0579999983311 1723.0
0.912999987602 -0.0799999982119 -0.0579999983311 1780.0
0.912000000477 -0.0850000008941 -0.0570000000298 1782.0
0.910000026226 -0.0909999981523 -0.0570000000298 1827.0
