ply
format ascii 1.0
element vertex 931
property float x
property float y
property float z
property float intensity
end_header
1.0 -0.217999994755 0.0240000002086 132.0
1.0039999485 -0.22499999404 0.0240000002086 133.0
1.00100004673 -0.230000004172 0.0240000002086 132.0
0.985000014305 -0.231999993324 0.0230000000447 122.0
0.967000007629 -0.233999997377 0.0230000000447 133.0
0.975000023842 -0.241999998689 0.0230000000447 128.0
0.986999988556 -0.250999987125 0.0240000002086 130.0
0.987999975681 -0.256999999285 0.0240000002086 132.0
0.972000002861 -0.259000003338 0.0230000000447 127.0
0.949999988079 -0.259000003338 0.0230000000447 121.0
1.0039999485 -0.280999988317 0.0240000002086 121.0
0.981999993324 -0.280999988317 0.0240000002086 121.0
0.967000007629 -0.282000005245 0.0230000000447 119.0
0.97000002861 -0.28900000453 0.0240000002086 116.0
0.964999973774 -0.293999999762 0.0230000000447 117.0
0.961000025272 -0.298999994993 0.0230000000447 109.0
0.967000007629 -0.307000011206 0.0240000002086 116.0
0.941999971867 -0.305000007153 0.0230000000447 107.0
0.931999981403 -0.307999998331 0.0230000000447 109.0
0.948000013828 -0.319999992847 0.0230000000447 114.0
0.971000015736 -0.333999991417 0.0240000002086 109.0
0.945999979973 -0.331000000238 0.0230000000447 103.0
0.958999991417 -0.342000007629 0.0240000002086 109.0
0.947000026703 -0.344000011683 0.0240000002086 102.0
0.961000025272 -0.356000006199 0.0240000002086 103.0
0.953999996185 -0.360000014305 0.0240000002086 104.0
0.953999996185 -0.365999996662 0.0240000002086 104.0
0.957000017166 -0.374000012875 0.0240000002086 101.0
0.950999975204 -0.377999991179 0.0240000002086 101.0
0.948000013828 -0.384000003338 0.0240000002086 103.0
0.963999986649 -0.397000014782 0.0250000003725 101.0
0.963999986649 -0.404000014067 0.0250000003725 94.0
0.901000022888 -0.38299998641 0.0230000000447 93.0
0.972999989986 -0.421000003815 0.0250000003725 99.0
0.994000017643 -0.437999993563 0.0260000005364 90.0
0.934000015259 -0.418000012636 0.0240000002086 93.0
0.950999975204 -0.432000011206 0.0250000003725 92.0
0.948000013828 -0.437999993563 0.0250000003725 91.0
0.907999992371 -0.425999999046 0.0240000002086 89.0
0.958000004292 -0.456999987364 0.0250000003725 88.0
0.967000007629 -0.467999994755 0.0260000005364 84.0
1.00499999523 -0.495000004768 0.0270000007004 83.0
0.972999989986 -0.486000001431 0.0260000005364 87.0
0.953999996185 -0.483999997377 0.0260000005364 86.0
0.935000002384 -0.481000006199 0.0250000003725 82.0
0.990000009537 -0.518000006676 0.0270000007004 80.0
0.941999971867 -0.5 0.0260000005364 87.0
0.938000023365 -0.504999995232 0.0260000005364 86.0
0.962999999523 -0.527000010014 0.0260000005364 82.0
0.902000010014 -0.5 0.0250000003725 80.0
3.72900009155 2.04800009727 0.0640000030398 97.0
3.75999999046 2.03399991989 0.0640000030398 98.0
3.73600006104 1.99199998379 0.0630000010133 92.0
3.79200005531 1.99199998379 0.0640000030398 87.0
3.80500006676 1.96899998188 0.0649999976158 85.0
3.86400008202 1.96899998188 0.0649999976158 90.0
3.79099988937 1.90299999714 0.0640000030398 84.0
3.91499996185 1.93499994278 0.0659999996424 84.0
3.78699994087 1.84300005436 0.0640000030398 89.0
3.77699995041 1.80900001526 0.0640000030398 82.0
3.87400007248 1.82700002193 0.0649999976158 78.0
3.7990000248 1.76400005817 0.0640000030398 74.0
3.88100004196 1.77300000191 0.0649999976158 82.0
3.83400011063 1.72300004959 0.0649999976158 81.0
3.81100010872 1.68499994278 0.0640000030398 77.0
3.89199995995 1.69299995899 0.0649999976158 81.0
3.88100004196 1.66100001335 0.0649999976158 78.0
3.87700009346 1.63100004196 0.0649999976158 78.0
3.93000006676 1.62600004673 0.0659999996424 73.0
3.97199988365 1.61600005627 0.0670000016689 81.0
3.80200004578 1.51999998093 0.0640000030398 84.0
3.95399999619 1.5529999733 0.0659999996424 72.0
3.93799996376 1.51999998093 0.0659999996424 85.0
4.06199979782 1.53999996185 0.0680000036955 70.0
2.40499997139 0.0599999986589 0.0410000011325 125.0
2.41199994087 0.0469999983907 0.0410000011325 162.0
2.45300006866 0.0329999998212 0.0419999994338 89.0
2.36599993706 0.0189999993891 0.0410000011325 196.0
2.37800002098 0.00499999988824 0.0410000011325 129.0
2.45900011063 -0.0500000007451 0.0430000014603 69.0
2.31699991226 -0.0599999986589 0.0399999991059 190.0
2.14100003242 -0.0680000036955 0.0370000004768 102.0
1.06500005722 -0.0379999987781 0.0179999992251 131.0
0.976000010967 -0.0410000011325 0.01600000076 143.0
1.00800001621 -0.0480000004172 0.0170000009239 141.0
1.00600004196 -0.0529999993742 0.0170000009239 144.0
0.985000014305 -0.0579999983311 0.01600000076 146.0
1.00600004196 -0.0649999976158 0.0170000009239 147.0
1.0039999485 -0.0710000023246 0.0170000009239 148.0
1.00300002098 -0.0759999975562 0.0170000009239 145.0
0.98400002718 -0.0810000002384 0.01600000076 146.0
0.981999993324 -0.0860000029206 0.01600000076 149.0
0.994000017643 -0.0930000022054 0.0170000009239 149.0
0.996999979019 -0.0989999994636 0.0170000009239 147.0
1.00300002098 -0.104999996722 0.0170000009239 145.0
0.990999996662 -0.109999999404 0.0170000009239 155.0
0.998000025749 -0.115999996662 0.0170000009239 151.0
0.981999993324 -0.119999997318 0.0170000009239 149.0
0.97000002861 -0.123999997973 0.01600000076 152.0
0.996999979019 -0.134000003338 0.0170000009239 143.0
0.976999998093 -0.136999994516 0.0170000009239 150.0
1.02400004864 -0.15000000596 0.0179999992251 144.0
0.980000019073 -0.149000003934 0.0170000009239 139.0
0.992999970913 -0.157000005245 0.0170000009239 145.0
0.995999991894 -0.163000002503 0.0170000009239 151.0
1.00600004196 -0.171000003815 0.0170000009239 139.0
0.990000009537 -0.173999994993 0.0170000009239 140.0
1.0039999485 -0.181999996305 0.0170000009239 143.0
0.973999977112 -0.182999998331 0.0170000009239 140.0
0.973999977112 -0.187999993563 0.0170000009239 132.0
0.98299998045 -0.195999994874 0.0170000009239 136.0
0.986000001431 -0.202999994159 0.0170000009239 139.0
0.978999972343 -0.207000002265 0.0170000009239 137.0
0.98400002718 -0.21400000155 0.0170000009239 129.0
0.975000023842 -0.217999994755 0.0170000009239 132.0
0.985000014305 -0.225999996066 0.0170000009239 129.0
1.00300002098 -0.236000001431 0.0179999992251 130.0
0.976999998093 -0.236000001431 0.0170000009239 131.0
0.980000019073 -0.243000000715 0.0179999992251 125.0
0.963999986649 -0.245000004768 0.0170000009239 118.0
0.996999979019 -0.259999990463 0.0179999992251 130.0
0.954999983311 -0.254000008106 0.0170000009239 123.0
0.98299998045 -0.268000006676 0.0179999992251 121.0
0.963999986649 -0.268999993801 0.0170000009239 118.0
1.01100003719 -0.28900000453 0.0179999992251 120.0
0.967999994755 -0.282999992371 0.0179999992251 119.0
0.954999983311 -0.284999996424 0.0170000009239 115.0
1.01999998093 -0.31099998951 0.0189999993891 121.0
0.964999973774 -0.300000011921 0.0179999992251 115.0
0.96899998188 -0.307999998331 0.0179999992251 106.0
0.958999991417 -0.31099998951 0.0179999992251 114.0
0.945999979973 -0.312999993563 0.0179999992251 107.0
0.972999989986 -0.32800000906 0.0179999992251 107.0
0.981999993324 -0.337000012398 0.0179999992251 108.0
0.945999979973 -0.331000000238 0.0179999992251 109.0
0.959999978542 -0.342999994755 0.0179999992251 107.0
0.967999994755 -0.351999998093 0.0179999992251 111.0
0.944999992847 -0.34999999404 0.0179999992251 99.0
0.959999978542 -0.361999988556 0.0179999992251 105.0
0.972000002861 -0.372999995947 0.0189999993891 97.0
0.938000023365 -0.365999996662 0.0179999992251 95.0
0.955999970436 -0.379999995232 0.0179999992251 103.0
0.976000010967 -0.395000010729 0.0189999993891 99.0
0.922999978065 -0.379999995232 0.0179999992251 93.0
0.981000006199 -0.411000013351 0.0189999993891 97.0
0.967999994755 -0.412000000477 0.0189999993891 102.0
1.01499998569 -0.439999997616 0.019999999553 94.0
0.967999994755 -0.425999999046 0.0189999993891 86.0
0.958999991417 -0.428999990225 0.0189999993891 91.0
0.933000028133 -0.423999994993 0.0189999993891 90.0
0.989000022411 -0.456999987364 0.019999999553 86.0
0.986000001431 -0.462999999523 0.019999999553 86.0
0.962999999523 -0.458999991417 0.0189999993891 86.0
0.97000002861 -0.469999998808 0.019999999553 91.0
0.990999996662 -0.488000005484 0.019999999553 87.0
0.861999988556 -0.430000007153 0.0170000009239 92.0
0.961000025272 -0.488000005484 0.019999999553 80.0
0.97000002861 -0.499000012875 0.019999999553 85.0
1.00499999523 -0.526000022888 0.0209999997169 82.0
0.961000025272 -0.509999990463 0.019999999553 82.0
0.952000021935 -0.513000011444 0.019999999553 81.0
0.898999989033 -0.490999996662 0.0189999993891 83.0
0.981000006199 -0.544000029564 0.0209999997169 83.0
3.41899991035 1.96099996567 0.0359999984503 100.0
3.69899988174 2.06100010872 0.0390000008047 84.0
3.68799996376 2.02500009537 0.0390000008047 131.0
3.77699995041 2.04299998283 0.0399999991059 136.0
3.72300004959 1.98399996758 0.0390000008047 126.0
3.79299998283 1.99199998379 0.0399999991059 115.0
3.77600002289 1.95299994946 0.0399999991059 120.0
3.82500004768 1.94900000095 0.0399999991059 113.0
3.77200007439 1.89300000668 0.0399999991059 119.0
3.76399993896 1.86000001431 0.0399999991059 113.0
3.75600004196 1.82799994946 0.0399999991059 109.0
3.81999993324 1.83000004292 0.0399999991059 112.0
3.85500001907 1.81799995899 0.0410000011325 113.0
3.79999995232 1.76300001144 0.0399999991059 112.0
3.79500007629 1.73399996758 0.0399999991059 108.0
3.76200008392 1.69099998474 0.0399999991059 106.0
3.87700009346 1.71500003338 0.0410000011325 113.0
3.86299991608 1.68099999428 0.0410000011325 105.0
3.83500003815 1.64100003242 0.0410000011325 108.0
3.85899996758 1.62399995327 0.0410000011325 112.0
3.93899989128 1.6289999485 0.0419999994338 100.0
3.88400006294 1.57899999619 0.0410000011325 116.0
3.88199996948 1.55200004578 0.0410000011325 121.0
3.83699989319 1.50699996948 0.0410000011325 120.0
3.84999990463 1.48599994183 0.0410000011325 132.0
3.89199995995 1.47500002384 0.0410000011325 96.0
2.39499998093 0.0599999986589 0.0270000007004 139.0
2.41300010681 0.0469999983907 0.0280000008643 169.0
2.43600010872 0.0329999998212 0.0280000008643 88.0
2.35199999809 0.0189999993891 0.0270000007004 200.0
2.35800004005 0.00499999988824 0.0270000007004 127.0
2.39400005341 -0.0489999987185 0.0280000008643 81.0
2.31699991226 -0.0610000006855 0.0270000007004 187.0
2.14199995995 -0.0680000036955 0.0250000003725 96.0
1.02199995518 -0.0370000004768 0.0109999999404 129.0
1.0 -0.0419999994338 0.0109999999404 144.0
1.01400005817 -0.0480000004172 0.0109999999404 140.0
1.00300002098 -0.0529999993742 0.0109999999404 135.0
1.00300002098 -0.0590000003576 0.0109999999404 140.0
0.986000001431 -0.0640000030398 0.0109999999404 146.0
1.00600004196 -0.0710000023246 0.0109999999404 149.0
1.00100004673 -0.0759999975562 0.0109999999404 150.0
0.999000012875 -0.082000002265 0.0109999999404 149.0
0.98299998045 -0.0860000029206 0.0109999999404 154.0
1.01100003719 -0.0949999988079 0.0109999999404 152.0
0.976000010967 -0.097000002861 0.0109999999404 148.0
0.995000004768 -0.104999996722 0.0109999999404 148.0
0.954999983311 -0.105999998748 0.0109999999404 146.0
0.98400002718 -0.115000002086 0.0109999999404 144.0
0.971000015736 -0.119000002742 0.0109999999404 148.0
0.990999996662 -0.127000004053 0.0109999999404 155.0
1.0 -0.134000003338 0.0109999999404 145.0
0.990999996662 -0.138999998569 0.0109999999404 159.0
0.989000022411 -0.143999993801 0.0109999999404 152.0
0.981000006199 -0.149000003934 0.0109999999404 151.0
1.00600004196 -0.158999994397 0.0109999999404 139.0
0.985000014305 -0.16099999845 0.0109999999404 147.0
1.00699996948 -0.171000003815 0.0120000001043 148.0
0.976000010967 -0.171000003815 0.0109999999404 138.0
1.00199997425 -0.181999996305 0.0120000001043 141.0
0.977999985218 -0.182999998331 0.0109999999404 141.0
0.999000012875 -0.193000003695 0.0120000001043 139.0
0.949000000954 -0.188999995589 0.0109999999404 137.0
0.96899998188 -0.199000000954 0.0109999999404 136.0
0.980000019073 -0.207000002265 0.0109999999404 136.0
0.994000017643 -0.216000005603 0.0120000001043 134.0
0.996999979019 -0.223000004888 0.0120000001043 132.0
0.976999998093 -0.224000006914 0.0120000001043 132.0
0.999000012875 -0.236000001431 0.0120000001043 128.0
0.971000015736 -0.234999999404 0.0120000001043 135.0
0.992999970913 -0.24699999392 0.0120000001043 122.0
0.972999989986 -0.24699999392 0.0120000001043 126.0
0.959999978542 -0.25 0.0120000001043 126.0
0.987999975681 -0.263000011444 0.0120000001043 125.0
0.949999988079 -0.259000003338 0.0120000001043 121.0
0.985000014305 -0.27500000596 0.0120000001043 120.0
0.955999970436 -0.273000001907 0.0120000001043 119.0
0.939999997616 -0.273999989033 0.0120000001043 112.0
0.930999994278 -0.277000010014 0.0109999999404 115.0
0.96899998188 -0.294999986887 0.0120000001043 118.0
0.952000021935 -0.296000003815 0.0120000001043 118.0
1.00300002098 -0.319000005722 0.0130000002682 114.0
0.967000007629 -0.312999993563 0.0120000001043 117.0
0.934000015259 -0.308999985456 0.0120000001043 114.0
0.97000002861 -0.326999992132 0.0120000001043 104.0
0.976000010967 -0.335000008345 0.0120000001043 109.0
0.971000015736 -0.340000003576 0.0120000001043 104.0
0.958999991417 -0.342000007629 0.0120000001043 108.0
0.93900001049 -0.340999990702 0.0120000001043 105.0
0.955999970436 -0.354000002146 0.0120000001043 105.0
0.976999998093 -0.368999987841 0.0130000002682 104.0
0.939999997616 -0.361000001431 0.0120000001043 103.0
0.962000012398 -0.375999987125 0.0130000002682 104.0
0.949999988079 -0.377999991179 0.0120000001043 102.0
0.96899998188 -0.391999989748 0.0130000002682 99.0
0.945999979973 -0.388999998569 0.0130000002682 107.0
0.966000020504 -0.404000014067 0.0130000002682 97.0
0.925000011921 -0.393999993801 0.0120000001043 95.0
0.971000015736 -0.421000003815 0.0130000002682 98.0
0.952000021935 -0.418999999762 0.0130000002682 88.0
0.92199999094 -0.412000000477 0.0120000001043 90.0
0.944000005722 -0.428999990225 0.0130000002682 96.0
0.963999986649 -0.444999992847 0.0130000002682 81.0
0.954999983311 -0.448000013828 0.0130000002682 92.0
0.958999991417 -0.456999987364 0.0130000002682 89.0
0.949999988079 -0.460000008345 0.0130000002682 76.0
0.941999971867 -0.462999999523 0.0130000002682 88.0
0.93900001049 -0.469000011683 0.0130000002682 81.0
0.934000015259 -0.474000006914 0.0130000002682 87.0
0.959999978542 -0.493999987841 0.0140000004321 88.0
0.940999984741 -0.49200001359 0.0130000002682 82.0
0.933000028133 -0.495000004768 0.0130000002682 81.0
0.952000021935 -0.513000011444 0.0140000004321 83.0
0.938000023365 -0.513000011444 0.0140000004321 83.0
0.992999970913 -0.550999999046 0.0149999996647 88.0
3.45000004768 1.97800004482 0.0140000004321 103.0
3.74499988556 2.117000103 0.0149999996647 80.0
3.7009999752 2.06200003624 0.0149999996647 96.0
3.69799995422 2.02999997139 0.0149999996647 156.0
3.71499991417 2.00999999046 0.0149999996647 152.0
3.72300004959 1.98399996758 0.0149999996647 146.0
3.75 1.96899998188 0.01600000076 141.0
3.75999999046 1.94500005245 0.01600000076 142.0
3.73600006104 1.90299999714 0.01600000076 133.0
3.75999999046 1.88699996471 0.01600000076 131.0
3.77699995041 1.86600005627 0.01600000076 139.0
3.78600001335 1.84200000763 0.01600000076 135.0
3.75600004196 1.7990000248 0.01600000076 136.0
3.79399991035 1.78900003433 0.01600000076 133.0
3.80200004578 1.76400005817 0.01600000076 128.0
3.78299999237 1.72800004482 0.01600000076 137.0
3.8029999733 1.70899999142 0.0170000009239 125.0
3.81999993324 1.68900001049 0.0170000009239 133.0
3.82699990273 1.66499996185 0.0170000009239 135.0
3.84500002861 1.64499998093 0.0170000009239 120.0
3.83400011063 1.61300003529 0.0170000009239 130.0
3.7990000248 1.57099997997 0.0170000009239 132.0
3.8069999218 1.54799997807 0.0170000009239 126.0
3.84999990463 1.5379999876 0.0170000009239 141.0
3.83999991417 1.50800001621 0.0170000009239 136.0
3.84999990463 1.48500001431 0.0170000009239 155.0
3.8599998951 1.46300005913 0.0179999992251 111.0
2.39400005341 0.0599999986589 0.0130000002682 143.0
2.4240000248 0.0469999983907 0.0140000004321 159.0
2.45499992371 0.0329999998212 0.0140000004321 91.0
2.33699989319 0.0179999992251 0.0130000002682 214.0
2.36599993706 0.00499999988824 0.0140000004321 126.0
2.41700005531 -0.0489999987185 0.0140000004321 79.0
2.31900000572 -0.0610000006855 0.0140000004321 202.0
2.12400007248 -0.0680000036955 0.0120000001043 99.0
1.01699995995 -0.0370000004768 0.00499999988824 131.0
1.01600003242 -0.0419999994338 0.00499999988824 138.0
1.00100004673 -0.0480000004172 0.00499999988824 141.0
1.00499999523 -0.0540000014007 0.00499999988824 142.0
0.998000025749 -0.0590000003576 0.00499999988824 146.0
0.995999991894 -0.0640000030398 0.00499999988824 145.0
1.01100003719 -0.0710000023246 0.00499999988824 153.0
1.00699996948 -0.0769999995828 0.00499999988824 150.0
0.971000015736 -0.0799999982119 0.00499999988824 146.0
0.985000014305 -0.0860000029206 0.00499999988824 151.0
1.0039999485 -0.0939999967813 0.00499999988824 146.0
0.989000022411 -0.097999997437 0.00499999988824 147.0
1.00999999046 -0.105999998748 0.00499999988824 148.0
0.995000004768 -0.109999999404 0.00499999988824 147.0
0.980000019073 -0.11400000006 0.00499999988824 152.0
0.961000025272 -0.118000000715 0.00499999988824 148.0
0.986999988556 -0.127000004053 0.00499999988824 146.0
0.967999994755 -0.129999995232 0.00499999988824 146.0
0.987999975681 -0.137999996543 0.00499999988824 148.0
1.00499999523 -0.146999999881 0.00600000005215 150.0
0.98400002718 -0.149000003934 0.00499999988824 145.0
1.00300002098 -0.158000007272 0.00600000005215 147.0
0.953999996185 -0.156000003219 0.00499999988824 147.0
0.991999983788 -0.167999997735 0.00600000005215 145.0
0.972999989986 -0.171000003815 0.00600000005215 142.0
1.00499999523 -0.181999996305 0.00600000005215 139.0
0.975000023842 -0.182999998331 0.00600000005215 144.0
1.00999999046 -0.195999994874 0.00600000005215 137.0
0.973999977112 -0.194000005722 0.00600000005215 133.0
0.949000000954 -0.194999992847 0.00499999988824 141.0
0.973999977112 -0.206000000238 0.00600000005215 136.0
0.964999973774 -0.209999993443 0.00600000005215 136.0
1.00300002098 -0.224000006914 0.00600000005215 133.0
0.97000002861 -0.223000004888 0.00600000005215 130.0
0.964999973774 -0.228000000119 0.00600000005215 133.0
0.973999977112 -0.236000001431 0.00600000005215 126.0
0.954999983311 -0.237000003457 0.00600000005215 133.0
0.935000002384 -0.238000005484 0.00600000005215 121.0
0.990000009537 -0.25799998641 0.00600000005215 131.0
0.976999998093 -0.261000007391 0.00600000005215 127.0
0.978999972343 -0.266999989748 0.00600000005215 122.0
0.96899998188 -0.270999997854 0.00600000005215 120.0
0.96899998188 -0.277000010014 0.00600000005215 122.0
1.00100004673 -0.291999995708 0.00600000005215 121.0
0.952000021935 -0.284000009298 0.00600000005215 111.0
0.994000017643 -0.303000003099 0.00600000005215 122.0
0.967000007629 -0.300999999046 0.00600000005215 117.0
0.980000019073 -0.31099998951 0.00600000005215 115.0
0.962000012398 -0.312000006437 0.00600000005215 117.0
0.989000022411 -0.326999992132 0.00700000021607 111.0
0.98400002718 -0.331999987364 0.00700000021607 107.0
0.972000002861 -0.333999991417 0.00700000021607 112.0
0.948000013828 -0.331999987364 0.00600000005215 102.0
0.962999999523 -0.344000011683 0.00700000021607 106.0
0.925999999046 -0.33599999547 0.00600000005215 103.0
0.952000021935 -0.352999985218 0.00700000021607 109.0
0.950999975204 -0.358999997377 0.00700000021607 99.0
0.940999984741 -0.361000001431 0.00700000021607 102.0
0.992999970913 -0.388000011444 0.00700000021607 100.0
0.953999996185 -0.379999995232 0.00700000021607 98.0
0.976999998093 -0.395999997854 0.00700000021607 99.0
0.944000005722 -0.388000011444 0.00700000021607 99.0
0.966000020504 -0.404000014067 0.00700000021607 93.0
0.958999991417 -0.407999992371 0.00700000021607 88.0
0.967000007629 -0.418999999762 0.00700000021607 99.0
0.963999986649 -0.425000011921 0.00700000021607 91.0
0.97000002861 -0.433999985456 0.00700000021607 95.0
0.948000013828 -0.430999994278 0.00700000021607 94.0
0.93900001049 -0.433999985456 0.00700000021607 88.0
0.981999993324 -0.46099999547 0.00700000021607 96.0
0.973999977112 -0.465000003576 0.00700000021607 85.0
0.963999986649 -0.467000007629 0.00700000021607 87.0
0.926999986172 -0.456000000238 0.00700000021607 86.0
0.938000023365 -0.467999994755 0.00700000021607 82.0
0.961000025272 -0.488000005484 0.00800000037998 84.0
0.912000000477 -0.469999998808 0.00700000021607 83.0
0.926999986172 -0.49200001359 0.00700000021607 82.0
0.934000015259 -0.503000020981 0.00700000021607 88.0
0.961000025272 -0.526000022888 0.00800000037998 81.0
0.907999992371 -0.503000020981 0.00700000021607 80.0
3.52200007439 2.01999998093 -0.00800000037998 110.0
3.69000005722 2.08599996567 -0.00800000037998 89.0
3.74799990654 2.08800005913 -0.00800000037998 111.0
3.71000003815 2.03699994087 -0.00800000037998 172.0
3.73300004005 2.01900005341 -0.00800000037998 178.0
3.78900003433 2.01900005341 -0.00800000037998 155.0
3.77099990845 1.98000001907 -0.00700000021607 135.0
3.74499988556 1.93700003624 -0.00700000021607 139.0
3.73799991608 1.90400004387 -0.00700000021607 139.0
3.74799990654 1.87999999523 -0.00700000021607 134.0
3.79999995232 1.87800002098 -0.00700000021607 141.0
3.78299999237 1.84000003338 -0.00700000021607 136.0
3.82899999619 1.83399999142 -0.00700000021607 137.0
3.7990000248 1.79100000858 -0.00700000021607 133.0
3.78800010681 1.75800001621 -0.00600000005215 138.0
3.79800009727 1.73399996758 -0.00600000005215 135.0
3.7990000248 1.70700001717 -0.00600000005215 135.0
3.80200004578 1.68099999428 -0.00600000005215 142.0
3.82299995422 1.6629999876 -0.00600000005215 138.0
3.84999990463 1.64699995518 -0.00600000005215 137.0
3.84500002861 1.61699998379 -0.00600000005215 140.0
3.84400010109 1.59000003338 -0.00600000005215 133.0
3.84100008011 1.56200003624 -0.00499999988824 144.0
3.85500001907 1.53999996185 -0.00499999988824 142.0
3.85100007057 1.51199996471 -0.00499999988824 140.0
3.84699988365 1.48399996758 -0.00499999988824 156.0
3.90300011635 1.47899997234 -0.00499999988824 120.0
2.40799999237 0.0599999986589 0.0 158.0
2.42100000381 0.0469999983907 0.0 168.0
2.4430000782 0.0329999998212 0.0 96.0
2.32100009918 0.0179999992251 0.0 209.0
2.37400007248 0.00499999988824 0.0 126.0
2.43600010872 -0.0500000007451 0.0 74.0
2.29200005531 -0.0599999986589 0.0 214.0
2.07800006866 -0.0659999996424 0.0 89.0
1.03900003433 -0.0379999987781 0.0 134.0
0.985000014305 -0.0410000011325 0.0 144.0
0.999000012875 -0.0469999983907 0.0 140.0
0.980000019073 -0.0520000010729 0.0 137.0
0.972999989986 -0.0570000000298 0.0 145.0
0.990000009537 -0.0640000030398 0.0 151.0
0.989000022411 -0.070000000298 0.0 148.0
0.986999988556 -0.0750000029802 0.0 147.0
0.996999979019 -0.082000002265 0.0 152.0
1.00300002098 -0.0879999995232 0.0 146.0
1.00800001621 -0.0939999967813 0.0 140.0
0.990000009537 -0.097999997437 0.0 151.0
0.995999991894 -0.104999996722 0.0 149.0
0.991999983788 -0.109999999404 0.0 148.0
0.96899998188 -0.112999998033 0.0 145.0
0.987999975681 -0.120999999344 0.0 145.0
0.981999993324 -0.126000002027 0.0 149.0
0.971000015736 -0.129999995232 0.0 143.0
0.992999970913 -0.138999998569 0.0 151.0
1.00999999046 -0.148000001907 0.0 148.0
0.995999991894 -0.150999993086 0.0 146.0
0.967999994755 -0.152999997139 0.0 142.0
0.986000001431 -0.16099999845 0.0 146.0
0.986999988556 -0.166999995708 0.0 141.0
0.978999972343 -0.172000005841 0.0 144.0
0.985000014305 -0.179000005126 0.0 140.0
0.954999983311 -0.179000005126 0.0 136.0
0.954999983311 -0.185000002384 0.0 138.0
0.976000010967 -0.194999992847 0.0 138.0
0.976999998093 -0.201000005007 0.0 138.0
1.00300002098 -0.211999997497 0.0 145.0
0.992999970913 -0.216000005603 0.0 138.0
0.964999973774 -0.216000005603 0.0 129.0
0.978999972343 -0.22499999404 0.0 130.0
0.962000012398 -0.226999998093 0.0 130.0
0.977999985218 -0.237000003457 0.0 124.0
0.985000014305 -0.245000004768 0.0 121.0
0.958999991417 -0.244000002742 0.0 128.0
0.975000023842 -0.254000008106 0.0 129.0
0.977999985218 -0.261000007391 0.0 124.0
0.998000025749 -0.272000014782 0.0 125.0
0.95300000906 -0.266000002623 0.0 123.0
0.96899998188 -0.277000010014 0.0 116.0
0.973999977112 -0.284000009298 0.0 119.0
0.963999986649 -0.287000000477 0.0 116.0
0.981999993324 -0.298999994993 0.0 117.0
0.959999978542 -0.298999994993 0.0 114.0
0.995999991894 -0.316000014544 0.0010000000475 115.0
0.954999983311 -0.310000002384 0.0010000000475 111.0
0.952000021935 -0.31400001049 0.0010000000475 110.0
0.947000026703 -0.319000005722 0.0010000000475 108.0
0.943000018597 -0.324000000954 0.0010000000475 108.0
0.95300000906 -0.333999991417 0.0010000000475 112.0
0.964999973774 -0.344999998808 0.0010000000475 103.0
0.924000024796 -0.33599999547 0.0010000000475 104.0
0.915000021458 -0.338999986649 0.0010000000475 98.0
0.966000020504 -0.363999992609 0.0010000000475 99.0
1.01999998093 -0.391999989748 0.0010000000475 95.0
0.934000015259 -0.365000009537 0.0010000000475 100.0
0.938000023365 -0.372999995947 0.0010000000475 99.0
0.944999992847 -0.38299998641 0.0010000000475 101.0
0.945999979973 -0.388999998569 0.0010000000475 93.0
0.976000010967 -0.409000009298 0.0010000000475 97.0
0.944000005722 -0.402000010014 0.0010000000475 98.0
0.944999992847 -0.409000009298 0.0010000000475 94.0
0.981000006199 -0.432000011206 0.0010000000475 90.0
0.954999983311 -0.426999986172 0.0010000000475 94.0
0.981999993324 -0.446999996901 0.0010000000475 94.0
0.966000020504 -0.446000009775 0.0010000000475 88.0
0.975000023842 -0.458000004292 0.0010000000475 84.0
0.919000029564 -0.437999993563 0.0010000000475 85.0
0.961000025272 -0.465999990702 0.0010000000475 85.0
0.934000015259 -0.458999991417 0.0010000000475 83.0
0.933000028133 -0.465999990702 0.0010000000475 87.0
0.953999996185 -0.483999997377 0.0010000000475 85.0
0.973999977112 -0.501999974251 0.00200000009499 83.0
0.967999994755 -0.505999982357 0.00200000009499 90.0
0.924000024796 -0.490000009537 0.0010000000475 80.0
0.925000011921 -0.497999995947 0.0010000000475 83.0
0.930999994278 -0.509000003338 0.00200000009499 81.0
0.93900001049 -0.521000027657 0.00200000009499 78.0
3.59200000763 2.05999994278 -0.0309999994934 106.0
3.67199993134 2.0759999752 -0.0320000015199 111.0
3.71799993515 2.07100009918 -0.0320000015199 141.0
3.69099998474 2.02600002289 -0.0309999994934 205.0
3.73000001907 2.01699995995 -0.0320000015199 196.0
3.71199989319 1.97800004482 -0.0309999994934 175.0
3.74799990654 1.96800005436 -0.0309999994934 152.0
3.77200007439 1.9509999752 -0.0309999994934 153.0
3.75099992752 1.91100001335 -0.0309999994934 142.0
3.73600006104 1.87399995327 -0.0309999994934 148.0
3.74699997902 1.85099995136 -0.0309999994934 146.0
3.76399993896 1.83099997044 -0.0299999993294 158.0
3.78600001335 1.81299996376 -0.0299999993294 154.0
3.81500005722 1.79799997807 -0.0299999993294 152.0
3.8069999218 1.76600003242 -0.0299999993294 159.0
3.8220000267 1.74500000477 -0.0299999993294 151.0
3.77999997139 1.69900000095 -0.0299999993294 148.0
3.83400011063 1.69500005245 -0.0299999993294 149.0
3.81399989128 1.65799999237 -0.0299999993294 152.0
3.79600000381 1.62399995327 -0.0289999991655 151.0
3.80900001526 1.60199999809 -0.0289999991655 150.0
3.85199999809 1.59300005436 -0.0289999991655 148.0
3.85899996758 1.56900000572 -0.0289999991655 157.0
3.86999988556 1.54600000381 -0.0289999991655 143.0
3.84999990463 1.51199996471 -0.0289999991655 144.0
3.86800003052 1.49199998379 -0.0289999991655 156.0
3.90899991989 1.48099994659 -0.0289999991655 122.0
4.09499979019 1.52400004864 -0.0299999993294 61.0
4.14699983597 1.48699998856 -0.0299999993294 62.0
4.38800001144 1.48599994183 -0.0309999994934 60.0
2.41000008583 0.0599999986589 -0.0130000002682 173.0
2.42100000381 0.0469999983907 -0.0130000002682 176.0
2.41100001335 0.0329999998212 -0.0130000002682 103.0
2.31900000572 0.0179999992251 -0.0130000002682 220.0
2.36400008202 0.00499999988824 -0.0130000002682 125.0
2.3710000515 -0.0489999987185 -0.0130000002682 81.0
2.30399990082 -0.0599999986589 -0.0120000001043 220.0
2.05999994278 -0.0659999996424 -0.0109999999404 96.0
1.02100002766 -0.0370000004768 -0.00600000005215 137.0
0.990000009537 -0.0410000011325 -0.00499999988824 143.0
1.00499999523 -0.0480000004172 -0.00600000005215 137.0
0.981999993324 -0.0520000010729 -0.00499999988824 141.0
0.986000001431 -0.0579999983311 -0.00499999988824 144.0
0.976000010967 -0.0630000010133 -0.00499999988824 151.0
1.00899994373 -0.0710000023246 -0.00499999988824 152.0
0.980000019073 -0.0750000029802 -0.00499999988824 155.0
0.995000004768 -0.082000002265 -0.00499999988824 143.0
0.986999988556 -0.0869999974966 -0.00499999988824 147.0
0.995000004768 -0.0930000022054 -0.00499999988824 149.0
1.00300002098 -0.10000000149 -0.00499999988824 148.0
0.971000015736 -0.101999998093 -0.00499999988824 144.0
0.989000022411 -0.109999999404 -0.00499999988824 149.0
0.961000025272 -0.112000003457 -0.00499999988824 149.0
0.989000022411 -0.120999999344 -0.00499999988824 147.0
0.98299998045 -0.126000002027 -0.00499999988824 150.0
0.985000014305 -0.131999999285 -0.00499999988824 150.0
0.961000025272 -0.135000005364 -0.00499999988824 148.0
0.981000006199 -0.143000006676 -0.00499999988824 145.0
0.986999988556 -0.15000000596 -0.00499999988824 141.0
0.981000006199 -0.155000001192 -0.00499999988824 147.0
0.958999991417 -0.157000005245 -0.00499999988824 142.0
0.981999993324 -0.166999995708 -0.00499999988824 147.0
0.989000022411 -0.173999994993 -0.00499999988824 141.0
1.00899994373 -0.182999998331 -0.00499999988824 147.0
0.96899998188 -0.181999996305 -0.00499999988824 143.0
0.962000012398 -0.186000004411 -0.00499999988824 139.0
0.980000019073 -0.194999992847 -0.00499999988824 140.0
0.990000009537 -0.202999994159 -0.00499999988824 138.0
0.966000020504 -0.203999996185 -0.00499999988824 139.0
0.976000010967 -0.211999997497 -0.00499999988824 136.0
0.955999970436 -0.21400000155 -0.00499999988824 134.0
0.995000004768 -0.229000002146 -0.00499999988824 130.0
0.954999983311 -0.22499999404 -0.00499999988824 131.0
1.00800001621 -0.244000002742 -0.00499999988824 126.0
1.00300002098 -0.248999997973 -0.00499999988824 126.0
0.978999972343 -0.248999997973 -0.00499999988824 126.0
0.98299998045 -0.256000012159 -0.00499999988824 130.0
0.995999991894 -0.266000002623 -0.00499999988824 120.0
0.938000023365 -0.256000012159 -0.00400000018999 125.0
0.976999998093 -0.273000001907 -0.00400000018999 125.0
0.963999986649 -0.27500000596 -0.00400000018999 121.0
0.992999970913 -0.289999991655 -0.00400000018999 118.0
0.963999986649 -0.287999987602 -0.00400000018999 114.0
0.986000001431 -0.300999999046 -0.00400000018999 118.0
0.966000020504 -0.300999999046 -0.00400000018999 121.0
0.976000010967 -0.310000002384 -0.00400000018999 117.0
0.978999972343 -0.317000001669 -0.00400000018999 115.0
0.996999979019 -0.330000013113 -0.00400000018999 115.0
0.981000006199 -0.331000000238 -0.00400000018999 109.0
0.93900001049 -0.323000013828 -0.00400000018999 117.0
0.93599998951 -0.32800000906 -0.00400000018999 106.0
0.961000025272 -0.342999994755 -0.00400000018999 108.0
0.949999988079 -0.345999985933 -0.00400000018999 97.0
0.958999991417 -0.354999989271 -0.00400000018999 98.0
0.952000021935 -0.358999997377 -0.00400000018999 99.0
0.978999972343 -0.375999987125 -0.00400000018999 100.0
0.950999975204 -0.372000008821 -0.00400000018999 97.0
0.97000002861 -0.386000007391 -0.00400000018999 102.0
0.944999992847 -0.381999999285 -0.00400000018999 95.0
0.985000014305 -0.405999988317 -0.00400000018999 92.0
0.912000000477 -0.381999999285 -0.00400000018999 95.0
0.927999973297 -0.395000010729 -0.00400000018999 91.0
0.964999973774 -0.418000012636 -0.00400000018999 86.0
0.976999998093 -0.430000007153 -0.00400000018999 89.0
0.958999991417 -0.428999990225 -0.00400000018999 89.0
0.998000025749 -0.453999996185 -0.00400000018999 93.0
0.985000014305 -0.455000013113 -0.00400000018999 97.0
0.986999988556 -0.462999999523 -0.00400000018999 79.0
0.971000015736 -0.462999999523 -0.00400000018999 87.0
0.964999973774 -0.467999994755 -0.00400000018999 86.0
0.950999975204 -0.467999994755 -0.00400000018999 87.0
0.924000024796 -0.46099999547 -0.00400000018999 83.0
0.973999977112 -0.493999987841 -0.00400000018999 85.0
0.958999991417 -0.493999987841 -0.00400000018999 79.0
0.971000015736 -0.508000016212 -0.00400000018999 80.0
0.949999988079 -0.504000008106 -0.00400000018999 87.0
0.92199999094 -0.497000008821 -0.00300000002608 82.0
0.950999975204 -0.519999980927 -0.00400000018999 84.0
0.955999970436 -0.52999997139 -0.00400000018999 81.0
3.64700007439 2.09200000763 -0.054999999702 113.0
3.71499991417 2.09899997711 -0.0560000017285 110.0
3.69000005722 2.05599999428 -0.0560000017285 150.0
3.70199990273 2.03200006485 -0.054999999702 215.0
3.72699999809 2.01600003242 -0.0560000017285 213.0
3.72099995613 1.98300004005 -0.054999999702 173.0
3.73399996758 1.96000003815 -0.054999999702 152.0
3.70399999619 1.91499996185 -0.0540000014007 155.0
3.75 1.90999996662 -0.054999999702 149.0
3.79699993134 1.90499997139 -0.054999999702 155.0
3.80100011826 1.87800002098 -0.054999999702 156.0
3.78200006485 1.84000003338 -0.0540000014007 152.0
3.76200008392 1.80200004578 -0.0540000014007 157.0
3.8180000782 1.79999995232 -0.0540000014007 158.0
3.80999994278 1.76800000668 -0.0540000014007 154.0
3.81599998474 1.74199998379 -0.0540000014007 161.0
3.84400010109 1.72699999809 -0.0540000014007 166.0
3.85899996758 1.70599997044 -0.0540000014007 161.0
3.80200004578 1.65299999714 -0.0529999993742 161.0
3.82899999619 1.63800001144 -0.0529999993742 164.0
3.80800008774 1.60099995136 -0.0529999993742 167.0
3.83100008965 1.58399999142 -0.0529999993742 167.0
3.83200001717 1.55799996853 -0.0529999993742 177.0
3.84800004959 1.53699994087 -0.0529999993742 149.0
3.84999990463 1.51100003719 -0.0520000010729 150.0
3.80599999428 1.46800005436 -0.0520000010729 161.0
3.88800001144 1.47300004959 -0.0520000010729 121.0
4.26999998093 1.58899998665 -0.0570000000298 73.0
4.28100013733 1.56400001049 -0.0570000000298 75.0
4.29199981689 1.53900003433 -0.0570000000298 73.0
4.34000015259 1.52699995041 -0.0579999983311 65.0
4.33400011063 1.4960000515 -0.0570000000298 71.0
4.32499980927 1.46500003338 -0.0570000000298 66.0
4.33699989319 1.44000005722 -0.0570000000298 70.0
4.40700006485 1.43400001526 -0.0579999983311 68.0
4.37400007248 1.39499998093 -0.0570000000298 66.0
4.49599981308 1.40499997139 -0.0579999983311 63.0
4.47800016403 1.37000000477 -0.0579999983311 63.0
4.48600006104 1.34399998188 -0.0579999983311 68.0
4.55100011826 1.33399999142 -0.0579999983311 62.0
4.54099988937 1.3029999733 -0.0579999983311 60.0
4.51800012589 1.26800000668 -0.0570000000298 61.0
4.57100009918 1.2539999485 -0.0579999983311 62.0
4.59399986267 1.23099994659 -0.0579999983311 60.0
4.5689997673 1.19500005245 -0.0570000000298 62.0
4.60900020599 1.17700004578 -0.0579999983311 59.0
4.67100000381 1.16400003433 -0.0579999983311 60.0
4.59999990463 1.11800003052 -0.0570000000298 77.0
4.59800004959 1.08899998665 -0.0570000000298 54.0
4.75199985504 1.06700003147 -0.0590000003576 54.0
4.57600021362 1.0 -0.0560000017285 56.0
4.69099998474 0.995999991894 -0.0570000000298 54.0
2.38700008392 0.0599999986589 -0.0270000007004 191.0
2.41300010681 0.0460000000894 -0.0270000007004 179.0
2.42600011826 0.0329999998212 -0.0270000007004 102.0
2.33500003815 0.0179999992251 -0.0260000005364 231.0
2.38000011444 0.00499999988824 -0.0270000007004 118.0
2.4319999218 -0.0500000007451 -0.0270000007004 83.0
2.30500006676 -0.0599999986589 -0.0250000003725 229.0
2.00300002098 -0.0640000030398 -0.0219999998808 93.0
0.999000012875 -0.0359999984503 -0.0109999999404 134.0
1.00199997425 -0.0419999994338 -0.0109999999404 144.0
0.981000006199 -0.0469999983907 -0.0109999999404 144.0
1.01400005817 -0.0540000014007 -0.0109999999404 142.0
0.994000017643 -0.0590000003576 -0.0109999999404 145.0
1.0039999485 -0.0649999976158 -0.0109999999404 151.0
0.995000004768 -0.070000000298 -0.0109999999404 149.0
0.986000001431 -0.0750000029802 -0.0109999999404 153.0
0.981999993324 -0.0810000002384 -0.0109999999404 150.0
0.980000019073 -0.0860000029206 -0.0109999999404 149.0
0.985000014305 -0.0920000001788 -0.0109999999404 150.0
0.98400002718 -0.097999997437 -0.0109999999404 148.0
0.971000015736 -0.101999998093 -0.0109999999404 146.0
0.981999993324 -0.108999997377 -0.0109999999404 148.0
0.986999988556 -0.115000002086 -0.0109999999404 152.0
0.98299998045 -0.119999997318 -0.0109999999404 151.0
0.98299998045 -0.126000002027 -0.0109999999404 142.0
0.989000022411 -0.133000001311 -0.0109999999404 146.0
0.96899998188 -0.136000007391 -0.0109999999404 144.0
0.972999989986 -0.142000004649 -0.0109999999404 147.0
0.980000019073 -0.149000003934 -0.0109999999404 146.0
0.995000004768 -0.157000005245 -0.0109999999404 145.0
0.975000023842 -0.159999996424 -0.0109999999404 142.0
0.999000012875 -0.170000001788 -0.0109999999404 144.0
0.985000014305 -0.172999992967 -0.0109999999404 139.0
0.981999993324 -0.178000003099 -0.0109999999404 143.0
0.975000023842 -0.182999998331 -0.00999999977648 143.0
0.981000006199 -0.189999997616 -0.00999999977648 144.0
0.994000017643 -0.197999998927 -0.0109999999404 143.0
0.998000025749 -0.204999998212 -0.0109999999404 142.0
0.97000002861 -0.204999998212 -0.00999999977648 137.0
0.990999996662 -0.216000005603 -0.0109999999404 137.0
0.980000019073 -0.218999996781 -0.00999999977648 137.0
1.00100004673 -0.230000004172 -0.0109999999404 131.0
0.978999972343 -0.231000006199 -0.00999999977648 134.0
0.986000001431 -0.238999992609 -0.00999999977648 132.0
0.954999983311 -0.237000003457 -0.00999999977648 127.0
0.962999999523 -0.245000004768 -0.00999999977648 130.0
0.966000020504 -0.252000004053 -0.00999999977648 134.0
1.0039999485 -0.268000006676 -0.0109999999404 124.0
0.963999986649 -0.263000011444 -0.00999999977648 122.0
0.994000017643 -0.277999997139 -0.00999999977648 121.0
0.967999994755 -0.275999993086 -0.00999999977648 122.0
0.963999986649 -0.280999988317 -0.00999999977648 124.0
0.973999977112 -0.291000008583 -0.00999999977648 119.0
0.97000002861 -0.296000003815 -0.00999999977648 121.0
0.987999975681 -0.307999998331 -0.00999999977648 116.0
0.975000023842 -0.310000002384 -0.00999999977648 119.0
0.98299998045 -0.319000005722 -0.00999999977648 112.0
0.971000015736 -0.321000009775 -0.00999999977648 111.0
0.947000026703 -0.319000005722 -0.00999999977648 108.0
0.945999979973 -0.324999988079 -0.00999999977648 102.0
0.963999986649 -0.337999999523 -0.00999999977648 105.0
0.931999981403 -0.333000004292 -0.00999999977648 101.0
0.959999978542 -0.349000006914 -0.00999999977648 103.0
0.926999986172 -0.342999994755 -0.00999999977648 98.0
0.977999985218 -0.368999987841 -0.00999999977648 106.0
0.981999993324 -0.377000004053 -0.00999999977648 104.0
0.945999979973 -0.370000004768 -0.00999999977648 102.0
0.949000000954 -0.377999991179 -0.00999999977648 96.0
0.95300000906 -0.386000007391 -0.00999999977648 97.0
0.934000015259 -0.384000003338 -0.00999999977648 91.0
0.948000013828 -0.397000014782 -0.00999999977648 94.0
0.940999984741 -0.400999993086 -0.00999999977648 90.0
1.00800001621 -0.437000006437 -0.00999999977648 92.0
0.936999976635 -0.412000000477 -0.00999999977648 96.0
0.958999991417 -0.428999990225 -0.00999999977648 91.0
0.962000012398 -0.437999993563 -0.00999999977648 90.0
0.962000012398 -0.444000005722 -0.00999999977648 85.0
1.01699995995 -0.477999985218 -0.00999999977648 93.0
0.957000017166 -0.456000000238 -0.00999999977648 82.0
0.903999984264 -0.437999993563 -0.00899999961257 83.0
0.931999981403 -0.458999991417 -0.00899999961257 86.0
0.925999999046 -0.462999999523 -0.00899999961257 82.0
0.990999996662 -0.503000020981 -0.00999999977648 80.0
0.915000021458 -0.470999985933 -0.00899999961257 82.0
0.943000018597 -0.500999987125 -0.00999999977648 82.0
0.977999985218 -0.527000010014 -0.00999999977648 80.0
0.912999987602 -0.499000012875 -0.00899999961257 77.0
0.897000014782 -0.497000008821 -0.00899999961257 79.0
3.66599988937 2.10199999809 -0.0799999982119 110.0
3.70700001717 2.09500002861 -0.0799999982119 121.0
3.71499991417 2.06900000572 -0.0799999982119 143.0
3.69000005722 2.02500009537 -0.0790000036359 207.0
3.6819999218 1.99100005627 -0.0790000036359 214.0
3.75900006294 2.00300002098 -0.0799999982119 175.0
3.72499990463 1.95500004292 -0.0790000036359 151.0
3.72799992561 1.9279999733 -0.0790000036359 151.0
3.77600002289 1.92299997807 -0.0790000036359 153.0
3.75500011444 1.88399994373 -0.0780000016093 148.0
3.76099991798 1.85800004005 -0.0780000016093 155.0
3.77699995041 1.8370000124 -0.0780000016093 160.0
3.75300002098 1.79700005054 -0.0769999995828 156.0
3.78500008583 1.7840000391 -0.0780000016093 152.0
3.81200003624 1.76900005341 -0.0780000016093 165.0
3.78699994087 1.72899997234 -0.0769999995828 157.0
3.84599995613 1.72800004482 -0.0780000016093 160.0
3.7990000248 1.67900002003 -0.0769999995828 163.0
3.82299995422 1.66199994087 -0.0769999995828 160.0
3.80999994278 1.6289999485 -0.0769999995828 167.0
3.84500002861 1.61699998379 -0.0769999995828 165.0
3.81100010872 1.5759999752 -0.0759999975562 170.0
3.82999992371 1.55700004101 -0.0759999975562 170.0
3.85899996758 1.54200005531 -0.0759999975562 151.0
3.85800004005 1.51400005817 -0.0759999975562 158.0
3.84100008011 1.48199999332 -0.0759999975562 160.0
3.88000011444 1.47000002861 -0.0759999975562 111.0
4.21899986267 1.57000005245 -0.082000002265 77.0
4.24499988556 1.55099999905 -0.082999996841 86.0
4.32000017166 1.5490000248 -0.0839999988675 89.0
4.34999990463 1.53100001812 -0.0839999988675 74.0
4.32700014114 1.49399995804 -0.082999996841 75.0
4.42299985886 1.49800002575 -0.0850000008941 73.0
4.367000103 1.45000004768 -0.0839999988675 70.0
4.38000011444 1.42599999905 -0.0839999988675 73.0
4.44099998474 1.41700005531 -0.0839999988675 71.0
4.41599988937 1.37999999523 -0.0839999988675 73.0
4.44600009918 1.36099994183 -0.0839999988675 71.0
4.42000007629 1.32400000095 -0.082999996841 69.0
4.49499988556 1.31799995899 -0.0839999988675 70.0
4.50899982452 1.29299998283 -0.0839999988675 69.0
4.50299978256 1.26300001144 -0.0839999988675 70.0
4.57100009918 1.25300002098 -0.0850000008941 65.0
4.59899997711 1.23199999332 -0.0850000008941 61.0
4.58900022507 1.2009999752 -0.0850000008941 67.0
4.49700021744 1.14900004864 -0.082999996841 67.0
4.54300022125 1.13199996948 -0.0839999988675 64.0
4.60599994659 1.11899995804 -0.0850000008941 67.0
4.61299991608 1.09300005436 -0.0839999988675 61.0
4.67700004578 1.07899999619 -0.0850000008941 59.0
4.62400007248 1.03900003433 -0.0839999988675 62.0
4.64799976349 1.01600003242 -0.0839999988675 65.0
4.71899986267 1.00199997425 -0.0850000008941 58.0
4.73000001907 0.976000010967 -0.0850000008941 54.0
4.72499990463 0.945999979973 -0.0850000008941 51.0
2.38499999046 0.0599999986589 -0.0410000011325 208.0
2.39800000191 0.0460000000894 -0.0410000011325 186.0
2.41400003433 0.0320000015199 -0.0410000011325 111.0
2.34299993515 0.0179999992251 -0.0399999991059 251.0
2.37400007248 0.00499999988824 -0.0399999991059 121.0
2.37700009346 -0.0489999987185 -0.0399999991059 91.0
2.3029999733 -0.0610000006855 -0.0390000008047 241.0
2.00200009346 -0.0640000030398 -0.0340000018477 93.0
1.02699995041 -0.0370000004768 -0.0170000009239 138.0
0.976999998093 -0.0410000011325 -0.0170000009239 144.0
0.994000017643 -0.0469999983907 -0.0170000009239 146.0
0.981000006199 -0.0520000010729 -0.0170000009239 146.0
0.990999996662 -0.0590000003576 -0.0170000009239 149.0
1.00999999046 -0.0659999996424 -0.0170000009239 150.0
1.00499999523 -0.0710000023246 -0.0170000009239 154.0
1.01100003719 -0.0769999995828 -0.0170000009239 158.0
1.01100003719 -0.082999996841 -0.0170000009239 151.0
0.990999996662 -0.0869999974966 -0.0170000009239 149.0
1.01999998093 -0.0960000008345 -0.0170000009239 151.0
0.964999973774 -0.0960000008345 -0.01600000076 150.0
1.00800001621 -0.105999998748 -0.0170000009239 146.0
1.01499998569 -0.112999998033 -0.0170000009239 150.0
0.995999991894 -0.115999996662 -0.0170000009239 146.0
0.971000015736 -0.119000002742 -0.01600000076 152.0
0.990000009537 -0.127000004053 -0.0170000009239 149.0
0.96899998188 -0.129999995232 -0.01600000076 146.0
0.987999975681 -0.138999998569 -0.01600000076 145.0
0.964999973774 -0.141000002623 -0.01600000076 150.0
0.98299998045 -0.149000003934 -0.01600000076 144.0
0.998000025749 -0.158000007272 -0.0170000009239 149.0
0.976000010967 -0.159999996424 -0.01600000076 145.0
0.995999991894 -0.168999999762 -0.0170000009239 148.0
0.985000014305 -0.172999992967 -0.01600000076 145.0
1.0 -0.181999996305 -0.0170000009239 144.0
0.986999988556 -0.185000002384 -0.01600000076 145.0
0.999000012875 -0.193000003695 -0.0170000009239 145.0
0.96899998188 -0.193000003695 -0.01600000076 141.0
0.964999973774 -0.197999998927 -0.01600000076 138.0
0.96899998188 -0.204999998212 -0.01600000076 139.0
0.975000023842 -0.211999997497 -0.01600000076 139.0
1.00199997425 -0.224000006914 -0.01600000076 131.0
0.981999993324 -0.225999996066 -0.01600000076 137.0
0.953999996185 -0.22499999404 -0.01600000076 125.0
0.972999989986 -0.234999999404 -0.01600000076 130.0
0.987999975681 -0.245000004768 -0.01600000076 125.0
0.990999996662 -0.252000004053 -0.01600000076 126.0
0.955999970436 -0.248999997973 -0.01600000076 134.0
0.987999975681 -0.263999998569 -0.01600000076 132.0
1.00499999523 -0.27500000596 -0.01600000076 127.0
0.971000015736 -0.270999997854 -0.01600000076 123.0
0.97000002861 -0.277000010014 -0.01600000076 124.0
0.954999983311 -0.279000014067 -0.01600000076 117.0
0.986000001431 -0.293999999762 -0.01600000076 118.0
0.949999988079 -0.28900000453 -0.01600000076 117.0
0.985000014305 -0.307000011206 -0.01600000076 119.0
0.981999993324 -0.312000006437 -0.01600000076 118.0
0.96899998188 -0.31400001049 -0.01600000076 120.0
0.980000019073 -0.324000000954 -0.01600000076 120.0
0.925999999046 -0.312000006437 -0.0149999996647 108.0
0.985000014305 -0.338999986649 -0.01600000076 110.0
0.998000025749 -0.34999999404 -0.01600000076 108.0
0.96899998188 -0.345999985933 -0.01600000076 104.0
0.986000001431 -0.358999997377 -0.01600000076 102.0
0.947000026703 -0.351000010967 -0.0149999996647 103.0
0.973999977112 -0.368000000715 -0.01600000076 107.0
0.967999994755 -0.372000008821 -0.01600000076 105.0
0.976999998093 -0.381999999285 -0.01600000076 99.0
0.93599998951 -0.372000008821 -0.0149999996647 95.0
0.964999973774 -0.391000002623 -0.01600000076 98.0
0.964999973774 -0.397000014782 -0.01600000076 93.0
0.962000012398 -0.402999997139 -0.01600000076 98.0
0.929000020027 -0.395999997854 -0.0149999996647 98.0
0.977999985218 -0.423999994993 -0.01600000076 94.0
0.940999984741 -0.41400000453 -0.0149999996647 91.0
0.933000028133 -0.416999995708 -0.0149999996647 95.0
0.992999970913 -0.451999992132 -0.01600000076 86.0
0.96899998188 -0.448000013828 -0.01600000076 88.0
0.945999979973 -0.444000005722 -0.01600000076 90.0
0.953999996185 -0.455000013113 -0.01600000076 88.0
0.930000007153 -0.451000005007 -0.0149999996647 82.0
0.935000002384 -0.460000008345 -0.0149999996647 80.0
0.957000017166 -0.477999985218 -0.01600000076 85.0
0.963999986649 -0.488999992609 -0.01600000076 83.0
0.916999995708 -0.472000002861 -0.0149999996647 84.0
0.950999975204 -0.497000008821 -0.01600000076 87.0
0.888000011444 -0.470999985933 -0.0149999996647 83.0
0.902000010014 -0.486000001431 -0.0149999996647 84.0
0.963999986649 -0.527000010014 -0.01600000076 77.0
0.964999973774 -0.535000026226 -0.01600000076 81.0
3.6289999485 2.08100008965 -0.101999998093 111.0
3.71300005913 2.09899997711 -0.104000002146 100.0
3.75099992752 2.08899998665 -0.104999996722 132.0
3.70000004768 2.03099989891 -0.103000000119 212.0
3.69899988174 2.00099992752 -0.103000000119 210.0
3.74699997902 1.99699997902 -0.104000002146 169.0
3.7460000515 1.96700000763 -0.103000000119 152.0
3.74099993706 1.93499994278 -0.103000000119 149.0
3.74900007248 1.90999996662 -0.101999998093 159.0
3.75900006294 1.88600003719 -0.101999998093 144.0
3.78200006485 1.86800003052 -0.103000000119 161.0
3.77800011635 1.83800005913 -0.101999998093 155.0
3.76300001144 1.80200004578 -0.101000003517 158.0
3.7990000248 1.79100000858 -0.101999998093 160.0
3.79999995232 1.76300001144 -0.101999998093 158.0
3.78200006485 1.72699999809 -0.101000003517 155.0
3.79699993134 1.70599997044 -0.101000003517 160.0
3.83699989319 1.69599997997 -0.101999998093 158.0
3.8029999733 1.65400004387 -0.10000000149 158.0
