ply
format ascii 1.0
element vertex 922
property float x
property float y
property float z
property float intensity
end_header
1.13800001144 0.681999981403 -0.398000001907 444.0
1.15199995041 0.680000007153 -0.402000010014 435.0
1.19400000572 0.694000005722 -0.414999991655 396.0
1.26300001144 0.723999977112 -0.437999993563 202.0
1.78499996662 0.977999985218 -0.612999975681 119.0
1.84300005436 0.995000004768 -0.630999982357 196.0
1.87699997425 0.996999979019 -0.64099997282 201.0
1.91400003433 1.00199997425 -0.652000010014 242.0
1.90400004387 0.981000006199 -0.646000027657 299.0
1.92700004578 0.976999998093 -0.652000010014 161.0
1.98300004005 0.990000009537 -0.669000029564 160.0
2.00099992752 0.98299998045 -0.672999978065 151.0
2.0720000267 1.00199997425 -0.694999992847 143.0
2.07699990273 0.987999975681 -0.694999992847 156.0
2.11599993706 0.990000009537 -0.705999970436 147.0
2.10599994659 0.97000002861 -0.700999975204 151.0
2.16199994087 0.978999972343 -0.717999994755 149.0
2.18799996376 0.973999977112 -0.725000023842 134.0
2.23399996758 0.977999985218 -0.737999975681 136.0
2.28999996185 0.985000014305 -0.754999995232 152.0
2.30900001526 0.976000010967 -0.759000003338 236.0
2.34699988365 0.975000023842 -0.769999980927 153.0
2.41599988937 0.986000001431 -0.791000008583 74.0
0.953999996185 -0.236000001431 -0.296000003815 114.0
0.917999982834 -0.231999993324 -0.284999996424 119.0
0.945999979973 -0.246000006795 -0.293999999762 119.0
0.940999984741 -0.250999987125 -0.293000012636 119.0
0.943000018597 -0.256999999285 -0.293999999762 129.0
0.948000013828 -0.264999985695 -0.296000003815 116.0
0.962999999523 -0.27500000596 -0.300999999046 120.0
0.913999974728 -0.266999989748 -0.286000013351 128.0
0.964999973774 -0.28900000453 -0.303000003099 124.0
0.931999981403 -0.284999996424 -0.293000012636 128.0
0.921000003815 -0.287000000477 -0.289999991655 123.0
0.907000005245 -0.28900000453 -0.286000013351 130.0
0.935000002384 -0.305000007153 -0.294999986887 133.0
0.921000003815 -0.305999994278 -0.291000008583 136.0
0.916000008583 -0.31099998951 -0.289999991655 132.0
0.927999973297 -0.321000009775 -0.293999999762 135.0
0.952000021935 -0.33599999547 -0.303000003099 130.0
0.907999992371 -0.326999992132 -0.28900000453 135.0
0.930000007153 -0.340999990702 -0.296000003815 142.0
0.929000020027 -0.347000002861 -0.29699999094 138.0
0.911000013351 -0.347000002861 -0.291999995708 137.0
0.894999980927 -0.347000002861 -0.287000000477 145.0
0.888000011444 -0.351000010967 -0.284999996424 134.0
0.897000014782 -0.361000001431 -0.28900000453 139.0
0.912000000477 -0.374000012875 -0.293999999762 138.0
0.894999980927 -0.372999995947 -0.289999991655 144.0
0.89200001955 -0.377999991179 -0.28900000453 135.0
0.878000020981 -0.379000008106 -0.284999996424 144.0
0.901000022888 -0.395999997854 -0.293000012636 136.0
0.885999977589 -0.395999997854 -0.28900000453 151.0
0.885999977589 -0.402000010014 -0.289999991655 144.0
0.888000011444 -0.409999996424 -0.291000008583 151.0
0.879000008106 -0.412000000477 -0.28900000453 146.0
0.876999974251 -0.418000012636 -0.28900000453 142.0
0.856999993324 -0.414999991655 -0.282999992371 146.0
0.869000017643 -0.428000003099 -0.287999987602 143.0
0.873000025749 -0.437000006437 -0.289999991655 155.0
0.882000029087 -0.449000000954 -0.293999999762 153.0
0.882000029087 -0.456000000238 -0.294999986887 154.0
0.847999989986 -0.444000005722 -0.284000009298 153.0
0.834999978542 -0.444999992847 -0.280000001192 158.0
0.870999991894 -0.470999985933 -0.293000012636 147.0
0.832000017166 -0.456999987364 -0.280999988317 148.0
0.862999975681 -0.481000006199 -0.291999995708 140.0
0.856999993324 -0.485000014305 -0.291000008583 137.0
0.832000017166 -0.477999985218 -0.284000009298 142.0
0.850000023842 -0.495000004768 -0.289999991655 139.0
1.15499997139 0.693000018597 -0.412999987602 476.0
1.17999994755 0.698000013828 -0.419999986887 465.0
1.20799994469 0.703999996185 -0.428999990225 426.0
1.18099999428 0.677999973297 -0.418000012636 183.0
1.82299995422 0.985000014305 -0.638000011444 189.0
1.87199997902 0.995999991894 -0.652999997139 197.0
1.91400003433 1.00300002098 -0.665000021458 202.0
1.95899999142 1.01100003719 -0.679000020027 217.0
1.97000002861 1.00100004673 -0.680999994278 179.0
2.007999897 1.0039999485 -0.691999971867 151.0
2.00699996948 0.987999975681 -0.689999997616 164.0
2.03399991989 0.985000014305 -0.697000026703 154.0
2.09500002861 0.998000025749 -0.716000020504 167.0
2.08699989319 0.977999985218 -0.711000025272 164.0
2.13800001144 0.986000001431 -0.726999998093 151.0
2.18099999428 0.989000022411 -0.740000009537 141.0
2.20199990273 0.981999993324 -0.745000004768 129.0
2.22000002861 0.972999989986 -0.749000012875 124.0
2.26699995995 0.976999998093 -0.763000011444 139.0
2.28800010681 0.96899998188 -0.768000006676 224.0
2.30900001526 0.961000025272 -0.773000001907 156.0
0.952000021935 -0.234999999404 -0.301999986172 114.0
0.97000002861 -0.246000006795 -0.307999998331 116.0
0.916999995708 -0.238000005484 -0.291000008583 120.0
0.949999988079 -0.252999991179 -0.301999986172 122.0
0.944999992847 -0.25799998641 -0.300999999046 121.0
0.922999978065 -0.25799998641 -0.293999999762 121.0
0.952000021935 -0.273000001907 -0.303999990225 118.0
0.939999997616 -0.27500000596 -0.300999999046 124.0
0.953999996185 -0.286000013351 -0.305999994278 125.0
0.95300000906 -0.291999995708 -0.305999994278 130.0
0.948000013828 -0.29699999094 -0.305000007153 128.0
0.93599998951 -0.298999994993 -0.300999999046 131.0
0.941999971867 -0.307000011206 -0.303999990225 131.0
0.916000008583 -0.305000007153 -0.296000003815 131.0
0.938000023365 -0.319000005722 -0.303000003099 125.0
0.920000016689 -0.319000005722 -0.298000007868 134.0
0.92199999094 -0.326000005007 -0.298999994993 137.0
0.911000013351 -0.328999996185 -0.296000003815 138.0
0.936999976635 -0.344999998808 -0.305000007153 137.0
0.882000029087 -0.330000013113 -0.287999987602 134.0
0.920000016689 -0.351000010967 -0.300999999046 142.0
0.911000013351 -0.354000002146 -0.298000007868 141.0
0.897000014782 -0.354999989271 -0.294999986887 138.0
0.916000008583 -0.368999987841 -0.300999999046 138.0
0.896000027657 -0.368000000715 -0.294999986887 136.0
0.930999994278 -0.388999998569 -0.307999998331 138.0
0.897000014782 -0.381000012159 -0.29699999094 134.0
0.90499997139 -0.391000002623 -0.300000011921 139.0
0.879000008106 -0.386999994516 -0.291999995708 142.0
0.933000028133 -0.418000012636 -0.31099998951 135.0
0.888000011444 -0.404000014067 -0.29699999094 139.0
0.85900002718 -0.397000014782 -0.287999987602 128.0
0.870999991894 -0.409999996424 -0.293000012636 134.0
0.870000004768 -0.416000008583 -0.293000012636 138.0
0.89200001955 -0.432999998331 -0.300999999046 147.0
0.878000020981 -0.432999998331 -0.29699999094 149.0
0.876999974251 -0.439999997616 -0.298000007868 142.0
0.838999986649 -0.426999986172 -0.284999996424 157.0
0.851999998093 -0.441000014544 -0.291000008583 145.0
0.860000014305 -0.451999992132 -0.293999999762 145.0
0.85900002718 -0.458000004292 -0.294999986887 151.0
0.856000006199 -0.463999986649 -0.294999986887 150.0
0.855000019073 -0.469999998808 -0.294999986887 136.0
0.824000000954 -0.460000008345 -0.284999996424 134.0
0.818000018597 -0.462999999523 -0.284000009298 143.0
0.850000023842 -0.488999992609 -0.296000003815 129.0
0.842999994755 -0.49200001359 -0.293999999762 130.0
1.15199995041 0.693000018597 -0.421000003815 474.0
1.1740000248 0.694999992847 -0.426999986172 468.0
1.20500004292 0.703999996185 -0.437000006437 436.0
1.22099995613 0.702000021935 -0.441000014544 187.0
1.84300005436 0.998000025749 -0.657999992371 184.0
1.85099995136 0.986999988556 -0.658999979496 203.0
1.88699996471 0.990999996662 -0.670000016689 190.0
1.91799998283 0.991999983788 -0.679000020027 173.0
1.94299995899 0.989000022411 -0.68599998951 169.0
1.99100005627 0.998000025749 -0.700999975204 175.0
1.99399995804 0.98299998045 -0.699999988079 171.0
2.03500008583 0.986999988556 -0.712000012398 176.0
2.0569999218 0.981999993324 -0.717999994755 161.0
2.10400009155 0.987999975681 -0.731999993324 156.0
2.13000011444 0.98400002718 -0.739000022411 147.0
2.14499998093 0.975000023842 -0.742999970913 139.0
2.19400000572 0.980000019073 -0.758000016212 137.0
2.23399996758 0.981000006199 -0.769999980927 139.0
2.25200009346 0.972000002861 -0.773999989033 134.0
2.27699995041 0.966000020504 -0.78100001812 181.0
2.3259999752 0.97000002861 -0.796000003815 171.0
2.36299991608 0.967999994755 -0.805999994278 88.0
0.90499997139 -0.217999994755 -0.291999995708 88.0
0.949999988079 -0.234999999404 -0.307000011206 110.0
0.939999997616 -0.238999992609 -0.303999990225 112.0
0.925000011921 -0.240999996662 -0.300000011921 111.0
0.986999988556 -0.263999998569 -0.321000009775 120.0
0.961000025272 -0.263000011444 -0.312000006437 117.0
0.950999975204 -0.266999989748 -0.310000002384 128.0
0.948000013828 -0.272000014782 -0.308999985456 120.0
0.952000021935 -0.279000014067 -0.31099998951 122.0
0.920000016689 -0.275999993086 -0.300999999046 116.0
0.893000006676 -0.273999989033 -0.291999995708 123.0
0.949999988079 -0.298000007868 -0.312000006437 123.0
0.944999992847 -0.303000003099 -0.31099998951 125.0
0.912000000477 -0.298000007868 -0.300000011921 135.0
0.927999973297 -0.310000002384 -0.305999994278 128.0
0.925999999046 -0.314999997616 -0.305999994278 133.0
0.929000020027 -0.323000013828 -0.307000011206 124.0
0.911000013351 -0.323000013828 -0.301999986172 127.0
0.93599998951 -0.337999999523 -0.31099998951 132.0
0.917999982834 -0.337999999523 -0.305000007153 133.0
0.899999976158 -0.337999999523 -0.300000011921 136.0
0.940999984741 -0.360000014305 -0.31400001049 134.0
0.913999974728 -0.356000006199 -0.305999994278 135.0
0.885999977589 -0.351000010967 -0.29699999094 126.0
0.925000011921 -0.374000012875 -0.31099998951 138.0
0.938000023365 -0.386000007391 -0.316000014544 142.0
0.907000005245 -0.379999995232 -0.305999994278 131.0
0.903999984264 -0.384999990463 -0.305999994278 135.0
0.898000001907 -0.388999998569 -0.303999990225 139.0
0.870000004768 -0.38299998641 -0.296000003815 138.0
0.92199999094 -0.412999987602 -0.31400001049 143.0
0.876999974251 -0.40000000596 -0.298999994993 142.0
0.888999998569 -0.412000000477 -0.303999990225 137.0
0.870999991894 -0.409999996424 -0.298999994993 137.0
0.885999977589 -0.423999994993 -0.305000007153 149.0
0.893000006676 -0.435000002384 -0.307999998331 144.0
0.888000011444 -0.43900001049 -0.307000011206 145.0
0.861000001431 -0.432999998331 -0.298000007868 138.0
0.871999979019 -0.444999992847 -0.303000003099 141.0
0.836000025272 -0.432999998331 -0.291000008583 138.0
0.873000025749 -0.460000008345 -0.305000007153 131.0
0.879999995232 -0.470999985933 -0.307999998331 139.0
0.865000009537 -0.469999998808 -0.303999990225 137.0
0.855000019073 -0.470999985933 -0.300999999046 136.0
0.853999972343 -0.477999985218 -0.301999986172 143.0
0.894999980927 -0.509000003338 -0.317000001669 140.0
0.871999979019 -0.503000020981 -0.310000002384 141.0
0.871999979019 -0.509999990463 -0.31099998951 134.0
1.14300000668 0.688000023365 -0.425999999046 474.0
1.16799998283 0.693000018597 -0.433999985456 478.0
1.1970000267 0.699999988079 -0.442999988794 444.0
1.23500001431 0.712000012398 -0.456000000238 234.0
1.85300004482 1.00499999523 -0.675000011921 171.0
1.8789999485 1.0039999485 -0.683000028133 205.0
1.9090000391 1.0039999485 -0.691999971867 193.0
1.92900002003 0.999000012875 -0.697000026703 187.0
1.95799994469 0.998000025749 -0.704999983311 168.0
1.96099996567 0.98400002718 -0.703999996185 177.0
1.99000000954 0.98299998045 -0.712999999523 178.0
2.01600003242 0.980000019073 -0.72000002861 167.0
2.05200004578 0.981999993324 -0.731000006199 163.0
2.10299992561 0.989000022411 -0.746999979019 147.0
2.125 0.98299998045 -0.753000020981 151.0
2.18400001526 0.994000017643 -0.772000014782 147.0
2.19099998474 0.981000006199 -0.772000014782 141.0
2.21300005913 0.973999977112 -0.777999997139 146.0
2.23300004005 0.966000020504 -0.782999992371 141.0
2.27600002289 0.967000007629 -0.796000003815 154.0
2.3180000782 0.967999994755 -0.809000015259 167.0
2.38599991798 0.978999972343 -0.830999970436 86.0
0.943000018597 -0.228000000119 -0.31099998951 86.0
0.927999973297 -0.230000004172 -0.305999994278 114.0
0.963999986649 -0.246000006795 -0.319000005722 110.0
0.943000018597 -0.246000006795 -0.312000006437 116.0
0.931999981403 -0.248999997973 -0.308999985456 111.0
0.940999984741 -0.25799998641 -0.312000006437 122.0
0.949999988079 -0.266999989748 -0.316000014544 116.0
0.95300000906 -0.273999989033 -0.317000001669 122.0
0.917999982834 -0.270000010729 -0.305999994278 117.0
0.93599998951 -0.280999988317 -0.312000006437 124.0
0.944999992847 -0.291000008583 -0.316000014544 127.0
0.938000023365 -0.293999999762 -0.31400001049 125.0
0.916000008583 -0.293999999762 -0.307000011206 132.0
0.934000015259 -0.305999994278 -0.31400001049 123.0
0.90499997139 -0.301999986172 -0.303999990225 131.0
0.95300000906 -0.324999988079 -0.321000009775 131.0
0.89099997282 -0.310000002384 -0.300999999046 126.0
0.898000001907 -0.319000005722 -0.303999990225 130.0
0.90600001812 -0.32800000906 -0.307000011206 131.0
0.893000006676 -0.328999996185 -0.303000003099 126.0
0.883000016212 -0.331999987364 -0.300000011921 130.0
0.888000011444 -0.340000003576 -0.303000003099 131.0
0.917999982834 -0.358000010252 -0.312999993563 136.0
0.926999986172 -0.368999987841 -0.317000001669 133.0
0.897000014782 -0.363000005484 -0.307999998331 140.0
0.875 -0.360000014305 -0.300999999046 134.0
0.894999980927 -0.375 -0.307999998331 135.0
0.912999987602 -0.389999985695 -0.314999997616 135.0
0.879999995232 -0.381999999285 -0.305000007153 146.0
0.898000001907 -0.397000014782 -0.31099998951 135.0
0.884999990463 -0.397000014782 -0.307999998331 134.0
0.894999980927 -0.409000009298 -0.312000006437 135.0
0.898000001907 -0.416999995708 -0.312999993563 137.0
0.85900002718 -0.405000001192 -0.300999999046 139.0
0.902999997139 -0.432999998331 -0.317000001669 137.0
0.867999970913 -0.423000007868 -0.305000007153 141.0
0.893999993801 -0.442999988794 -0.316000014544 144.0
0.856000006199 -0.430999994278 -0.303000003099 135.0
0.825999975204 -0.42199999094 -0.293000012636 139.0
0.85799998045 -0.444999992847 -0.305000007153 142.0
0.824999988079 -0.435000002384 -0.293999999762 133.0
0.883000016212 -0.472999989986 -0.316000014544 143.0
0.85900002718 -0.467999994755 -0.307999998331 141.0
0.874000012875 -0.483000010252 -0.314999997616 138.0
0.837999999523 -0.469999998808 -0.301999986172 137.0
0.85799998045 -0.488999992609 -0.31099998951 129.0
0.814999997616 -0.470999985933 -0.296000003815 135.0
0.841000020504 -0.493000000715 -0.305999994278 128.0
1.14800000191 0.693000018597 -0.43599998951 485.0
1.17900002003 0.700999975204 -0.446999996901 470.0
1.18299996853 0.693000018597 -0.446999996901 453.0
1.22399997711 0.707000017166 -0.46099999547 279.0
1.20000004768 0.683000028133 -0.449999988079 87.0
1.86600005627 1.01400005817 -0.694000005722 161.0
1.83800005913 0.98400002718 -0.681999981403 193.0
1.88199996948 0.991999983788 -0.695999979973 208.0
1.94000005722 1.00699996948 -0.714999973774 207.0
1.93400001526 0.987999975681 -0.711000025272 197.0
1.98099994659 0.995999991894 -0.726000010967 183.0
1.97800004482 0.978999972343 -0.722999989986 183.0
2.02999997139 0.989000022411 -0.740000009537 163.0
2.06900000572 0.990999996662 -0.751999974251 155.0
2.07800006866 0.978999972343 -0.753000020981 157.0
2.1210000515 0.98299998045 -0.76700001955 153.0
2.17300009727 0.990999996662 -0.783999979496 154.0
2.17300009727 0.973999977112 -0.782000005245 146.0
2.21099996567 0.975000023842 -0.792999982834 133.0
2.22499990463 0.963999986649 -0.796000003815 127.0
2.31900000572 0.987999975681 -0.82800000906 120.0
2.31200003624 0.967000007629 -0.824000000954 110.0
0.931999981403 -0.231999993324 -0.31400001049 111.0
0.959999978542 -0.245000004768 -0.324000000954 115.0
0.934000015259 -0.244000002742 -0.314999997616 116.0
0.944000005722 -0.252999991179 -0.319000005722 116.0
0.949999988079 -0.261000007391 -0.321999996901 113.0
0.929000020027 -0.261000007391 -0.314999997616 121.0
0.978999972343 -0.282000005245 -0.331999987364 124.0
0.955999970436 -0.282000005245 -0.324999988079 118.0
0.95300000906 -0.287000000477 -0.324999988079 122.0
0.912999987602 -0.280999988317 -0.31099998951 113.0
0.949000000954 -0.298999994993 -0.324000000954 122.0
0.893999993801 -0.287000000477 -0.305999994278 120.0
0.93900001049 -0.307999998331 -0.321999996901 126.0
0.893000006676 -0.298999994993 -0.307000011206 124.0
0.901000022888 -0.307999998331 -0.310000002384 127.0
0.925999999046 -0.323000013828 -0.319000005722 129.0
0.910000026226 -0.324000000954 -0.31400001049 129.0
0.896000027657 -0.324999988079 -0.310000002384 119.0
0.870999991894 -0.321999996901 -0.301999986172 130.0
0.913999974728 -0.344000011683 -0.317000001669 133.0
0.902000010014 -0.345999985933 -0.31400001049 135.0
0.89200001955 -0.347999989986 -0.31099998951 125.0
0.930000007153 -0.370999991894 -0.324999988079 133.0
0.908999979496 -0.368999987841 -0.317999988794 138.0
0.893999993801 -0.368999987841 -0.31400001049 138.0
0.885999977589 -0.372000008821 -0.31099998951 139.0
0.875 -0.374000012875 -0.307999998331 133.0
0.888000011444 -0.386000007391 -0.31400001049 140.0
0.860000014305 -0.379999995232 -0.303999990225 135.0
0.929000020027 -0.418000012636 -0.330000013113 133.0
0.889999985695 -0.407000005245 -0.316000014544 128.0
0.874000012875 -0.407000005245 -0.312000006437 140.0
0.883000016212 -0.418000012636 -0.316000014544 135.0
0.860000014305 -0.412999987602 -0.307999998331 130.0
0.883000016212 -0.430999994278 -0.317000001669 132.0
0.880999982357 -0.437000006437 -0.317000001669 129.0
0.879999995232 -0.444000005722 -0.317999988794 136.0
0.837999999523 -0.428999990225 -0.303000003099 135.0
0.848999977112 -0.442000001669 -0.307999998331 136.0
0.871999979019 -0.46099999547 -0.317000001669 132.0
0.850000023842 -0.456000000238 -0.310000002384 137.0
0.856999993324 -0.467000007629 -0.31400001049 125.0
0.888999998569 -0.493000000715 -0.326999992132 135.0
0.887000024319 -0.499000012875 -0.326999992132 131.0
0.848999977112 -0.483999997377 -0.31400001049 134.0
0.884000003338 -0.512000024319 -0.32800000906 126.0
0.864000022411 -0.508000016212 -0.321000009775 129.0
1.15100002289 0.695999979973 -0.446999996901 489.0
1.17599999905 0.700999975204 -0.455000013113 476.0
1.17999994755 0.693000018597 -0.455000013113 456.0
1.20799994469 0.699000000954 -0.463999986649 319.0
1.82000005245 0.991999983788 -0.690999984741 144.0
1.84000003338 0.986999988556 -0.695999979973 212.0
1.88399994373 0.995000004768 -0.711000025272 227.0
1.88399994373 0.980000019073 -0.708000004292 221.0
1.93299996853 0.989000022411 -0.725000023842 203.0
1.97800004482 0.996999979019 -0.740000009537 189.0
1.98000001907 0.981999993324 -0.737999975681 173.0
2.00699996948 0.978999972343 -0.745999991894 170.0
2.02699995041 0.972999989986 -0.751999974251 168.0
2.10299992561 0.992999970913 -0.777999997139 164.0
2.12400007248 0.986999988556 -0.782999992371 158.0
2.15300011635 0.98400002718 -0.791999995708 156.0
2.16599988937 0.972999989986 -0.795000016689 141.0
2.19600009918 0.97000002861 -0.804000020027 127.0
2.21300005913 0.961000025272 -0.808000028133 114.0
2.27200007439 0.96899998188 -0.82800000906 89.0
2.39400005341 1.00300002098 -0.870000004768 74.0
0.949999988079 -0.231000006199 -0.326000005007 83.0
0.940999984741 -0.233999997377 -0.323000013828 113.0
0.941999971867 -0.240999996662 -0.324000000954 116.0
0.955999970436 -0.25 -0.328999996185 108.0
0.950999975204 -0.254999995232 -0.32800000906 108.0
0.97000002861 -0.266999989748 -0.335000008345 113.0
0.916999995708 -0.25799998641 -0.317000001669 118.0
0.935000002384 -0.270000010729 -0.324000000954 120.0
0.908999979496 -0.268000006676 -0.314999997616 119.0
0.952000021935 -0.287000000477 -0.331000000238 123.0
0.93599998951 -0.28900000453 -0.326000005007 121.0
0.922999978065 -0.291000008583 -0.321999996901 127.0
0.940999984741 -0.303000003099 -0.32800000906 122.0
0.936999976635 -0.307999998331 -0.32800000906 119.0
0.888000011444 -0.298000007868 -0.31099998951 122.0
0.908999979496 -0.31099998951 -0.319000005722 121.0
0.90499997139 -0.316000014544 -0.317999988794 129.0
0.903999984264 -0.321999996901 -0.317999988794 124.0
0.927999973297 -0.337000012398 -0.32800000906 124.0
0.89200001955 -0.330000013113 -0.314999997616 126.0
0.90499997139 -0.342000007629 -0.321000009775 127.0
0.920000016689 -0.354000002146 -0.326000005007 124.0
0.869000017643 -0.340000003576 -0.308999985456 130.0
0.897000014782 -0.358000010252 -0.319999992847 124.0
0.902999997139 -0.36700001359 -0.323000013828 126.0
0.879000008106 -0.363000005484 -0.314999997616 133.0
0.901000022888 -0.379000008106 -0.323000013828 135.0
0.901000022888 -0.386000007391 -0.324000000954 133.0
0.864000022411 -0.375999987125 -0.31099998951 129.0
0.893000006676 -0.395999997854 -0.321999996901 135.0
0.887000024319 -0.40000000596 -0.321000009775 134.0
0.867999970913 -0.398000001907 -0.314999997616 133.0
0.862999975681 -0.402000010014 -0.31400001049 127.0
0.855000019073 -0.405000001192 -0.312000006437 129.0
0.897000014782 -0.432000011206 -0.32800000906 143.0
0.869000017643 -0.425000011921 -0.317999988794 130.0
0.880999982357 -0.437999993563 -0.324000000954 133.0
0.867999970913 -0.43900001049 -0.319999992847 131.0
0.878000020981 -0.451000005007 -0.324000000954 134.0
0.866999983788 -0.451999992132 -0.321000009775 140.0
0.856999993324 -0.453999996185 -0.319000005722 142.0
0.837000012398 -0.449999988079 -0.312000006437 130.0
0.830999970436 -0.453999996185 -0.310000002384 127.0
0.811999976635 -0.449999988079 -0.303999990225 129.0
0.851999998093 -0.479999989271 -0.319999992847 139.0
0.832000017166 -0.476000010967 -0.31400001049 140.0
0.841000020504 -0.488000005484 -0.317999988794 132.0
0.884000003338 -0.521000027657 -0.33599999547 135.0
1.15199995041 0.698000013828 -0.456000000238 485.0
1.15999996662 0.693000018597 -0.456999987364 493.0
1.17299997807 0.689999997616 -0.46099999547 461.0
1.21099996567 0.702000021935 -0.474000006914 326.0
1.85399997234 1.01199996471 -0.717999994755 178.0
1.83599996567 0.986999988556 -0.708000004292 223.0
1.87199997902 0.990999996662 -0.72000002861 233.0
1.90999996662 0.995000004768 -0.731999993324 211.0
1.95000004768 1.0 -0.745999991894 192.0
1.97300004959 0.995999991894 -0.751999974251 182.0
1.99199998379 0.990000009537 -0.757000029087 186.0
2.03399991989 0.995000004768 -0.771000027657 183.0
2.04500007629 0.98400002718 -0.773000001907 167.0
2.08100008965 0.985000014305 -0.785000026226 164.0
2.08400011063 0.97000002861 -0.783999979496 155.0
2.1210000515 0.971000015736 -0.796000003815 143.0
2.15300011635 0.96899998188 -0.805999994278 132.0
2.16000008583 0.955999970436 -0.805999994278 107.0
0.941999971867 -0.229000002146 -0.330000013113 85.0
0.947000026703 -0.236000001431 -0.331999987364 108.0
0.958999991417 -0.246000006795 -0.337000012398 108.0
0.954999983311 -0.250999987125 -0.335000008345 108.0
0.987999975681 -0.266000002623 -0.347999989986 111.0
0.931999981403 -0.256999999285 -0.32800000906 118.0
0.916999995708 -0.259000003338 -0.324000000954 119.0
0.962000012398 -0.277999997139 -0.340000003576 126.0
0.912999987602 -0.270000010729 -0.323000013828 116.0
0.944999992847 -0.286000013351 -0.335000008345 119.0
0.936999976635 -0.289999991655 -0.333000004292 121.0
0.934000015259 -0.294999986887 -0.331999987364 121.0
0.920000016689 -0.29699999094 -0.32800000906 121.0
0.912999987602 -0.300999999046 -0.326000005007 123.0
0.90499997139 -0.303999990225 -0.323000013828 125.0
0.913999974728 -0.31400001049 -0.326999992132 123.0
0.919000029564 -0.321999996901 -0.328999996185 129.0
0.915000021458 -0.326999992132 -0.328999996185 126.0
0.916999995708 -0.333999991417 -0.330000013113 134.0
0.907999992371 -0.337000012398 -0.326999992132 132.0
0.898999989033 -0.340000003576 -0.324999988079 128.0
0.89200001955 -0.344000011683 -0.323000013828 141.0
0.929000020027 -0.365000009537 -0.337000012398 120.0
0.885999977589 -0.354000002146 -0.321999996901 130.0
0.911000013351 -0.370999991894 -0.331999987364 128.0
0.910000026226 -0.377000004053 -0.331999987364 127.0
0.879999995232 -0.370999991894 -0.321999996901 143.0
0.903999984264 -0.388000011444 -0.331000000238 136.0
0.917999982834 -0.400999993086 -0.337000012398 134.0
0.888999998569 -0.395000010729 -0.32800000906 139.0
0.878000020981 -0.397000014782 -0.324000000954 135.0
0.878000020981 -0.402999997139 -0.324999988079 133.0
0.846000015736 -0.395000010729 -0.31400001049 136.0
0.898999989033 -0.426999986172 -0.335000008345 141.0
0.878000020981 -0.423999994993 -0.326999992132 134.0
0.882000029087 -0.432999998331 -0.330000013113 137.0
0.894999980927 -0.446000009775 -0.335000008345 132.0
0.869000017643 -0.439999997616 -0.326999992132 127.0
0.913999974728 -0.470999985933 -0.344999998808 132.0
0.899999976158 -0.470999985933 -0.340000003576 130.0
0.839999973774 -0.446000009775 -0.317999988794 132.0
0.860000014305 -0.463999986649 -0.326999992132 131.0
0.870000004768 -0.476000010967 -0.331000000238 136.0
0.878000020981 -0.488000005484 -0.33599999547 132.0
0.82800000906 -0.467000007629 -0.317000001669 129.0
0.797999978065 -0.456999987364 -0.307000011206 124.0
0.855000019073 -0.497000008821 -0.330000013113 120.0
0.865999996662 -0.510999977589 -0.335000008345 134.0
1.14400005341 0.694999992847 -0.462000012398 492.0
1.16100001335 0.694999992847 -0.467000007629 470.0
1.16999995708 0.689999997616 -0.469000011683 462.0
1.19599997997 0.694999992847 -0.477999985218 388.0
1.28100001812 0.73299998045 -0.509999990463 158.0
1.87699997425 1.02699995041 -0.740999996662 148.0
1.83099997044 0.986000001431 -0.72000002861 221.0
1.86399996281 0.989000022411 -0.731000006199 212.0
1.87999999523 0.981999993324 -0.735000014305 207.0
1.9240000248 0.989000022411 -0.75 188.0
1.95200002193 0.987999975681 -0.759000003338 192.0
1.97000002861 0.981000006199 -0.763999998569 190.0
2.02099990845 0.990000009537 -0.78100001812 183.0
2.03399991989 0.981000006199 -0.783999979496 171.0
2.08899998665 0.990999996662 -0.802999973297 159.0
2.10199999809 0.980000019073 -0.805999994278 154.0
2.11800003052 0.971000015736 -0.810000002384 140.0
2.09699988365 0.945999979973 -0.800000011921 122.0
0.98299998045 -0.239999994636 -0.351000010967 97.0
0.930999994278 -0.232999995351 -0.333000004292 109.0
0.934000015259 -0.239999994636 -0.333999991417 103.0
0.925999999046 -0.244000002742 -0.331999987364 111.0
0.949999988079 -0.256000012159 -0.340999990702 113.0
0.947000026703 -0.261999994516 -0.340000003576 118.0
0.934000015259 -0.263999998569 -0.33599999547 117.0
0.940999984741 -0.272000014782 -0.338999986649 116.0
0.948000013828 -0.280999988317 -0.342000007629 114.0
0.916000008583 -0.277000010014 -0.331000000238 107.0
0.940999984741 -0.291000008583 -0.340999990702 118.0
0.902000010014 -0.284999996424 -0.326999992132 119.0
0.916999995708 -0.296000003815 -0.333000004292 126.0
0.925999999046 -0.305999994278 -0.337000012398 121.0
0.930999994278 -0.31400001049 -0.338999986649 129.0
0.908999979496 -0.312999993563 -0.331999987364 121.0
0.921000003815 -0.323000013828 -0.337000012398 119.0
0.884000003338 -0.316000014544 -0.324000000954 125.0
0.912000000477 -0.333000004292 -0.335000008345 123.0
0.929000020027 -0.345999985933 -0.342000007629 130.0
0.907999992371 -0.344000011683 -0.333999991417 127.0
0.898000001907 -0.347000002861 -0.331000000238 131.0
0.894999980927 -0.351999998093 -0.331000000238 134.0
0.884999990463 -0.354000002146 -0.32800000906 126.0
0.896000027657 -0.365999996662 -0.333000004292 128.0
0.871999979019 -0.361999988556 -0.324999988079 133.0
0.876999974251 -0.370999991894 -0.326999992132 130.0
0.897000014782 -0.386000007391 -0.335000008345 134.0
0.901000022888 -0.395000010729 -0.337999999523 131.0
0.898999989033 -0.40000000596 -0.337999999523 131.0
0.876999974251 -0.397000014782 -0.330000013113 140.0
0.899999976158 -0.414999991655 -0.340000003576 130.0
0.873000025749 -0.409000009298 -0.330000013113 128.0
0.889999985695 -0.423999994993 -0.337999999523 135.0
0.828999996185 -0.400999993086 -0.314999997616 134.0
0.889999985695 -0.437999993563 -0.338999986649 127.0
0.837000012398 -0.418000012636 -0.319999992847 133.0
0.842999994755 -0.428000003099 -0.323000013828 129.0
0.869000017643 -0.448000013828 -0.333999991417 140.0
0.847000002861 -0.442999988794 -0.326000005007 141.0
0.85900002718 -0.456999987364 -0.331999987364 136.0
0.847999989986 -0.458000004292 -0.328999996185 126.0
0.829999983311 -0.455000013113 -0.323000013828 131.0
0.871999979019 -0.486000001431 -0.340000003576 122.0
0.876999974251 -0.495999991894 -0.342999994755 129.0
0.870999991894 -0.500999987125 -0.342000007629 130.0
0.823000013828 -0.479999989271 -0.324000000954 127.0
0.841000020504 -0.497000008821 -0.331999987364 125.0
1.15199995041 0.700999975204 -0.474000006914 494.0
1.14800000191 0.688000023365 -0.469999998808 483.0
1.18200004101 0.698000013828 -0.483000010252 463.0
1.21800005436 0.708999991417 -0.495999991894 412.0
1.24800002575 0.716000020504 -0.505999982357 177.0
1.86500000954 1.02300000191 -0.75 115.0
1.82700002193 0.986000001431 -0.73299998045 195.0
1.84599995613 0.981000006199 -0.737999975681 207.0
1.87999999523 0.98400002718 -0.75 213.0
1.9129999876 0.985000014305 -0.759999990463 194.0
1.95299994946 0.990000009537 -0.773999989033 205.0
1.94900000095 0.972999989986 -0.769999980927 194.0
1.98000001907 0.972000002861 -0.77999997139 190.0
2.02699995041 0.978999972343 -0.79699999094 174.0
2.06100010872 0.978999972343 -0.808000028133 155.0
2.06999993324 0.967000007629 -0.809000015259 145.0
2.125 0.976999998093 -0.828999996185 107.0
0.950999975204 -0.231999993324 -0.345999985933 95.0
0.981999993324 -0.246000006795 -0.358000010252 108.0
0.959999978542 -0.24699999392 -0.34999999404 110.0
0.92199999094 -0.243000000715 -0.337000012398 111.0
0.930000007153 -0.250999987125 -0.340000003576 115.0
0.925000011921 -0.256000012159 -0.338999986649 106.0
0.931999981403 -0.263999998569 -0.342000007629 108.0
0.916000008583 -0.266000002623 -0.33599999547 111.0
0.907000005245 -0.268999993801 -0.333000004292 105.0
0.919000029564 -0.279000014067 -0.337999999523 111.0
0.926999986172 -0.287999987602 -0.342000007629 117.0
0.943000018597 -0.298999994993 -0.347999989986 121.0
0.935000002384 -0.303000003099 -0.345999985933 117.0
0.924000024796 -0.305999994278 -0.342000007629 124.0
0.921000003815 -0.31099998951 -0.342000007629 120.0
0.949999988079 -0.326999992132 -0.352999985218 118.0
0.961000025272 -0.337999999523 -0.358000010252 115.0
0.912999987602 -0.326999992132 -0.340999990702 121.0
0.943000018597 -0.344999998808 -0.352999985218 125.0
0.888000011444 -0.331000000238 -0.333000004292 121.0
0.912000000477 -0.345999985933 -0.342000007629 132.0
0.908999979496 -0.351999998093 -0.342000007629 130.0
0.915000021458 -0.361000001431 -0.344999998808 127.0
0.90600001812 -0.363999992609 -0.342000007629 134.0
0.878000020981 -0.358999997377 -0.333000004292 126.0
0.847999989986 -0.352999985218 -0.321999996901 124.0
0.889999985695 -0.377000004053 -0.337999999523 126.0
0.897000014782 -0.386999994516 -0.342000007629 132.0
0.933000028133 -0.409999996424 -0.356999993324 129.0
0.861999988556 -0.384999990463 -0.330000013113 125.0
0.902000010014 -0.409000009298 -0.345999985933 125.0
0.85799998045 -0.395999997854 -0.330000013113 122.0
0.888000011444 -0.416999995708 -0.342000007629 130.0
0.878000020981 -0.418999999762 -0.340000003576 131.0
0.876999974251 -0.425000011921 -0.340000003576 125.0
0.912999987602 -0.449999988079 -0.354999989271 130.0
0.885999977589 -0.444000005722 -0.344999998808 128.0
0.89200001955 -0.453999996185 -0.349000006914 135.0
0.866999983788 -0.448000013828 -0.340000003576 131.0
0.873000025749 -0.458000004292 -0.342999994755 124.0
0.842999994755 -0.449000000954 -0.331999987364 130.0
0.89099997282 -0.483000010252 -0.351999998093 128.0
0.851999998093 -0.469000011683 -0.337999999523 134.0
0.873000025749 -0.486999988556 -0.347000002861 139.0
0.85799998045 -0.486999988556 -0.342000007629 127.0
0.869000017643 -0.5 -0.347000002861 124.0
0.815999984741 -0.476999998093 -0.326999992132 128.0
0.837000012398 -0.495999991894 -0.337000012398 125.0
1.13800001144 0.694000005722 -0.476999998093 500.0
1.15400004387 0.694000005722 -0.481999993324 480.0
1.16799998283 0.691999971867 -0.486000001431 469.0
1.20200002193 0.700999975204 -0.499000012875 442.0
1.26699995995 0.727999985218 -0.523999989033 213.0
1.84200000763 0.996999979019 -0.753000020981 187.0
1.85300004482 0.986999988556 -0.754999995232 211.0
1.87699997425 0.98400002718 -0.763000011444 225.0
1.89199995995 0.976999998093 -0.76700001955 215.0
1.94299995899 0.986999988556 -0.785000026226 202.0
1.94900000095 0.975000023842 -0.785000026226 192.0
1.99000000954 0.978999972343 -0.799000024796 180.0
2.01799988747 0.976999998093 -0.808000028133 156.0
2.02999997139 0.966000020504 -0.81099998951 128.0
2.05800008774 0.963999986649 -0.819999992847 92.0
0.950999975204 -0.232999995351 -0.351999998093 92.0
0.930999994278 -0.233999997377 -0.345999985933 105.0
0.939999997616 -0.241999998689 -0.349000006914 109.0
0.945999979973 -0.25 -0.351999998093 111.0
0.96899998188 -0.263000011444 -0.361000001431 111.0
0.98400002718 -0.273000001907 -0.36700001359 113.0
0.941999971867 -0.268000006676 -0.351999998093 101.0
0.95300000906 -0.277000010014 -0.356999993324 107.0
0.919000029564 -0.273000001907 -0.344999998808 116.0
0.947000026703 -0.287999987602 -0.354999989271 112.0
0.938000023365 -0.291999995708 -0.352999985218 114.0
0.955999970436 -0.303999990225 -0.360000014305 113.0
0.944999992847 -0.307000011206 -0.356000006199 115.0
0.917999982834 -0.303999990225 -0.347000002861 117.0
0.931999981403 -0.314999997616 -0.352999985218 119.0
0.898000001907 -0.310000002384 -0.340000003576 114.0
0.911000013351 -0.321000009775 -0.345999985933 121.0
0.927999973297 -0.333999991417 -0.352999985218 134.0
0.897000014782 -0.328999996185 -0.342000007629 121.0
0.893999993801 -0.333999991417 -0.342000007629 128.0
0.916999995708 -0.349000006914 -0.351000010967 126.0
0.884999990463 -0.342999994755 -0.338999986649 123.0
0.875 -0.345999985933 -0.33599999547 132.0
0.902000010014 -0.363000005484 -0.347000002861 130.0
0.874000012875 -0.358000010252 -0.337000012398 125.0
0.896000027657 -0.374000012875 -0.345999985933 117.0
0.879999995232 -0.374000012875 -0.340999990702 134.0
0.882000029087 -0.381000012159 -0.342000007629 128.0
0.893999993801 -0.393000006676 -0.347999989986 130.0
0.897000014782 -0.400999993086 -0.34999999404 123.0
0.894999980927 -0.407000005245 -0.34999999404 124.0
0.884999990463 -0.409000009298 -0.347000002861 119.0
0.885999977589 -0.416999995708 -0.347999989986 125.0
0.89200001955 -0.425999999046 -0.351000010967 122.0
0.874000012875 -0.425000011921 -0.344999998808 133.0
0.89099997282 -0.439999997616 -0.352999985218 126.0
0.856999993324 -0.430000007153 -0.340000003576 136.0
0.878000020981 -0.448000013828 -0.34999999404 125.0
0.862999975681 -0.446999996901 -0.344999998808 122.0
0.880999982357 -0.463999986649 -0.352999985218 131.0
0.864000022411 -0.462000012398 -0.347000002861 137.0
0.833000004292 -0.451999992132 -0.33599999547 135.0
0.851999998093 -0.469999998808 -0.344000011683 125.0
0.888000011444 -0.497999995947 -0.360000014305 120.0
0.833999991417 -0.474000006914 -0.338999986649 132.0
0.870999991894 -0.503000020981 -0.354999989271 121.0
0.852999985218 -0.499000012875 -0.349000006914 130.0
0.870000004768 -0.51700001955 -0.356999993324 129.0
1.12000000477 0.685000002384 -0.477999985218 493.0
1.13900005817 0.68599998951 -0.485000014305 491.0
1.16700005531 0.693000018597 -0.495000004768 483.0
1.19200003147 0.697000026703 -0.504000008106 463.0
1.22300004959 0.703999996185 -0.514999985695 237.0
1.82899999619 0.991999983788 -0.762000024319 200.0
1.8220000267 0.972000002861 -0.755999982357 243.0
1.8789999485 0.987999975681 -0.777999997139 236.0
1.88699996471 0.976000010967 -0.778999984264 215.0
1.92900002003 0.981999993324 -0.794000029564 194.0
1.9509999752 0.977999985218 -0.800999999046 183.0
1.97899997234 0.976000010967 -0.810000002384 160.0
2.00200009346 0.971000015736 -0.816999971867 120.0
2.01300001144 0.959999978542 -0.819000005722 92.0
0.952000021935 -0.232999995351 -0.360000014305 100.0
0.97000002861 -0.244000002742 -0.36700001359 101.0
0.954999983311 -0.24699999392 -0.361000001431 110.0
0.947000026703 -0.250999987125 -0.358999997377 110.0
0.952000021935 -0.25799998641 -0.361000001431 112.0
0.949999988079 -0.263999998569 -0.361000001431 108.0
0.962999999523 -0.273999989033 -0.36700001359 112.0
0.922999978065 -0.268999993801 -0.351999998093 110.0
0.92199999094 -0.27500000596 -0.351999998093 111.0
0.95300000906 -0.291000008583 -0.363999992609 114.0
0.93900001049 -0.293000012636 -0.360000014305 112.0
0.921000003815 -0.293000012636 -0.352999985218 114.0
0.925000011921 -0.300999999046 -0.354999989271 112.0
0.952000021935 -0.316000014544 -0.36700001359 124.0
0.958000004292 -0.324999988079 -0.368999987841 122.0
0.916999995708 -0.317000001669 -0.354000002146 116.0
0.897000014782 -0.317000001669 -0.347000002861 116.0
0.896000027657 -0.323000013828 -0.347000002861 124.0
0.899999976158 -0.330000013113 -0.349000006914 124.0
0.893999993801 -0.333999991417 -0.347999989986 120.0
0.948000013828 -0.361999988556 -0.370000004768 125.0
0.898000001907 -0.349000006914 -0.351000010967 126.0
0.885999977589 -0.351000010967 -0.347000002861 126.0
0.917999982834 -0.370000004768 -0.360000014305 121.0
0.889999985695 -0.365000009537 -0.34999999404 127.0
0.875 -0.365999996662 -0.344999998808 131.0
0.925000011921 -0.393999993801 -0.365000009537 125.0
0.907000005245 -0.393000006676 -0.358999997377 133.0
0.875999987125 -0.386000007391 -0.347999989986 124.0
0.921000003815 -0.412999987602 -0.365999996662 130.0
0.910000026226 -0.414999991655 -0.363000005484 126.0
0.856000006199 -0.397000014782 -0.342000007629 129.0
0.865000009537 -0.407000005245 -0.345999985933 134.0
0.861999988556 -0.412999987602 -0.345999985933 126.0
0.832000017166 -0.405000001192 -0.335000008345 131.0
0.855000019073 -0.423000007868 -0.344999998808 125.0
0.89200001955 -0.449000000954 -0.361000001431 128.0
0.899999976158 -0.460000008345 -0.365000009537 133.0
0.856999993324 -0.444999992847 -0.349000006914 124.0
0.856000006199 -0.451999992132 -0.349000006914 130.0
0.811999976635 -0.435000002384 -0.333000004292 123.0
0.861000001431 -0.469000011683 -0.354000002146 121.0
0.828999996185 -0.458000004292 -0.342000007629 127.0
0.861000001431 -0.483000010252 -0.356000006199 116.0
0.864000022411 -0.49200001359 -0.358000010252 122.0
0.851000010967 -0.49200001359 -0.354000002146 133.0
0.875 -0.513999998569 -0.365000009537 125.0
0.800999999046 -0.476999998093 -0.335000008345 117.0
1.13699996471 0.697000026703 -0.495000004768 500.0
1.1590000391 0.699999988079 -0.503000020981 508.0
1.16499996185 0.693000018597 -0.503000020981 478.0
1.18299996853 0.693000018597 -0.509000003338 452.0
1.23199999332 0.711000025272 -0.528999984264 288.0
1.83399999142 0.996999979019 -0.777999997139 179.0
1.83500003815 0.981999993324 -0.776000022888 244.0
1.86500000954 0.981999993324 -0.786000013351 231.0
1.89699995518 0.98299998045 -0.79699999094 214.0
1.89600002766 0.967000007629 -0.795000016689 195.0
1.93799996376 0.972999989986 -0.810000002384 166.0
1.9620000124 0.96899998188 -0.818000018597 110.0
0.995000004768 -0.238000005484 -0.381999999285 70.0
0.958999991417 -0.236000001431 -0.368999987841 104.0
0.962999999523 -0.243000000715 -0.370999991894 107.0
0.933000028133 -0.240999996662 -0.360000014305 101.0
0.920000016689 -0.244000002742 -0.354999989271 99.0
0.93599998951 -0.254999995232 -0.361999988556 106.0
0.957000017166 -0.266999989748 -0.370999991894 108.0
0.912999987602 -0.259999990463 -0.354000002146 106.0
0.962000012398 -0.280999988317 -0.374000012875 115.0
0.944000005722 -0.282000005245 -0.36700001359 109.0
0.939999997616 -0.287000000477 -0.365999996662 110.0
0.93900001049 -0.293000012636 -0.365999996662 114.0
0.916999995708 -0.293000012636 -0.358000010252 117.0
0.888999998569 -0.289999991655 -0.347999989986 110.0
0.941999971867 -0.31400001049 -0.368999987841 116.0
0.903999984264 -0.307000011206 -0.354999989271 109.0
0.916999995708 -0.317999988794 -0.361000001431 115.0
0.870999991894 -0.307999998331 -0.342999994755 119.0
0.920000016689 -0.331999987364 -0.363000005484 118.0
0.852999985218 -0.31400001049 -0.337999999523 123.0
0.926999986172 -0.347999989986 -0.36700001359 116.0
0.89200001955 -0.340999990702 -0.354000002146 120.0
0.898000001907 -0.34999999404 -0.356999993324 123.0
0.915000021458 -0.363000005484 -0.365000009537 116.0
0.888999998569 -0.358999997377 -0.354999989271 119.0
0.879000008106 -0.361999988556 -0.351999998093 122.0
0.888999998569 -0.372999995947 -0.356999993324 121.0
0.862999975681 -0.368000000715 -0.347000002861 116.0
0.889999985695 -0.386000007391 -0.358999997377 119.0
0.884999990463 -0.391000002623 -0.358000010252 128.0
0.920000016689 -0.412999987602 -0.372999995947 124.0
0.885999977589 -0.405000001192 -0.360000014305 124.0
0.856999993324 -0.398000001907 -0.349000006914 127.0
0.861999988556 -0.407000005245 -0.351999998093 124.0
0.888999998569 -0.426999986172 -0.363999992609 130.0
0.85900002718 -0.418999999762 -0.351999998093 129.0
0.89099997282 -0.442000001669 -0.36700001359 126.0
0.876999974251 -0.442000001669 -0.361999988556 121.0
0.879999995232 -0.451000005007 -0.363999992609 122.0
0.851999998093 -0.442999988794 -0.352999985218 121.0
0.879000008106 -0.465000003576 -0.365999996662 125.0
0.814999997616 -0.437999993563 -0.340000003576 119.0
0.856000006199 -0.467000007629 -0.358000010252 124.0
0.861999988556 -0.476999998093 -0.361999988556 123.0
0.851999998093 -0.479000002146 -0.358999997377 122.0
0.899999976158 -0.514999985695 -0.379999995232 120.0
0.814999997616 -0.472000002861 -0.344999998808 123.0
0.833000004292 -0.490000009537 -0.354000002146 126.0
0.829999983311 -0.495999991894 -0.354000002146 132.0
1.14100003242 0.700999975204 -0.504999995232 500.0
1.14900004864 0.695999979973 -0.508000016212 516.0
1.16199994087 0.693000018597 -0.510999977589 486.0
1.17900002003 0.693000018597 -0.51700001955 471.0
1.19900000095 0.694000005722 -0.523999989033 342.0
1.22500002384 0.698000013828 -0.533999979496 104.0
1.79999995232 0.981000006199 -0.777999997139 157.0
1.82299995422 0.977999985218 -0.785000026226 235.0
1.84599995613 0.975000023842 -0.792999982834 215.0
1.88199996948 0.977999985218 -0.805999994278 190.0
1.89999997616 0.972000002861 -0.81099998951 155.0
1.89699995518 0.954999983311 -0.808000028133 114.0
0.907999992371 -0.223000004888 -0.356000006199 104.0
0.95300000906 -0.240999996662 -0.374000012875 102.0
0.986999988556 -0.256000012159 -0.388000011444 107.0
0.949000000954 -0.252999991179 -0.372999995947 100.0
0.944999992847 -0.25799998641 -0.372000008821 103.0
0.927999973297 -0.259000003338 -0.365999996662 111.0
0.955999970436 -0.273000001907 -0.377999991179 111.0
0.929000020027 -0.272000014782 -0.36700001359 111.0
0.933000028133 -0.279000014067 -0.368999987841 104.0
0.902999997139 -0.275999993086 -0.358000010252 113.0
0.908999979496 -0.284000009298 -0.361000001431 119.0
0.907999992371 -0.289999991655 -0.361000001431 108.0
0.947000026703 -0.310000002384 -0.377999991179 111.0
0.961000025272 -0.321000009775 -0.384000003338 120.0
0.936999976635 -0.319000005722 -0.375 117.0
0.958999991417 -0.333999991417 -0.384000003338 114.0
0.93599998951 -0.331999987364 -0.375999987125 111.0
0.898000001907 -0.324999988079 -0.361000001431 116.0
0.917999982834 -0.338999986649 -0.370000004768 118.0
0.953999996185 -0.358999997377 -0.384999990463 119.0
0.916999995708 -0.351999998093 -0.370999991894 120.0
0.916000008583 -0.358000010252 -0.370999991894 122.0
0.875 -0.347999989986 -0.354999989271 111.0
0.903999984264 -0.365999996662 -0.368000000715 117.0
0.888000011444 -0.365999996662 -0.361999988556 127.0
0.915000021458 -0.384000003338 -0.374000012875 125.0
0.902999997139 -0.386000007391 -0.370000004768 122.0
0.875 -0.381000012159 -0.358999997377 122.0
0.931999981403 -0.412999987602 -0.384000003338 128.0
0.847000002861 -0.381000012159 -0.34999999404 128.0
0.862999975681 -0.395000010729 -0.356999993324 123.0
0.888999998569 -0.41400000453 -0.368999987841 122.0
0.867999970913 -0.411000013351 -0.361000001431 125.0
0.887000024319 -0.426999986172 -0.370000004768 122.0
0.887000024319 -0.433999985456 -0.370999991894 123.0
0.865999996662 -0.430999994278 -0.363000005484 121.0
0.816999971867 -0.412000000477 -0.342999994755 115.0
0.873000025749 -0.448000013828 -0.368000000715 128.0
0.847999989986 -0.442000001669 -0.358000010252 119.0
0.841000020504 -0.446000009775 -0.356000006199 126.0
0.856999993324 -0.462000012398 -0.363999992609 113.0
0.867999970913 -0.47499999404 -0.370000004768 119.0
0.85799998045 -0.476999998093 -0.36700001359 130.0
0.847999989986 -0.477999985218 -0.363000005484 120.0
0.884999990463 -0.507000029087 -0.381000012159 119.0
0.865000009537 -0.503000020981 -0.372999995947 122.0
0.876999974251 -0.518000006676 -0.379999995232 124.0
0.856000006199 -0.513000011444 -0.372000008821 114.0
1.11300003529 0.685000002384 -0.501999974251 528.0
1.13699996471 0.689999997616 -0.510999977589 514.0
1.15699994564 0.690999984741 -0.518000006676 483.0
1.17200005054 0.689999997616 -0.523000001907 464.0
1.21500003338 0.704999983311 -0.541000008583 377.0
1.23199999332 0.703999996185 -0.546000003815 141.0
1.7879999876 0.976000010967 -0.787000000477 134.0
1.83000004292 0.98400002718 -0.802999973297 220.0
1.82899999619 0.967999994755 -0.800000011921 197.0
1.86699998379 0.972999989986 -0.81400001049 152.0
1.89400005341 0.971000015736 -0.823000013828 100.0
0.998000025749 -0.246000006795 -0.398000001907 104.0
0.95300000906 -0.241999998689 -0.381000012159 98.0
0.952000021935 -0.247999995947 -0.381000012159 97.0
0.958999991417 -0.256000012159 -0.384000003338 105.0
0.90499997139 -0.24699999392 -0.363000005484 109.0
0.958000004292 -0.268000006676 -0.384999990463 100.0
0.934000015259 -0.268000006676 -0.375 109.0
0.925000011921 -0.270999997854 -0.372000008821 108.0
0.939999997616 -0.282000005245 -0.379000008106 109.0
0.958000004292 -0.293999999762 -0.386999994516 112.0
0.95300000906 -0.298999994993 -0.386000007391 112.0
0.929000020027 -0.298000007868 -0.375999987125 110.0
0.924000024796 -0.303000003099 -0.375 109.0
0.90499997139 -0.303000003099 -0.368000000715 113.0
0.910000026226 -0.31099998951 -0.370999991894 114.0
0.896000027657 -0.312000006437 -0.365000009537 108.0
0.919000029564 -0.326999992132 -0.375999987125 116.0
0.919000029564 -0.333000004292 -0.375999987125 114.0
0.921000003815 -0.340000003576 -0.377999991179 116.0
0.910000026226 -0.342999994755 -0.374000012875 113.0
0.880999982357 -0.337999999523 -0.363000005484 119.0
0.902000010014 -0.352999985218 -0.372000008821 122.0
0.902999997139 -0.360000014305 -0.374000012875 120.0
0.907000005245 -0.368000000715 -0.375999987125 117.0
0.912000000477 -0.377000004053 -0.379000008106 119.0
0.865999996662 -0.365000009537 -0.361000001431 119.0
0.899999976158 -0.386000007391 -0.375999987125 110.0
0.861999988556 -0.375999987125 -0.361000001431 129.0
0.911000013351 -0.404000014067 -0.381999999285 124.0
0.862999975681 -0.388999998569 -0.361999988556 122.0
0.856999993324 -0.393000006676 -0.361000001431 122.0
0.85900002718 -0.400999993086 -0.363000005484 127.0
0.870999991894 -0.412999987602 -0.368999987841 122.0
0.875999987125 -0.423000007868 -0.372000008821 128.0
0.850000023842 -0.416999995708 -0.361999988556 124.0
0.870000004768 -0.433999985456 -0.370999991894 128.0
0.893000006676 -0.45300000906 -0.381999999285 130.0
0.856000006199 -0.439999997616 -0.36700001359 125.0
0.882000029087 -0.462000012398 -0.379999995232 121.0
0.830999970436 -0.441000014544 -0.358000010252 122.0
0.875 -0.472999989986 -0.379000008106 120.0
0.861000001431 -0.472000002861 -0.374000012875 124.0
0.842000007629 -0.469000011683 -0.365999996662 123.0
0.884999990463 -0.5 -0.386000007391 126.0
0.838999986649 -0.481000006199 -0.36700001359 123.0
0.846000015736 -0.493000000715 -0.372000008821 125.0
0.847999989986 -0.501999974251 -0.374000012875 118.0
0.81400001049 -0.488000005484 -0.360000014305 122.0
1.11699998379 0.68900001049 -0.513000011444 514.0
1.125 0.684000015259 -0.514999985695 509.0
1.15299999714 0.690999984741 -0.526000022888 486.0
1.18099999428 0.697000026703 -0.537000000477 465.0
