ply
format ascii 1.0
element vertex 913
property float x
property float y
property float z
property float intensity
end_header
3.73399996758 1.07099997997 -0.158999994397 112.0
3.79800009727 1.06599998474 -0.16099999845 100.0
3.91199994087 1.07299995422 -0.165999993682 92.0
3.92000007629 1.04999995232 -0.165999993682 119.0
4.05200004578 1.05999994278 -0.171000003815 100.0
4.07399988174 1.04100000858 -0.172000005841 134.0
4.12599992752 1.02799999714 -0.173999994993 122.0
4.13399982452 1.00499999523 -0.173999994993 122.0
4.13700008392 0.980000019073 -0.172999992967 120.0
4.16300010681 0.961000025272 -0.173999994993 113.0
4.12200021744 0.925999999046 -0.172000005841 117.0
4.11199998856 0.898999989033 -0.172000005841 117.0
4.0689997673 0.864000022411 -0.168999999762 126.0
4.15000009537 0.856000006199 -0.172000005841 129.0
4.15899991989 0.833000004292 -0.172999992967 128.0
4.13800001144 0.804000020027 -0.171000003815 130.0
4.11499977112 0.774999976158 -0.170000001788 125.0
4.09999990463 0.746999979019 -0.168999999762 126.0
4.05900001526 0.716000020504 -0.166999995708 130.0
4.08699989319 0.695999979973 -0.167999997735 130.0
4.16499996185 0.685000002384 -0.171000003815 124.0
4.13100004196 0.653999984264 -0.170000001788 116.0
4.12400007248 0.629000008106 -0.168999999762 126.0
4.10500001907 0.601999998093 -0.167999997735 129.0
4.09800004959 0.577000021935 -0.167999997735 130.0
4.13100004196 0.556999981403 -0.168999999762 140.0
4.09800004959 0.527999997139 -0.166999995708 129.0
4.10500001907 0.504999995232 -0.166999995708 117.0
4.09200000763 0.479999989271 -0.165999993682 129.0
4.14099979401 0.46099999547 -0.167999997735 119.0
4.23999977112 0.448000013828 -0.172000005841 78.0
4.55499982834 0.453999996185 -0.185000002384 64.0
4.53999996185 0.425999999046 -0.184000000358 71.0
4.6139998436 0.405999988317 -0.187000006437 78.0
4.67999982834 0.384999990463 -0.188999995589 70.0
4.67299985886 0.356999993324 -0.187999993563 66.0
4.6360001564 0.32800000906 -0.187000006437 66.0
4.59800004959 0.298000007868 -0.185000002384 68.0
4.59800004959 0.272000014782 -0.185000002384 66.0
4.66800022125 0.248999997973 -0.187999993563 68.0
4.63700008392 0.221000000834 -0.186000004411 75.0
4.68200016022 0.195999994874 -0.187999993563 66.0
4.64799976349 0.167999997735 -0.186000004411 66.0
4.6810002327 0.142000004649 -0.187000006437 68.0
4.71799993515 0.115999996662 -0.188999995589 66.0
4.70200014114 0.0879999995232 -0.187999993563 65.0
4.65700006485 0.0610000006855 -0.186000004411 68.0
4.78599977493 0.035000000149 -0.190999999642 63.0
4.76700019836 0.00700000021607 -0.189999997616 59.0
4.79500007629 -0.0189999993891 -0.190999999642 63.0
4.742000103 -0.0460000000894 -0.188999995589 55.0
4.75699996948 -0.0740000009537 -0.188999995589 58.0
4.78000020981 -0.101999998093 -0.189999997616 58.0
4.78599977493 -0.128999993205 -0.189999997616 57.0
4.78299999237 -0.157000005245 -0.189999997616 59.0
4.90700006485 -0.188999995589 -0.194999992847 58.0
4.88700008392 -0.216999992728 -0.194000005722 56.0
4.87300014496 -0.244000002742 -0.193000003695 55.0
4.94000005722 -0.275999993086 -0.195999994874 57.0
4.85599994659 -0.298999994993 -0.192000001669 52.0
2.22600007057 -0.173999994993 -0.0879999995232 47.0
0.896000027657 -0.115000002086 -0.0359999984503 1237.0
0.89200001955 -0.119999997318 -0.0359999984503 1867.0
0.89200001955 -0.125 -0.0359999984503 1956.0
0.888000011444 -0.129999995232 -0.035000000149 2026.0
0.888999998569 -0.135000005364 -0.035000000149 1962.0
0.884000003338 -0.138999998569 -0.035000000149 1936.0
0.884999990463 -0.144999995828 -0.035000000149 1837.0
0.884000003338 -0.15000000596 -0.035000000149 1912.0
0.887000024319 -0.156000003219 -0.035000000149 1912.0
0.888999998569 -0.16099999845 -0.035000000149 1894.0
0.879999995232 -0.165000006557 -0.035000000149 1975.0
0.884999990463 -0.171000003815 -0.035000000149 1975.0
0.884000003338 -0.175999999046 -0.035000000149 1924.0
0.876999974251 -0.180000007153 -0.035000000149 1884.0
0.875999987125 -0.185000002384 -0.035000000149 1917.0
0.875999987125 -0.190999999642 -0.035000000149 1919.0
0.875 -0.195999994874 -0.035000000149 2006.0
0.876999974251 -0.201000005007 -0.035000000149 1900.0
0.878000020981 -0.207000002265 -0.035000000149 1875.0
0.874000012875 -0.21099999547 -0.035000000149 1955.0
0.870999991894 -0.216000005603 -0.035000000149 1935.0
0.867999970913 -0.221000000834 -0.035000000149 1959.0
0.867999970913 -0.225999996066 -0.035000000149 1899.0
0.874000012875 -0.232999995351 -0.035000000149 1919.0
0.866999983788 -0.237000003457 -0.035000000149 2083.0
0.865999996662 -0.241999998689 -0.035000000149 2069.0
0.869000017643 -0.247999995947 -0.035000000149 1967.0
0.867999970913 -0.252999991179 -0.035000000149 1992.0
0.861000001431 -0.256999999285 -0.035000000149 1970.0
0.870000004768 -0.264999985695 -0.035000000149 1956.0
0.865000009537 -0.268999993801 -0.035000000149 1969.0
0.862999975681 -0.273999989033 -0.035000000149 1952.0
0.866999983788 -0.280999988317 -0.035000000149 1888.0
0.85799998045 -0.282999992371 -0.035000000149 1932.0
0.861000001431 -0.289999991655 -0.035000000149 1912.0
0.85900002718 -0.294999986887 -0.035000000149 1957.0
0.856000006199 -0.300000011921 -0.035000000149 1986.0
0.860000014305 -0.307000011206 -0.035000000149 1968.0
0.856000006199 -0.31099998951 -0.035000000149 1977.0
0.851999998093 -0.316000014544 -0.035000000149 1974.0
0.851000010967 -0.321000009775 -0.035000000149 1970.0
0.855000019073 -0.32800000906 -0.035000000149 1991.0
0.851999998093 -0.333000004292 -0.035000000149 1958.0
0.846000015736 -0.33599999547 -0.035000000149 1915.0
0.848999977112 -0.342999994755 -0.035000000149 1891.0
0.847000002861 -0.349000006914 -0.035000000149 1887.0
0.847000002861 -0.354999989271 -0.035000000149 1897.0
0.84399998188 -0.358999997377 -0.035000000149 1864.0
0.846000015736 -0.365999996662 -0.035000000149 1951.0
0.841000020504 -0.370000004768 -0.035000000149 1958.0
0.839999973774 -0.375999987125 -0.035000000149 2066.0
0.837000012398 -0.379999995232 -0.035000000149 2035.0
0.84399998188 -0.389999985695 -0.035000000149 2053.0
0.841000020504 -0.395000010729 -0.035000000149 2061.0
0.841000020504 -0.400999993086 -0.035000000149 2080.0
0.837999999523 -0.405999988317 -0.035000000149 2101.0
0.832000017166 -0.409000009298 -0.035000000149 2069.0
0.834999978542 -0.416999995708 -0.035000000149 2111.0
0.834999978542 -0.423000007868 -0.035000000149 2090.0
0.834999978542 -0.430000007153 -0.035000000149 2012.0
0.829999983311 -0.433999985456 -0.035000000149 1991.0
0.830999970436 -0.441000014544 -0.035000000149 2036.0
0.829999983311 -0.446999996901 -0.035000000149 1949.0
0.82800000906 -0.451999992132 -0.035000000149 1967.0
0.824999988079 -0.458000004292 -0.035000000149 1984.0
1.33000004292 0.763000011444 -0.0729999989271 284.0
1.35899996758 0.768000006676 -0.0740000009537 251.0
1.26400005817 0.703999996185 -0.0680000036955 160.0
1.40600001812 0.771000027657 -0.0759999975562 140.0
1.47399997711 0.79699999094 -0.0790000036359 129.0
1.80400002003 0.962000012398 -0.0960000008345 113.0
1.9279999733 1.01300001144 -0.103000000119 125.0
2.01600003242 1.04299998283 -0.107000000775 135.0
2.02500009537 1.03199994564 -0.107000000775 151.0
2.08100008965 1.04400002956 -0.109999999404 150.0
2.12199997902 1.0490000248 -0.112000003457 148.0
2.09999990463 1.02199995518 -0.109999999404 152.0
2.09400010109 1.00300002098 -0.108999997377 151.0
2.12599992752 1.00300002098 -0.111000001431 119.0
2.09599995613 0.972999989986 -0.108999997377 67.0
2.1970000267 1.0039999485 -0.11400000006 107.0
2.22399997711 1.0 -0.115000002086 188.0
2.2009999752 0.972999989986 -0.112999998033 109.0
3.36100006104 1.05099999905 -0.165000006557 62.0
3.42300009727 1.04799997807 -0.166999995708 72.0
3.77699995041 1.10800004005 -0.184000000358 74.0
3.79800009727 1.09000003338 -0.184000000358 83.0
3.87700009346 1.08800005913 -0.187999993563 76.0
4.02199983597 1.10300004482 -0.194999992847 69.0
3.96399998665 1.06200003624 -0.190999999642 92.0
4.05399990082 1.06099998951 -0.194999992847 85.0
4.16599988937 1.06400001049 -0.20000000298 101.0
4.13100004196 1.02999997139 -0.197999998927 96.0
4.15100002289 1.00899994373 -0.199000000954 105.0
4.15100002289 0.98299998045 -0.199000000954 105.0
4.17500019073 0.962999999523 -0.199000000954 102.0
4.13700008392 0.929000020027 -0.196999996901 100.0
4.20300006866 0.919000029564 -0.20000000298 114.0
4.19999980927 0.89200001955 -0.20000000298 111.0
4.17899990082 0.862999975681 -0.197999998927 117.0
4.11999988556 0.824999988079 -0.194999992847 112.0
4.15299987793 0.806999981403 -0.195999994874 116.0
4.11000013351 0.773999989033 -0.194000005722 113.0
4.1360001564 0.754000008106 -0.194999992847 117.0
4.13800001144 0.730000019073 -0.194999992847 117.0
4.10099983215 0.699000000954 -0.193000003695 125.0
4.16599988937 0.685000002384 -0.195999994874 123.0
4.1139998436 0.652000010014 -0.193000003695 109.0
4.10300016403 0.625999987125 -0.192000001669 125.0
4.14099979401 0.606999993324 -0.194000005722 126.0
4.12200021744 0.579999983311 -0.193000003695 121.0
4.13899993896 0.558000028133 -0.193000003695 135.0
4.11199998856 0.52999997139 -0.192000001669 122.0
4.1360001564 0.509000003338 -0.192000001669 116.0
4.13100004196 0.483999997377 -0.192000001669 119.0
4.07999992371 0.453999996185 -0.188999995589 116.0
4.23500013351 0.446999996901 -0.195999994874 78.0
4.55499982834 0.453999996185 -0.21099999547 68.0
4.57999992371 0.430000007153 -0.211999997497 79.0
4.57899999619 0.402999997139 -0.211999997497 81.0
4.64499998093 0.381999999285 -0.21400000155 71.0
4.62099981308 0.352999985218 -0.212999999523 66.0
4.63899993896 0.32800000906 -0.21400000155 68.0
4.65199995041 0.301999986172 -0.21400000155 66.0
4.65799999237 0.27500000596 -0.21400000155 69.0
4.68699979782 0.25 -0.215000003576 67.0
4.65600013733 0.221000000834 -0.21400000155 68.0
4.6810002327 0.195999994874 -0.215000003576 67.0
4.71400022507 0.170000001788 -0.216000005603 68.0
4.632999897 0.140000000596 -0.211999997497 59.0
4.70499992371 0.115000002086 -0.215000003576 63.0
4.66800022125 0.0879999995232 -0.21400000155 61.0
4.70800018311 0.0610000006855 -0.215000003576 69.0
4.73400020599 0.0340000018477 -0.216000005603 60.0
4.74499988556 0.00700000021607 -0.216999992728 59.0
4.72300004959 -0.0189999993891 -0.216000005603 64.0
4.76300001144 -0.0469999983907 -0.216999992728 58.0
4.8060002327 -0.0750000029802 -0.218999996781 61.0
4.80499982834 -0.101999998093 -0.218999996781 57.0
4.8639998436 -0.131999999285 -0.221000000834 56.0
4.78399991989 -0.157000005245 -0.217999994755 57.0
4.82800006866 -0.186000004411 -0.219999998808 59.0
4.79600000381 -0.212999999523 -0.217999994755 58.0
4.85300016403 -0.243000000715 -0.221000000834 52.0
4.91499996185 -0.27500000596 -0.223000004888 52.0
4.89499998093 -0.301999986172 -0.222000002861 48.0
0.893000006676 -0.115000002086 -0.0410000011325 1270.0
0.89099997282 -0.119999997318 -0.0410000011325 1867.0
0.89099997282 -0.125 -0.0410000011325 1947.0
0.888999998569 -0.129999995232 -0.0410000011325 2041.0
0.887000024319 -0.135000005364 -0.0410000011325 1987.0
0.888000011444 -0.140000000596 -0.0410000011325 1963.0
0.880999982357 -0.143999993801 -0.0399999991059 1860.0
0.883000016212 -0.15000000596 -0.0399999991059 1893.0
0.879999995232 -0.153999999166 -0.0399999991059 1955.0
0.880999982357 -0.159999996424 -0.0399999991059 1917.0
0.884999990463 -0.165999993682 -0.0399999991059 2018.0
0.880999982357 -0.170000001788 -0.0399999991059 1953.0
0.882000029087 -0.175999999046 -0.0399999991059 1933.0
0.875999987125 -0.180000007153 -0.0399999991059 1883.0
0.875999987125 -0.185000002384 -0.0399999991059 1979.0
0.882000029087 -0.192000001669 -0.0399999991059 1971.0
0.874000012875 -0.194999992847 -0.0399999991059 1985.0
0.880999982357 -0.202000007033 -0.0399999991059 1942.0
0.875 -0.206000000238 -0.0399999991059 1911.0
0.867999970913 -0.209999993443 -0.0399999991059 1969.0
0.867999970913 -0.215000003576 -0.0399999991059 1987.0
0.874000012875 -0.222000002861 -0.0399999991059 1989.0
0.870000004768 -0.226999998093 -0.0399999991059 1935.0
0.873000025749 -0.232999995351 -0.0399999991059 1896.0
0.866999983788 -0.237000003457 -0.0399999991059 2020.0
0.870999991894 -0.243000000715 -0.0399999991059 2044.0
0.865999996662 -0.24699999392 -0.0399999991059 2049.0
0.866999983788 -0.252999991179 -0.0399999991059 1989.0
0.861999988556 -0.256999999285 -0.0399999991059 1976.0
0.861999988556 -0.263000011444 -0.0399999991059 1985.0
0.862999975681 -0.268999993801 -0.0399999991059 1944.0
0.85900002718 -0.273000001907 -0.0399999991059 1886.0
0.862999975681 -0.280000001192 -0.0399999991059 1875.0
0.864000022411 -0.284999996424 -0.0399999991059 1923.0
0.85799998045 -0.28900000453 -0.0399999991059 1980.0
0.85900002718 -0.294999986887 -0.0399999991059 1987.0
0.852999985218 -0.298999994993 -0.0399999991059 2000.0
0.855000019073 -0.305000007153 -0.0399999991059 2032.0
0.853999972343 -0.310000002384 -0.0399999991059 1986.0
0.856999993324 -0.317000001669 -0.0399999991059 1933.0
0.851000010967 -0.321000009775 -0.0399999991059 1968.0
0.851000010967 -0.326999992132 -0.0399999991059 2021.0
0.848999977112 -0.331999987364 -0.0399999991059 2011.0
0.851000010967 -0.337999999523 -0.0399999991059 1962.0
0.847999989986 -0.342999994755 -0.0399999991059 1909.0
0.848999977112 -0.34999999404 -0.0399999991059 1920.0
0.84500002861 -0.354000002146 -0.0399999991059 2008.0
0.848999977112 -0.361000001431 -0.0399999991059 1901.0
0.841000020504 -0.363999992609 -0.0399999991059 2025.0
0.84500002861 -0.372000008821 -0.0399999991059 1978.0
0.841000020504 -0.375999987125 -0.0399999991059 2069.0
0.841000020504 -0.381999999285 -0.0399999991059 2035.0
0.842999994755 -0.389999985695 -0.0399999991059 2080.0
0.839999973774 -0.393999993801 -0.0399999991059 2092.0
0.834999978542 -0.398000001907 -0.0399999991059 2113.0
0.837999999523 -0.405999988317 -0.0399999991059 2113.0
0.834999978542 -0.411000013351 -0.0399999991059 2090.0
0.830999970436 -0.414999991655 -0.0399999991059 2123.0
0.830999970436 -0.42199999094 -0.0399999991059 2084.0
0.834999978542 -0.430000007153 -0.0399999991059 2064.0
0.829999983311 -0.433999985456 -0.0399999991059 2000.0
0.832000017166 -0.441000014544 -0.0399999991059 2004.0
0.832000017166 -0.448000013828 -0.0410000011325 1939.0
0.828999996185 -0.45300000906 -0.0399999991059 1913.0
0.82800000906 -0.458999991417 -0.0399999991059 1948.0
0.90600001812 0.518999993801 -0.054999999702 709.0
0.893000006676 0.504000008106 -0.0540000014007 719.0
0.902999997139 0.503000020981 -0.054999999702 645.0
0.90499997139 0.495999991894 -0.054999999702 624.0
0.913999974728 0.493999987841 -0.054999999702 594.0
0.931999981403 0.495999991894 -0.0560000017285 523.0
0.952000021935 0.5 -0.0570000000298 451.0
0.995000004768 0.513999998569 -0.0590000003576 389.0
1.00499999523 0.512000024319 -0.0599999986589 348.0
1.01300001144 0.508000016212 -0.0599999986589 307.0
1.06700003147 0.527000010014 -0.0630000010133 277.0
1.14100003242 0.555000007153 -0.0670000016689 242.0
1.18900001049 0.569000005722 -0.070000000298 206.0
1.13699996471 0.536000013351 -0.0670000016689 175.0
1.0759999752 0.499000012875 -0.0630000010133 137.0
1.53600001335 0.700999975204 -0.0890000015497 102.0
1.99800002575 0.898000001907 -0.115999996662 154.0
1.86699998379 0.825999975204 -0.108000002801 93.0
1.24199998379 0.540000021458 -0.0719999969006 73.0
3.90700006485 1.1210000515 -0.212999999523 60.0
4.03599977493 1.13300001621 -0.219999998808 60.0
4.05000019073 1.11099994183 -0.219999998808 58.0
3.94899988174 1.05900001526 -0.21400000155 72.0
4.31300020218 1.1289999485 -0.232999995351 60.0
4.25099992752 1.08599996567 -0.230000004172 72.0
4.28399991989 1.06799995899 -0.231000006199 76.0
4.25500011444 1.0340000391 -0.229000002146 75.0
4.20900011063 0.996999979019 -0.225999996066 77.0
4.30900001526 0.995000004768 -0.231000006199 71.0
4.22599983215 0.924000024796 -0.225999996066 77.0
4.1939997673 0.89099997282 -0.224000006914 79.0
4.23699998856 0.874000012875 -0.225999996066 77.0
4.19999980927 0.841000020504 -0.224000006914 81.0
4.22200012207 0.819999992847 -0.224000006914 83.0
4.24599981308 0.800000011921 -0.22499999404 80.0
4.21199989319 0.768000006676 -0.223000004888 82.0
4.24100017548 0.748000025749 -0.22499999404 86.0
4.23999977112 0.722000002861 -0.224000006914 89.0
4.21999979019 0.694000005722 -0.223000004888 84.0
4.17700004578 0.662000000477 -0.219999998808 86.0
4.14099979401 0.632000029087 -0.217999994755 94.0
4.21899986267 0.619000017643 -0.222000002861 97.0
4.14300012589 0.583000004292 -0.217999994755 103.0
4.1360001564 0.558000028133 -0.216999992728 110.0
4.08400011063 0.527000010014 -0.21400000155 92.0
4.132999897 0.509000003338 -0.216000005603 96.0
4.13999986649 0.485000014305 -0.216000005603 101.0
4.10400009155 0.456999987364 -0.21400000155 102.0
4.42199993134 0.467000007629 -0.231000006199 66.0
4.70100021362 0.469000011683 -0.245000004768 57.0
4.6360001564 0.435000002384 -0.240999996662 66.0
4.59700012207 0.405000001192 -0.238999992609 68.0
4.66099977493 0.38299998641 -0.241999998689 67.0
4.61999988556 0.352999985218 -0.239999994636 61.0
4.70200014114 0.331999987364 -0.244000002742 59.0
4.67500019073 0.303000003099 -0.241999998689 62.0
4.632999897 0.273999989033 -0.239999994636 66.0
4.63899993896 0.24699999392 -0.239999994636 65.0
4.68400001526 0.223000004888 -0.241999998689 64.0
4.67999982834 0.194999992847 -0.241999998689 64.0
4.68699979782 0.168999999762 -0.241999998689 70.0
4.69899988174 0.142000004649 -0.241999998689 60.0
4.68300008774 0.115000002086 -0.240999996662 63.0
4.71299982071 0.0879999995232 -0.243000000715 62.0
4.71899986267 0.0610000006855 -0.243000000715 65.0
4.76900005341 0.0340000018477 -0.245000004768 57.0
4.75 0.00700000021607 -0.244000002742 58.0
4.74499988556 -0.0189999993891 -0.244000002742 55.0
4.75199985504 -0.0469999983907 -0.244000002742 64.0
4.81500005722 -0.0750000029802 -0.24699999392 60.0
4.84499979019 -0.104000002146 -0.248999997973 63.0
4.84000015259 -0.130999997258 -0.247999995947 58.0
4.77299976349 -0.157000005245 -0.245000004768 62.0
4.86100006104 -0.187999993563 -0.248999997973 59.0
4.88700008392 -0.216999992728 -0.25 56.0
4.85900020599 -0.244000002742 -0.248999997973 54.0
4.93499994278 -0.275999993086 -0.252999991179 52.0
4.91900014877 -0.303999990225 -0.252000004053 48.0
0.89200001955 -0.115000002086 -0.0460000000894 1281.0
0.894999980927 -0.119999997318 -0.0460000000894 1826.0
0.89200001955 -0.125 -0.0460000000894 1967.0
0.888000011444 -0.129999995232 -0.0460000000894 2061.0
0.883000016212 -0.134000003338 -0.0450000017881 2005.0
0.885999977589 -0.140000000596 -0.0460000000894 1969.0
0.884999990463 -0.144999995828 -0.0460000000894 1882.0
0.883000016212 -0.15000000596 -0.0460000000894 1890.0
0.880999982357 -0.155000001192 -0.0450000017881 1991.0
0.882000029087 -0.159999996424 -0.0450000017881 1968.0
0.880999982357 -0.165000006557 -0.0450000017881 2027.0
0.879000008106 -0.170000001788 -0.0450000017881 1970.0
0.875999987125 -0.17499999702 -0.0450000017881 1943.0
0.882000029087 -0.180999994278 -0.0460000000894 1875.0
0.879000008106 -0.186000004411 -0.0450000017881 1965.0
0.875999987125 -0.190999999642 -0.0450000017881 2003.0
0.875999987125 -0.195999994874 -0.0450000017881 1964.0
0.875999987125 -0.201000005007 -0.0450000017881 1973.0
0.873000025749 -0.206000000238 -0.0450000017881 1968.0
0.873000025749 -0.21099999547 -0.0450000017881 1964.0
0.870000004768 -0.216000005603 -0.0450000017881 1961.0
0.874000012875 -0.222000002861 -0.0450000017881 1983.0
0.865000009537 -0.22499999404 -0.0450000017881 1935.0
0.870999991894 -0.231999993324 -0.0450000017881 1887.0
0.861000001431 -0.234999999404 -0.0450000017881 1934.0
0.865000009537 -0.241999998689 -0.0450000017881 2032.0
0.869000017643 -0.247999995947 -0.0450000017881 2062.0
0.867999970913 -0.252999991179 -0.0450000017881 1991.0
0.85900002718 -0.256000012159 -0.0450000017881 2021.0
0.864000022411 -0.263000011444 -0.0450000017881 2069.0
0.864000022411 -0.268999993801 -0.0450000017881 1978.0
0.85900002718 -0.273000001907 -0.0450000017881 1951.0
0.861999988556 -0.279000014067 -0.0450000017881 1966.0
0.85799998045 -0.284000009298 -0.0450000017881 1959.0
0.861000001431 -0.289999991655 -0.0450000017881 2046.0
0.856999993324 -0.294999986887 -0.0450000017881 2007.0
0.861000001431 -0.301999986172 -0.0450000017881 1985.0
0.856000006199 -0.305999994278 -0.0450000017881 2067.0
0.856999993324 -0.312000006437 -0.0450000017881 2040.0
0.851000010967 -0.314999997616 -0.0450000017881 2000.0
0.850000023842 -0.321000009775 -0.0450000017881 2030.0
0.856000006199 -0.328999996185 -0.0450000017881 2041.0
0.847000002861 -0.331000000238 -0.0450000017881 2056.0
0.847999989986 -0.337000012398 -0.0450000017881 1986.0
0.852999985218 -0.345999985933 -0.0450000017881 1943.0
0.847999989986 -0.349000006914 -0.0450000017881 1971.0
0.848999977112 -0.356000006199 -0.0450000017881 2081.0
0.842999994755 -0.358999997377 -0.0450000017881 1990.0
0.838999986649 -0.363000005484 -0.0450000017881 1990.0
0.847000002861 -0.372999995947 -0.0450000017881 1943.0
0.842999994755 -0.377000004053 -0.0450000017881 2006.0
0.839999973774 -0.381999999285 -0.0450000017881 2082.0
0.842000007629 -0.388999998569 -0.0450000017881 2065.0
0.839999973774 -0.393999993801 -0.0450000017881 2066.0
0.837000012398 -0.398999989033 -0.0450000017881 2087.0
0.834999978542 -0.405000001192 -0.0450000017881 2119.0
0.833999991417 -0.409999996424 -0.0450000017881 2132.0
0.834999978542 -0.416999995708 -0.0460000000894 2116.0
0.833999991417 -0.423000007868 -0.0460000000894 2039.0
0.832000017166 -0.428999990225 -0.0460000000894 2052.0
0.832000017166 -0.435000002384 -0.0460000000894 2016.0
0.825999975204 -0.437999993563 -0.0450000017881 1976.0
0.829999983311 -0.446999996901 -0.0460000000894 1898.0
0.830999970436 -0.453999996185 -0.0460000000894 1917.0
0.824000000954 -0.456999987364 -0.0460000000894 1965.0
0.876999974251 0.503000020981 -0.0590000003576 982.0
0.875999987125 0.495000004768 -0.0590000003576 980.0
0.878000020981 0.488999992609 -0.0590000003576 955.0
0.879000008106 0.481999993324 -0.0590000003576 958.0
0.882000029087 0.476999998093 -0.0590000003576 966.0
0.880999982357 0.469000011683 -0.0590000003576 955.0
0.879999995232 0.462000012398 -0.0579999983311 938.0
0.884999990463 0.456999987364 -0.0579999983311 920.0
0.879000008106 0.446999996901 -0.0579999983311 911.0
0.883000016212 0.442999988794 -0.0579999983311 917.0
0.875 0.432000011206 -0.0570000000298 887.0
0.89200001955 0.433999985456 -0.0579999983311 858.0
0.885999977589 0.423999994993 -0.0579999983311 827.0
0.888999998569 0.418999999762 -0.0579999983311 770.0
0.884000003338 0.409999996424 -0.0570000000298 741.0
0.893999993801 0.407999992371 -0.0579999983311 719.0
0.902999997139 0.405999988317 -0.0579999983311 644.0
0.90600001812 0.40000000596 -0.0579999983311 602.0
0.896000027657 0.388999998569 -0.0570000000298 570.0
0.898999989033 0.384999990463 -0.0570000000298 494.0
0.901000022888 0.379000008106 -0.0570000000298 439.0
0.90499997139 0.374000012875 -0.0570000000298 415.0
0.910000026226 0.370000004768 -0.0579999983311 385.0
0.917999982834 0.36700001359 -0.0579999983311 338.0
0.887000024319 0.347999989986 -0.0560000017285 303.0
0.897000014782 0.345999985933 -0.0560000017285 266.0
0.897000014782 0.340000003576 -0.0560000017285 397.0
0.902999997139 0.33599999547 -0.0560000017285 317.0
0.929000020027 0.333000004292 -0.0579999983311 195.0
0.964999973774 0.326999992132 -0.0599999986589 74.0
3.94400000572 1.13199996948 -0.238999992609 58.0
3.84699988365 1.08000004292 -0.231999993324 64.0
4.19299983978 1.14999997616 -0.252999991179 54.0
4.09200000763 1.09700000286 -0.246000006795 62.0
4.33799982071 1.13600003719 -0.261000007391 58.0
4.26599979401 1.09000003338 -0.256000012159 71.0
4.26900005341 1.06400001049 -0.256000012159 82.0
4.31300020218 1.0490000248 -0.25799998641 68.0
4.24399995804 1.00600004196 -0.252999991179 76.0
4.34399986267 1.00300002098 -0.259000003338 68.0
4.41499996185 0.991999983788 -0.263000011444 68.0
4.28700017929 0.936999976635 -0.254999995232 70.0
4.31199979782 0.916000008583 -0.256000012159 67.0
4.27400016785 0.882000029087 -0.252999991179 70.0
4.26900005341 0.855000019073 -0.252000004053 66.0
4.32999992371 0.841000020504 -0.256000012159 70.0
4.32600021362 0.814999997616 -0.254999995232 72.0
4.29300022125 0.782999992371 -0.252999991179 73.0
4.32499980927 0.763000011444 -0.254000008106 71.0
4.27600002289 0.727999985218 -0.250999987125 72.0
4.23799991608 0.697000026703 -0.248999997973 68.0
4.23699998856 0.671000003815 -0.247999995947 63.0
4.23699998856 0.646000027657 -0.247999995947 72.0
4.27299976349 0.625999987125 -0.25 71.0
4.21899986267 0.59399998188 -0.246000006795 71.0
4.27400016785 0.575999975204 -0.248999997973 77.0
4.21799993515 0.544000029564 -0.246000006795 69.0
4.27199983597 0.526000022888 -0.247999995947 62.0
4.15500020981 0.486999988556 -0.240999996662 72.0
4.33699989319 0.483000010252 -0.252000004053 67.0
4.68699979782 0.439999997616 -0.270999997854 51.0
4.74599981308 0.418000012636 -0.273999989033 59.0
4.73400020599 0.388999998569 -0.273999989033 48.0
4.66699981689 0.356999993324 -0.268999993801 51.0
4.6779999733 0.330000013113 -0.270000010729 55.0
4.71000003815 0.305000007153 -0.270999997854 57.0
4.71099996567 0.277999997139 -0.270999997854 54.0
4.74700021744 0.252999991179 -0.273000001907 59.0
4.69799995422 0.223000004888 -0.270000010729 56.0
4.65799999237 0.194000005722 -0.268000006676 63.0
4.66699981689 0.167999997735 -0.268000006676 63.0
4.68499994278 0.142000004649 -0.268999993801 64.0
4.65399980545 0.11400000006 -0.266999989748 60.0
4.757999897 0.0890000015497 -0.273000001907 65.0
4.73600006104 0.0610000006855 -0.270999997854 60.0
4.73299980164 0.00700000021607 -0.270999997854 63.0
4.76000022888 -0.019999999553 -0.272000014782 59.0
4.82499980927 -0.0480000004172 -0.275999993086 58.0
4.81599998474 -0.0750000029802 -0.27500000596 63.0
4.78100013733 -0.101999998093 -0.273000001907 58.0
4.8140001297 -0.130999997258 -0.27500000596 59.0
4.8060002327 -0.158000007272 -0.273999989033 58.0
4.82399988174 -0.187000006437 -0.27500000596 60.0
4.88100004196 -0.216999992728 -0.277999997139 53.0
4.87099981308 -0.245000004768 -0.277999997139 59.0
4.84299993515 -0.270999997854 -0.275999993086 52.0
0.962000012398 -0.118000000715 -0.054999999702 132.0
0.888000011444 -0.11400000006 -0.0509999990463 1318.0
0.888000011444 -0.119000002742 -0.0509999990463 1834.0
0.888000011444 -0.123999997973 -0.0509999990463 1959.0
0.884999990463 -0.128999993205 -0.0509999990463 2034.0
0.89099997282 -0.135000005364 -0.0509999990463 1995.0
0.885999977589 -0.140000000596 -0.0509999990463 1940.0
0.889999985695 -0.145999997854 -0.0509999990463 1857.0
0.882000029087 -0.15000000596 -0.0509999990463 1865.0
0.882000029087 -0.155000001192 -0.0509999990463 2019.0
0.884999990463 -0.16099999845 -0.0509999990463 1962.0
0.875999987125 -0.16400000453 -0.0500000007451 2025.0
0.879000008106 -0.170000001788 -0.0509999990463 2001.0
0.879000008106 -0.17499999702 -0.0509999990463 1949.0
0.879999995232 -0.180999994278 -0.0509999990463 1910.0
0.875 -0.185000002384 -0.0500000007451 1991.0
0.878000020981 -0.190999999642 -0.0509999990463 1992.0
0.875 -0.195999994874 -0.0500000007451 1978.0
0.874000012875 -0.201000005007 -0.0500000007451 1989.0
0.870999991894 -0.206000000238 -0.0500000007451 1970.0
0.870000004768 -0.21099999547 -0.0500000007451 1966.0
0.871999979019 -0.216000005603 -0.0500000007451 1923.0
0.869000017643 -0.221000000834 -0.0500000007451 1952.0
0.867999970913 -0.225999996066 -0.0500000007451 1972.0
0.867999970913 -0.231999993324 -0.0500000007451 1913.0
0.865999996662 -0.237000003457 -0.0500000007451 1930.0
0.866999983788 -0.241999998689 -0.0500000007451 2016.0
0.866999983788 -0.247999995947 -0.0500000007451 2104.0
0.862999975681 -0.252000004053 -0.0500000007451 2053.0
0.861999988556 -0.256999999285 -0.0500000007451 2068.0
0.85900002718 -0.261999994516 -0.0500000007451 2089.0
0.864000022411 -0.268999993801 -0.0500000007451 2072.0
0.865000009537 -0.27500000596 -0.0500000007451 2091.0
0.861000001431 -0.279000014067 -0.0500000007451 2007.0
0.856999993324 -0.284000009298 -0.0500000007451 1975.0
0.856999993324 -0.28900000453 -0.0500000007451 2080.0
0.853999972343 -0.293999999762 -0.0500000007451 2074.0
0.851000010967 -0.298000007868 -0.0500000007451 2010.0
0.855000019073 -0.305999994278 -0.0500000007451 2071.0
0.856999993324 -0.312000006437 -0.0500000007451 2043.0
0.848999977112 -0.314999997616 -0.0500000007451 2012.0
0.851999998093 -0.321999996901 -0.0500000007451 2053.0
0.850000023842 -0.326999992132 -0.0500000007451 2036.0
0.848999977112 -0.331999987364 -0.0500000007451 2068.0
0.84500002861 -0.33599999547 -0.0500000007451 2034.0
0.850000023842 -0.344000011683 -0.0500000007451 2023.0
0.842999994755 -0.347000002861 -0.0500000007451 2019.0
0.84500002861 -0.354000002146 -0.0500000007451 2045.0
0.847999989986 -0.361000001431 -0.0509999990463 2009.0
0.842000007629 -0.365000009537 -0.0500000007451 1979.0
0.839999973774 -0.370000004768 -0.0500000007451 1933.0
0.837999999523 -0.375 -0.0500000007451 2024.0
0.842000007629 -0.38299998641 -0.0509999990463 2137.0
0.839999973774 -0.388000011444 -0.0509999990463 2104.0
0.839999973774 -0.393999993801 -0.0509999990463 2094.0
0.833999991417 -0.398000001907 -0.0500000007451 2077.0
0.833999991417 -0.404000014067 -0.0509999990463 2094.0
0.837999999523 -0.412000000477 -0.0509999990463 2109.0
0.833999991417 -0.416999995708 -0.0509999990463 2077.0
0.838999986649 -0.425999999046 -0.0509999990463 1981.0
0.833999991417 -0.430000007153 -0.0509999990463 2022.0
0.827000021935 -0.432999998331 -0.0509999990463 2043.0
0.824999988079 -0.437999993563 -0.0509999990463 1995.0
0.832000017166 -0.448000013828 -0.0509999990463 1952.0
0.825999975204 -0.451999992132 -0.0509999990463 1964.0
0.825999975204 -0.458000004292 -0.0509999990463 2059.0
0.879000008106 0.504000008106 -0.0649999976158 978.0
0.880999982357 0.497999995947 -0.0649999976158 1001.0
0.871999979019 0.486000001431 -0.0640000030398 1018.0
0.870000004768 0.476999998093 -0.0640000030398 1040.0
0.869000017643 0.469999998808 -0.0640000030398 1054.0
0.875 0.465999990702 -0.0640000030398 1051.0
0.867999970913 0.455000013113 -0.0630000010133 1040.0
0.870999991894 0.449999988079 -0.0630000010133 1053.0
0.871999979019 0.444000005722 -0.0630000010133 1058.0
0.874000012875 0.437999993563 -0.0630000010133 1073.0
0.871999979019 0.430999994278 -0.0630000010133 1086.0
0.870999991894 0.423999994993 -0.0619999989867 1082.0
0.873000025749 0.418000012636 -0.0619999989867 1081.0
0.873000025749 0.412000000477 -0.0619999989867 1088.0
0.864000022411 0.400999993086 -0.0610000006855 1081.0
0.875 0.40000000596 -0.0619999989867 1114.0
0.873000025749 0.391999989748 -0.0619999989867 1102.0
0.874000012875 0.386000007391 -0.0610000006855 1090.0
0.873000025749 0.379999995232 -0.0610000006855 1080.0
0.870000004768 0.372000008821 -0.0610000006855 1059.0
0.870999991894 0.365999996662 -0.0610000006855 1026.0
0.878000020981 0.363000005484 -0.0610000006855 1034.0
0.871999979019 0.354999989271 -0.0610000006855 1031.0
0.874000012875 0.349000006914 -0.0610000006855 982.0
0.875999987125 0.344000011683 -0.0610000006855 956.0
0.873000025749 0.337000012398 -0.0599999986589 955.0
0.874000012875 0.331000000238 -0.0599999986589 943.0
0.874000012875 0.324999988079 -0.0599999986589 898.0
0.875 0.319999992847 -0.0599999986589 863.0
0.874000012875 0.31400001049 -0.0599999986589 821.0
0.878000020981 0.308999985456 -0.0599999986589 794.0
0.874000012875 0.301999986172 -0.0590000003576 772.0
0.874000012875 0.296000003815 -0.0590000003576 715.0
0.875999987125 0.291000008583 -0.0590000003576 654.0
0.880999982357 0.287000000477 -0.0590000003576 594.0
0.870000004768 0.277999997139 -0.0590000003576 543.0
0.882000029087 0.275999993086 -0.0590000003576 507.0
0.873000025749 0.268000006676 -0.0590000003576 451.0
0.866999983788 0.259999990463 -0.0579999983311 399.0
0.85799998045 0.252000004053 -0.0570000000298 356.0
0.832000017166 0.238999992609 -0.0560000017285 299.0
0.876999974251 0.246000006795 -0.0579999983311 449.0
0.865000009537 0.238000005484 -0.0579999983311 379.0
0.75 0.201000005007 -0.0500000007451 198.0
0.823000013828 0.216000005603 -0.054999999702 254.0
0.42199999094 0.108000002801 -0.0280000008643 109.0
0.291999995708 0.0729999989271 -0.019999999553 89.0
0.203999996185 0.0500000007451 -0.0140000004321 73.0
0.0399999991059 0.00999999977648 -0.00300000002608 59.0
4.79199981689 1.10599994659 -0.31400001049 60.0
4.65299987793 1.04600000381 -0.303999990225 57.0
4.5529999733 0.995000004768 -0.29699999094 57.0
4.52699995041 0.962000012398 -0.294999986887 58.0
4.39400005341 0.907000005245 -0.286000013351 64.0
4.39699983597 0.853999972343 -0.284999996424 63.0
4.31699991226 0.813000023365 -0.280000001192 67.0
4.40700006485 0.802999973297 -0.284999996424 65.0
4.3109998703 0.759999990463 -0.279000014067 64.0
4.29400014877 0.731999993324 -0.277000010014 62.0
4.32600021362 0.711000025272 -0.279000014067 68.0
4.32899999619 0.68599998951 -0.279000014067 62.0
4.3639998436 0.666000008583 -0.280999988317 70.0
4.28399991989 0.628000020981 -0.27500000596 71.0
4.28399991989 0.602999985218 -0.27500000596 70.0
4.28999996185 0.57800000906 -0.27500000596 76.0
4.23799991608 0.54699999094 -0.272000014782 67.0
4.28399991989 0.527000010014 -0.273999989033 58.0
4.33799982071 0.508000016212 -0.277000010014 65.0
4.16400003433 0.463999986649 -0.266000002623 66.0
4.33300018311 0.456999987364 -0.277000010014 52.0
4.70100021362 0.41400000453 -0.298999994993 54.0
4.65500020981 0.27500000596 -0.294999986887 53.0
4.74100017548 0.252999991179 -0.300000011921 51.0
4.63199996948 0.219999998808 -0.293000012636 60.0
4.72300004959 0.196999996901 -0.298999994993 64.0
4.64300012589 0.166999995708 -0.293999999762 60.0
4.66900014877 0.141000002623 -0.294999986887 65.0
4.72100019455 0.115000002086 -0.298000007868 67.0
4.6859998703 0.0869999974966 -0.296000003815 59.0
4.70399999619 0.0610000006855 -0.29699999094 64.0
4.75400018692 0.0340000018477 -0.300000011921 60.0
4.75400018692 0.00700000021607 -0.300000011921 60.0
4.77899980545 -0.019999999553 -0.300999999046 68.0
4.83099985123 -0.0480000004172 -0.303999990225 59.0
4.75299978256 -0.0740000009537 -0.298999994993 56.0
4.82399988174 -0.103000000119 -0.303000003099 53.0
4.77199983597 -0.129999995232 -0.300000011921 55.0
4.83799982071 -0.158999994397 -0.303999990225 60.0
4.84100008011 -0.187000006437 -0.303999990225 57.0
4.88700008392 -0.216999992728 -0.307000011206 53.0
4.87699985504 -0.245000004768 -0.305999994278 57.0
4.8639998436 -0.273000001907 -0.305000007153 52.0
0.958000004292 -0.118000000715 -0.0599999986589 152.0
0.888999998569 -0.11400000006 -0.0560000017285 1350.0
0.885999977589 -0.119000002742 -0.0560000017285 1843.0
0.888000011444 -0.125 -0.0560000017285 1923.0
0.885999977589 -0.129999995232 -0.0560000017285 1986.0
0.884999990463 -0.135000005364 -0.0560000017285 1956.0
0.887000024319 -0.140000000596 -0.0560000017285 1954.0
0.888000011444 -0.145999997854 -0.0560000017285 1897.0
0.882000029087 -0.15000000596 -0.0560000017285 1847.0
0.879999995232 -0.155000001192 -0.0560000017285 1985.0
0.878000020981 -0.159999996424 -0.0560000017285 1965.0
0.879999995232 -0.165000006557 -0.0560000017285 2013.0
0.885999977589 -0.172000005841 -0.0560000017285 1987.0
0.880999982357 -0.175999999046 -0.0560000017285 1925.0
0.879000008106 -0.180999994278 -0.0560000017285 1897.0
0.876999974251 -0.186000004411 -0.0560000017285 1991.0
0.874000012875 -0.189999997616 -0.054999999702 1978.0
0.875 -0.195999994874 -0.0560000017285 1944.0
0.875 -0.201000005007 -0.0560000017285 1958.0
0.875 -0.207000002265 -0.0560000017285 1966.0
0.871999979019 -0.21099999547 -0.054999999702 1964.0
0.873000025749 -0.216999992728 -0.0560000017285 1910.0
0.870000004768 -0.221000000834 -0.054999999702 1952.0
0.873000025749 -0.228000000119 -0.0560000017285 1971.0
0.870999991894 -0.232999995351 -0.0560000017285 1914.0
0.869000017643 -0.237000003457 -0.054999999702 1904.0
0.865999996662 -0.241999998689 -0.054999999702 2011.0
0.862999975681 -0.24699999392 -0.054999999702 2113.0
0.867999970913 -0.254000008106 -0.0560000017285 2042.0
0.864000022411 -0.25799998641 -0.054999999702 2033.0
0.861999988556 -0.263000011444 -0.054999999702 2092.0
0.861000001431 -0.268000006676 -0.054999999702 2124.0
0.862999975681 -0.273999989033 -0.0560000017285 2112.0
0.864000022411 -0.280000001192 -0.0560000017285 2034.0
0.855000019073 -0.282999992371 -0.054999999702 2048.0
0.85799998045 -0.28900000453 -0.054999999702 2124.0
0.852999985218 -0.293000012636 -0.054999999702 2115.0
0.855000019073 -0.300000011921 -0.054999999702 2003.0
0.851000010967 -0.303999990225 -0.054999999702 2071.0
0.852999985218 -0.31099998951 -0.054999999702 2025.0
0.848999977112 -0.314999997616 -0.054999999702 2018.0
0.850000023842 -0.321000009775 -0.054999999702 2038.0
0.851999998093 -0.32800000906 -0.0560000017285 1997.0
0.850000023842 -0.331999987364 -0.054999999702 2102.0
0.851000010967 -0.338999986649 -0.0560000017285 2088.0
0.846000015736 -0.342999994755 -0.054999999702 2047.0
0.84500002861 -0.347999989986 -0.054999999702 2023.0
0.84399998188 -0.354000002146 -0.0560000017285 2021.0
0.842999994755 -0.358999997377 -0.0560000017285 2004.0
0.842000007629 -0.365000009537 -0.0560000017285 1992.0
0.841000020504 -0.370999991894 -0.0560000017285 1959.0
0.839999973774 -0.375999987125 -0.0560000017285 2008.0
0.837000012398 -0.381000012159 -0.0560000017285 2155.0
0.838999986649 -0.388000011444 -0.0560000017285 2132.0
0.839999973774 -0.395000010729 -0.0560000017285 2086.0
0.836000025272 -0.398999989033 -0.0560000017285 2117.0
0.833000004292 -0.404000014067 -0.0560000017285 2105.0
0.838999986649 -0.412999987602 -0.0560000017285 2071.0
0.833999991417 -0.416999995708 -0.0560000017285 2018.0
0.833000004292 -0.423000007868 -0.0560000017285 2001.0
0.829999983311 -0.428000003099 -0.0560000017285 2005.0
0.833000004292 -0.43599998951 -0.0560000017285 2021.0
0.829999983311 -0.441000014544 -0.0560000017285 2012.0
0.827000021935 -0.446000009775 -0.0560000017285 2001.0
0.824999988079 -0.451000005007 -0.0560000017285 2043.0
0.823000013828 -0.456999987364 -0.0560000017285 2073.0
0.90499997139 0.518999993801 -0.0729999989271 701.0
0.899999976158 0.509000003338 -0.0719999969006 733.0
0.894999980927 0.497999995947 -0.0719999969006 773.0
0.883000016212 0.485000014305 -0.0710000023246 812.0
0.879000008106 0.47499999404 -0.070000000298 851.0
0.883000016212 0.470999985933 -0.070000000298 887.0
0.879999995232 0.462000012398 -0.070000000298 913.0
0.884999990463 0.458000004292 -0.070000000298 935.0
0.879000008106 0.448000013828 -0.0689999982715 974.0
0.876999974251 0.439999997616 -0.0689999982715 1016.0
0.875 0.432000011206 -0.0680000036955 1029.0
0.869000017643 0.423000007868 -0.0680000036955 1050.0
0.882000029087 0.42199999094 -0.0680000036955 1070.0
0.869000017643 0.409999996424 -0.0670000016689 1097.0
0.869000017643 0.402999997139 -0.0670000016689 1110.0
0.871999979019 0.398000001907 -0.0670000016689 1133.0
0.870000004768 0.391000002623 -0.0670000016689 1136.0
0.869000017643 0.384000003338 -0.0670000016689 1160.0
0.869000017643 0.377999991179 -0.0659999996424 1142.0
0.865999996662 0.370000004768 -0.0659999996424 1148.0
0.866999983788 0.365000009537 -0.0659999996424 1171.0
0.875 0.361999988556 -0.0659999996424 1205.0
0.866999983788 0.352999985218 -0.0659999996424 1211.0
0.869000017643 0.347000002861 -0.0659999996424 1209.0
0.864000022411 0.338999986649 -0.0649999976158 1205.0
0.856999993324 0.331000000238 -0.0640000030398 1228.0
0.85799998045 0.324999988079 -0.0640000030398 1209.0
0.866999983788 0.323000013828 -0.0649999976158 1196.0
0.866999983788 0.317000001669 -0.0649999976158 1185.0
0.865000009537 0.310000002384 -0.0640000030398 1186.0
0.869000017643 0.305999994278 -0.0640000030398 1178.0
0.860000014305 0.29699999094 -0.0640000030398 1183.0
0.865999996662 0.293999999762 -0.0640000030398 1173.0
0.862999975681 0.287000000477 -0.0640000030398 1178.0
0.864000022411 0.280999988317 -0.0640000030398 1166.0
0.85799998045 0.273999989033 -0.0630000010133 1156.0
0.864000022411 0.270000010729 -0.0630000010133 1153.0
0.870000004768 0.266999989748 -0.0640000030398 1165.0
0.864000022411 0.259000003338 -0.0630000010133 1139.0
0.85799998045 0.252000004053 -0.0630000010133 1150.0
0.864000022411 0.247999995947 -0.0630000010133 1107.0
0.869000017643 0.244000002742 -0.0630000010133 1068.0
0.865000009537 0.238000005484 -0.0630000010133 1030.0
0.869000017643 0.232999995351 -0.0630000010133 988.0
0.865000009537 0.226999998093 -0.0619999989867 951.0
0.866999983788 0.222000002861 -0.0630000010133 921.0
0.861999988556 0.215000003576 -0.0619999989867 865.0
0.861999988556 0.209999993443 -0.0619999989867 821.0
0.864000022411 0.204999998212 -0.0619999989867 767.0
0.853999972343 0.197999998927 -0.0610000006855 724.0
0.861000001431 0.194000005722 -0.0619999989867 676.0
0.853999972343 0.187000006437 -0.0610000006855 610.0
0.851000010967 0.180999994278 -0.0610000006855 553.0
0.839999973774 0.173999994993 -0.0599999986589 511.0
0.832000017166 0.166999995708 -0.0590000003576 458.0
0.828999996185 0.162000000477 -0.0590000003576 415.0
0.819999992847 0.155000001192 -0.0579999983311 363.0
0.79699999094 0.145999997854 -0.0570000000298 311.0
0.773999989033 0.136999994516 -0.054999999702 269.0
0.759999990463 0.129999995232 -0.0540000014007 220.0
0.707000017166 0.116999998689 -0.0500000007451 184.0
0.612999975681 0.097999997437 -0.0430000014603 136.0
0.512000024319 0.0790000036359 -0.0359999984503 108.0
0.402999997139 0.0599999986589 -0.0289999991655 101.0
0.196999996901 0.0289999991655 -0.0140000004321 82.0
0.0489999987185 0.00800000037998 -0.00400000018999 67.0
4.91699981689 0.634000003338 -0.344000011683 61.0
4.8860001564 0.601000010967 -0.340999990702 57.0
4.6779999733 0.547999978065 -0.326000005007 57.0
4.45499992371 0.495999991894 -0.310000002384 55.0
4.85599994659 0.512000024319 -0.337999999523 52.0
4.80999994278 0.423000007868 -0.333999991417 55.0
4.79099988937 0.31099998951 -0.331999987364 53.0
4.70499992371 0.277999997139 -0.326000005007 51.0
4.70900011063 0.250999987125 -0.326000005007 53.0
4.71000003815 0.224000006914 -0.324999988079 58.0
4.63899993896 0.193000003695 -0.319999992847 65.0
4.67600011826 0.167999997735 -0.323000013828 61.0
4.70399999619 0.142000004649 -0.324999988079 59.0
4.65899991989 0.11400000006 -0.321000009775 64.0
4.70100021362 0.0879999995232 -0.324000000954 61.0
4.70200014114 0.0610000006855 -0.324000000954 65.0
4.78100013733 0.0340000018477 -0.328999996185 60.0
4.7389998436 0.00600000005215 -0.326000005007 64.0
4.8140001297 -0.019999999553 -0.331000000238 61.0
4.74300003052 -0.0469999983907 -0.326000005007 61.0
4.82299995422 -0.0759999975562 -0.331000000238 60.0
4.78599977493 -0.103000000119 -0.328999996185 58.0
4.77500009537 -0.129999995232 -0.32800000906 55.0
4.78599977493 -0.158000007272 -0.328999996185 54.0
4.84000015259 -0.187999993563 -0.331999987364 56.0
4.88800001144 -0.217999994755 -0.335000008345 58.0
4.88800001144 -0.246000006795 -0.335000008345 54.0
4.88000011444 -0.273999989033 -0.335000008345 54.0
0.973999977112 -0.119999997318 -0.0670000016689 184.0
0.888999998569 -0.11400000006 -0.0610000006855 1375.0
0.889999985695 -0.119999997318 -0.0610000006855 1850.0
0.89099997282 -0.125 -0.0610000006855 1897.0
0.888999998569 -0.129999995232 -0.0610000006855 1950.0
0.884999990463 -0.135000005364 -0.0610000006855 1933.0
0.878000020981 -0.138999998569 -0.0610000006855 1983.0
0.884999990463 -0.144999995828 -0.0610000006855 1929.0
0.884999990463 -0.15000000596 -0.0610000006855 1845.0
0.887000024319 -0.156000003219 -0.0610000006855 1962.0
0.882000029087 -0.159999996424 -0.0610000006855 2015.0
0.879999995232 -0.165000006557 -0.0610000006855 1987.0
0.876999974251 -0.170000001788 -0.0610000006855 1988.0
0.878000020981 -0.17499999702 -0.0610000006855 1934.0
0.878000020981 -0.180999994278 -0.0610000006855 1934.0
0.878000020981 -0.186000004411 -0.0610000006855 1925.0
0.882000029087 -0.192000001669 -0.0610000006855 1940.0
0.876999974251 -0.195999994874 -0.0610000006855 1887.0
0.873000025749 -0.201000005007 -0.0610000006855 1903.0
0.873000025749 -0.206000000238 -0.0610000006855 1981.0
0.870000004768 -0.21099999547 -0.0599999986589 1961.0
0.867999970913 -0.216000005603 -0.0599999986589 1905.0
0.873000025749 -0.222000002861 -0.0610000006855 1964.0
0.870000004768 -0.226999998093 -0.0610000006855 1973.0
0.869000017643 -0.231999993324 -0.0610000006855 1905.0
0.865000009537 -0.237000003457 -0.0599999986589 1947.0
0.864000022411 -0.241999998689 -0.0599999986589 1951.0
0.864000022411 -0.24699999392 -0.0599999986589 2135.0
0.862999975681 -0.252000004053 -0.0599999986589 2091.0
0.861000001431 -0.256999999285 -0.0599999986589 2023.0
0.860000014305 -0.261999994516 -0.0599999986589 2060.0
0.861999988556 -0.268999993801 -0.0610000006855 2067.0
0.862999975681 -0.273999989033 -0.0610000006855 2077.0
0.860000014305 -0.279000014067 -0.0610000006855 2031.0
0.855000019073 -0.282999992371 -0.0599999986589 2044.0
0.856999993324 -0.28900000453 -0.0610000006855 2084.0
0.85900002718 -0.296000003815 -0.0610000006855 2105.0
0.851999998093 -0.298999994993 -0.0599999986589 2031.0
0.853999972343 -0.305000007153 -0.0610000006855 2043.0
0.856999993324 -0.312000006437 -0.0610000006855 2068.0
0.847999989986 -0.314999997616 -0.0599999986589 2020.0
0.853999972343 -0.323000013828 -0.0610000006855 2019.0
0.848999977112 -0.326999992132 -0.0610000006855 1979.0
0.851000010967 -0.333000004292 -0.0610000006855 2064.0
0.84399998188 -0.33599999547 -0.0599999986589 2087.0
0.846000015736 -0.342999994755 -0.0610000006855 2034.0
0.847999989986 -0.34999999404 -0.0610000006855 2022.0
0.846000015736 -0.354999989271 -0.0610000006855 1996.0
0.842999994755 -0.360000014305 -0.0610000006855 1977.0
0.842000007629 -0.365000009537 -0.0610000006855 2001.0
0.837000012398 -0.368999987841 -0.0610000006855 1967.0
0.839999973774 -0.375999987125 -0.0610000006855 2008.0
0.836000025272 -0.381000012159 -0.0610000006855 2150.0
0.836000025272 -0.386999994516 -0.0610000006855 2143.0
0.837000012398 -0.393999993801 -0.0610000006855 2090.0
0.836000025272 -0.398999989033 -0.0610000006855 2121.0
0.829999983311 -0.402000010014 -0.0610000006855 2087.0
0.833000004292 -0.411000013351 -0.0610000006855 2059.0
0.833999991417 -0.418000012636 -0.0610000006855 2005.0
0.833999991417 -0.423999994993 -0.0610000006855 2111.0
0.833999991417 -0.430000007153 -0.0619999989867 2018.0
0.832000017166 -0.43599998951 -0.0619999989867 1989.0
0.82800000906 -0.439999997616 -0.0619999989867 2029.0
0.828999996185 -0.446999996901 -0.0619999989867 2053.0
0.827000021935 -0.45300000906 -0.0619999989867 2039.0
0.823000013828 -0.456999987364 -0.0619999989867 2018.0
1.3220000267 0.759000003338 -0.115000002086 321.0
1.19599997997 0.675999999046 -0.104000002146 305.0
1.04400002956 0.582000017166 -0.0900000035763 271.0
1.03499996662 0.568000018597 -0.0890000015497 311.0
1.00999999046 0.54699999094 -0.0869999974966 345.0
0.92199999094 0.490999996662 -0.0790000036359 397.0
0.93599998951 0.49200001359 -0.0799999982119 429.0
0.927999973297 0.479999989271 -0.0790000036359 498.0
0.939999997616 0.479000002146 -0.0799999982119 545.0
0.911000013351 0.456999987364 -0.0769999995828 626.0
0.910000026226 0.449999988079 -0.0769999995828 672.0
0.89200001955 0.433999985456 -0.0750000029802 712.0
0.898000001907 0.430000007153 -0.0750000029802 741.0
0.884000003338 0.416999995708 -0.0740000009537 814.0
0.880999982357 0.409000009298 -0.0740000009537 845.0
0.879000008106 0.402000010014 -0.0729999989271 879.0
0.880999982357 0.395999997854 -0.0729999989271 933.0
0.876999974251 0.388000011444 -0.0729999989271 972.0
0.870000004768 0.379000008106 -0.0719999969006 988.0
0.866999983788 0.370999991894 -0.0710000023246 1015.0
0.873000025749 0.36700001359 -0.0719999969006 1053.0
0.870000004768 0.360000014305 -0.0710000023246 1087.0
0.869000017643 0.354000002146 -0.0710000023246 1106.0
0.867999970913 0.347000002861 -0.0710000023246 1132.0
0.865000009537 0.340000003576 -0.070000000298 1151.0
0.866999983788 0.335000008345 -0.070000000298 1197.0
0.853999972343 0.324000000954 -0.0689999982715 1209.0
0.866999983788 0.323000013828 -0.070000000298 1216.0
