ply
format ascii 1.0
element vertex 952
property float x
property float y
property float z
property float intensity
end_header
3.91899991035 1.23699998856 0.981999993324 114.0
4.0 1.23599994183 1.00100004673 114.0
3.93099999428 1.18799996376 0.981999993324 106.0
3.90899991989 1.15600001812 0.976000010967 69.0
0.994000017643 -0.105999998748 0.239999994636 89.0
0.991999983788 -0.111000001431 0.239999994636 103.0
1.0 -0.118000000715 0.241999998689 106.0
1.00699996948 -0.125 0.244000002742 102.0
1.00100004673 -0.130999997258 0.243000000715 104.0
1.02699995041 -0.140000000596 0.248999997973 106.0
0.992999970913 -0.141000002623 0.240999996662 99.0
0.957000017166 -0.142000004649 0.231999993324 108.0
1.01199996471 -0.156000003219 0.246000006795 105.0
0.97000002861 -0.156000003219 0.236000001431 109.0
0.976000010967 -0.163000002503 0.238000005484 112.0
0.975000023842 -0.167999997735 0.238000005484 108.0
0.963999986649 -0.172000005841 0.234999999404 103.0
0.975000023842 -0.180000007153 0.238000005484 108.0
0.95300000906 -0.181999996305 0.232999995351 103.0
0.962999999523 -0.189999997616 0.236000001431 104.0
0.995999991894 -0.202000007033 0.244000002742 97.0
0.972000002861 -0.203999996185 0.238999992609 105.0
0.973999977112 -0.209999993443 0.238999992609 109.0
0.981999993324 -0.217999994755 0.241999998689 105.0
0.964999973774 -0.219999998808 0.238000005484 106.0
0.939999997616 -0.219999998808 0.231999993324 102.0
0.986000001431 -0.237000003457 0.244000002742 103.0
0.964999973774 -0.238000005484 0.238999992609 104.0
1.01600003242 -0.25799998641 0.252000004053 99.0
0.950999975204 -0.24699999392 0.236000001431 108.0
0.955999970436 -0.254000008106 0.237000003457 107.0
0.929000020027 -0.252999991179 0.231000006199 101.0
0.958000004292 -0.266999989748 0.238999992609 99.0
0.962999999523 -0.27500000596 0.240999996662 104.0
0.940999984741 -0.273999989033 0.234999999404 103.0
0.938000023365 -0.280000001192 0.234999999404 105.0
0.980000019073 -0.298999994993 0.246000006795 106.0
0.957000017166 -0.298000007868 0.240999996662 105.0
0.926999986172 -0.294999986887 0.232999995351 106.0
0.950999975204 -0.308999985456 0.239999994636 108.0
0.973999977112 -0.323000013828 0.246000006795 103.0
0.927999973297 -0.31400001049 0.234999999404 99.0
0.949000000954 -0.326999992132 0.240999996662 102.0
0.967000007629 -0.340000003576 0.246000006795 93.0
0.981999993324 -0.351999998093 0.25 99.0
0.961000025272 -0.351000010967 0.245000004768 100.0
0.981999993324 -0.365999996662 0.250999987125 99.0
0.992999970913 -0.377000004053 0.254999995232 92.0
0.907999992371 -0.351000010967 0.232999995351 96.0
0.958000004292 -0.377000004053 0.24699999392 96.0
0.957000017166 -0.38299998641 0.24699999392 94.0
0.941999971867 -0.384000003338 0.244000002742 89.0
0.913999974728 -0.379000008106 0.237000003457 83.0
0.919000029564 -0.388000011444 0.238999992609 93.0
0.912999987602 -0.391999989748 0.238000005484 89.0
0.902999997139 -0.393999993801 0.236000001431 90.0
0.930000007153 -0.412999987602 0.244000002742 87.0
0.96899998188 -0.437999993563 0.254999995232 93.0
0.95300000906 -0.437999993563 0.250999987125 81.0
0.90499997139 -0.42199999094 0.238999992609 92.0
0.976000010967 -0.462999999523 0.25799998641 87.0
0.925999999046 -0.446000009775 0.246000006795 83.0
0.97000002861 -0.47499999404 0.25799998641 90.0
0.907000005245 -0.451000005007 0.241999998689 84.0
0.917999982834 -0.463999986649 0.246000006795 92.0
0.89200001955 -0.458000004292 0.238999992609 88.0
0.90499997139 -0.472000002861 0.244000002742 88.0
0.934000015259 -0.495000004768 0.252000004053 99.0
0.879999995232 -0.472999989986 0.238000005484 84.0
0.899999976158 -0.490999996662 0.244000002742 95.0
0.919000029564 -0.509000003338 0.250999987125 84.0
3.15700006485 1.65799999237 0.819000005722 98.0
3.16599988937 1.63800001144 0.819000005722 81.0
3.45000004768 1.75699996948 0.889999985695 100.0
3.52600002289 1.76900005341 0.907999992371 115.0
3.50900006294 1.73300004005 0.901000022888 112.0
3.5150001049 1.70799994469 0.899999976158 98.0
3.76999998093 1.77499997616 0.961000025272 74.0
3.81299996376 1.76600003242 0.97000002861 101.0
3.79800009727 1.73000001907 0.962999999523 128.0
3.85400009155 1.72699999809 0.976000010967 125.0
3.87599992752 1.70799994469 0.978999972343 122.0
3.91100001335 1.69500005245 0.985000014305 123.0
3.91300010681 1.66799998283 0.98400002718 125.0
3.91700005531 1.64100003242 0.98299998045 121.0
3.88000011444 1.59700000286 0.972000002861 119.0
3.91400003433 1.58299994469 0.977999985218 115.0
3.89400005341 1.54700005054 0.971000015736 121.0
3.90400004387 1.52400004864 0.972000002861 119.0
3.86299991608 1.48099994659 0.959999978542 120.0
3.90599989891 1.47000002861 0.967999994755 120.0
3.93400001526 1.45299994946 0.973999977112 112.0
3.90799999237 1.41600000858 0.964999973774 121.0
3.96900010109 1.41100001335 0.978999972343 119.0
3.97300004959 1.38600003719 0.977999985218 119.0
3.97000002861 1.35800004005 0.976000010967 121.0
3.95300006866 1.32500004768 0.97000002861 121.0
3.93899989128 1.29400002956 0.964999973774 116.0
3.98799991608 1.28299999237 0.975000023842 121.0
3.9240000248 1.23699998856 0.958000004292 122.0
3.98300004005 1.22899997234 0.971000015736 114.0
3.94199991226 1.19000005722 0.959999978542 106.0
3.85599994659 1.13900005817 0.936999976635 68.0
0.963999986649 -0.101999998093 0.226999998093 93.0
1.0039999485 -0.112999998033 0.237000003457 99.0
1.03999996185 -0.123000003397 0.245000004768 98.0
1.00600004196 -0.125 0.237000003457 107.0
1.01699995995 -0.133000001311 0.239999994636 103.0
0.98299998045 -0.134000003338 0.231999993324 100.0
0.987999975681 -0.140000000596 0.233999997377 107.0
0.975000023842 -0.143999993801 0.231000006199 105.0
0.978999972343 -0.150999993086 0.231999993324 108.0
1.0 -0.159999996424 0.237000003457 110.0
0.986000001431 -0.16400000453 0.233999997377 108.0
0.966000020504 -0.165999993682 0.230000004172 113.0
0.992999970913 -0.177000001073 0.236000001431 107.0
1.00100004673 -0.185000002384 0.238000005484 104.0
0.973999977112 -0.186000004411 0.231999993324 106.0
0.950999975204 -0.187000006437 0.226999998093 103.0
0.976000010967 -0.197999998927 0.232999995351 108.0
1.02400004864 -0.21400000155 0.245000004768 102.0
0.975000023842 -0.209999993443 0.233999997377 107.0
0.992999970913 -0.219999998808 0.238000005484 109.0
1.0 -0.228000000119 0.239999994636 112.0
0.957000017166 -0.224000006914 0.230000004172 109.0
1.00300002098 -0.240999996662 0.241999998689 102.0
0.967000007629 -0.238000005484 0.232999995351 104.0
0.972999989986 -0.246000006795 0.234999999404 103.0
0.981000006199 -0.254000008106 0.237000003457 105.0
0.96899998188 -0.256999999285 0.234999999404 107.0
0.958999991417 -0.261000007391 0.231999993324 107.0
0.981999993324 -0.273000001907 0.238999992609 106.0
1.0 -0.284999996424 0.243000000715 101.0
0.948000013828 -0.275999993086 0.231000006199 104.0
0.98400002718 -0.293000012636 0.239999994636 102.0
0.957000017166 -0.291000008583 0.233999997377 106.0
0.976999998093 -0.303999990225 0.238999992609 109.0
0.945999979973 -0.300000011921 0.231999993324 101.0
0.940999984741 -0.305000007153 0.231000006199 102.0
0.948000013828 -0.31400001049 0.233999997377 107.0
0.920000016689 -0.31099998951 0.226999998093 101.0
0.916999995708 -0.316000014544 0.226999998093 105.0
0.963999986649 -0.338999986649 0.238999992609 106.0
0.941999971867 -0.337000012398 0.233999997377 96.0
0.949000000954 -0.345999985933 0.236000001431 97.0
0.97000002861 -0.361000001431 0.241999998689 107.0
0.978999972343 -0.370999991894 0.245000004768 100.0
0.927999973297 -0.358000010252 0.231999993324 94.0
0.961000025272 -0.377999991179 0.240999996662 96.0
0.958000004292 -0.38299998641 0.240999996662 92.0
0.902999997139 -0.36700001359 0.226999998093 91.0
0.971000015736 -0.402000010014 0.245000004768 91.0
0.915000021458 -0.386000007391 0.231999993324 86.0
0.92199999094 -0.395000010729 0.233999997377 88.0
0.882000029087 -0.384000003338 0.224000006914 82.0
0.925000011921 -0.409999996424 0.236000001431 85.0
0.944999992847 -0.425999999046 0.241999998689 90.0
0.929000020027 -0.425999999046 0.238000005484 86.0
0.954999983311 -0.444999992847 0.246000006795 86.0
0.936999976635 -0.444000005722 0.241999998689 93.0
0.939999997616 -0.451999992132 0.243000000715 90.0
0.972000002861 -0.476000010967 0.252000004053 81.0
0.898000001907 -0.446000009775 0.232999995351 82.0
0.931999981403 -0.469999998808 0.243000000715 86.0
0.971000015736 -0.497999995947 0.254000008106 92.0
0.915000021458 -0.476000010967 0.239999994636 85.0
0.966000020504 -0.510999977589 0.254000008106 81.0
0.92199999094 -0.495000004768 0.243000000715 89.0
0.992999970913 -0.556999981403 0.264999985695 87.0
0.84500002861 -0.481000006199 0.225999996066 89.0
3.09200000763 1.64699995518 0.782999992371 93.0
3.11800003052 1.63600003719 0.787000000477 109.0
3.14800000191 1.62699997425 0.792999982834 85.0
3.52099990845 1.79100000858 0.884999990463 114.0
3.51600003242 1.76100003719 0.880999982357 127.0
3.49699997902 1.72399997711 0.874000012875 123.0
3.52800011635 1.7120000124 0.879999995232 95.0
3.79399991035 1.78299999237 0.940999984741 78.0
3.89499998093 1.80099999905 0.963999986649 112.0
3.84599995613 1.75 0.949999988079 126.0
3.89499998093 1.74300003052 0.959999978542 131.0
3.88599991798 1.71099996567 0.954999983311 118.0
3.83800005913 1.66100001335 0.940999984741 124.0
3.86999988556 1.64699995518 0.947000026703 119.0
3.89800000191 1.62999999523 0.952000021935 114.0
3.95000004768 1.62399995327 0.962999999523 119.0
3.90700006485 1.57799994946 0.949999988079 122.0
3.88800001144 1.54299998283 0.944000005722 116.0
3.93099999428 1.53199994564 0.952000021935 125.0
3.91700005531 1.49899995327 0.947000026703 121.0
3.90199995041 1.4659999609 0.941999971867 115.0
3.96300005913 1.4620000124 0.954999983311 119.0
3.9470000267 1.42900002003 0.949000000954 118.0
3.9279999733 1.39499998093 0.943000018597 123.0
3.96499991417 1.38100004196 0.949999988079 118.0
3.98399996758 1.36000001431 0.95300000906 112.0
3.95000004768 1.3220000267 0.944000005722 113.0
3.96499991417 1.30099999905 0.945999979973 120.0
3.9509999752 1.26999998093 0.940999984741 115.0
3.93499994278 1.23800003529 0.935000002384 107.0
3.93499994278 1.2120000124 0.934000015259 113.0
3.89800000191 1.17499995232 0.924000024796 101.0
0.96899998188 -0.103000000119 0.222000002861 87.0
0.976999998093 -0.109999999404 0.224000006914 103.0
0.987999975681 -0.116999998689 0.226999998093 107.0
0.987999975681 -0.123000003397 0.226999998093 104.0
1.01100003719 -0.131999999285 0.232999995351 102.0
0.986000001431 -0.134000003338 0.226999998093 105.0
1.02799999714 -0.145999997854 0.237000003457 107.0
0.962000012398 -0.142000004649 0.222000002861 106.0
1.00100004673 -0.153999999166 0.231000006199 108.0
0.994000017643 -0.158999994397 0.230000004172 111.0
1.00199997425 -0.166999995708 0.231999993324 113.0
0.992999970913 -0.171000003815 0.230000004172 113.0
0.986000001431 -0.175999999046 0.229000002146 110.0
0.96899998188 -0.179000005126 0.22499999404 112.0
0.986999988556 -0.187999993563 0.229000002146 108.0
0.959999978542 -0.188999995589 0.223000004888 109.0
0.990000009537 -0.201000005007 0.230000004172 115.0
0.949000000954 -0.197999998927 0.221000000834 108.0
0.986000001431 -0.211999997497 0.230000004172 110.0
0.978999972343 -0.216999992728 0.229000002146 113.0
0.963999986649 -0.218999996781 0.22499999404 109.0
0.986999988556 -0.231000006199 0.231000006199 106.0
0.976999998093 -0.234999999404 0.229000002146 107.0
0.972000002861 -0.238999992609 0.228000000119 107.0
0.998000025749 -0.252000004053 0.234999999404 108.0
1.00300002098 -0.259999990463 0.236000001431 108.0
0.976000010967 -0.259000003338 0.230000004172 104.0
0.92199999094 -0.25 0.217999994755 108.0
0.962999999523 -0.268000006676 0.228000000119 107.0
0.940999984741 -0.268000006676 0.223000004888 109.0
0.947000026703 -0.275999993086 0.22499999404 109.0
0.973999977112 -0.289999991655 0.231999993324 109.0
0.959999978542 -0.291999995708 0.229000002146 106.0
0.958999991417 -0.298000007868 0.229000002146 106.0
0.93900001049 -0.298000007868 0.224000006914 105.0
0.935000002384 -0.303000003099 0.224000006914 102.0
0.916000008583 -0.303000003099 0.219999998808 106.0
0.964999973774 -0.326000005007 0.231999993324 101.0
0.981999993324 -0.337999999523 0.236000001431 106.0
0.967999994755 -0.340000003576 0.232999995351 106.0
0.978999972343 -0.34999999404 0.237000003457 100.0
0.941999971867 -0.344000011683 0.228000000119 98.0
0.949000000954 -0.352999985218 0.230000004172 101.0
0.959999978542 -0.363000005484 0.233999997377 97.0
0.963999986649 -0.372000008821 0.234999999404 91.0
0.943000018597 -0.370000004768 0.230000004172 89.0
0.97000002861 -0.388000011444 0.238000005484 97.0
0.978999972343 -0.398000001907 0.239999994636 103.0
0.945999979973 -0.391999989748 0.232999995351 82.0
0.947000026703 -0.398999989033 0.233999997377 101.0
0.93900001049 -0.402000010014 0.231999993324 87.0
0.962999999523 -0.418999999762 0.238999992609 90.0
0.93900001049 -0.416000008583 0.232999995351 90.0
0.98299998045 -0.442999988794 0.245000004768 83.0
0.98400002718 -0.451000005007 0.246000006795 93.0
0.913999974728 -0.425000011921 0.229000002146 86.0
0.925000011921 -0.437999993563 0.231999993324 89.0
0.962999999523 -0.462999999523 0.243000000715 87.0
0.947000026703 -0.462999999523 0.238999992609 90.0
0.919000029564 -0.456000000238 0.232999995351 82.0
0.958000004292 -0.483000010252 0.243000000715 95.0
0.916000008583 -0.469000011683 0.232999995351 86.0
0.910000026226 -0.472999989986 0.231999993324 81.0
0.953999996185 -0.503000020981 0.244000002742 84.0
0.912999987602 -0.488999992609 0.234999999404 82.0
1.01499998569 -0.552999973297 0.261999994516 85.0
0.953999996185 -0.527000010014 0.24699999392 93.0
1.02499997616 -0.574999988079 0.266000002623 80.0
0.875999987125 -0.497999995947 0.228000000119 82.0
3.117000103 1.65799999237 0.768000006676 104.0
3.15599989891 1.65299999714 0.774999976158 101.0
3.21900010109 1.66100001335 0.788999974728 97.0
3.43400001526 1.74399995804 0.838999986649 97.0
3.5490000248 1.77499997616 0.865000009537 113.0
3.58200001717 1.76400005817 0.870999991894 115.0
3.52999997139 1.71099996567 0.856000006199 91.0
3.92700004578 1.84300005436 0.948000013828 80.0
3.86599993706 1.78600001335 0.930999994278 114.0
3.86299991608 1.75499999523 0.927999973297 131.0
3.92199993134 1.75300002098 0.939999997616 124.0
3.875 1.70299994946 0.926999986172 123.0
3.86100006104 1.66900002956 0.92199999094 125.0
3.90199995041 1.65799999237 0.929000020027 119.0
3.87199997902 1.61699998379 0.920000016689 122.0
3.88400006294 1.59399998188 0.921000003815 118.0
3.95499992371 1.59500002861 0.93599998951 123.0
3.8900001049 1.54100000858 0.919000029564 117.0
3.92300009727 1.52699995041 0.925000011921 115.0
3.87199997902 1.48000001907 0.911000013351 121.0
3.89499998093 1.4620000124 0.915000021458 115.0
3.96199989319 1.45899999142 0.929000020027 122.0
3.90700006485 1.41199994087 0.913999974728 116.0
3.93300008774 1.39499998093 0.919000029564 124.0
3.9509999752 1.37399995327 0.921000003815 116.0
3.9430000782 1.34399998188 0.917999982834 116.0
3.90199995041 1.30400002003 0.907000005245 117.0
3.9470000267 1.29299998283 0.916000008583 117.0
3.94899988174 1.26699995995 0.915000021458 119.0
3.89599990845 1.22500002384 0.901000022888 114.0
3.97600007057 1.22300004959 0.917999982834 111.0
3.95700001717 1.19099998474 0.912999987602 101.0
3.9240000248 1.15600001812 0.903999984264 61.0
0.976000010967 -0.104000002146 0.217999994755 94.0
1.00499999523 -0.112999998033 0.22499999404 103.0
0.994000017643 -0.116999998689 0.222000002861 101.0
0.986000001431 -0.122000001371 0.219999998808 107.0
0.992999970913 -0.128999993205 0.222000002861 103.0
0.962999999523 -0.130999997258 0.216000005603 101.0
0.958000004292 -0.136000007391 0.215000003576 107.0
0.990999996662 -0.146999999881 0.222000002861 110.0
1.01900005341 -0.157000005245 0.229000002146 104.0
0.987999975681 -0.158000007272 0.222000002861 106.0
0.981000006199 -0.163000002503 0.221000000834 108.0
0.998000025749 -0.172000005841 0.22499999404 108.0
0.962000012398 -0.171000003815 0.216999992728 115.0
0.975000023842 -0.180000007153 0.219999998808 106.0
0.987999975681 -0.187999993563 0.223000004888 109.0
0.962999999523 -0.188999995589 0.217999994755 108.0
0.950999975204 -0.192000001669 0.215000003576 108.0
0.991999983788 -0.207000002265 0.22499999404 109.0
0.98299998045 -0.21099999547 0.223000004888 109.0
0.967999994755 -0.21400000155 0.219999998808 113.0
0.976999998093 -0.222000002861 0.222000002861 108.0
1.01199996471 -0.237000003457 0.231000006199 110.0
0.981000006199 -0.234999999404 0.224000006914 110.0
0.991999983788 -0.244000002742 0.226999998093 108.0
1.00199997425 -0.252999991179 0.229000002146 110.0
0.994000017643 -0.256999999285 0.228000000119 110.0
1.01100003719 -0.268000006676 0.231999993324 109.0
0.955999970436 -0.259999990463 0.219999998808 107.0
0.985000014305 -0.273999989033 0.226999998093 117.0
0.972000002861 -0.275999993086 0.224000006914 106.0
0.971000015736 -0.282000005245 0.224000006914 104.0
0.958999991417 -0.284999996424 0.222000002861 102.0
0.950999975204 -0.28900000453 0.219999998808 105.0
0.973999977112 -0.301999986172 0.225999996066 111.0
0.95300000906 -0.301999986172 0.222000002861 105.0
0.936999976635 -0.303000003099 0.217999994755 111.0
0.972999989986 -0.321999996901 0.226999998093 101.0
0.96899998188 -0.326999992132 0.226999998093 95.0
0.916000008583 -0.314999997616 0.215000003576 102.0
0.95300000906 -0.333999991417 0.224000006914 103.0
0.981000006199 -0.351000010967 0.231000006199 98.0
0.996999979019 -0.363000005484 0.234999999404 102.0
0.944999992847 -0.351000010967 0.223000004888 101.0
0.936999976635 -0.354000002146 0.222000002861 96.0
0.888999998569 -0.342000007629 0.21099999547 90.0
0.962000012398 -0.377000004053 0.229000002146 104.0
0.962999999523 -0.384999990463 0.230000004172 99.0
0.933000028133 -0.379000008106 0.223000004888 99.0
0.930999994278 -0.384999990463 0.223000004888 97.0
0.963999986649 -0.405999988317 0.231000006199 98.0
0.945999979973 -0.405000001192 0.228000000119 94.0
0.919000029564 -0.40000000596 0.222000002861 90.0
0.943000018597 -0.416999995708 0.228000000119 87.0
0.941999971867 -0.423999994993 0.228000000119 91.0
0.961000025272 -0.439999997616 0.233999997377 90.0
0.879999995232 -0.407999992371 0.21400000155 90.0
0.938000023365 -0.442999988794 0.229000002146 89.0
0.916000008583 -0.439999997616 0.224000006914 87.0
0.908999979496 -0.442999988794 0.223000004888 85.0
0.947000026703 -0.469000011683 0.232999995351 95.0
0.944000005722 -0.47499999404 0.232999995351 93.0
0.939999997616 -0.481000006199 0.232999995351 81.0
0.920000016689 -0.476999998093 0.229000002146 90.0
0.949000000954 -0.5 0.237000003457 83.0
0.990999996662 -0.53100001812 0.247999995947 87.0
0.927999973297 -0.504000008106 0.232999995351 84.0
0.93599998951 -0.51599997282 0.236000001431 90.0
0.93599998951 -0.523999989033 0.236000001431 85.0
0.926999986172 -0.527000010014 0.234999999404 85.0
3.04800009727 1.61899995804 0.730000019073 100.0
3.15700006485 1.65100002289 0.754000008106 96.0
3.23300004005 1.66499996185 0.769999980927 85.0
3.45300006866 1.75199997425 0.820999979973 103.0
3.50999999046 1.75300002098 0.832000017166 118.0
3.52399992943 1.73300004005 0.833000004292 111.0
3.56699991226 1.72699999809 0.841000020504 82.0
3.70000004768 1.76300001144 0.870999991894 77.0
3.80500006676 1.7840000391 0.893000006676 77.0
3.88499999046 1.79200005531 0.910000026226 121.0
3.89800000191 1.76900005341 0.911000013351 127.0
3.86599993706 1.72500002384 0.901000022888 123.0
3.84699988365 1.68900001049 0.894999980927 112.0
3.875 1.67299997807 0.898999989033 115.0
3.88400006294 1.64800000191 0.898999989033 118.0
3.88400006294 1.62000000477 0.897000014782 120.0
3.8900001049 1.59500002861 0.897000014782 117.0
3.92100000381 1.57899999619 0.902000010014 99.0
3.92100000381 1.55200004578 0.901000022888 99.0
3.89199995995 1.51300001144 0.89200001955 94.0
3.90700006485 1.49100005627 0.893999993801 98.0
3.94400000572 1.47800004482 0.901000022888 108.0
3.94000005722 1.44900000095 0.898000001907 114.0
3.95600008965 1.4279999733 0.899999976158 114.0
3.95600008965 1.40100002289 0.898000001907 125.0
3.91400003433 1.35899996758 0.887000024319 119.0
3.90499997139 1.33000004292 0.884000003338 119.0
3.91499996185 1.30700004101 0.884999990463 117.0
3.97699999809 1.30099999905 0.897000014782 116.0
3.97499990463 1.27400004864 0.896000027657 114.0
3.96099996567 1.24300003052 0.89099997282 117.0
3.92100000381 1.20500004292 0.880999982357 111.0
3.93799996376 1.18400001526 0.883000016212 98.0
1.01800000668 -0.108000002801 0.221000000834 92.0
1.04100000858 -0.116999998689 0.225999996066 100.0
0.971000015736 -0.11400000006 0.21099999547 106.0
1.03100001812 -0.12800000608 0.224000006914 109.0
1.00600004196 -0.130999997258 0.218999996781 112.0
1.01999998093 -0.138999998569 0.222000002861 105.0
0.989000022411 -0.140000000596 0.216000005603 107.0
1.01400005817 -0.15000000596 0.222000002861 106.0
1.00600004196 -0.155000001192 0.219999998808 107.0
0.998000025749 -0.158999994397 0.217999994755 114.0
0.980000019073 -0.162000000477 0.21400000155 110.0
0.966000020504 -0.165999993682 0.211999997497 110.0
0.971000015736 -0.172999992967 0.212999999523 111.0
0.971000015736 -0.179000005126 0.212999999523 104.0
0.995000004768 -0.188999995589 0.218999996781 102.0
0.992999970913 -0.194999992847 0.218999996781 116.0
0.989000022411 -0.20000000298 0.217999994755 111.0
0.981000006199 -0.204999998212 0.216000005603 116.0
0.990000009537 -0.212999999523 0.218999996781 111.0
0.972000002861 -0.215000003576 0.215000003576 108.0
0.963999986649 -0.218999996781 0.212999999523 110.0
0.978999972343 -0.228000000119 0.216999992728 113.0
1.0039999485 -0.240999996662 0.223000004888 110.0
0.954999983311 -0.234999999404 0.211999997497 112.0
0.972000002861 -0.245000004768 0.216000005603 100.0
0.975000023842 -0.252000004053 0.216999992728 102.0
0.93599998951 -0.247999995947 0.209000006318 107.0
0.981000006199 -0.266000002623 0.218999996781 110.0
0.98299998045 -0.273000001907 0.219999998808 106.0
0.961000025272 -0.273000001907 0.216000005603 113.0
0.972999989986 -0.282999992371 0.218999996781 106.0
0.964999973774 -0.287000000477 0.216999992728 111.0
0.972000002861 -0.294999986887 0.218999996781 108.0
0.972999989986 -0.301999986172 0.219999998808 110.0
0.947000026703 -0.300000011921 0.21400000155 108.0
0.940999984741 -0.303999990225 0.212999999523 106.0
0.962999999523 -0.317999988794 0.218999996781 107.0
0.949999988079 -0.319999992847 0.216000005603 104.0
0.967000007629 -0.331999987364 0.219999998808 105.0
0.940999984741 -0.328999996185 0.215000003576 99.0
0.919000029564 -0.32800000906 0.209999993443 102.0
0.978999972343 -0.356000006199 0.224000006914 102.0
0.95300000906 -0.352999985218 0.218999996781 98.0
0.952000021935 -0.358999997377 0.218999996781 102.0
0.938000023365 -0.361000001431 0.216000005603 93.0
0.975000023842 -0.381999999285 0.225999996066 100.0
0.96899998188 -0.386000007391 0.22499999404 98.0
0.976999998093 -0.395999997854 0.226999998093 100.0
0.92199999094 -0.379999995232 0.215000003576 93.0
0.912000000477 -0.38299998641 0.212999999523 97.0
0.955999970436 -0.409000009298 0.224000006914 92.0
0.97000002861 -0.42199999094 0.228000000119 89.0
0.933000028133 -0.412000000477 0.218999996781 89.0
0.917999982834 -0.412000000477 0.216000005603 84.0
0.935000002384 -0.426999986172 0.221000000834 97.0
0.963999986649 -0.448000013828 0.229000002146 92.0
0.944999992847 -0.446000009775 0.22499999404 82.0
0.955999970436 -0.458999991417 0.228000000119 86.0
0.947000026703 -0.46099999547 0.225999996066 98.0
0.930000007153 -0.460000008345 0.223000004888 89.0
0.955999970436 -0.479999989271 0.230000004172 91.0
0.98400002718 -0.501999974251 0.237000003457 91.0
0.949000000954 -0.49200001359 0.230000004172 86.0
0.971000015736 -0.510999977589 0.236000001431 93.0
0.936999976635 -0.500999987125 0.228000000119 86.0
0.902000010014 -0.488999992609 0.219999998808 85.0
0.920000016689 -0.505999982357 0.22499999404 82.0
0.929000020027 -0.519999980927 0.228000000119 85.0
0.85799998045 -0.486000001431 0.21099999547 83.0
3.10199999809 1.64499998093 0.722000002861 119.0
3.09299993515 1.61600005627 0.717999994755 98.0
3.53200006485 1.78900003433 0.814999997616 111.0
3.5490000248 1.76999998093 0.816999971867 123.0
3.49699997902 1.71700000763 0.802999973297 112.0
3.70199990273 1.76100003719 0.846000015736 77.0
3.79999995232 1.75 0.865000009537 116.0
3.92199993134 1.77699995041 0.889999985695 126.0
3.86999988556 1.72500002384 0.875999987125 124.0
3.90599989891 1.7120000124 0.882000029087 123.0
3.91199994087 1.68599998951 0.882000029087 122.0
3.88400006294 1.64600002766 0.874000012875 118.0
3.87199997902 1.61300003529 0.869000017643 106.0
4.07999992371 1.64100003242 0.912000000477 73.0
3.97900009155 1.48899996281 0.883000016212 86.0
3.93799996376 1.4470000267 0.871999979019 83.0
3.89199995995 1.40299999714 0.860000014305 110.0
3.94600009918 1.39600002766 0.870999991894 121.0
3.94600009918 1.36899995804 0.869000017643 122.0
3.93400001526 1.33800005913 0.865000009537 124.0
3.90499997139 1.30200004578 0.856999993324 116.0
3.9430000782 1.2879999876 0.864000022411 117.0
3.96199989319 1.26800000668 0.866999983788 103.0
3.88700008392 1.21899998188 0.850000023842 120.0
3.96799993515 1.21800005436 0.865999996662 119.0
3.95799994469 1.18900001049 0.862999975681 100.0
1.00300002098 -0.105999998748 0.211999997497 94.0
0.996999979019 -0.112000003457 0.21099999547 103.0
0.980000019073 -0.115000002086 0.207000002265 108.0
0.976000010967 -0.120999999344 0.206000000238 110.0
0.996999979019 -0.128999993205 0.21099999547 106.0
0.976000010967 -0.131999999285 0.207000002265 108.0
1.01199996471 -0.143000006676 0.215000003576 108.0
0.994000017643 -0.146999999881 0.21099999547 109.0
0.976000010967 -0.15000000596 0.207000002265 107.0
0.998000025749 -0.158999994397 0.211999997497 115.0
0.98400002718 -0.163000002503 0.209000006318 111.0
1.0 -0.172000005841 0.212999999523 111.0
0.976000010967 -0.172999992967 0.208000004292 111.0
0.980000019073 -0.180000007153 0.209000006318 111.0
0.972000002861 -0.185000002384 0.208000004292 113.0
0.964999973774 -0.188999995589 0.206000000238 106.0
0.967000007629 -0.194999992847 0.207000002265 110.0
0.949000000954 -0.197999998927 0.202999994159 118.0
0.978999972343 -0.209999993443 0.209999993443 118.0
1.02100002766 -0.225999996066 0.219999998808 107.0
0.962000012398 -0.217999994755 0.207000002265 116.0
0.966000020504 -0.22499999404 0.208000004292 112.0
0.976999998093 -0.233999997377 0.21099999547 118.0
0.981999993324 -0.240999996662 0.211999997497 117.0
0.976000010967 -0.246000006795 0.21099999547 112.0
0.973999977112 -0.252000004053 0.21099999547 107.0
0.964999973774 -0.254999995232 0.209000006318 112.0
0.916999995708 -0.247999995947 0.199000000954 111.0
0.947000026703 -0.261999994516 0.206000000238 113.0
0.959999978542 -0.272000014782 0.209000006318 109.0
0.986000001431 -0.286000013351 0.215000003576 111.0
0.980000019073 -0.291000008583 0.21400000155 111.0
0.975000023842 -0.296000003815 0.21400000155 105.0
0.944000005722 -0.291999995708 0.207000002265 110.0
0.972999989986 -0.307999998331 0.21400000155 109.0
0.994000017643 -0.321000009775 0.218999996781 103.0
0.940999984741 -0.310000002384 0.208000004292 108.0
0.96899998188 -0.326000005007 0.21400000155 100.0
0.964999973774 -0.331000000238 0.21400000155 104.0
0.949999988079 -0.331999987364 0.21099999547 96.0
0.971000015736 -0.345999985933 0.216000005603 98.0
0.943000018597 -0.342999994755 0.209999993443 102.0
0.958000004292 -0.354999989271 0.21400000155 106.0
0.922999978065 -0.347999989986 0.206000000238 104.0
0.962000012398 -0.370000004768 0.216000005603 93.0
0.93900001049 -0.36700001359 0.21099999547 101.0
0.976000010967 -0.388999998569 0.219999998808 99.0
0.958000004292 -0.388000011444 0.216000005603 101.0
0.955999970436 -0.393999993801 0.216000005603 93.0
0.955999970436 -0.400999993086 0.216999992728 88.0
0.898000001907 -0.38299998641 0.203999996185 91.0
0.967999994755 -0.419999986887 0.221000000834 94.0
0.947000026703 -0.418000012636 0.216000005603 93.0
0.95300000906 -0.428000003099 0.217999994755 97.0
0.943000018597 -0.430000007153 0.216999992728 87.0
0.999000012875 -0.463999986649 0.230000004172 89.0
0.939999997616 -0.442999988794 0.216999992728 94.0
0.910000026226 -0.435000002384 0.21099999547 96.0
0.929000020027 -0.451999992132 0.216000005603 84.0
0.940999984741 -0.465000003576 0.218999996781 85.0
0.896000027657 -0.449000000954 0.209000006318 85.0
0.898999989033 -0.458000004292 0.209999993443 85.0
0.898000001907 -0.465000003576 0.21099999547 90.0
0.953999996185 -0.501999974251 0.22499999404 82.0
0.907999992371 -0.485000014305 0.215000003576 85.0
0.910000026226 -0.493000000715 0.216000005603 85.0
0.920000016689 -0.505999982357 0.218999996781 94.0
0.962999999523 -0.537999987602 0.230000004172 91.0
3.08800005913 1.63600003719 0.697000026703 111.0
3.14299988747 1.63900005817 0.708000004292 88.0
3.5150001049 1.77799999714 0.787999987602 116.0
3.52999997139 1.75800001621 0.788999974728 121.0
3.55599999428 1.74399995804 0.792999982834 104.0
3.87700009346 1.81200003624 0.85799998045 87.0
3.82999992371 1.76199996471 0.846000015736 124.0
3.85700011253 1.7460000515 0.850000023842 123.0
3.86999988556 1.72300004959 0.851000010967 122.0
3.88400006294 1.70000004768 0.851999998093 115.0
3.8900001049 1.6740000248 0.851000010967 118.0
3.85100007057 1.62999999523 0.841000020504 99.0
3.88499999046 1.61600005627 0.847000002861 81.0
3.97099995613 1.42999994755 0.851999998093 94.0
3.92700004578 1.38699996471 0.842000007629 112.0
3.91000008583 1.35500001907 0.836000025272 122.0
3.90599989891 1.32700002193 0.833999991417 121.0
3.95199990273 1.31599998474 0.842999994755 120.0
3.95300006866 1.28999996185 0.841000020504 122.0
3.89299988747 1.24399995804 0.827000021935 118.0
3.94099998474 1.23399996758 0.836000025272 111.0
4.0110001564 1.22899997234 0.850000023842 116.0
3.96399998665 1.18900001049 0.838999986649 91.0
1.02199995518 -0.101999998093 0.209000006318 55.0
0.98400002718 -0.104000002146 0.202000007033 91.0
1.00499999523 -0.112000003457 0.206000000238 102.0
1.00600004196 -0.118000000715 0.206000000238 104.0
0.98400002718 -0.122000001371 0.202000007033 108.0
0.985000014305 -0.12800000608 0.202999994159 107.0
1.01100003719 -0.136999994516 0.208000004292 111.0
0.978999972343 -0.138999998569 0.202000007033 105.0
1.00999999046 -0.149000003934 0.208000004292 104.0
1.03299999237 -0.158999994397 0.212999999523 116.0
0.999000012875 -0.158999994397 0.206000000238 105.0
0.996999979019 -0.165000006557 0.206000000238 113.0
0.978999972343 -0.167999997735 0.202000007033 117.0
0.98299998045 -0.17499999702 0.203999996185 117.0
0.972999989986 -0.179000005126 0.202000007033 117.0
0.985000014305 -0.187000006437 0.203999996185 114.0
0.967000007629 -0.188999995589 0.201000005007 118.0
0.963999986649 -0.194999992847 0.20000000298 117.0
0.986000001431 -0.204999998212 0.204999998212 115.0
0.999000012875 -0.21400000155 0.208000004292 114.0
0.977999985218 -0.216000005603 0.203999996185 116.0
0.986000001431 -0.223000004888 0.206000000238 116.0
1.00899994373 -0.234999999404 0.21099999547 111.0
0.953999996185 -0.228000000119 0.20000000298 108.0
0.998000025749 -0.245000004768 0.209000006318 114.0
0.959999978542 -0.241999998689 0.202000007033 111.0
0.967000007629 -0.248999997973 0.202999994159 118.0
0.971000015736 -0.256000012159 0.203999996185 113.0
0.95300000906 -0.25799998641 0.201000005007 108.0
0.944000005722 -0.261000007391 0.199000000954 113.0
0.977999985218 -0.277000010014 0.207000002265 112.0
0.97000002861 -0.280999988317 0.206000000238 110.0
0.98400002718 -0.291999995708 0.209000006318 109.0
0.981999993324 -0.29699999094 0.209000006318 108.0
0.935000002384 -0.28900000453 0.199000000954 106.0
0.962999999523 -0.303999990225 0.206000000238 113.0
0.930999994278 -0.300000011921 0.199000000954 105.0
0.972999989986 -0.319999992847 0.208000004292 103.0
0.978999972343 -0.328999996185 0.209999993443 107.0
0.95300000906 -0.326999992132 0.204999998212 105.0
0.97000002861 -0.338999986649 0.209000006318 100.0
0.955999970436 -0.340999990702 0.207000002265 103.0
0.949000000954 -0.344000011683 0.204999998212 98.0
0.961000025272 -0.354999989271 0.208000004292 105.0
0.935000002384 -0.351999998093 0.202999994159 100.0
0.991999983788 -0.381000012159 0.216000005603 97.0
0.959999978542 -0.375 0.209000006318 101.0
0.973999977112 -0.388000011444 0.212999999523 98.0
0.903999984264 -0.365999996662 0.197999998927 101.0
0.962000012398 -0.395999997854 0.21099999547 97.0
0.961000025272 -0.402999997139 0.211999997497 91.0
0.963999986649 -0.411000013351 0.212999999523 92.0
0.958000004292 -0.414999991655 0.211999997497 95.0
0.947000026703 -0.416999995708 0.209999993443 91.0
0.958999991417 -0.430000007153 0.212999999523 90.0
0.927999973297 -0.423000007868 0.207000002265 94.0
0.93599998951 -0.432999998331 0.209000006318 88.0
0.901000022888 -0.423999994993 0.202000007033 96.0
0.924000024796 -0.442000001669 0.208000004292 85.0
0.916999995708 -0.444999992847 0.207000002265 96.0
0.887000024319 -0.437000006437 0.20000000298 91.0
0.888999998569 -0.446000009775 0.202000007033 89.0
0.907999992371 -0.462000012398 0.206000000238 83.0
0.933000028133 -0.483000010252 0.212999999523 79.0
0.93599998951 -0.490999996662 0.21400000155 78.0
0.887000024319 -0.472000002861 0.202999994159 93.0
0.981999993324 -0.532000005245 0.225999996066 87.0
0.967000007629 -0.532000005245 0.224000006914 83.0
1.00499999523 -0.56099998951 0.232999995351 80.0
0.875 -0.495000004768 0.202999994159 88.0
3.06599998474 1.62199997902 0.671000003815 105.0
3.1210000515 1.62600004673 0.681999981403 86.0
3.50699996948 1.7990000248 0.763999998569 84.0
3.45799994469 1.74699997902 0.751999974251 113.0
3.57999992371 1.78100001812 0.776000022888 122.0
3.54699993134 1.73699998856 0.76700001955 104.0
3.85800004005 1.80099999905 0.82800000906 84.0
3.867000103 1.77699995041 0.82800000906 134.0
3.88700008392 1.75699996948 0.830999970436 122.0
3.89199995995 1.73000001907 0.829999983311 128.0
3.88499999046 1.69900000095 0.827000021935 124.0
3.90100002289 1.67700004578 0.82800000906 102.0
4.02400016785 1.7009999752 0.852999985218 80.0
3.94499993324 1.39199995995 0.819999992847 85.0
3.93499994278 1.36099994183 0.815999984741 114.0
3.91599988937 1.32899999619 0.81099998951 124.0
3.90000009537 1.29700005054 0.806999981403 121.0
4.01200008392 1.30799996853 0.828999996185 123.0
3.87700009346 1.23800003529 0.799000024796 118.0
3.91499996185 1.22399997711 0.805999994278 118.0
3.96600008011 1.21399998665 0.814999997616 112.0
3.88499999046 1.16400003433 0.797999978065 89.0
1.00300002098 -0.105999998748 0.20000000298 101.0
1.01600003242 -0.11400000006 0.202000007033 104.0
0.995000004768 -0.116999998689 0.197999998927 106.0
0.981000006199 -0.120999999344 0.194999992847 110.0
0.973999977112 -0.126000002027 0.194000005722 107.0
0.981999993324 -0.133000001311 0.195999994874 108.0
0.971000015736 -0.136999994516 0.194000005722 117.0
0.981999993324 -0.144999995828 0.195999994874 113.0
0.990999996662 -0.151999995112 0.197999998927 110.0
0.977999985218 -0.156000003219 0.195999994874 109.0
0.986999988556 -0.163000002503 0.197999998927 109.0
0.962000012398 -0.165000006557 0.193000003695 112.0
0.949000000954 -0.167999997735 0.189999997616 113.0
0.959999978542 -0.175999999046 0.193000003695 114.0
0.998000025749 -0.188999995589 0.201000005007 113.0
0.976000010967 -0.190999999642 0.196999996901 114.0
0.998000025749 -0.201000005007 0.201000005007 113.0
0.963999986649 -0.20000000298 0.194999992847 115.0
0.996999979019 -0.212999999523 0.202000007033 121.0
0.973999977112 -0.215000003576 0.196999996901 116.0
0.990000009537 -0.224000006914 0.201000005007 122.0
0.971000015736 -0.225999996066 0.196999996901 117.0
0.992999970913 -0.237000003457 0.202000007033 121.0
0.967999994755 -0.237000003457 0.196999996901 116.0
0.973999977112 -0.245000004768 0.199000000954 118.0
0.958000004292 -0.24699999392 0.195999994874 119.0
0.959999978542 -0.254000008106 0.195999994874 113.0
0.964999973774 -0.261000007391 0.197999998927 116.0
0.986999988556 -0.273000001907 0.202000007033 109.0
0.978999972343 -0.277000010014 0.201000005007 111.0
0.992999970913 -0.287999987602 0.203999996185 110.0
0.999000012875 -0.296000003815 0.206000000238 111.0
0.986999988556 -0.298999994993 0.203999996185 111.0
0.953999996185 -0.294999986887 0.196999996901 114.0
0.955999970436 -0.301999986172 0.197999998927 109.0
0.981000006199 -0.316000014544 0.203999996185 108.0
0.977999985218 -0.321999996901 0.202999994159 104.0
0.967000007629 -0.324999988079 0.201000005007 112.0
0.950999975204 -0.324999988079 0.197999998927 106.0
0.949999988079 -0.331999987364 0.199000000954 108.0
0.955999970436 -0.340000003576 0.20000000298 99.0
0.944000005722 -0.342000007629 0.197999998927 95.0
0.952000021935 -0.351999998093 0.20000000298 108.0
0.931999981403 -0.351000010967 0.196999996901 105.0
0.927999973297 -0.356000006199 0.195999994874 98.0
0.971000015736 -0.379000008106 0.206000000238 99.0
0.90600001812 -0.360000014305 0.192000001669 105.0
0.939999997616 -0.379999995232 0.20000000298 99.0
0.958999991417 -0.395000010729 0.204999998212 99.0
0.934000015259 -0.391000002623 0.20000000298 100.0
0.972999989986 -0.41400000453 0.209000006318 88.0
0.93599998951 -0.405000001192 0.201000005007 101.0
0.885999977589 -0.389999985695 0.190999999642 90.0
0.935000002384 -0.418999999762 0.202000007033 97.0
0.95300000906 -0.433999985456 0.206000000238 87.0
0.884999990463 -0.409000009298 0.192000001669 90.0
0.950999975204 -0.446999996901 0.207000002265 90.0
0.934000015259 -0.446000009775 0.203999996185 88.0
0.961000025272 -0.467000007629 0.209999993443 88.0
0.916000008583 -0.451000005007 0.201000005007 87.0
0.933000028133 -0.467000007629 0.204999998212 77.0
0.912999987602 -0.463999986649 0.201000005007 93.0
0.925000011921 -0.477999985218 0.204999998212 95.0
0.92199999094 -0.483000010252 0.204999998212 82.0
0.961000025272 -0.512000024319 0.21400000155 90.0
0.90600001812 -0.488999992609 0.202000007033 87.0
0.950999975204 -0.522000014782 0.212999999523 83.0
0.897000014782 -0.499000012875 0.202000007033 85.0
0.847999989986 -0.479000002146 0.190999999642 90.0
3.06100010872 1.61699998379 0.649999976158 100.0
3.10899996758 1.61800003052 0.657999992371 86.0
3.46600008011 1.77600002289 0.731999993324 94.0
3.59100008011 1.81200003624 0.757000029087 127.0
3.49000000954 1.73399996758 0.73299998045 126.0
3.53900003433 1.73099994659 0.741999983788 93.0
3.89599990845 1.84599995613 0.813000023365 84.0
3.88199996948 1.80999994278 0.808000028133 102.0
3.8220000267 1.7539999485 0.792999982834 132.0
3.82899999619 1.72800004482 0.792999982834 133.0
3.92300009727 1.74199998379 0.81099998951 119.0
3.84699988365 1.67999994755 0.792999982834 113.0
3.97199988365 1.70599997044 0.816999971867 83.0
3.88599991798 1.36899995804 0.782999992371 72.0
3.89800000191 1.34700000286 0.783999979496 101.0
3.94000005722 1.33500003815 0.791000008583 121.0
3.94199991226 1.30999994278 0.790000021458 121.0
3.97499990463 1.29400002956 0.796000003815 120.0
3.9319999218 1.2539999485 0.786000013351 117.0
3.97600007057 1.24199998379 0.794000029564 113.0
3.95399999619 1.20899999142 0.787999987602 111.0
3.90400004387 1.16799998283 0.777000010014 83.0
0.989000022411 -0.104999996722 0.190999999642 98.0
0.967000007629 -0.108000002801 0.187000006437 111.0
1.02199995518 -0.119999997318 0.196999996901 108.0
0.990999996662 -0.122000001371 0.190999999642 108.0
0.994000017643 -0.128999993205 0.192000001669 112.0
0.977999985218 -0.131999999285 0.188999995589 111.0
0.972000002861 -0.136999994516 0.187999993563 109.0
1.01699995995 -0.15000000596 0.196999996901 112.0
0.977999985218 -0.15000000596 0.189999997616 115.0
1.00100004673 -0.159999996424 0.194999992847 111.0
1.03299999237 -0.171000003815 0.201000005007 113.0
0.986999988556 -0.168999999762 0.192000001669 113.0
0.976999998093 -0.172999992967 0.189999997616 118.0
0.967999994755 -0.177000001073 0.188999995589 111.0
0.995000004768 -0.188999995589 0.194000005722 113.0
0.955999970436 -0.187000006437 0.187000006437 112.0
0.989000022411 -0.199000000954 0.193000003695 111.0
0.973999977112 -0.202000007033 0.190999999642 111.0
0.977999985218 -0.209000006318 0.192000001669 118.0
0.962000012398 -0.211999997497 0.188999995589 116.0
0.958999991417 -0.216999992728 0.187999993563 116.0
0.955999970436 -0.222000002861 0.187999993563 114.0
0.992999970913 -0.237000003457 0.195999994874 119.0
0.994000017643 -0.244000002742 0.195999994874 116.0
1.00899994373 -0.252999991179 0.199000000954 115.0
0.976000010967 -0.250999987125 0.193000003695 111.0
1.00699996948 -0.266000002623 0.20000000298 112.0
0.98299998045 -0.266000002623 0.194999992847 115.0
0.97000002861 -0.268000006676 0.193000003695 112.0
0.972999989986 -0.27500000596 0.194000005722 109.0
0.949000000954 -0.27500000596 0.188999995589 113.0
0.944999992847 -0.280000001192 0.188999995589 115.0
0.987999975681 -0.298999994993 0.197999998927 111.0
0.936999976635 -0.28900000453 0.187999993563 115.0
0.981000006199 -0.308999985456 0.196999996901 110.0
0.929000020027 -0.298999994993 0.187000006437 110.0
0.964999973774 -0.317000001669 0.194999992847 110.0
0.967000007629 -0.324000000954 0.194999992847 108.0
0.955999970436 -0.326999992132 0.194000005722 107.0
0.959999978542 -0.335000008345 0.194999992847 106.0
0.943000018597 -0.335000008345 0.192000001669 106.0
0.954999983311 -0.345999985933 0.194999992847 100.0
0.938000023365 -0.345999985933 0.190999999642 101.0
0.97000002861 -0.365000009537 0.197999998927 100.0
0.945999979973 -0.361999988556 0.194000005722 106.0
0.926999986172 -0.361000001431 0.189999997616 103.0
0.97000002861 -0.384999990463 0.20000000298 93.0
0.933000028133 -0.377000004053 0.192000001669 96.0
0.977999985218 -0.402000010014 0.202000007033 94.0
0.936999976635 -0.391999989748 0.194000005722 91.0
0.921000003815 -0.391999989748 0.190999999642 90.0
0.964999973774 -0.418000012636 0.201000005007 104.0
0.952000021935 -0.418999999762 0.199000000954 96.0
0.954999983311 -0.426999986172 0.20000000298 96.0
0.934000015259 -0.425000011921 0.195999994874 93.0
0.933000028133 -0.430999994278 0.195999994874 89.0
0.907000005245 -0.425999999046 0.190999999642 90.0
0.934000015259 -0.444999992847 0.197999998927 84.0
0.948000013828 -0.458999991417 0.201000005007 94.0
0.920000016689 -0.45300000906 0.195999994874 87.0
0.948000013828 -0.474000006914 0.202000007033 83.0
0.921000003815 -0.467999994755 0.196999996901 88.0
0.919000029564 -0.474000006914 0.196999996901 88.0
0.953999996185 -0.5 0.206000000238 86.0
0.962999999523 -0.512000024319 0.208000004292 79.0
0.896000027657 -0.483000010252 0.194000005722 88.0
0.875 -0.479000002146 0.189999997616 86.0
0.852999985218 -0.474000006914 0.186000004411 83.0
0.89200001955 -0.503000020981 0.194999992847 91.0
3.0680000782 1.61899995804 0.629999995232 102.0
3.20700001717 1.66700005531 0.657000005245 87.0
3.54200005531 1.78499996662 0.722000002861 126.0
3.5529999733 1.76300001144 0.722999989986 125.0
3.47499990463 1.69799995422 0.704999983311 89.0
3.77900004387 1.78900003433 0.763000011444 72.0
3.76200008392 1.75199997425 0.758000016212 97.0
3.83999991417 1.75999999046 0.772000014782 129.0
3.882999897 1.75100004673 0.778999984264 128.0
3.85599994659 1.71000003815 0.772000014782 127.0
3.85500001907 1.68200004101 0.769999980927 93.0
3.98799991608 1.40400004387 0.777999997139 65.0
3.89599990845 1.34500002861 0.759000003338 94.0
3.97000002861 1.34399998188 0.772000014782 116.0
3.95799994469 1.31299996376 0.768999993801 120.0
3.9470000267 1.2840000391 0.764999985695 122.0
3.95700001717 1.26100003719 0.76599997282 110.0
3.91799998283 1.22200000286 0.757000029087 119.0
3.96700000763 1.2120000124 0.76599997282 111.0
3.98200011253 1.19000005722 0.768000006676 98.0
0.999000012875 -0.105999998748 0.187000006437 98.0
1.00300002098 -0.112000003457 0.187999993563 113.0
1.01499998569 -0.119000002742 0.189999997616 110.0
1.0 -0.123000003397 0.187000006437 110.0
0.97000002861 -0.125 0.181999996305 107.0
0.980000019073 -0.131999999285 0.184000000358 113.0
1.00499999523 -0.142000004649 0.188999995589 117.0
0.998000025749 -0.146999999881 0.187000006437 111.0
0.973999977112 -0.149000003934 0.182999998331 114.0
0.991999983788 -0.158000007272 0.187000006437 116.0
0.981999993324 -0.162000000477 0.185000002384 117.0
0.972000002861 -0.165999993682 0.182999998331 116.0
0.976999998093 -0.172999992967 0.184000000358 118.0
0.990999996662 -0.181999996305 0.187000006437 116.0
0.981000006199 -0.186000004411 0.186000004411 121.0
0.943000018597 -0.184000000358 0.178000003099 116.0
0.978999972343 -0.196999996901 0.186000004411 114.0
0.985000014305 -0.203999996185 0.187000006437 113.0
1.0039999485 -0.215000003576 0.190999999642 117.0
1.00800001621 -0.222000002861 0.192000001669 122.0
0.996999979019 -0.22499999404 0.189999997616 118.0
0.973999977112 -0.225999996066 0.186000004411 123.0
0.962999999523 -0.229000002146 0.184000000358 113.0
0.976999998093 -0.238999992609 0.187000006437 118.0
0.959999978542 -0.240999996662 0.184000000358 118.0
0.973999977112 -0.25 0.187000006437 118.0
0.962999999523 -0.254000008106 0.185000002384 109.0
0.976000010967 -0.263999998569 0.187999993563 112.0
0.955999970436 -0.263999998569 0.184000000358 113.0
0.973999977112 -0.27500000596 0.187999993563 115.0
0.972000002861 -0.280999988317 0.187999993563 119.0
0.958999991417 -0.282999992371 0.186000004411 111.0
0.938000023365 -0.282999992371 0.181999996305 109.0
0.949000000954 -0.293000012636 0.184000000358 112.0
0.977999985218 -0.307999998331 0.189999997616 110.0
0.959999978542 -0.308999985456 0.187000006437 110.0
0.986999988556 -0.324000000954 0.193000003695 111.0
0.981000006199 -0.328999996185 0.192000001669 109.0
0.950999975204 -0.324999988079 0.186000004411 112.0
0.976999998093 -0.340999990702 0.192000001669 109.0
0.961000025272 -0.340999990702 0.188999995589 106.0
0.943000018597 -0.340999990702 0.186000004411 99.0
0.934000015259 -0.344000011683 0.185000002384 110.0
0.962999999523 -0.361999988556 0.190999999642 104.0
0.95300000906 -0.365000009537 0.188999995589 102.0
0.949999988079 -0.370000004768 0.188999995589 104.0
0.907000005245 -0.358999997377 0.180999994278 97.0
0.971000015736 -0.391999989748 0.194000005722 94.0
0.964999973774 -0.395999997854 0.193000003695 99.0
0.966000020504 -0.404000014067 0.194000005722 96.0
0.995000004768 -0.423000007868 0.20000000298 95.0
0.919000029564 -0.397000014782 0.185000002384 96.0
0.973999977112 -0.428000003099 0.196999996901 93.0
0.92199999094 -0.412000000477 0.187000006437 96.0
0.949999988079 -0.430999994278 0.193000003695 93.0
0.962999999523 -0.444000005722 0.195999994874 97.0
0.934000015259 -0.437999993563 0.190999999642 85.0
0.935000002384 -0.446000009775 0.192000001669 91.0
0.896000027657 -0.433999985456 0.184000000358 88.0
0.917999982834 -0.451000005007 0.188999995589 88.0
0.926999986172 -0.462999999523 0.192000001669 86.0
0.930999994278 -0.472000002861 0.193000003695 80.0
0.908999979496 -0.467999994755 0.188999995589 88.0
0.922999978065 -0.483000010252 0.193000003695 91.0
0.880999982357 -0.467999994755 0.184000000358 85.0
0.972000002861 -0.524999976158 0.203999996185 83.0
0.916000008583 -0.500999987125 0.193000003695 88.0
0.899999976158 -0.5 0.189999997616 84.0
0.929000020027 -0.523999989033 0.196999996901 83.0
3.02600002289 1.59500002861 0.601000010967 109.0
3.18499994278 1.65299999714 0.632000029087 81.0
3.5039999485 1.76400005817 0.690999984741 122.0
3.51799988747 1.74399995804 0.691999971867 127.0
3.57699990273 1.74500000477 0.702000021935 88.0
3.81699991226 1.77600002289 0.744000017643 112.0
3.83999991417 1.75800001621 0.746999979019 128.0
3.86899995804 1.74199998379 0.750999987125 130.0
3.91400003433 1.73399996758 0.758000016212 122.0
3.92199993134 1.35199999809 0.739000022411 85.0
3.93400001526 1.33000004292 0.740000009537 112.0
3.99699997902 1.32500004768 0.750999987125 118.0
3.91199994087 1.27100002766 0.73400002718 122.0
3.94899988174 1.25699996948 0.740000009537 110.0
3.91400003433 1.22000002861 0.731999993324 115.0
3.99499988556 1.21899998188 0.745999991894 118.0
3.91599988937 1.16900002956 0.730000019073 86.0
1.09300005436 -0.108999997377 0.197999998927 57.0
1.01300001144 -0.107000000775 0.182999998331 103.0
