ply
format ascii 1.0
element vertex 926
property float x
property float y
property float z
property float intensity
end_header
0.967999994755 0.0989999994636 0.111000001431 1470.0
0.96899998188 0.0930000022054 0.111000001431 1475.0
0.973999977112 0.0879999995232 0.111000001431 1472.0
0.971000015736 0.082000002265 0.111000001431 1449.0
0.972000002861 0.0769999995828 0.111000001431 1453.0
0.971000015736 0.0710000023246 0.111000001431 1480.0
0.971000015736 0.0649999976158 0.111000001431 1511.0
0.973999977112 0.0599999986589 0.111000001431 1558.0
0.96899998188 0.0540000014007 0.111000001431 1567.0
0.967999994755 0.0480000004172 0.111000001431 1603.0
0.972000002861 0.0430000014603 0.111000001431 1618.0
0.971000015736 0.0370000004768 0.111000001431 1607.0
0.975000023842 0.0320000015199 0.111000001431 1596.0
0.972000002861 0.0260000005364 0.111000001431 1439.0
0.980000019073 0.0209999997169 0.112000003457 304.0
1.00999999046 -0.0649999976158 0.115999996662 364.0
1.01199996471 -0.0710000023246 0.116999998689 1025.0
1.00499999523 -0.0769999995828 0.115999996662 536.0
1.01100003719 -0.082999996841 0.116999998689 455.0
1.00800001621 -0.0879999995232 0.115999996662 470.0
0.999000012875 -0.0930000022054 0.115000002086 492.0
1.00199997425 -0.10000000149 0.115999996662 487.0
0.986999988556 -0.104000002146 0.11400000006 506.0
1.00300002098 -0.111000001431 0.115999996662 522.0
0.992999970913 -0.115999996662 0.115000002086 538.0
0.987999975681 -0.120999999344 0.11400000006 549.0
0.985000014305 -0.127000004053 0.11400000006 555.0
0.986999988556 -0.133000001311 0.11400000006 569.0
0.990000009537 -0.138999998569 0.115000002086 578.0
0.978999972343 -0.143000006676 0.11400000006 588.0
0.976000010967 -0.148000001907 0.11400000006 588.0
0.978999972343 -0.155000001192 0.11400000006 758.0
0.980000019073 -0.16099999845 0.11400000006 842.0
0.976999998093 -0.165999993682 0.11400000006 838.0
0.975000023842 -0.171000003815 0.11400000006 831.0
0.972999989986 -0.177000001073 0.11400000006 846.0
0.976999998093 -0.184000000358 0.11400000006 847.0
0.96899998188 -0.187999993563 0.11400000006 844.0
0.963999986649 -0.193000003695 0.112999998033 845.0
0.966000020504 -0.199000000954 0.112999998033 874.0
0.963999986649 -0.203999996185 0.112999998033 873.0
0.962000012398 -0.209999993443 0.112999998033 871.0
0.955999970436 -0.21400000155 0.112999998033 873.0
0.957000017166 -0.221000000834 0.112999998033 877.0
0.957000017166 -0.225999996066 0.112999998033 895.0
0.954999983311 -0.231999993324 0.112999998033 837.0
0.962000012398 -0.239999994636 0.11400000006 682.0
0.959999978542 -0.245000004768 0.11400000006 687.0
0.95300000906 -0.248999997973 0.112999998033 686.0
0.949000000954 -0.254000008106 0.112999998033 684.0
0.943000018597 -0.25799998641 0.112000003457 677.0
0.949999988079 -0.266000002623 0.11400000006 665.0
0.945999979973 -0.270999997854 0.112999998033 678.0
0.949999988079 -0.277999997139 0.11400000006 672.0
0.938000023365 -0.280999988317 0.112999998033 658.0
0.936999976635 -0.287000000477 0.112999998033 656.0
0.933000028133 -0.291000008583 0.112000003457 637.0
0.925999999046 -0.294999986887 0.112000003457 637.0
0.934000015259 -0.303999990225 0.112999998033 631.0
0.936999976635 -0.31099998951 0.11400000006 616.0
0.925000011921 -0.312999993563 0.112000003457 929.0
0.925999999046 -0.319999992847 0.112999998033 1096.0
0.924000024796 -0.324999988079 0.112999998033 1118.0
0.916999995708 -0.328999996185 0.112000003457 1143.0
0.921000003815 -0.33599999547 0.112999998033 1168.0
0.921000003815 -0.342000007629 0.112999998033 1183.0
0.921000003815 -0.349000006914 0.112999998033 1219.0
0.911000013351 -0.351000010967 0.112000003457 1226.0
0.911000013351 -0.358000010252 0.112999998033 1252.0
0.911000013351 -0.363999992609 0.112999998033 1263.0
0.910000026226 -0.370000004768 0.112999998033 1285.0
0.90499997139 -0.374000012875 0.112999998033 1305.0
0.907000005245 -0.381999999285 0.112999998033 1304.0
0.903999984264 -0.386999994516 0.112999998033 1321.0
0.898000001907 -0.391000002623 0.112999998033 892.0
0.897000014782 -0.397000014782 0.112999998033 464.0
0.889999985695 -0.40000000596 0.112000003457 431.0
0.887000024319 -0.405000001192 0.112000003457 415.0
0.884999990463 -0.411000013351 0.112000003457 403.0
0.889999985695 -0.419999986887 0.112999998033 396.0
0.879000008106 -0.421000003815 0.112000003457 380.0
0.882000029087 -0.428999990225 0.112999998033 383.0
0.884999990463 -0.437000006437 0.112999998033 363.0
0.888000011444 -0.446000009775 0.11400000006 358.0
0.861000001431 -0.43900001049 0.111000001431 348.0
0.856000006199 -0.442999988794 0.111000001431 339.0
0.860000014305 -0.451999992132 0.112000003457 330.0
0.874000012875 -0.465999990702 0.11400000006 338.0
0.874000012875 -0.472999989986 0.11400000006 1172.0
0.871999979019 -0.479000002146 0.11400000006 1514.0
0.875 -0.488000005484 0.115000002086 1570.0
0.944999992847 0.545000016689 0.11400000006 1036.0
0.948000013828 0.538999974728 0.11400000006 1036.0
0.944000005722 0.528999984264 0.112999998033 1027.0
0.945999979973 0.523000001907 0.112999998033 1028.0
0.948000013828 0.51599997282 0.112999998033 1037.0
0.944999992847 0.507000029087 0.112000003457 1029.0
0.940999984741 0.497000008821 0.111000001431 1017.0
0.943000018597 0.490999996662 0.111000001431 1021.0
0.945999979973 0.485000014305 0.111000001431 1017.0
0.943000018597 0.476000010967 0.111000001431 1013.0
0.949000000954 0.472000002861 0.111000001431 1009.0
0.949000000954 0.463999986649 0.111000001431 1000.0
0.95300000906 0.458999991417 0.111000001431 1008.0
0.941999971867 0.446999996901 0.109999999404 1016.0
0.952000021935 0.444999992847 0.109999999404 1004.0
0.947000026703 0.435000002384 0.109999999404 1000.0
0.949000000954 0.428999990225 0.109999999404 996.0
0.95300000906 0.423999994993 0.109999999404 1005.0
0.957000017166 0.418999999762 0.109999999404 1012.0
0.949999988079 0.409000009298 0.108999997377 1008.0
0.949999988079 0.402000010014 0.108999997377 995.0
0.949999988079 0.395999997854 0.108999997377 1010.0
0.957000017166 0.391999989748 0.108999997377 1016.0
0.959999978542 0.386000007391 0.108999997377 1005.0
0.961000025272 0.379999995232 0.108999997377 1011.0
0.95300000906 0.370000004768 0.108000002801 1012.0
0.957000017166 0.365000009537 0.108000002801 999.0
0.954999983311 0.358000010252 0.108000002801 988.0
0.962000012398 0.354000002146 0.108999997377 1008.0
0.959999978542 0.347000002861 0.108000002801 1003.0
0.961000025272 0.340999990702 0.108000002801 1018.0
0.962000012398 0.335000008345 0.108000002801 1006.0
0.959999978542 0.326999992132 0.108000002801 1011.0
0.959999978542 0.321000009775 0.107000000775 1018.0
0.967999994755 0.317999988794 0.108000002801 1009.0
0.966000020504 0.310000002384 0.108000002801 1020.0
0.959999978542 0.301999986172 0.107000000775 1014.0
0.961000025272 0.29699999094 0.107000000775 1010.0
0.962000012398 0.289999991655 0.107000000775 998.0
0.959999978542 0.284000009298 0.107000000775 1010.0
0.966000020504 0.279000014067 0.107000000775 996.0
0.961000025272 0.272000014782 0.107000000775 1006.0
0.963999986649 0.266999989748 0.107000000775 1028.0
0.966000020504 0.261000007391 0.107000000775 1041.0
0.963999986649 0.254000008106 0.105999998748 1053.0
0.971000015736 0.25 0.107000000775 1056.0
0.967999994755 0.243000000715 0.107000000775 1076.0
0.97000002861 0.238000005484 0.107000000775 1075.0
0.97000002861 0.231999993324 0.107000000775 1088.0
0.966000020504 0.22499999404 0.105999998748 1108.0
0.966000020504 0.218999996781 0.105999998748 1096.0
0.967000007629 0.21400000155 0.105999998748 1096.0
0.967999994755 0.208000004292 0.105999998748 1115.0
0.97000002861 0.202000007033 0.105999998748 1147.0
0.972000002861 0.196999996901 0.105999998748 1170.0
0.96899998188 0.189999997616 0.105999998748 1161.0
0.971000015736 0.185000002384 0.105999998748 1112.0
0.975000023842 0.180000007153 0.105999998748 1086.0
0.97000002861 0.172999992967 0.105999998748 1090.0
0.972000002861 0.167999997735 0.105999998748 1088.0
0.977999985218 0.163000002503 0.107000000775 1087.0
0.973999977112 0.157000005245 0.105999998748 1108.0
0.973999977112 0.150999993086 0.105999998748 1121.0
0.972000002861 0.144999995828 0.105999998748 1122.0
0.973999977112 0.138999998569 0.105999998748 1131.0
0.975000023842 0.134000003338 0.105999998748 1157.0
0.976000010967 0.12800000608 0.105999998748 1162.0
0.978999972343 0.123000003397 0.105999998748 1176.0
0.976000010967 0.116999998689 0.105999998748 1182.0
0.976000010967 0.111000001431 0.105999998748 1172.0
0.975000023842 0.104999996722 0.105999998748 1162.0
0.972999989986 0.0989999994636 0.105999998748 1175.0
0.975000023842 0.0939999967813 0.105999998748 1155.0
0.975000023842 0.0879999995232 0.105999998748 1170.0
0.976000010967 0.082000002265 0.105999998748 1169.0
0.98400002718 0.0769999995828 0.107000000775 1153.0
0.978999972343 0.0710000023246 0.105999998748 1129.0
0.975000023842 0.0649999976158 0.105999998748 1148.0
0.976000010967 0.0599999986589 0.105999998748 1170.0
0.980000019073 0.0540000014007 0.105999998748 1186.0
0.980000019073 0.0489999987185 0.105999998748 1201.0
0.976999998093 0.0430000014603 0.105999998748 1212.0
0.981999993324 0.0379999987781 0.107000000775 1206.0
0.98400002718 0.0320000015199 0.107000000775 1193.0
0.981000006199 0.0260000005364 0.107000000775 1086.0
0.995999991894 0.0209999997169 0.108000002801 238.0
1.01699995995 -0.0659999996424 0.111000001431 379.0
1.00899994373 -0.0710000023246 0.109999999404 1139.0
1.01199996471 -0.0769999995828 0.111000001431 1161.0
1.00499999523 -0.082000002265 0.109999999404 1169.0
1.00999999046 -0.0890000015497 0.111000001431 1171.0
1.00800001621 -0.0939999967813 0.109999999404 1196.0
1.0039999485 -0.10000000149 0.109999999404 1208.0
0.999000012875 -0.104999996722 0.109999999404 1204.0
0.994000017643 -0.109999999404 0.108999997377 1216.0
0.994000017643 -0.115999996662 0.108999997377 1242.0
0.994000017643 -0.122000001371 0.108999997377 1236.0
0.990999996662 -0.127000004053 0.108999997377 1248.0
0.991999983788 -0.133000001311 0.108999997377 1255.0
0.992999970913 -0.138999998569 0.108999997377 1276.0
0.986999988556 -0.143999993801 0.108999997377 1274.0
0.985000014305 -0.15000000596 0.108999997377 1239.0
0.98299998045 -0.155000001192 0.108999997377 457.0
0.973999977112 -0.159999996424 0.108000002801 191.0
0.967999994755 -0.16400000453 0.107000000775 186.0
0.944999992847 -0.165999993682 0.104999996722 184.0
0.964999973774 -0.17499999702 0.107000000775 186.0
0.949999988079 -0.178000003099 0.105999998748 192.0
0.972000002861 -0.187999993563 0.108000002801 191.0
0.952000021935 -0.189999997616 0.105999998748 191.0
0.949000000954 -0.194999992847 0.105999998748 191.0
0.944999992847 -0.20000000298 0.105999998748 204.0
0.952000021935 -0.208000004292 0.105999998748 192.0
0.940999984741 -0.21099999547 0.104999996722 194.0
0.930000007153 -0.21400000155 0.104000002146 198.0
0.933000028133 -0.219999998808 0.104999996722 210.0
0.963999986649 -0.233999997377 0.108000002801 549.0
0.954999983311 -0.238000005484 0.108000002801 1326.0
0.953999996185 -0.243000000715 0.108000002801 1418.0
0.952000021935 -0.248999997973 0.108000002801 1423.0
0.949000000954 -0.254000008106 0.107000000775 1438.0
0.95300000906 -0.261000007391 0.108000002801 1433.0
0.944000005722 -0.263999998569 0.107000000775 1446.0
0.944999992847 -0.270999997854 0.107000000775 1466.0
0.947000026703 -0.277000010014 0.108000002801 1462.0
0.938000023365 -0.280999988317 0.107000000775 1454.0
0.931999981403 -0.284999996424 0.107000000775 1468.0
0.936999976635 -0.291999995708 0.107000000775 1462.0
0.934000015259 -0.29699999094 0.107000000775 1460.0
0.93900001049 -0.305000007153 0.108000002801 1441.0
0.931999981403 -0.308999985456 0.107000000775 1438.0
0.926999986172 -0.312999993563 0.107000000775 607.0
0.912999987602 -0.314999997616 0.105999998748 297.0
0.927999973297 -0.326000005007 0.107000000775 279.0
0.925000011921 -0.331000000238 0.107000000775 285.0
0.910000026226 -0.331999987364 0.105999998748 296.0
0.910000026226 -0.337999999523 0.105999998748 303.0
0.912000000477 -0.344999998808 0.107000000775 311.0
0.912999987602 -0.351999998093 0.107000000775 325.0
0.912999987602 -0.358000010252 0.107000000775 335.0
0.894999980927 -0.356999993324 0.104999996722 344.0
0.907999992371 -0.368999987841 0.107000000775 358.0
0.912999987602 -0.377999991179 0.108000002801 369.0
0.912000000477 -0.38299998641 0.108000002801 386.0
0.893999993801 -0.381999999285 0.105999998748 402.0
0.902999997139 -0.391999989748 0.107000000775 870.0
0.897000014782 -0.395999997854 0.107000000775 1274.0
0.898000001907 -0.402999997139 0.107000000775 1292.0
0.898999989033 -0.411000013351 0.108000002801 1249.0
0.893999993801 -0.41400000453 0.108000002801 1230.0
0.89099997282 -0.419999986887 0.108000002801 1192.0
0.889999985695 -0.425999999046 0.108000002801 1165.0
0.888000011444 -0.432000011206 0.108000002801 1128.0
0.888999998569 -0.43900001049 0.108000002801 1095.0
0.883000016212 -0.442999988794 0.108000002801 1064.0
0.882000029087 -0.449000000954 0.108000002801 1047.0
0.879000008106 -0.455000013113 0.108000002801 1012.0
0.875999987125 -0.460000008345 0.108000002801 984.0
0.882000029087 -0.469999998808 0.108999997377 953.0
0.875999987125 -0.474000006914 0.108999997377 860.0
0.869000017643 -0.476999998093 0.108000002801 922.0
0.870000004768 -0.485000014305 0.108999997377 952.0
0.943000018597 0.544000029564 0.107000000775 953.0
0.945999979973 0.537999987602 0.107000000775 953.0
0.948000013828 0.53100001812 0.107000000775 931.0
0.949999988079 0.523999989033 0.107000000775 929.0
0.949999988079 0.51700001955 0.107000000775 934.0
0.947000026703 0.508000016212 0.105999998748 915.0
0.954999983311 0.504000008106 0.107000000775 925.0
0.955999970436 0.497000008821 0.107000000775 905.0
0.95300000906 0.488000005484 0.105999998748 911.0
0.954999983311 0.481999993324 0.105999998748 896.0
0.949999988079 0.472000002861 0.104999996722 897.0
0.958000004292 0.469000011683 0.105999998748 886.0
0.95300000906 0.458999991417 0.104999996722 888.0
0.954999983311 0.45300000906 0.104999996722 890.0
0.953999996185 0.444999992847 0.104999996722 882.0
0.948000013828 0.435000002384 0.104000002146 885.0
0.957000017166 0.432999998331 0.104999996722 878.0
0.957000017166 0.425999999046 0.104000002146 887.0
0.958000004292 0.418999999762 0.104000002146 879.0
0.962000012398 0.41400000453 0.104000002146 887.0
0.967000007629 0.409000009298 0.104999996722 878.0
0.957000017166 0.398000001907 0.103000000119 883.0
0.957000017166 0.391999989748 0.103000000119 876.0
0.961000025272 0.386000007391 0.103000000119 881.0
0.958999991417 0.379000008106 0.103000000119 866.0
0.964999973774 0.375 0.104000002146 871.0
0.966000020504 0.368000000715 0.104000002146 854.0
0.963999986649 0.361000001431 0.103000000119 841.0
0.962999999523 0.354000002146 0.103000000119 856.0
0.967999994755 0.349000006914 0.103000000119 859.0
0.96899998188 0.342999994755 0.103000000119 855.0
0.967999994755 0.337000012398 0.103000000119 845.0
0.96899998188 0.330000013113 0.103000000119 817.0
0.963999986649 0.321999996901 0.101999998093 817.0
0.971000015736 0.317999988794 0.103000000119 808.0
0.972999989986 0.312000006437 0.103000000119 801.0
0.96899998188 0.305000007153 0.101999998093 805.0
0.981000006199 0.301999986172 0.103000000119 810.0
0.963999986649 0.291000008583 0.101000003517 812.0
0.977999985218 0.28900000453 0.103000000119 808.0
0.975000023842 0.282000005245 0.101999998093 793.0
0.973999977112 0.27500000596 0.101999998093 795.0
0.976000010967 0.270000010729 0.101999998093 799.0
0.977999985218 0.263999998569 0.101999998093 807.0
0.972999989986 0.256999999285 0.101999998093 811.0
0.976999998093 0.252000004053 0.101999998093 816.0
0.972999989986 0.245000004768 0.101999998093 817.0
0.975000023842 0.238999992609 0.101999998093 826.0
0.975000023842 0.232999995351 0.101000003517 838.0
0.978999972343 0.228000000119 0.101999998093 860.0
0.976000010967 0.221000000834 0.101000003517 862.0
0.97000002861 0.21400000155 0.101000003517 856.0
0.975000023842 0.209000006318 0.101000003517 860.0
0.977999985218 0.203999996185 0.101000003517 838.0
0.978999972343 0.197999998927 0.101000003517 827.0
0.977999985218 0.192000001669 0.101000003517 812.0
0.980000019073 0.187000006437 0.101000003517 788.0
0.981999993324 0.180999994278 0.101999998093 782.0
0.981000006199 0.17499999702 0.101000003517 776.0
0.980000019073 0.168999999762 0.101000003517 781.0
0.986000001431 0.16400000453 0.101999998093 790.0
0.98400002718 0.158000007272 0.101000003517 776.0
0.976000010967 0.150999993086 0.101000003517 771.0
0.987999975681 0.146999999881 0.101999998093 770.0
0.98299998045 0.140000000596 0.101000003517 767.0
0.986000001431 0.135000005364 0.101999998093 783.0
0.986999988556 0.128999993205 0.101999998093 777.0
0.980000019073 0.123000003397 0.101000003517 788.0
0.994000017643 0.119000002742 0.101999998093 798.0
0.981999993324 0.111000001431 0.101000003517 778.0
0.98400002718 0.105999998748 0.101000003517 771.0
0.989000022411 0.101000003517 0.101999998093 785.0
0.989000022411 0.0949999988079 0.101999998093 785.0
0.990000009537 0.0890000015497 0.101999998093 777.0
0.991999983788 0.0839999988675 0.101999998093 779.0
0.990999996662 0.0780000016093 0.101999998093 776.0
0.987999975681 0.0719999969006 0.101000003517 768.0
0.986999988556 0.0659999996424 0.101000003517 761.0
0.990999996662 0.0610000006855 0.101999998093 763.0
0.987999975681 0.054999999702 0.101000003517 766.0
0.991999983788 0.0489999987185 0.101999998093 773.0
0.986999988556 0.0430000014603 0.101000003517 781.0
0.985000014305 0.0379999987781 0.101000003517 773.0
0.986000001431 0.0320000015199 0.101000003517 746.0
0.98400002718 0.0260000005364 0.101000003517 680.0
1.00699996948 0.0209999997169 0.104000002146 226.0
1.01199996471 -0.0649999976158 0.104999996722 402.0
1.00999999046 -0.0710000023246 0.104000002146 1150.0
1.00600004196 -0.0769999995828 0.104000002146 1188.0
1.01100003719 -0.082999996841 0.104999996722 1197.0
1.00600004196 -0.0879999995232 0.104000002146 1205.0
1.00199997425 -0.0939999967813 0.104000002146 1218.0
0.998000025749 -0.0989999994636 0.104000002146 1225.0
1.00100004673 -0.104999996722 0.104000002146 1220.0
0.995999991894 -0.109999999404 0.103000000119 1241.0
0.995999991894 -0.115999996662 0.104000002146 1256.0
1.00100004673 -0.123000003397 0.104000002146 1259.0
0.990999996662 -0.127000004053 0.103000000119 1264.0
0.992999970913 -0.133000001311 0.104000002146 1269.0
0.991999983788 -0.138999998569 0.103000000119 1281.0
0.990000009537 -0.144999995828 0.103000000119 1293.0
0.98299998045 -0.149000003934 0.103000000119 1244.0
0.972999989986 -0.153999999166 0.101999998093 463.0
0.959999978542 -0.157000005245 0.101000003517 181.0
0.93900001049 -0.158999994397 0.097999997437 166.0
0.945999979973 -0.165999993682 0.0989999994636 177.0
0.962000012398 -0.17499999702 0.101000003517 174.0
0.931999981403 -0.17499999702 0.097999997437 179.0
0.945999979973 -0.182999998331 0.10000000149 177.0
0.943000018597 -0.187999993563 0.0989999994636 178.0
0.950999975204 -0.195999994874 0.10000000149 178.0
0.940999984741 -0.199000000954 0.0989999994636 181.0
0.93900001049 -0.204999998212 0.0989999994636 185.0
0.945999979973 -0.211999997497 0.10000000149 187.0
0.92199999094 -0.211999997497 0.097999997437 183.0
0.93599998951 -0.221000000834 0.0989999994636 195.0
0.958000004292 -0.231999993324 0.101999998093 531.0
0.950999975204 -0.236000001431 0.101000003517 1348.0
0.954999983311 -0.243000000715 0.101999998093 1447.0
0.957000017166 -0.25 0.101999998093 1461.0
0.953999996185 -0.254999995232 0.101999998093 1461.0
0.952000021935 -0.261000007391 0.101999998093 1465.0
0.948000013828 -0.266000002623 0.101999998093 1477.0
0.949000000954 -0.272000014782 0.101999998093 1481.0
0.944000005722 -0.275999993086 0.101999998093 1495.0
0.943000018597 -0.282000005245 0.101999998093 1492.0
0.939999997616 -0.287000000477 0.101999998093 1512.0
0.93900001049 -0.293000012636 0.101999998093 1515.0
0.936999976635 -0.298999994993 0.101999998093 1511.0
0.930999994278 -0.303000003099 0.101000003517 1522.0
0.935000002384 -0.310000002384 0.101999998093 1510.0
0.931999981403 -0.314999997616 0.101999998093 632.0
0.896000027657 -0.308999985456 0.097999997437 233.0
0.907999992371 -0.319000005722 0.10000000149 204.0
0.912999987602 -0.326999992132 0.10000000149 209.0
0.884000003338 -0.321999996901 0.097000002861 205.0
0.888999998569 -0.330000013113 0.097999997437 211.0
0.885999977589 -0.335000008345 0.097999997437 205.0
0.884000003338 -0.340000003576 0.097999997437 209.0
0.871999979019 -0.342000007629 0.097000002861 209.0
0.884000003338 -0.352999985218 0.097999997437 211.0
0.874000012875 -0.354999989271 0.097999997437 211.0
0.876999974251 -0.361999988556 0.097999997437 214.0
0.885999977589 -0.372000008821 0.0989999994636 215.0
0.869000017643 -0.370999991894 0.097999997437 216.0
0.901000022888 -0.391000002623 0.101999998093 788.0
0.902999997139 -0.398999989033 0.101999998093 1518.0
0.901000022888 -0.405000001192 0.101999998093 1608.0
0.897000014782 -0.409000009298 0.101999998093 1605.0
0.896000027657 -0.416000008583 0.101999998093 1595.0
0.894999980927 -0.42199999094 0.101999998093 1620.0
0.893999993801 -0.428000003099 0.101999998093 1638.0
0.89099997282 -0.432999998331 0.101999998093 1620.0
0.89099997282 -0.439999997616 0.103000000119 1614.0
0.888999998569 -0.446000009775 0.103000000119 1602.0
0.885999977589 -0.451000005007 0.103000000119 1610.0
0.884000003338 -0.456999987364 0.103000000119 1585.0
0.884000003338 -0.463999986649 0.103000000119 1595.0
0.878000020981 -0.467999994755 0.103000000119 1574.0
0.879000008106 -0.47499999404 0.103000000119 683.0
0.862999975681 -0.472999989986 0.101999998093 311.0
0.847000002861 -0.472000002861 0.10000000149 299.0
0.954999983311 0.550000011921 0.101999998093 779.0
0.958999991417 0.545000016689 0.103000000119 772.0
0.953999996185 0.533999979496 0.101999998093 756.0
0.958000004292 0.527999997139 0.101999998093 751.0
0.958000004292 0.521000027657 0.101000003517 729.0
0.961000025272 0.514999985695 0.101999998093 732.0
0.958000004292 0.504999995232 0.101000003517 719.0
0.950999975204 0.493999987841 0.10000000149 713.0
0.955999970436 0.488999992609 0.10000000149 683.0
0.963999986649 0.486000001431 0.101000003517 698.0
0.959999978542 0.476999998093 0.10000000149 678.0
0.959999978542 0.469000011683 0.10000000149 659.0
0.957000017166 0.46099999547 0.0989999994636 653.0
0.972000002861 0.460000008345 0.101000003517 648.0
0.961000025272 0.448000013828 0.0989999994636 633.0
0.963999986649 0.442000001669 0.0989999994636 621.0
0.958000004292 0.432999998331 0.0989999994636 608.0
0.961000025272 0.426999986172 0.0989999994636 605.0
0.959999978542 0.419999986887 0.097999997437 595.0
0.967999994755 0.416000008583 0.0989999994636 580.0
0.96899998188 0.409999996424 0.0989999994636 574.0
0.96899998188 0.402999997139 0.0989999994636 562.0
0.971000015736 0.397000014782 0.0989999994636 546.0
0.972000002861 0.389999985695 0.0989999994636 541.0
0.964999973774 0.381000012159 0.097999997437 515.0
0.966000020504 0.375 0.097999997437 504.0
0.962999999523 0.36700001359 0.097000002861 477.0
0.95300000906 0.356999993324 0.0960000008345 457.0
0.958999991417 0.351999998093 0.0960000008345 438.0
0.97000002861 0.34999999404 0.097000002861 425.0
0.957000017166 0.338999986649 0.0960000008345 424.0
0.957000017166 0.333000004292 0.0960000008345 401.0
0.954999983311 0.324999988079 0.0949999988079 389.0
0.949999988079 0.317000001669 0.0949999988079 369.0
0.953999996185 0.312000006437 0.0949999988079 346.0
0.949999988079 0.305000007153 0.0949999988079 343.0
0.943000018597 0.29699999094 0.0939999967813 331.0
0.93900001049 0.28900000453 0.0930000022054 320.0
0.947000026703 0.286000013351 0.0939999967813 314.0
0.944000005722 0.279000014067 0.0930000022054 305.0
0.944999992847 0.273000001907 0.0930000022054 301.0
0.930000007153 0.263000011444 0.0920000001788 299.0
0.93900001049 0.259000003338 0.0930000022054 289.0
0.916000008583 0.24699999392 0.0900000035763 282.0
0.931999981403 0.246000006795 0.0920000001788 278.0
0.929000020027 0.238999992609 0.0909999981523 271.0
0.901000022888 0.225999996066 0.0879999995232 259.0
0.917999982834 0.22499999404 0.0900000035763 224.0
0.901000022888 0.215000003576 0.0879999995232 228.0
0.901000022888 0.209999993443 0.0879999995232 233.0
0.897000014782 0.202999994159 0.0879999995232 231.0
0.894999980927 0.196999996901 0.0869999974966 217.0
0.898999989033 0.193000003695 0.0879999995232 218.0
0.912999987602 0.189999997616 0.0890000015497 214.0
0.917999982834 0.186000004411 0.0900000035763 206.0
0.90499997139 0.178000003099 0.0879999995232 206.0
0.992999970913 0.188999995589 0.097000002861 213.0
0.987999975681 0.181999996305 0.0960000008345 219.0
0.995000004768 0.177000001073 0.097000002861 203.0
0.981999993324 0.168999999762 0.0960000008345 207.0
0.995999991894 0.165999993682 0.097000002861 252.0
0.999000012875 0.159999996424 0.097000002861 245.0
0.995999991894 0.153999999166 0.097000002861 329.0
1.00699996948 0.15000000596 0.097999997437 236.0
0.98299998045 0.140000000596 0.0960000008345 233.0
0.996999979019 0.136000007391 0.097000002861 325.0
1.01400005817 0.127000004053 0.097999997437 234.0
1.01100003719 0.119999997318 0.097999997437 188.0
0.996999979019 0.112999998033 0.097000002861 324.0
1.00699996948 0.108000002801 0.097999997437 326.0
1.00699996948 0.101999998093 0.097999997437 230.0
1.01400005817 0.097000002861 0.097999997437 191.0
1.01600003242 0.0909999981523 0.097999997437 325.0
1.0039999485 0.0850000008941 0.097000002861 240.0
1.01600003242 0.0799999982119 0.0989999994636 233.0
1.02199995518 0.0740000009537 0.0989999994636 185.0
1.00600004196 0.0670000016689 0.097000002861 185.0
1.00499999523 0.0610000006855 0.097000002861 239.0
0.999000012875 0.054999999702 0.097000002861 185.0
1.00800001621 0.0500000007451 0.097999997437 190.0
1.01400005817 0.0439999997616 0.097999997437 185.0
0.998000025749 0.0379999987781 0.097000002861 188.0
1.02799999714 0.0329999998212 0.10000000149 181.0
1.02199995518 0.0270000007004 0.0989999994636 274.0
1.00199997425 -0.0649999976158 0.097999997437 423.0
1.00800001621 -0.0710000023246 0.097999997437 1154.0
1.00899994373 -0.0769999995828 0.0989999994636 1197.0
1.00999999046 -0.082999996841 0.0989999994636 1202.0
1.00499999523 -0.0879999995232 0.097999997437 1204.0
1.00199997425 -0.0939999967813 0.097999997437 1217.0
0.999000012875 -0.0989999994636 0.097999997437 1218.0
1.00100004673 -0.104999996722 0.097999997437 1224.0
0.995999991894 -0.111000001431 0.097999997437 1238.0
0.995000004768 -0.115999996662 0.097999997437 1249.0
0.992999970913 -0.122000001371 0.097999997437 1256.0
0.991999983788 -0.127000004053 0.097000002861 1259.0
0.991999983788 -0.133000001311 0.097999997437 1279.0
0.991999983788 -0.138999998569 0.097999997437 1295.0
0.986000001431 -0.143999993801 0.097000002861 1300.0
0.978999972343 -0.149000003934 0.097000002861 1238.0
0.971000015736 -0.152999997139 0.0960000008345 445.0
0.962999999523 -0.158000007272 0.0949999988079 175.0
0.949000000954 -0.16099999845 0.0939999967813 179.0
0.938000023365 -0.165000006557 0.0930000022054 172.0
0.930000007153 -0.168999999762 0.0920000001788 170.0
0.949000000954 -0.178000003099 0.0939999967813 178.0
0.944999992847 -0.182999998331 0.0939999967813 178.0
0.948000013828 -0.188999995589 0.0939999967813 180.0
0.927999973297 -0.190999999642 0.0920000001788 177.0
0.954999983311 -0.202000007033 0.0949999988079 180.0
0.949000000954 -0.207000002265 0.0949999988079 186.0
0.922999978065 -0.207000002265 0.0920000001788 189.0
0.916000008583 -0.21099999547 0.0920000001788 187.0
0.944999992847 -0.223000004888 0.0949999988079 193.0
0.953999996185 -0.231000006199 0.0960000008345 538.0
0.958000004292 -0.238000005484 0.0960000008345 1344.0
0.953999996185 -0.243000000715 0.0960000008345 1466.0
0.955999970436 -0.25 0.097000002861 1472.0
0.949999988079 -0.254000008106 0.0960000008345 1456.0
0.948000013828 -0.259000003338 0.0960000008345 1474.0
0.949000000954 -0.266000002623 0.0960000008345 1471.0
0.948000013828 -0.270999997854 0.0960000008345 1488.0
0.947000026703 -0.277000010014 0.0960000008345 1493.0
0.941999971867 -0.282000005245 0.0960000008345 1496.0
0.941999971867 -0.287999987602 0.0960000008345 1504.0
0.936999976635 -0.291999995708 0.0960000008345 1520.0
0.933000028133 -0.29699999094 0.0960000008345 1519.0
0.93599998951 -0.303999990225 0.0960000008345 1531.0
0.933000028133 -0.308999985456 0.0960000008345 1509.0
0.935000002384 -0.316000014544 0.0960000008345 654.0
0.903999984264 -0.31099998951 0.0930000022054 227.0
0.90499997139 -0.317999988794 0.0939999967813 210.0
0.919000029564 -0.328999996185 0.0949999988079 209.0
0.916000008583 -0.333999991417 0.0949999988079 209.0
0.882000029087 -0.326999992132 0.0920000001788 211.0
0.865999996662 -0.326999992132 0.0900000035763 205.0
0.89200001955 -0.342999994755 0.0930000022054 207.0
0.880999982357 -0.344999998808 0.0920000001788 212.0
0.89200001955 -0.356000006199 0.0939999967813 215.0
0.870999991894 -0.352999985218 0.0920000001788 207.0
0.875 -0.361000001431 0.0920000001788 208.0
0.90600001812 -0.379999995232 0.0960000008345 212.0
0.875999987125 -0.374000012875 0.0930000022054 214.0
0.901000022888 -0.391000002623 0.0960000008345 752.0
0.903999984264 -0.398999989033 0.097000002861 1518.0
0.903999984264 -0.405999988317 0.097000002861 1615.0
0.894999980927 -0.407999992371 0.0960000008345 1615.0
0.898000001907 -0.416000008583 0.097000002861 1612.0
0.89099997282 -0.419999986887 0.0960000008345 1613.0
0.894999980927 -0.428000003099 0.097000002861 1625.0
0.89099997282 -0.432999998331 0.097000002861 1634.0
0.89200001955 -0.439999997616 0.097000002861 1641.0
0.884000003338 -0.442999988794 0.097000002861 1629.0
0.885999977589 -0.451000005007 0.097000002861 1637.0
0.887000024319 -0.458000004292 0.097999997437 1641.0
0.882000029087 -0.462999999523 0.097000002861 1646.0
0.875999987125 -0.465999990702 0.097000002861 1628.0
0.876999974251 -0.474000006914 0.097000002861 716.0
0.82800000906 -0.453999996185 0.0920000001788 262.0
0.811999976635 -0.451000005007 0.0909999981523 220.0
0.994000017643 0.572000026703 0.10000000149 427.0
1.01100003719 0.574000000954 0.101999998093 397.0
0.980000019073 0.547999978065 0.097999997437 377.0
0.980000019073 0.540000021458 0.097999997437 355.0
0.96899998188 0.526000022888 0.0960000008345 329.0
0.958999991417 0.513000011444 0.0949999988079 319.0
0.976000010967 0.514999985695 0.097000002861 291.0
0.976999998093 0.508000016212 0.0960000008345 268.0
0.976000010967 0.499000012875 0.0960000008345 243.0
0.966000020504 0.486999988556 0.0949999988079 234.0
0.973999977112 0.483000010252 0.0949999988079 220.0
0.958000004292 0.467999994755 0.0939999967813 327.0
0.963999986649 0.463999986649 0.0939999967813 294.0
0.939999997616 0.444999992847 0.0909999981523 297.0
0.939999997616 0.437999993563 0.0909999981523 257.0
0.907999992371 0.384000003338 0.0869999974966 130.0
0.93900001049 0.389999985695 0.0900000035763 90.0
3.96300005913 1.50999999046 0.381999999285 62.0
4.30499982834 1.4659999609 0.411000013351 66.0
4.36600017548 1.45799994469 0.416999995708 64.0
4.40600013733 1.44200003147 0.419999986887 65.0
4.44500017166 1.42599999905 0.423000007868 60.0
4.36000013351 1.34200000763 0.41400000453 60.0
4.33699989319 1.30700004101 0.411000013351 65.0
4.33699989319 1.27900004387 0.411000013351 66.0
4.42199993134 1.27600002289 0.418000012636 61.0
4.41499996185 1.2460000515 0.416999995708 61.0
4.31199979782 1.18900001049 0.407000005245 59.0
4.34299993515 1.16999995708 0.409999996424 62.0
4.29300022125 1.12999999523 0.404000014067 71.0
4.43499994278 1.13999998569 0.416999995708 68.0
4.28800010681 1.07500004768 0.402999997139 62.0
4.46299982071 1.0909999609 0.418999999762 63.0
4.29699993134 1.02400004864 0.402999997139 59.0
4.42100000381 1.02600002289 0.414999991655 58.0
4.45300006866 1.00600004196 0.416999995708 57.0
4.38899993896 0.964999973774 0.411000013351 59.0
4.33900022507 0.927999973297 0.405999988317 60.0
4.29300022125 0.89200001955 0.400999993086 56.0
4.37599992752 0.882000029087 0.409000009298 64.0
1.01699995995 -0.0659999996424 0.0930000022054 446.0
1.01400005817 -0.0710000023246 0.0930000022054 1158.0
1.01300001144 -0.0769999995828 0.0930000022054 1189.0
1.00300002098 -0.082000002265 0.0920000001788 1211.0
1.01100003719 -0.0890000015497 0.0930000022054 1208.0
1.00499999523 -0.0939999967813 0.0920000001788 1217.0
0.996999979019 -0.0989999994636 0.0920000001788 1233.0
0.995999991894 -0.104999996722 0.0920000001788 1225.0
0.998000025749 -0.111000001431 0.0920000001788 1241.0
0.995999991894 -0.115999996662 0.0920000001788 1260.0
0.995999991894 -0.122000001371 0.0920000001788 1254.0
0.991999983788 -0.127000004053 0.0920000001788 1271.0
0.986000001431 -0.131999999285 0.0909999981523 1282.0
0.986999988556 -0.137999996543 0.0909999981523 1283.0
0.986000001431 -0.143999993801 0.0909999981523 1307.0
0.98400002718 -0.15000000596 0.0909999981523 1251.0
0.986999988556 -0.156000003219 0.0920000001788 441.0
0.962999999523 -0.158000007272 0.0900000035763 182.0
0.958999991417 -0.163000002503 0.0890000015497 177.0
0.97000002861 -0.170000001788 0.0900000035763 172.0
0.944999992847 -0.172000005841 0.0879999995232 172.0
0.954999983311 -0.179000005126 0.0890000015497 174.0
0.934000015259 -0.180999994278 0.0869999974966 175.0
0.939999997616 -0.187999993563 0.0879999995232 183.0
0.922999978065 -0.189999997616 0.0860000029206 184.0
0.940999984741 -0.199000000954 0.0879999995232 186.0
0.927999973297 -0.202000007033 0.0869999974966 191.0
0.945999979973 -0.211999997497 0.0890000015497 180.0
0.940999984741 -0.216000005603 0.0890000015497 185.0
0.929000020027 -0.218999996781 0.0879999995232 198.0
0.955999970436 -0.231999993324 0.0900000035763 537.0
0.95300000906 -0.237000003457 0.0900000035763 1350.0
0.953999996185 -0.243000000715 0.0909999981523 1445.0
0.954999983311 -0.248999997973 0.0909999981523 1476.0
0.953999996185 -0.254999995232 0.0909999981523 1481.0
0.945999979973 -0.259000003338 0.0900000035763 1480.0
0.948000013828 -0.264999985695 0.0900000035763 1478.0
0.947000026703 -0.270999997854 0.0909999981523 1483.0
0.943000018597 -0.275999993086 0.0900000035763 1503.0
0.940999984741 -0.280999988317 0.0900000035763 1499.0
0.940999984741 -0.287000000477 0.0900000035763 1511.0
0.938000023365 -0.291999995708 0.0900000035763 1518.0
0.938000023365 -0.298999994993 0.0909999981523 1525.0
0.938000023365 -0.303999990225 0.0909999981523 1531.0
0.927999973297 -0.307000011206 0.0900000035763 1513.0
0.924000024796 -0.312000006437 0.0900000035763 670.0
0.89200001955 -0.307000011206 0.0869999974966 229.0
0.897000014782 -0.314999997616 0.0869999974966 206.0
0.888000011444 -0.317999988794 0.0869999974966 210.0
0.903999984264 -0.328999996185 0.0879999995232 212.0
0.90600001812 -0.33599999547 0.0890000015497 217.0
0.899999976158 -0.340000003576 0.0879999995232 211.0
0.875999987125 -0.337000012398 0.0860000029206 211.0
0.899999976158 -0.351999998093 0.0890000015497 207.0
0.853999972343 -0.340000003576 0.0839999988675 216.0
0.907000005245 -0.368000000715 0.0900000035763 216.0
0.888999998569 -0.36700001359 0.0879999995232 211.0
0.866999983788 -0.363999992609 0.0860000029206 216.0
0.867999970913 -0.370000004768 0.0869999974966 216.0
0.899999976158 -0.391000002623 0.0900000035763 723.0
0.903999984264 -0.398999989033 0.0909999981523 1514.0
0.893999993801 -0.400999993086 0.0900000035763 1620.0
0.898000001907 -0.409999996424 0.0909999981523 1629.0
0.898999989033 -0.416000008583 0.0909999981523 1612.0
0.893000006676 -0.419999986887 0.0909999981523 1643.0
0.893999993801 -0.426999986172 0.0909999981523 1643.0
0.89099997282 -0.432999998331 0.0909999981523 1632.0
0.888000011444 -0.437999993563 0.0909999981523 1629.0
0.89099997282 -0.446000009775 0.0920000001788 1650.0
0.883000016212 -0.449000000954 0.0909999981523 1653.0
0.885999977589 -0.458000004292 0.0920000001788 1666.0
0.879999995232 -0.46099999547 0.0909999981523 1654.0
0.878000020981 -0.467000007629 0.0909999981523 1643.0
0.875 -0.472000002861 0.0909999981523 767.0
0.851000010967 -0.465999990702 0.0890000015497 265.0
0.834999978542 -0.463999986649 0.0879999995232 221.0
1.83399999142 1.05599999428 0.173999994993 97.0
2.01200008392 1.14300000668 0.190999999642 114.0
1.73500001431 0.971000015736 0.16400000453 90.0
3.93899989128 1.52699995041 0.356000006199 66.0
4.08500003815 1.55499994755 0.368999987841 67.0
3.9849998951 1.49000000954 0.358999997377 63.0
4.42199993134 1.5340000391 0.395999997854 74.0
4.242000103 1.44400000572 0.379999995232 70.0
4.3029999733 1.43599998951 0.384999990463 72.0
4.27699995041 1.39900004864 0.381999999285 69.0
4.33799982071 1.39100003242 0.386999994516 73.0
4.32999992371 1.36000001431 0.384999990463 67.0
4.24700021744 1.30599999428 0.377000004053 67.0
4.31199979782 1.2990000248 0.38299998641 71.0
4.26399993896 1.23000001907 0.377999991179 69.0
4.28299999237 1.20799994469 0.379000008106 72.0
4.20200014114 1.15799999237 0.370999991894 67.0
4.34999990463 1.17200005054 0.384000003338 66.0
4.22700023651 1.11199998856 0.372999995947 64.0
4.33199977875 1.11199998856 0.381999999285 66.0
4.26499986649 1.06900000572 0.375999987125 63.0
4.32600021362 1.05700004101 0.381000012159 67.0
4.35300016403 1.03699994087 0.38299998641 58.0
4.34100008011 1.00699996948 0.381000012159 67.0
4.29799985886 0.971000015736 0.377000004053 67.0
4.36999988556 0.959999978542 0.38299998641 69.0
4.32600021362 0.924000024796 0.379000008106 66.0
4.37400007248 0.907999992371 0.38299998641 64.0
4.36600017548 0.879999995232 0.381999999285 59.0
4.36000013351 0.851999998093 0.381000012159 57.0
1.02400004864 -0.0659999996424 0.0879999995232 455.0
1.00999999046 -0.0710000023246 0.0869999974966 1171.0
1.01400005817 -0.0769999995828 0.0869999974966 1199.0
1.00899994373 -0.082999996841 0.0869999974966 1197.0
1.00699996948 -0.0879999995232 0.0869999974966 1197.0
1.00699996948 -0.0939999967813 0.0869999974966 1216.0
0.998000025749 -0.0989999994636 0.0860000029206 1232.0
1.00100004673 -0.104999996722 0.0860000029206 1240.0
0.998000025749 -0.111000001431 0.0860000029206 1238.0
0.991999983788 -0.115999996662 0.0860000029206 1258.0
0.987999975681 -0.120999999344 0.0850000008941 1264.0
0.995999991894 -0.12800000608 0.0860000029206 1269.0
0.991999983788 -0.133000001311 0.0860000029206 1283.0
0.987999975681 -0.137999996543 0.0860000029206 1302.0
0.985000014305 -0.143999993801 0.0860000029206 1308.0
0.98400002718 -0.149000003934 0.0860000029206 1246.0
0.98299998045 -0.155000001192 0.0860000029206 445.0
0.925999999046 -0.150999993086 0.0810000002384 179.0
0.941999971867 -0.159999996424 0.082000002265 175.0
0.949000000954 -0.166999995708 0.082999996841 175.0
0.95300000906 -0.172999992967 0.082999996841 174.0
0.952000021935 -0.179000005126 0.082999996841 177.0
0.945999979973 -0.182999998331 0.082999996841 173.0
0.939999997616 -0.187999993563 0.082000002265 176.0
0.939999997616 -0.193000003695 0.082999996841 179.0
0.949999988079 -0.201000005007 0.0839999988675 186.0
0.947000026703 -0.206000000238 0.082999996841 184.0
0.939999997616 -0.209999993443 0.082999996841 185.0
0.934000015259 -0.215000003576 0.082000002265 187.0
0.931999981403 -0.219999998808 0.082000002265 189.0
0.958999991417 -0.231999993324 0.0850000008941 533.0
0.958000004292 -0.238000005484 0.0850000008941 1362.0
0.952000021935 -0.241999998689 0.0850000008941 1467.0
0.957000017166 -0.25 0.0850000008941 1471.0
0.952000021935 -0.254000008106 0.0850000008941 1482.0
0.95300000906 -0.259999990463 0.0850000008941 1469.0
0.948000013828 -0.264999985695 0.0850000008941 1483.0
0.945999979973 -0.270999997854 0.0850000008941 1505.0
0.944000005722 -0.275999993086 0.0850000008941 1505.0
0.944999992847 -0.282000005245 0.0850000008941 1508.0
0.944000005722 -0.287999987602 0.0850000008941 1522.0
0.939999997616 -0.293000012636 0.0850000008941 1528.0
0.940999984741 -0.298999994993 0.0850000008941 1523.0
0.93599998951 -0.303999990225 0.0850000008941 1532.0
0.930999994278 -0.307999998331 0.0850000008941 1535.0
0.925999999046 -0.312999993563 0.0839999988675 677.0
0.916999995708 -0.314999997616 0.0839999988675 233.0
0.893999993801 -0.31400001049 0.082000002265 210.0
0.912000000477 -0.326000005007 0.082999996841 216.0
0.888000011444 -0.323000013828 0.0810000002384 218.0
0.896000027657 -0.331999987364 0.082000002265 211.0
0.888999998569 -0.33599999547 0.082000002265 210.0
0.902000010014 -0.347000002861 0.082999996841 216.0
0.898999989033 -0.351999998093 0.082999996841 217.0
0.884999990463 -0.352999985218 0.082000002265 221.0
0.898000001907 -0.363999992609 0.0839999988675 214.0
0.876999974251 -0.361999988556 0.082000002265 215.0
0.867999970913 -0.363999992609 0.0810000002384 218.0
0.89099997282 -0.379999995232 0.0839999988675 224.0
0.901000022888 -0.391000002623 0.0850000008941 709.0
0.90499997139 -0.398999989033 0.0850000008941 1519.0
0.901000022888 -0.404000014067 0.0850000008941 1622.0
0.898999989033 -0.409000009298 0.0850000008941 1626.0
0.898999989033 -0.416000008583 0.0860000029206 1628.0
0.896000027657 -0.421000003815 0.0850000008941 1640.0
0.896000027657 -0.428000003099 0.0860000029206 1639.0
0.896000027657 -0.435000002384 0.0860000029206 1646.0
0.893000006676 -0.439999997616 0.0860000029206 1637.0
0.887000024319 -0.444000005722 0.0860000029206 1643.0
0.883000016212 -0.449000000954 0.0850000008941 1646.0
0.882000029087 -0.455000013113 0.0860000029206 1646.0
0.880999982357 -0.462000012398 0.0860000029206 1651.0
0.878000020981 -0.467000007629 0.0860000029206 1638.0
0.878000020981 -0.474000006914 0.0860000029206 785.0
0.842000007629 -0.46099999547 0.082999996841 265.0
0.856000006199 -0.476000010967 0.0839999988675 223.0
2.2009999752 1.26699995995 0.194999992847 111.0
2.18400001526 1.23899996281 0.193000003695 168.0
2.20300006866 1.23199999332 0.194000005722 103.0
3.37299990654 1.40100002289 0.286000013351 77.0
3.30800008774 1.35000002384 0.280000001192 70.0
3.88700008392 1.50600004196 0.32800000906 82.0
3.98600006104 1.51699995995 0.335000008345 83.0
4.00199985504 1.4960000515 0.33599999547 72.0
4.23799991608 1.55499994755 0.354999989271 63.0
4.14699983597 1.43799996376 0.345999985933 81.0
4.19500017166 1.42700004578 0.34999999404 90.0
4.17600011826 1.39300000668 0.347999989986 88.0
4.22100019455 1.37999999523 0.351000010967 92.0
4.21400022507 1.35000002384 0.34999999404 89.0
4.19600009918 1.31700003147 0.347999989986 92.0
4.32000017166 1.32799994946 0.358000010252 85.0
4.27099990845 1.28600001335 0.352999985218 85.0
4.23999977112 1.24899995327 0.351000010967 93.0
4.22100019455 1.2159999609 0.347999989986 89.0
4.28399991989 1.20700001717 0.352999985218 93.0
4.21000003815 1.15999996662 0.347000002861 93.0
4.28900003433 1.15499997139 0.352999985218 91.0
4.24100017548 1.11500000954 0.349000006914 92.0
4.29400014877 1.10199999809 0.352999985218 95.0
4.25400018692 1.06500005722 0.349000006914 90.0
4.24599981308 1.03699994087 0.347999989986 91.0
4.27899980545 1.01900005341 0.351000010967 89.0
4.1970000267 0.972999989986 0.344000011683 90.0
4.30700016022 0.972000002861 0.351999998093 91.0
4.24399995804 0.931999981403 0.347000002861 97.0
4.1970000267 0.896000027657 0.342999994755 95.0
4.24399995804 0.879999995232 0.345999985933 96.0
4.22700023651 0.851000010967 0.344999998808 97.0
4.29600000381 0.838999986649 0.34999999404 72.0
1.01699995995 -0.0659999996424 0.082000002265 472.0
1.00600004196 -0.0710000023246 0.0810000002384 1171.0
1.00300002098 -0.0759999975562 0.0799999982119 1199.0
1.00800001621 -0.082999996841 0.0810000002384 1198.0
1.00600004196 -0.0879999995232 0.0810000002384 1202.0
1.00100004673 -0.0930000022054 0.0799999982119 1230.0
1.0 -0.0989999994636 0.0799999982119 1236.0
1.0 -0.104999996722 0.0810000002384 1229.0
1.00199997425 -0.111000001431 0.0810000002384 1262.0
0.995999991894 -0.115999996662 0.0799999982119 1261.0
0.994000017643 -0.122000001371 0.0799999982119 1269.0
0.992999970913 -0.127000004053 0.0799999982119 1274.0
0.987999975681 -0.133000001311 0.0799999982119 1279.0
0.987999975681 -0.137999996543 0.0799999982119 1302.0
0.987999975681 -0.143999993801 0.0799999982119 1306.0
0.980000019073 -0.149000003934 0.0790000036359 1239.0
0.975000023842 -0.153999999166 0.0790000036359 432.0
0.949000000954 -0.155000001192 0.0769999995828 177.0
0.941999971867 -0.159999996424 0.0769999995828 176.0
0.947000026703 -0.165999993682 0.0769999995828 177.0
0.934000015259 -0.168999999762 0.0759999975562 173.0
0.962999999523 -0.180999994278 0.0790000036359 181.0
0.930000007153 -0.180000007153 0.0759999975562 176.0
0.947000026703 -0.188999995589 0.0769999995828 180.0
0.93599998951 -0.192000001669 0.0769999995828 181.0
0.940999984741 -0.199000000954 0.0769999995828 179.0
0.926999986172 -0.202000007033 0.0759999975562 190.0
0.921000003815 -0.206000000238 0.0759999975562 186.0
0.934000015259 -0.215000003576 0.0769999995828 190.0
0.920000016689 -0.216999992728 0.0759999975562 193.0
0.949999988079 -0.230000004172 0.0790000036359 531.0
0.952000021935 -0.236000001431 0.0790000036359 1362.0
0.958999991417 -0.244000002742 0.0799999982119 1450.0
0.954999983311 -0.248999997973 0.0790000036359 1467.0
0.953999996185 -0.254999995232 0.0790000036359 1488.0
0.945999979973 -0.259000003338 0.0790000036359 1491.0
0.949999988079 -0.266000002623 0.0790000036359 1487.0
0.948000013828 -0.270999997854 0.0790000036359 1492.0
0.940999984741 -0.27500000596 0.0790000036359 1501.0
0.944000005722 -0.282000005245 0.0790000036359 1499.0
0.941999971867 -0.287000000477 0.0790000036359 1519.0
0.936999976635 -0.291999995708 0.0790000036359 1529.0
0.93599998951 -0.298000007868 0.0790000036359 1528.0
0.934000015259 -0.303000003099 0.0790000036359 1539.0
0.930000007153 -0.307999998331 0.0790000036359 1530.0
0.935000002384 -0.314999997616 0.0790000036359 686.0
0.90600001812 -0.312000006437 0.0769999995828 235.0
0.883000016212 -0.310000002384 0.0750000029802 205.0
0.903999984264 -0.323000013828 0.0769999995828 212.0
0.907999992371 -0.330000013113 0.0780000016093 209.0
0.875999987125 -0.324999988079 0.0750000029802 216.0
0.893000006676 -0.337000012398 0.0769999995828 211.0
0.89200001955 -0.342999994755 0.0769999995828 213.0
0.902000010014 -0.352999985218 0.0780000016093 214.0
0.884000003338 -0.351999998093 0.0769999995828 220.0
0.875999987125 -0.354999989271 0.0759999975562 215.0
0.871999979019 -0.358999997377 0.0759999975562 222.0
0.887000024319 -0.372000008821 0.0769999995828 219.0
0.89099997282 -0.379999995232 0.0780000016093 221.0
0.898999989033 -0.389999985695 0.0790000036359 688.0
0.896000027657 -0.395000010729 0.0790000036359 1513.0
0.902000010014 -0.404000014067 0.0799999982119 1632.0
0.898999989033 -0.409000009298 0.0799999982119 1635.0
0.899999976158 -0.416999995708 0.0799999982119 1631.0
0.894999980927 -0.421000003815 0.0799999982119 1634.0
0.896000027657 -0.428000003099 0.0799999982119 1650.0
0.89099997282 -0.432000011206 0.0799999982119 1656.0
0.889999985695 -0.43900001049 0.0799999982119 1646.0
0.889999985695 -0.446000009775 0.0799999982119 1653.0
0.887000024319 -0.451000005007 0.0799999982119 1665.0
0.884000003338 -0.456000000238 0.0799999982119 1657.0
0.879999995232 -0.46099999547 0.0799999982119 1655.0
0.876999974251 -0.465999990702 0.0799999982119 1650.0
0.869000017643 -0.469000011683 0.0799999982119 821.0
0.839999973774 -0.460000008345 0.0769999995828 275.0
0.842000007629 -0.467000007629 0.0769999995828 221.0
2.21900010109 1.27699995041 0.181999996305 192.0
2.21000003815 1.2539999485 0.180999994278 238.0
2.28900003433 1.27999997139 0.187000006437 134.0
2.31299996376 1.27400004864 0.187999993563 91.0
3.4470000267 1.43099999428 0.270999997854 85.0
3.49399995804 1.42599999905 0.273999989033 71.0
3.84299993515 1.51499998569 0.300999999046 67.0
3.86599993706 1.49699997902 0.301999986172 103.0
3.95900011063 1.50600004196 0.308999985456 103.0
3.92899990082 1.46700000763 0.305999994278 91.0
4.11499977112 1.50899994373 0.319999992847 62.0
4.13899993896 1.49000000954 0.321000009775 63.0
4.28100013733 1.51199996471 0.331999987364 63.0
4.16499996185 1.44400000572 0.321999996901 91.0
4.20300006866 1.42900002003 0.324999988079 102.0
4.23699998856 1.41199994087 0.326999992132 103.0
4.26999998093 1.39499998093 0.328999996185 100.0
4.24599981308 1.36000001431 0.326999992132 97.0
4.19299983978 1.31599998474 0.321999996901 101.0
