ply
format ascii 1.0
element vertex 940
property float x
property float y
property float z
property float intensity
end_header
4.35900020599 1.43400001526 1.09599995613 165.0
4.36199998856 1.40600001812 1.09500002861 164.0
4.33900022507 1.36899995804 1.08800005913 167.0
4.36499977112 1.34899997711 1.09300005436 165.0
4.37799978256 1.32400000095 1.09399998188 165.0
4.34899997711 1.28600001335 1.08500003815 164.0
4.35300016403 1.25899994373 1.08500003815 165.0
4.38999986649 1.24100005627 1.09300005436 164.0
4.37400007248 1.20899999142 1.0870000124 160.0
4.36899995804 1.17900002003 1.08500003815 158.0
4.38700008392 1.15600001812 1.08800005913 155.0
4.50500011444 1.15799999237 1.11600005627 113.0
4.77199983597 1.19599997997 1.18099999428 66.0
4.78900003433 1.16999995708 1.18400001526 68.0
4.69899988174 1.08899998665 1.1590000391 59.0
4.92000007629 0.451000005007 1.19400000572 56.0
4.83900022507 0.21400000155 1.17299997807 63.0
4.86199998856 0.187000006437 1.1779999733 61.0
4.86199998856 0.158000007272 1.1779999733 54.0
4.91699981689 0.130999997258 1.19099998474 60.0
0.0370000004768 0.00200000009499 0.00600000005215 56.0
4.89599990845 0.0719999969006 1.18599998951 55.0
0.0939999967813 0.00200000009499 0.019999999553 55.0
0.175999999046 0.0 0.0399999991059 56.0
0.115000002086 0.0 0.0250000003725 56.0
0.799000024796 -0.0189999993891 0.190999999642 135.0
0.994000017643 -0.0299999993294 0.238999992609 914.0
0.996999979019 -0.0359999984503 0.239999994636 1021.0
0.998000025749 -0.0410000011325 0.239999994636 968.0
1.0 -0.0469999983907 0.240999996662 1258.0
1.00199997425 -0.0529999993742 0.240999996662 1141.0
0.999000012875 -0.0590000003576 0.239999994636 1138.0
0.998000025749 -0.0649999976158 0.239999994636 1153.0
0.995999991894 -0.0710000023246 0.239999994636 1168.0
0.992999970913 -0.0759999975562 0.238999992609 1161.0
0.990000009537 -0.082000002265 0.238999992609 1154.0
0.998000025749 -0.0879999995232 0.240999996662 1174.0
0.990000009537 -0.0939999967813 0.238999992609 1184.0
0.990000009537 -0.10000000149 0.238999992609 1195.0
0.98400002718 -0.104999996722 0.238000005484 1186.0
0.986000001431 -0.111000001431 0.238999992609 1206.0
0.98299998045 -0.115999996662 0.238000005484 1216.0
0.977999985218 -0.122000001371 0.237000003457 1210.0
0.980000019073 -0.12800000608 0.238000005484 1218.0
0.976000010967 -0.133000001311 0.237000003457 1231.0
0.972999989986 -0.137999996543 0.236000001431 1237.0
0.981000006199 -0.144999995828 0.238000005484 1242.0
0.976999998093 -0.150999993086 0.238000005484 1244.0
0.97000002861 -0.155000001192 0.236000001431 1259.0
0.97000002861 -0.162000000477 0.236000001431 1271.0
0.972000002861 -0.167999997735 0.237000003457 1274.0
0.96899998188 -0.172999992967 0.237000003457 1272.0
0.97000002861 -0.179000005126 0.237000003457 1278.0
0.96899998188 -0.185000002384 0.237000003457 1282.0
0.967999994755 -0.190999999642 0.237000003457 1286.0
0.967999994755 -0.196999996901 0.237000003457 1284.0
0.962999999523 -0.201000005007 0.236000001431 1302.0
0.962999999523 -0.208000004292 0.237000003457 1318.0
0.961000025272 -0.212999999523 0.237000003457 1321.0
0.961000025272 -0.218999996781 0.237000003457 1322.0
0.958999991417 -0.22499999404 0.237000003457 1325.0
0.957000017166 -0.230000004172 0.236000001431 1334.0
0.954999983311 -0.236000001431 0.236000001431 1325.0
0.952000021935 -0.240999996662 0.236000001431 1326.0
0.947000026703 -0.246000006795 0.234999999404 1343.0
0.950999975204 -0.252999991179 0.236000001431 1337.0
0.95300000906 -0.259999990463 0.237000003457 1345.0
0.947000026703 -0.263999998569 0.236000001431 1357.0
0.943000018597 -0.268999993801 0.234999999404 1362.0
0.934000015259 -0.272000014782 0.233999997377 1369.0
0.943000018597 -0.280999988317 0.236000001431 1374.0
0.940999984741 -0.287000000477 0.236000001431 1364.0
0.934000015259 -0.291000008583 0.234999999404 1381.0
0.93599998951 -0.298000007868 0.236000001431 1386.0
0.934000015259 -0.303000003099 0.236000001431 1392.0
0.933000028133 -0.308999985456 0.236000001431 1387.0
0.935000002384 -0.316000014544 0.237000003457 1395.0
0.926999986172 -0.319999992847 0.234999999404 1402.0
0.925000011921 -0.324999988079 0.234999999404 1399.0
0.926999986172 -0.331999987364 0.236000001431 1398.0
0.924000024796 -0.337000012398 0.236000001431 1388.0
0.915000021458 -0.340999990702 0.233999997377 1410.0
0.916000008583 -0.347000002861 0.234999999404 1411.0
0.916000008583 -0.354000002146 0.234999999404 1398.0
0.915000021458 -0.360000014305 0.236000001431 1412.0
0.916000008583 -0.36700001359 0.236000001431 1407.0
0.913999974728 -0.372999995947 0.236000001431 1424.0
0.907000005245 -0.375999987125 0.234999999404 1405.0
0.899999976158 -0.379999995232 0.233999997377 1408.0
0.90499997139 -0.388000011444 0.236000001431 1419.0
0.901000022888 -0.393000006676 0.234999999404 1426.0
0.902999997139 -0.400999993086 0.236000001431 1415.0
0.896000027657 -0.404000014067 0.234999999404 1414.0
0.893999993801 -0.409999996424 0.234999999404 1433.0
0.899999976158 -0.419999986887 0.237000003457 1428.0
0.89099997282 -0.42199999094 0.236000001431 1419.0
0.893000006676 -0.430000007153 0.237000003457 1412.0
0.893000006676 -0.437000006437 0.238000005484 1449.0
0.882000029087 -0.437999993563 0.234999999404 1437.0
0.884000003338 -0.446000009775 0.236000001431 1428.0
0.880999982357 -0.451999992132 0.236000001431 1425.0
0.880999982357 -0.458999991417 0.237000003457 1421.0
0.882000029087 -0.465999990702 0.238000005484 1414.0
0.870999991894 -0.467999994755 0.236000001431 1431.0
0.867999970913 -0.472999989986 0.236000001431 1434.0
0.870000004768 -0.481000006199 0.237000003457 1426.0
0.869000017643 -0.488000005484 0.237000003457 1416.0
0.866999983788 -0.493999987841 0.238000005484 1424.0
4.16599988937 2.46600008011 1.10800004005 102.0
4.08900022507 2.38499999046 1.08399999142 89.0
4.21000003815 2.42100000381 1.11199998856 124.0
4.27699995041 2.42300009727 1.12699997425 122.0
4.20200014114 2.34500002861 1.10399997234 105.0
4.17399978638 2.29500007629 1.09300005436 105.0
4.24499988556 2.2990000248 1.10800004005 126.0
4.21799993515 2.25099992752 1.09800004959 107.0
4.2389998436 2.22799992561 1.10099995136 115.0
4.27699995041 2.21300005913 1.10800004005 125.0
4.22499990463 2.15300011635 1.0909999609 108.0
4.35900020599 2.18600010872 1.12300002575 117.0
4.33099985123 2.13899993896 1.11300003529 124.0
3.99799990654 1.94400000572 1.02400004864 113.0
3.98900008202 1.90799999237 1.01999998093 133.0
4.14300012589 1.9509999752 1.05599999428 126.0
4.13700008392 1.91600000858 1.05200004578 148.0
4.08900022507 1.86300003529 1.0379999876 185.0
4.08199977875 1.82899999619 1.03299999237 178.0
4.20699977875 1.85500001907 1.06299996376 157.0
4.36899995804 1.89400005341 1.10099995136 135.0
4.34299993515 1.85099995136 1.09200000763 144.0
4.35300016403 1.82299995422 1.09300005436 145.0
4.27600002289 1.75999999046 1.07099997997 184.0
4.27199983597 1.72800004482 1.06799995899 186.0
4.3029999733 1.71000003815 1.07299995422 185.0
4.31300020218 1.68299996853 1.07400000095 183.0
4.29799985886 1.64699995518 1.06799995899 181.0
4.3140001297 1.62300002575 1.07000005245 174.0
4.32600021362 1.59800004959 1.07099997997 169.0
4.3220000267 1.56599998474 1.06799995899 173.0
4.30900001526 1.53199994564 1.06299996376 171.0
4.34100008011 1.51400005817 1.06900000572 170.0
4.35500001907 1.48899996281 1.07000005245 166.0
4.33199977875 1.45200002193 1.06299996376 169.0
4.36899995804 1.43499994278 1.07099997997 168.0
4.36899995804 1.40600001812 1.06900000572 166.0
4.3639998436 1.375 1.06599998474 168.0
4.34999990463 1.34200000763 1.06099998951 166.0
4.35900020599 1.31599998474 1.06200003624 163.0
4.39099979401 1.29700005054 1.06799995899 159.0
4.38399982452 1.26600003242 1.06500005722 155.0
4.37599992752 1.23599994183 1.06099998951 170.0
4.40199995041 1.21500003338 1.06599998474 152.0
4.36800003052 1.17700004578 1.05700004101 159.0
4.38899993896 1.15400004387 1.05999994278 150.0
4.46700000763 1.14699995518 1.07799994946 107.0
0.0320000015199 0.00800000037998 0.00499999988824 61.0
0.0430000014603 0.0109999999404 0.00800000037998 59.0
4.93200016022 0.188999995589 1.16499996185 53.0
0.111000001431 0.00400000018999 0.0230000000447 55.0
4.90799999237 -0.0710000023246 1.15999996662 59.0
0.0430000014603 0.0010000000475 0.00700000021607 59.0
0.878000020981 -0.0209999997169 0.204999998212 172.0
0.995000004768 -0.0299999993294 0.232999995351 933.0
1.00300002098 -0.0359999984503 0.234999999404 1104.0
0.996999979019 -0.0410000011325 0.233999997377 1125.0
0.998000025749 -0.0469999983907 0.233999997377 1134.0
0.995000004768 -0.0529999993742 0.232999995351 1154.0
0.998000025749 -0.0590000003576 0.233999997377 1143.0
1.0 -0.0649999976158 0.234999999404 1152.0
0.990999996662 -0.070000000298 0.232999995351 1172.0
0.998000025749 -0.0769999995828 0.234999999404 1169.0
0.995000004768 -0.082000002265 0.233999997377 1176.0
0.986999988556 -0.0869999974966 0.231999993324 1176.0
0.986000001431 -0.0930000022054 0.231999993324 1195.0
0.986000001431 -0.0989999994636 0.231999993324 1195.0
0.986000001431 -0.104999996722 0.231999993324 1198.0
0.991999983788 -0.111000001431 0.233999997377 1210.0
0.986999988556 -0.116999998689 0.232999995351 1215.0
0.981000006199 -0.122000001371 0.231999993324 1224.0
0.981999993324 -0.12800000608 0.231999993324 1218.0
0.981999993324 -0.134000003338 0.231999993324 1227.0
0.976999998093 -0.138999998569 0.231000006199 1255.0
0.972000002861 -0.143999993801 0.230000004172 1257.0
0.978999972343 -0.150999993086 0.231999993324 1237.0
0.976000010967 -0.156000003219 0.231000006199 1272.0
0.972999989986 -0.162000000477 0.231000006199 1277.0
0.967000007629 -0.166999995708 0.230000004172 1266.0
0.972999989986 -0.173999994993 0.231000006199 1280.0
0.962999999523 -0.178000003099 0.229000002146 1281.0
0.96899998188 -0.185000002384 0.231000006199 1288.0
0.967999994755 -0.189999997616 0.231000006199 1291.0
0.962999999523 -0.194999992847 0.230000004172 1296.0
0.958000004292 -0.20000000298 0.229000002146 1307.0
0.962999999523 -0.207000002265 0.231000006199 1306.0
0.958999991417 -0.211999997497 0.230000004172 1320.0
0.959999978542 -0.218999996781 0.231000006199 1318.0
0.95300000906 -0.223000004888 0.229000002146 1327.0
0.952000021935 -0.229000002146 0.229000002146 1327.0
0.95300000906 -0.234999999404 0.230000004172 1322.0
0.949999988079 -0.239999994636 0.229000002146 1322.0
0.953999996185 -0.24699999392 0.231000006199 1337.0
0.948000013828 -0.252000004053 0.230000004172 1364.0
0.944000005722 -0.256999999285 0.229000002146 1353.0
0.944999992847 -0.263000011444 0.230000004172 1352.0
0.945999979973 -0.270000010729 0.230000004172 1364.0
0.943000018597 -0.27500000596 0.230000004172 1368.0
0.938000023365 -0.280000001192 0.229000002146 1367.0
0.944999992847 -0.287999987602 0.231000006199 1375.0
0.935000002384 -0.291000008583 0.229000002146 1379.0
0.931999981403 -0.296000003815 0.229000002146 1394.0
0.931999981403 -0.301999986172 0.229000002146 1395.0
0.926999986172 -0.307000011206 0.228000000119 1397.0
0.926999986172 -0.312999993563 0.229000002146 1388.0
0.926999986172 -0.319000005722 0.229000002146 1403.0
0.924000024796 -0.324999988079 0.229000002146 1422.0
0.921000003815 -0.330000013113 0.229000002146 1405.0
0.916999995708 -0.335000008345 0.228000000119 1418.0
0.924000024796 -0.344000011683 0.230000004172 1397.0
0.92199999094 -0.349000006914 0.230000004172 1419.0
0.915000021458 -0.352999985218 0.229000002146 1420.0
0.912000000477 -0.358000010252 0.229000002146 1410.0
0.915000021458 -0.365999996662 0.230000004172 1415.0
0.907000005245 -0.368999987841 0.228000000119 1425.0
0.907999992371 -0.375999987125 0.229000002146 1423.0
0.90600001812 -0.381999999285 0.229000002146 1417.0
0.90499997139 -0.388000011444 0.230000004172 1434.0
0.903999984264 -0.393999993801 0.230000004172 1428.0
0.898999989033 -0.398999989033 0.229000002146 1433.0
0.898999989033 -0.405000001192 0.230000004172 1421.0
0.89099997282 -0.407999992371 0.228000000119 1423.0
0.893000006676 -0.416000008583 0.229000002146 1425.0
0.89099997282 -0.42199999094 0.230000004172 1434.0
0.894999980927 -0.430000007153 0.231000006199 1423.0
0.885999977589 -0.432999998331 0.229000002146 1437.0
0.882000029087 -0.437999993563 0.229000002146 1436.0
0.882000029087 -0.444999992847 0.230000004172 1440.0
0.887000024319 -0.453999996185 0.231999993324 1437.0
0.880999982357 -0.458000004292 0.231000006199 1433.0
0.876999974251 -0.462999999523 0.230000004172 1435.0
0.870999991894 -0.467000007629 0.230000004172 1430.0
0.871999979019 -0.47499999404 0.231000006199 1442.0
0.870999991894 -0.481000006199 0.231000006199 1439.0
0.867999970913 -0.486999988556 0.231000006199 1410.0
0.867999970913 -0.493999987841 0.231999993324 1438.0
4.1779999733 2.47000002861 1.08099997044 103.0
4.16599988937 2.42700004578 1.07500004768 90.0
4.21799993515 2.42199993134 1.08500003815 114.0
4.21099996567 2.38199996948 1.08000004292 119.0
4.1859998703 2.33299994469 1.07000005245 96.0
4.24100017548 2.32899999619 1.08099997044 107.0
4.242000103 2.29399991035 1.07799994946 113.0
4.19999980927 2.23699998856 1.06400001049 91.0
4.25400018692 2.23200011253 1.07500004768 120.0
4.3029999733 2.22399997711 1.08500003815 119.0
4.24700021744 2.16100001335 1.06799995899 106.0
4.33799982071 2.17300009727 1.08800005913 121.0
4.35099983215 2.14499998093 1.08800005913 118.0
3.94199991226 1.9129999876 0.98299998045 127.0
4.01300001144 1.91700005531 0.998000025749 122.0
4.11800003052 1.93599998951 1.02199995518 126.0
4.13999986649 1.91499996185 1.02499997616 164.0
4.11600017548 1.87300002575 1.01699995995 173.0
4.14400005341 1.85500001907 1.02100002766 166.0
4.22700023651 1.86000001431 1.03900003433 152.0
4.32499980927 1.87199997902 1.06099998951 134.0
4.34299993515 1.84800004959 1.06299996376 141.0
4.32999992371 1.81099998951 1.05799996853 146.0
4.29300022125 1.76499998569 1.04700005054 193.0
4.3060002327 1.73899996281 1.04799997807 186.0
4.30100011826 1.70700001717 1.04499995708 183.0
4.32000017166 1.68400001526 1.04700005054 178.0
4.29799985886 1.64499998093 1.03999996185 171.0
4.30900001526 1.61899995804 1.03999996185 174.0
4.3220000267 1.59399998188 1.04100000858 175.0
4.33599996567 1.56900000572 1.04299998283 165.0
4.34299993515 1.54200005531 1.04299998283 164.0
4.33199977875 1.50899994373 1.03900003433 167.0
4.36299991608 1.49000000954 1.04400002956 166.0
4.33900022507 1.45200002193 1.03699994087 165.0
4.35099983215 1.42700004578 1.0379999876 165.0
4.35200023651 1.39900004864 1.03699994087 167.0
4.37799978256 1.37800002098 1.04100000858 163.0
4.33500003815 1.33599996567 1.02900004387 161.0
4.36100006104 1.31500005722 1.0340000391 166.0
4.3639998436 1.28699994087 1.03299999237 160.0
4.37799978256 1.26300001144 1.03499996662 166.0
4.382999897 1.23599994183 1.03499996662 160.0
4.42000007629 1.21800005436 1.04200005531 155.0
4.39300012589 1.18200004101 1.03499996662 151.0
4.39799976349 1.15499997139 1.03499996662 149.0
4.507999897 1.15600001812 1.05900001526 107.0
4.77699995041 1.19400000572 1.1210000515 64.0
0.00899999961257 0.00300000002608 0.0 71.0
4.82899999619 -0.0130000002682 1.11099994183 54.0
0.805999994278 -0.0189999993891 0.182999998331 147.0
0.998000025749 -0.0299999993294 0.228000000119 936.0
1.0039999485 -0.0359999984503 0.229000002146 1125.0
1.00899994373 -0.0419999994338 0.230000004172 1123.0
1.00199997425 -0.0469999983907 0.229000002146 1136.0
0.999000012875 -0.0529999993742 0.228000000119 1157.0
1.0 -0.0590000003576 0.228000000119 1151.0
0.991999983788 -0.0640000030398 0.226999998093 1160.0
0.995999991894 -0.0710000023246 0.228000000119 1168.0
0.996999979019 -0.0759999975562 0.228000000119 1178.0
0.995000004768 -0.082000002265 0.228000000119 1181.0
0.989000022411 -0.0879999995232 0.226999998093 1179.0
0.991999983788 -0.0939999967813 0.226999998093 1195.0
0.986999988556 -0.0989999994636 0.225999996066 1211.0
0.98299998045 -0.104000002146 0.225999996066 1200.0
0.992999970913 -0.111000001431 0.228000000119 1216.0
0.978999972343 -0.115999996662 0.22499999404 1227.0
0.978999972343 -0.122000001371 0.22499999404 1227.0
0.978999972343 -0.127000004053 0.22499999404 1232.0
0.978999972343 -0.133000001311 0.22499999404 1226.0
0.978999972343 -0.138999998569 0.225999996066 1249.0
0.978999972343 -0.144999995828 0.225999996066 1243.0
0.977999985218 -0.150999993086 0.225999996066 1249.0
0.977999985218 -0.156000003219 0.225999996066 1269.0
0.96899998188 -0.16099999845 0.224000006914 1280.0
0.973999977112 -0.167999997735 0.22499999404 1275.0
0.975000023842 -0.173999994993 0.225999996066 1290.0
0.971000015736 -0.179000005126 0.22499999404 1281.0
0.964999973774 -0.184000000358 0.224000006914 1292.0
0.967999994755 -0.189999997616 0.22499999404 1315.0
0.961000025272 -0.194999992847 0.224000006914 1306.0
0.964999973774 -0.202000007033 0.22499999404 1302.0
0.958999991417 -0.206000000238 0.224000006914 1325.0
0.962000012398 -0.212999999523 0.22499999404 1326.0
0.955999970436 -0.216999992728 0.223000004888 1327.0
0.958000004292 -0.224000006914 0.224000006914 1322.0
0.958999991417 -0.230000004172 0.22499999404 1346.0
0.953999996185 -0.234999999404 0.224000006914 1345.0
0.950999975204 -0.239999994636 0.224000006914 1341.0
0.95300000906 -0.24699999392 0.224000006914 1357.0
0.944999992847 -0.250999987125 0.223000004888 1359.0
0.944000005722 -0.256999999285 0.223000004888 1348.0
0.948000013828 -0.263999998569 0.224000006914 1359.0
0.945999979973 -0.268999993801 0.224000006914 1357.0
0.944999992847 -0.27500000596 0.224000006914 1372.0
0.943000018597 -0.280999988317 0.224000006914 1375.0
0.93900001049 -0.286000013351 0.224000006914 1370.0
0.935000002384 -0.289999991655 0.223000004888 1386.0
0.93599998951 -0.29699999094 0.224000006914 1402.0
0.93599998951 -0.303000003099 0.224000006914 1386.0
0.935000002384 -0.308999985456 0.224000006914 1400.0
0.933000028133 -0.314999997616 0.224000006914 1396.0
0.930000007153 -0.319999992847 0.224000006914 1408.0
0.922999978065 -0.324000000954 0.223000004888 1407.0
0.924000024796 -0.331000000238 0.223000004888 1397.0
0.92199999094 -0.33599999547 0.223000004888 1430.0
0.921000003815 -0.342000007629 0.223000004888 1426.0
0.92199999094 -0.349000006914 0.224000006914 1419.0
0.913999974728 -0.351999998093 0.223000004888 1418.0
0.917999982834 -0.360000014305 0.224000006914 1420.0
0.911000013351 -0.363999992609 0.223000004888 1423.0
0.915000021458 -0.372000008821 0.224000006914 1427.0
0.907999992371 -0.375 0.223000004888 1434.0
0.912999987602 -0.384000003338 0.22499999404 1418.0
0.902000010014 -0.386000007391 0.223000004888 1435.0
0.902999997139 -0.393000006676 0.224000006914 1435.0
0.899999976158 -0.398999989033 0.224000006914 1426.0
0.898000001907 -0.404000014067 0.224000006914 1426.0
0.896000027657 -0.409999996424 0.224000006914 1438.0
0.901000022888 -0.418999999762 0.22499999404 1442.0
0.896000027657 -0.423999994993 0.22499999404 1445.0
0.888000011444 -0.426999986172 0.224000006914 1437.0
0.89200001955 -0.435000002384 0.22499999404 1450.0
0.888000011444 -0.439999997616 0.22499999404 1442.0
0.883000016212 -0.444999992847 0.224000006914 1449.0
0.878000020981 -0.449000000954 0.223000004888 1446.0
0.879999995232 -0.456999987364 0.22499999404 1444.0
0.875999987125 -0.462000012398 0.224000006914 1462.0
0.879999995232 -0.470999985933 0.225999996066 1443.0
0.870999991894 -0.472999989986 0.224000006914 1438.0
0.866999983788 -0.477999985218 0.224000006914 1465.0
0.870000004768 -0.486999988556 0.225999996066 1431.0
0.866999983788 -0.493000000715 0.22499999404 1429.0
4.14900016785 2.44899988174 1.04400002956 99.0
4.22700023651 2.45900011063 1.06099998951 106.0
4.23000001907 2.42499995232 1.05799996853 116.0
4.26499986649 2.40899991989 1.06400001049 108.0
4.19000005722 2.33200001717 1.04200005531 92.0
4.18200016022 2.29299998283 1.03699994087 107.0
4.26000022888 2.30100011826 1.0529999733 118.0
4.17299985886 2.22000002861 1.02900004387 102.0
4.23699998856 2.22000002861 1.04200005531 121.0
4.30999994278 2.22399997711 1.05700004101 114.0
4.23999977112 2.15400004387 1.03699994087 97.0
4.32700014114 2.16400003433 1.05599999428 110.0
4.32800006866 2.13100004196 1.0529999733 112.0
3.90799999237 1.89400005341 0.948000013828 124.0
4.02500009537 1.91999995708 0.973999977112 134.0
4.17199993134 1.95899999142 1.00800001621 129.0
4.16200017929 1.92200005054 1.00300002098 156.0
4.09999990463 1.86300003529 0.985000014305 179.0
4.15299987793 1.85599994659 0.995999991894 173.0
4.24300003052 1.86500000954 1.01499998569 143.0
4.36999988556 1.88900005817 1.04299998283 135.0
4.36999988556 1.85699999332 1.04100000858 133.0
4.33599996567 1.81099998951 1.03100001812 140.0
4.28100013733 1.75699996948 1.01600003242 193.0
4.28000020981 1.72599995136 1.01300001144 183.0
4.28399991989 1.69799995422 1.01199996471 181.0
4.31500005722 1.67900002003 1.01699995995 171.0
4.29600000381 1.64199995995 1.01100003719 179.0
4.32299995422 1.62199997902 1.01499998569 178.0
4.36299991608 1.60699999332 1.02300000191 177.0
4.35500001907 1.57400000095 1.01900005341 169.0
4.33599996567 1.53699994087 1.01300001144 167.0
4.34499979019 1.51100003719 1.01300001144 166.0
4.33300018311 1.47800004482 1.00899994373 166.0
4.37699985504 1.46300005913 1.01699995995 166.0
4.32299995422 1.41600000858 1.00300002098 168.0
4.37699985504 1.40499997139 1.01400005817 171.0
4.35099983215 1.36699998379 1.00699996948 167.0
4.36600017548 1.34300005436 1.00899994373 168.0
4.40100002289 1.32500004768 1.01499998569 166.0
4.3860001564 1.29200005531 1.01100003719 161.0
4.35599994659 1.25499999523 1.00199997425 161.0
4.36899995804 1.23000001907 1.0039999485 160.0
4.38399982452 1.20599997044 1.00600004196 156.0
4.40700006485 1.18400001526 1.00999999046 158.0
4.38399982452 1.14999997616 1.00300002098 155.0
4.52299976349 1.15799999237 1.0340000391 100.0
0.0149999996647 0.00400000018999 0.0010000000475 66.0
0.865000009537 -0.019999999553 0.190999999642 187.0
0.998000025749 -0.0299999993294 0.222000002861 969.0
1.0039999485 -0.0359999984503 0.223000004888 1135.0
1.0039999485 -0.0419999994338 0.223000004888 1140.0
0.995000004768 -0.0469999983907 0.221000000834 1161.0
0.995999991894 -0.0529999993742 0.221000000834 1146.0
0.998000025749 -0.0590000003576 0.222000002861 1161.0
1.00199997425 -0.0649999976158 0.223000004888 1158.0
0.995000004768 -0.070000000298 0.221000000834 1169.0
0.992999970913 -0.0759999975562 0.221000000834 1174.0
0.990999996662 -0.082000002265 0.221000000834 1188.0
0.994000017643 -0.0879999995232 0.222000002861 1187.0
0.990999996662 -0.0930000022054 0.221000000834 1190.0
0.98400002718 -0.0989999994636 0.218999996781 1207.0
0.98400002718 -0.104000002146 0.219999998808 1205.0
0.981999993324 -0.109999999404 0.218999996781 1217.0
0.986000001431 -0.115999996662 0.219999998808 1233.0
0.980000019073 -0.120999999344 0.218999996781 1221.0
0.978999972343 -0.127000004053 0.218999996781 1228.0
0.98299998045 -0.134000003338 0.219999998808 1242.0
0.981000006199 -0.138999998569 0.219999998808 1239.0
0.977999985218 -0.144999995828 0.219999998808 1250.0
0.977999985218 -0.15000000596 0.219999998808 1259.0
0.971000015736 -0.155000001192 0.217999994755 1262.0
0.972000002861 -0.16099999845 0.218999996781 1283.0
0.976999998093 -0.167999997735 0.219999998808 1282.0
0.967000007629 -0.172000005841 0.217999994755 1281.0
0.97000002861 -0.179000005126 0.218999996781 1287.0
0.966000020504 -0.184000000358 0.217999994755 1294.0
0.966000020504 -0.189999997616 0.218999996781 1303.0
0.963999986649 -0.194999992847 0.217999994755 1303.0
0.962999999523 -0.201000005007 0.217999994755 1314.0
0.962999999523 -0.207000002265 0.218999996781 1326.0
0.962999999523 -0.212999999523 0.218999996781 1320.0
0.953999996185 -0.216999992728 0.216999992728 1332.0
0.958000004292 -0.224000006914 0.217999994755 1319.0
0.961000025272 -0.230000004172 0.218999996781 1352.0
0.949999988079 -0.233999997377 0.216999992728 1342.0
0.950999975204 -0.239999994636 0.217999994755 1354.0
0.957000017166 -0.24699999392 0.218999996781 1366.0
0.945999979973 -0.250999987125 0.216999992728 1377.0
0.949000000954 -0.25799998641 0.217999994755 1372.0
0.941999971867 -0.261999994516 0.216999992728 1370.0
0.944000005722 -0.268000006676 0.217999994755 1366.0
0.939999997616 -0.273000001907 0.216999992728 1381.0
0.944999992847 -0.280999988317 0.217999994755 1386.0
0.93900001049 -0.284999996424 0.216999992728 1387.0
0.934000015259 -0.289999991655 0.216999992728 1386.0
0.93599998951 -0.29699999094 0.217999994755 1402.0
0.93599998951 -0.303000003099 0.217999994755 1405.0
0.931999981403 -0.307999998331 0.216999992728 1397.0
0.934000015259 -0.314999997616 0.217999994755 1408.0
0.930999994278 -0.319999992847 0.217999994755 1416.0
0.927999973297 -0.324999988079 0.217999994755 1431.0
0.930000007153 -0.331999987364 0.218999996781 1403.0
0.921000003815 -0.335000008345 0.216999992728 1414.0
0.92199999094 -0.342000007629 0.217999994755 1431.0
0.920000016689 -0.347999989986 0.217999994755 1423.0
0.920000016689 -0.354000002146 0.217999994755 1423.0
0.920000016689 -0.360000014305 0.218999996781 1426.0
0.912999987602 -0.363999992609 0.216999992728 1425.0
0.907000005245 -0.368000000715 0.216000005603 1421.0
0.911000013351 -0.375999987125 0.217999994755 1420.0
0.907000005245 -0.381000012159 0.217999994755 1422.0
0.90600001812 -0.386999994516 0.217999994755 1453.0
0.902999997139 -0.393000006676 0.217999994755 1450.0
0.899999976158 -0.398000001907 0.216999992728 1443.0
0.897000014782 -0.402999997139 0.216999992728 1433.0
0.898000001907 -0.411000013351 0.217999994755 1458.0
0.893000006676 -0.414999991655 0.217999994755 1444.0
0.888000011444 -0.418999999762 0.216999992728 1437.0
0.888000011444 -0.425999999046 0.216999992728 1447.0
0.888000011444 -0.432999998331 0.217999994755 1453.0
0.89099997282 -0.441000014544 0.218999996781 1430.0
0.888999998569 -0.446999996901 0.219999998808 1461.0
0.880999982357 -0.449999988079 0.217999994755 1451.0
0.879000008106 -0.456000000238 0.217999994755 1439.0
0.879000008106 -0.462999999523 0.218999996781 1452.0
0.875999987125 -0.467999994755 0.218999996781 1443.0
0.880999982357 -0.477999985218 0.221000000834 1456.0
0.873000025749 -0.481000006199 0.218999996781 1446.0
0.869000017643 -0.486000001431 0.218999996781 1443.0
0.864000022411 -0.490000009537 0.218999996781 1439.0
4.20900011063 2.48099994659 1.02999997139 97.0
4.18300008774 2.43000006676 1.01999998093 102.0
4.23799991608 2.42600011826 1.03100001812 117.0
4.25299978256 2.39899992943 1.03100001812 98.0
4.1139998436 2.28600001335 0.994000017643 86.0
4.28200006485 2.34400010109 1.03199994564 108.0
4.29799985886 2.3180000782 1.03299999237 117.0
4.14499998093 2.20199990273 0.992999970913 99.0
4.28499984741 2.242000103 1.02400004864 117.0
4.25600004196 2.1930000782 1.01499998569 110.0
4.26900005341 2.16599988937 1.01499998569 105.0
4.34399986267 2.17000007629 1.02999997139 124.0
4.32399988174 2.12599992752 1.02300000191 111.0
3.90000009537 1.88699996471 0.920000016689 121.0
4.00500011444 1.90799999237 0.943000018597 120.0
4.20300006866 1.97000002861 0.986999988556 118.0
4.132999897 1.90600001812 0.967999994755 165.0
4.11600017548 1.86800003052 0.962000012398 174.0
4.15100002289 1.85199999809 0.967999994755 167.0
4.20100021362 1.84399998188 0.976999998093 139.0
4.37900018692 1.88999998569 1.01600003242 134.0
4.36600017548 1.85300004482 1.01100003719 139.0
4.32700014114 1.80499994755 1.0 145.0
4.29799985886 1.76199996471 0.990999996662 182.0
4.29500007629 1.73000001907 0.989000022411 179.0
4.32000017166 1.70899999142 0.991999983788 178.0
4.29500007629 1.66900002956 0.985000014305 179.0
4.31599998474 1.64699995518 0.987999975681 171.0
4.32999992371 1.62300002575 0.989000022411 177.0
4.34600019455 1.59800004959 0.990999996662 177.0
4.33500003815 1.56500005722 0.986999988556 167.0
4.34499979019 1.5379999876 0.986999988556 169.0
4.34700012207 1.50999999046 0.986000001431 165.0
4.34999990463 1.48099994659 0.985000014305 164.0
4.36199998856 1.45599997044 0.986000001431 170.0
4.34800004959 1.42200005054 0.981000006199 163.0
4.39099979401 1.40699994564 0.989000022411 166.0
4.38500022888 1.37600004673 0.986999988556 167.0
4.38700008392 1.34800004959 0.986000001431 165.0
4.36800003052 1.31299996376 0.980000019073 169.0
4.41099977493 1.29799997807 0.987999975681 163.0
4.38100004196 1.25999999046 0.980000019073 162.0
4.38899993896 1.23399996758 0.981000006199 159.0
4.38500022888 1.20500004292 0.978999972343 155.0
4.40700006485 1.18299996853 0.981999993324 152.0
4.40100002289 1.15299999714 0.980000019073 142.0
4.5560002327 1.16499996185 1.01300001144 101.0
0.149000003934 0.0379999987781 0.0309999994934 61.0
0.00499999988824 0.00200000009499 -0.0010000000475 52.0
4.88999986649 -0.0989999994636 1.06599998474 57.0
0.853999972343 -0.019999999553 0.184000000358 162.0
1.00300002098 -0.0299999993294 0.216000005603 965.0
1.00300002098 -0.0359999984503 0.216999992728 1141.0
1.00600004196 -0.0419999994338 0.216999992728 1148.0
1.00100004673 -0.0469999983907 0.216000005603 1163.0
0.995999991894 -0.0529999993742 0.215000003576 1163.0
1.0 -0.0590000003576 0.216000005603 1153.0
0.998000025749 -0.0649999976158 0.216000005603 1176.0
0.992999970913 -0.070000000298 0.215000003576 1176.0
0.994000017643 -0.0759999975562 0.215000003576 1178.0
0.996999979019 -0.082000002265 0.216000005603 1188.0
0.991999983788 -0.0879999995232 0.215000003576 1191.0
0.994000017643 -0.0939999967813 0.216000005603 1195.0
0.986000001431 -0.0989999994636 0.21400000155 1218.0
0.987999975681 -0.104999996722 0.21400000155 1227.0
0.98400002718 -0.109999999404 0.21400000155 1212.0
0.98299998045 -0.115999996662 0.21400000155 1231.0
0.981000006199 -0.122000001371 0.212999999523 1228.0
0.976000010967 -0.127000004053 0.211999997497 1234.0
0.98299998045 -0.133000001311 0.21400000155 1227.0
0.981000006199 -0.138999998569 0.21400000155 1259.0
0.976000010967 -0.143999993801 0.212999999523 1269.0
0.96899998188 -0.149000003934 0.211999997497 1261.0
0.972000002861 -0.155000001192 0.211999997497 1269.0
0.975000023842 -0.162000000477 0.212999999523 1280.0
0.971000015736 -0.166999995708 0.212999999523 1294.0
0.973999977112 -0.172999992967 0.21400000155 1288.0
0.964999973774 -0.177000001073 0.211999997497 1276.0
0.964999973774 -0.182999998331 0.211999997497 1295.0
0.966000020504 -0.189999997616 0.212999999523 1321.0
0.962000012398 -0.194999992847 0.211999997497 1306.0
0.961000025272 -0.20000000298 0.211999997497 1332.0
0.959999978542 -0.206000000238 0.211999997497 1329.0
0.962000012398 -0.211999997497 0.212999999523 1332.0
0.961000025272 -0.217999994755 0.212999999523 1338.0
0.955999970436 -0.223000004888 0.211999997497 1341.0
0.958999991417 -0.230000004172 0.212999999523 1355.0
0.95300000906 -0.233999997377 0.211999997497 1351.0
0.957000017166 -0.240999996662 0.212999999523 1350.0
0.949000000954 -0.245000004768 0.211999997497 1356.0
0.952000021935 -0.252000004053 0.212999999523 1365.0
0.944000005722 -0.256000012159 0.21099999547 1358.0
0.947000026703 -0.263000011444 0.211999997497 1364.0
0.943000018597 -0.268000006676 0.21099999547 1366.0
0.947000026703 -0.27500000596 0.212999999523 1385.0
0.947000026703 -0.280999988317 0.212999999523 1384.0
0.93900001049 -0.284999996424 0.211999997497 1394.0
0.939999997616 -0.291000008583 0.211999997497 1395.0
0.935000002384 -0.296000003815 0.21099999547 1404.0
0.938000023365 -0.303000003099 0.212999999523 1398.0
0.935000002384 -0.307999998331 0.211999997497 1410.0
0.933000028133 -0.31400001049 0.211999997497 1405.0
0.930999994278 -0.319999992847 0.211999997497 1421.0
0.926999986172 -0.324000000954 0.211999997497 1422.0
0.921000003815 -0.328999996185 0.21099999547 1415.0
0.926999986172 -0.337000012398 0.211999997497 1432.0
0.925000011921 -0.342999994755 0.212999999523 1425.0
0.919000029564 -0.347000002861 0.211999997497 1445.0
0.916000008583 -0.351999998093 0.21099999547 1428.0
0.916999995708 -0.358999997377 0.211999997497 1432.0
0.910000026226 -0.361999988556 0.21099999547 1438.0
0.913999974728 -0.370000004768 0.211999997497 1429.0
0.907999992371 -0.375 0.21099999547 1433.0
0.903999984264 -0.379000008106 0.21099999547 1430.0
0.907000005245 -0.386999994516 0.211999997497 1439.0
0.908999979496 -0.395000010729 0.212999999523 1444.0
0.901000022888 -0.398000001907 0.211999997497 1442.0
0.902000010014 -0.405000001192 0.211999997497 1434.0
0.898999989033 -0.409999996424 0.211999997497 1456.0
0.894999980927 -0.414999991655 0.211999997497 1432.0
0.896000027657 -0.42199999094 0.212999999523 1433.0
0.884000003338 -0.423999994993 0.21099999547 1450.0
0.89200001955 -0.433999985456 0.212999999523 1455.0
0.885999977589 -0.437999993563 0.211999997497 1441.0
0.884999990463 -0.444000005722 0.211999997497 1453.0
0.882000029087 -0.449999988079 0.211999997497 1449.0
0.885999977589 -0.458999991417 0.21400000155 1444.0
0.880999982357 -0.463999986649 0.21400000155 1453.0
0.875999987125 -0.467999994755 0.212999999523 1429.0
0.871999979019 -0.472999989986 0.212999999523 1449.0
0.875 -0.481999993324 0.21400000155 1460.0
0.864000022411 -0.483000010252 0.211999997497 1449.0
0.869000017643 -0.49200001359 0.21400000155 1440.0
4.06699991226 2.39400005341 0.967000007629 87.0
4.24100017548 2.46000003815 1.00499999523 107.0
4.1970000267 2.39899992943 0.990999996662 114.0
4.21700000763 2.375 0.992999970913 106.0
4.11299991608 2.28200006485 0.966000020504 91.0
4.24499988556 2.32100009918 0.994000017643 118.0
4.26200008392 2.29500007629 0.995000004768 107.0
4.12400007248 2.18799996376 0.959999978542 96.0
4.32899999619 2.26200008392 1.00499999523 116.0
4.27400016785 2.19899988174 0.990000009537 108.0
4.23600006104 2.14599990845 0.977999985218 103.0
4.34200000763 2.16599988937 1.0 122.0
4.30200004578 2.11199998856 0.989000022411 103.0
3.89700007439 1.88300001621 0.893000006676 121.0
4.07000017166 1.93599998951 0.930000007153 127.0
4.1890001297 1.96099996567 0.955999970436 127.0
4.10599994659 1.89100003242 0.934000015259 167.0
4.08300018311 1.85000002384 0.926999986172 178.0
4.15999984741 1.85399997234 0.941999971867 173.0
4.30200004578 1.88600003719 0.972000002861 138.0
4.35200023651 1.87600004673 0.981000006199 132.0
4.37699985504 1.85500001907 0.985000014305 140.0
4.33900022507 1.80799996853 0.973999977112 161.0
4.3140001297 1.76600003242 0.967000007629 187.0
4.31300020218 1.73500001431 0.963999986649 180.0
4.30700016022 1.70200002193 0.961000025272 174.0
4.31199979782 1.6740000248 0.961000025272 172.0
4.34999990463 1.65799999237 0.967000007629 176.0
4.29699993134 1.60800004005 0.953999996185 169.0
4.31300020218 1.58399999142 0.954999983311 165.0
4.38999986649 1.58200001717 0.971000015736 160.0
4.35400009155 1.53999996185 0.961000025272 160.0
4.40100002289 1.52699995041 0.97000002861 148.0
4.38999986649 1.49300003052 0.966000020504 153.0
4.382999897 1.46099996567 0.962999999523 152.0
4.33500003815 1.41600000858 0.950999975204 159.0
4.36499977112 1.39699995518 0.955999970436 154.0
4.36800003052 1.36899995804 0.954999983311 166.0
4.38899993896 1.34700000286 0.958000004292 160.0
4.37400007248 1.31400001049 0.953999996185 163.0
4.36000013351 1.28100001812 0.949000000954 159.0
4.41099977493 1.26699995995 0.958999991417 158.0
4.38700008392 1.23199999332 0.95300000906 162.0
4.38199996948 1.20299994946 0.949999988079 142.0
4.38800001144 1.17599999905 0.949999988079 157.0
4.37599992752 1.14499998093 0.947000026703 146.0
4.60599994659 1.17599999905 0.995000004768 85.0
0.119999997318 0.0299999993294 0.0230000000447 63.0
4.73999977112 1.14999997616 1.02199995518 67.0
0.943000018597 -0.0219999998808 0.197999998927 307.0
1.0 -0.0299999993294 0.209999993443 976.0
1.00899994373 -0.0359999984503 0.211999997497 1130.0
1.00100004673 -0.0419999994338 0.209999993443 1151.0
1.00199997425 -0.0469999983907 0.209999993443 1153.0
0.999000012875 -0.0529999993742 0.209999993443 1162.0
0.998000025749 -0.0590000003576 0.209999993443 1162.0
0.994000017643 -0.0640000030398 0.209000006318 1165.0
0.995999991894 -0.070000000298 0.209000006318 1185.0
0.994000017643 -0.0759999975562 0.209000006318 1185.0
0.994000017643 -0.082000002265 0.209000006318 1191.0
0.989000022411 -0.0869999974966 0.208000004292 1195.0
0.990999996662 -0.0930000022054 0.209000006318 1204.0
0.990999996662 -0.0989999994636 0.209000006318 1213.0
0.98400002718 -0.104000002146 0.208000004292 1212.0
0.98299998045 -0.109999999404 0.208000004292 1212.0
0.980000019073 -0.115000002086 0.207000002265 1227.0
0.98400002718 -0.122000001371 0.208000004292 1228.0
0.978999972343 -0.127000004053 0.207000002265 1240.0
0.978999972343 -0.133000001311 0.207000002265 1246.0
0.978999972343 -0.138999998569 0.208000004292 1243.0
0.981999993324 -0.144999995828 0.208000004292 1251.0
0.976000010967 -0.15000000596 0.207000002265 1258.0
0.972000002861 -0.155000001192 0.207000002265 1279.0
0.972999989986 -0.16099999845 0.207000002265 1293.0
0.971000015736 -0.166999995708 0.207000002265 1281.0
0.97000002861 -0.172000005841 0.207000002265 1294.0
0.973999977112 -0.179000005126 0.208000004292 1301.0
0.963999986649 -0.182999998331 0.206000000238 1313.0
0.964999973774 -0.188999995589 0.206000000238 1314.0
0.961000025272 -0.194000005722 0.206000000238 1320.0
0.971000015736 -0.202000007033 0.208000004292 1317.0
0.958999991417 -0.206000000238 0.206000000238 1330.0
0.962999999523 -0.211999997497 0.207000002265 1339.0
0.961000025272 -0.217999994755 0.207000002265 1339.0
0.962999999523 -0.224000006914 0.207000002265 1354.0
0.954999983311 -0.228000000119 0.206000000238 1362.0
0.954999983311 -0.233999997377 0.206000000238 1351.0
0.954999983311 -0.239999994636 0.206000000238 1352.0
0.953999996185 -0.246000006795 0.207000002265 1360.0
0.952000021935 -0.252000004053 0.207000002265 1360.0
0.948000013828 -0.256999999285 0.206000000238 1363.0
0.945999979973 -0.261999994516 0.206000000238 1380.0
0.944000005722 -0.268000006676 0.206000000238 1386.0
0.943000018597 -0.273999989033 0.206000000238 1393.0
0.943000018597 -0.280000001192 0.206000000238 1387.0
0.940999984741 -0.284999996424 0.206000000238 1382.0
0.944000005722 -0.291999995708 0.207000002265 1390.0
0.93900001049 -0.29699999094 0.206000000238 1405.0
0.93599998951 -0.301999986172 0.206000000238 1402.0
0.93900001049 -0.308999985456 0.207000002265 1416.0
0.926999986172 -0.312000006437 0.204999998212 1402.0
0.927999973297 -0.317999988794 0.204999998212 1421.0
0.930999994278 -0.324999988079 0.206000000238 1438.0
0.925000011921 -0.330000013113 0.206000000238 1421.0
0.925999999046 -0.33599999547 0.206000000238 1424.0
0.920000016689 -0.340000003576 0.204999998212 1441.0
0.922999978065 -0.347999989986 0.206000000238 1440.0
0.917999982834 -0.352999985218 0.206000000238 1427.0
0.917999982834 -0.358999997377 0.206000000238 1432.0
0.924000024796 -0.368000000715 0.208000004292 1426.0
0.912000000477 -0.368999987841 0.206000000238 1438.0
0.908999979496 -0.375 0.206000000238 1441.0
0.90499997139 -0.379000008106 0.204999998212 1445.0
0.90600001812 -0.386999994516 0.206000000238 1444.0
0.907000005245 -0.393999993801 0.207000002265 1439.0
0.902999997139 -0.398000001907 0.206000000238 1449.0
0.901000022888 -0.404000014067 0.206000000238 1441.0
0.893999993801 -0.407999992371 0.204999998212 1458.0
0.897000014782 -0.416000008583 0.206000000238 1448.0
0.893000006676 -0.419999986887 0.206000000238 1450.0
0.888999998569 -0.425000011921 0.206000000238 1451.0
0.893999993801 -0.435000002384 0.207000002265 1456.0
0.889999985695 -0.439999997616 0.207000002265 1460.0
0.885999977589 -0.444000005722 0.207000002265 1479.0
0.888000011444 -0.451999992132 0.208000004292 1458.0
0.883000016212 -0.456999987364 0.207000002265 1460.0
0.880999982357 -0.462999999523 0.207000002265 1464.0
0.875999987125 -0.467000007629 0.207000002265 1455.0
0.870999991894 -0.472000002861 0.206000000238 1461.0
0.878000020981 -0.481999993324 0.209000006318 1469.0
0.871999979019 -0.486999988556 0.208000004292 1462.0
0.867999970913 -0.490999996662 0.208000004292 1461.0
4.10699987411 2.41400003433 0.948000013828 86.0
4.1779999733 2.42000007629 0.961000025272 103.0
4.25899982452 2.43099999428 0.976999998093 117.0
4.19899988174 2.36199998856 0.959999978542 102.0
4.20100021362 2.32800006866 0.958000004292 86.0
4.25899982452 2.32500004768 0.967999994755 117.0
4.21600008011 2.26699995995 0.955999970436 100.0
4.14099979401 2.19400000572 0.93599998951 94.0
4.30499982834 2.2460000515 0.97000002861 121.0
4.30200004578 2.21099996567 0.967000007629 113.0
4.30100011826 2.17600011826 0.963999986649 106.0
4.35099983215 2.16700005531 0.972999989986 117.0
4.29500007629 2.10599994659 0.958000004292 112.0
3.87800002098 1.87199997902 0.862999975681 123.0
4.04799985886 1.92299997807 0.898000001907 120.0
4.1890001297 1.95799994469 0.926999986172 131.0
4.17299985886 1.91999995708 0.92199999094 157.0
4.11199998856 1.86099994183 0.90600001812 168.0
4.15000009537 1.84800004959 0.912999987602 169.0
4.30900001526 1.88699996471 0.944999992847 132.0
4.39900016785 1.89400005341 0.962999999523 131.0
4.37599992752 1.85199999809 0.955999970436 137.0
4.33400011063 1.8029999733 0.944999992847 163.0
4.28700017929 1.75300002098 0.933000028133 185.0
4.3060002327 1.73000001907 0.935000002384 183.0
4.31799983978 1.70399999619 0.93599998951 176.0
4.32700014114 1.6779999733 0.93599998951 170.0
4.35300016403 1.65699994564 0.939999997616 180.0
4.3140001297 1.61199998856 0.929000020027 163.0
4.36800003052 1.60199999809 0.93900001049 153.0
4.4279999733 1.59399998188 0.950999975204 134.0
4.50400018692 1.5909999609 0.964999973774 114.0
4.48999977112 1.55599999428 0.961000025272 108.0
4.50400018692 1.52999997139 0.962000012398 109.0
4.46700000763 1.48699998856 0.95300000906 115.0
4.42299985886 1.44299995899 0.941999971867 129.0
4.38100004196 1.40100002289 0.930999994278 152.0
4.40299987793 1.37800002098 0.935000002384 159.0
4.34499979019 1.33200001717 0.921000003815 161.0
4.3860001564 1.31599998474 0.929000020027 165.0
4.39099979401 1.28900003433 0.927999973297 155.0
4.41300010681 1.26699995995 0.931999981403 168.0
4.38700008392 1.23099994659 0.925000011921 163.0
4.37900018692 1.20000004768 0.92199999094 151.0
4.39499998093 1.17700004578 0.924000024796 155.0
4.42000007629 1.15499997139 0.927999973297 144.0
4.6139998436 1.17700004578 0.967999994755 84.0
0.178000003099 0.0450000017881 0.035000000149 60.0
0.0489999987185 0.00499999988824 0.00700000021607 51.0
0.862999975681 -0.019999999553 0.17499999702 177.0
0.995000004768 -0.0299999993294 0.202999994159 999.0
1.0039999485 -0.0359999984503 0.204999998212 1145.0
1.0 -0.0410000011325 0.203999996185 1139.0
1.0039999485 -0.0469999983907 0.204999998212 1154.0
1.00100004673 -0.0529999993742 0.203999996185 1158.0
0.996999979019 -0.0590000003576 0.202999994159 1164.0
0.996999979019 -0.0649999976158 0.203999996185 1168.0
0.995999991894 -0.070000000298 0.202999994159 1177.0
0.990999996662 -0.0759999975562 0.202000007033 1180.0
0.994000017643 -0.082000002265 0.202999994159 1186.0
0.990999996662 -0.0869999974966 0.202999994159 1183.0
0.989000022411 -0.0930000022054 0.202000007033 1194.0
0.986000001431 -0.0989999994636 0.202000007033 1205.0
0.98299998045 -0.104000002146 0.202000007033 1211.0
0.986999988556 -0.109999999404 0.202000007033 1207.0
0.98299998045 -0.115999996662 0.202000007033 1231.0
0.98299998045 -0.122000001371 0.202000007033 1231.0
0.98400002718 -0.127000004053 0.202000007033 1240.0
0.977999985218 -0.133000001311 0.201000005007 1254.0
0.981999993324 -0.138999998569 0.202000007033 1261.0
0.976000010967 -0.143999993801 0.201000005007 1261.0
0.977999985218 -0.15000000596 0.202000007033 1262.0
0.975000023842 -0.156000003219 0.201000005007 1271.0
0.976000010967 -0.16099999845 0.202000007033 1288.0
0.972999989986 -0.166999995708 0.201000005007 1305.0
0.967000007629 -0.172000005841 0.20000000298 1290.0
0.967999994755 -0.178000003099 0.20000000298 1297.0
0.967000007629 -0.182999998331 0.201000005007 1314.0
0.967000007629 -0.188999995589 0.201000005007 1317.0
0.96899998188 -0.195999994874 0.202000007033 1314.0
0.963999986649 -0.201000005007 0.201000005007 1311.0
0.966000020504 -0.207000002265 0.201000005007 1322.0
0.959999978542 -0.211999997497 0.20000000298 1325.0
0.957000017166 -0.216999992728 0.20000000298 1326.0
0.955999970436 -0.223000004888 0.20000000298 1345.0
0.958999991417 -0.229000002146 0.201000005007 1364.0
0.955999970436 -0.234999999404 0.201000005007 1350.0
0.954999983311 -0.239999994636 0.201000005007 1348.0
0.950999975204 -0.245000004768 0.20000000298 1365.0
0.950999975204 -0.250999987125 0.20000000298 1370.0
0.948000013828 -0.256999999285 0.20000000298 1363.0
0.945999979973 -0.261999994516 0.20000000298 1375.0
0.945999979973 -0.268000006676 0.20000000298 1378.0
0.944999992847 -0.273999989033 0.20000000298 1380.0
0.941999971867 -0.279000014067 0.20000000298 1386.0
0.936999976635 -0.284000009298 0.199000000954 1384.0
0.941999971867 -0.291000008583 0.201000005007 1401.0
0.938000023365 -0.296000003815 0.20000000298 1420.0
0.933000028133 -0.300999999046 0.20000000298 1410.0
0.930000007153 -0.305999994278 0.199000000954 1420.0
0.936999976635 -0.314999997616 0.201000005007 1404.0
0.93599998951 -0.321000009775 0.201000005007 1410.0
0.931999981403 -0.326000005007 0.201000005007 1433.0
0.924000024796 -0.328999996185 0.20000000298 1432.0
0.926999986172 -0.33599999547 0.20000000298 1425.0
0.921000003815 -0.340000003576 0.20000000298 1445.0
0.92199999094 -0.347000002861 0.20000000298 1438.0
0.925000011921 -0.354999989271 0.201000005007 1441.0
0.919000029564 -0.358999997377 0.20000000298 1430.0
0.919000029564 -0.365000009537 0.201000005007 1441.0
0.912999987602 -0.368999987841 0.20000000298 1440.0
0.912999987602 -0.375999987125 0.20000000298 1428.0
0.910000026226 -0.381000012159 0.20000000298 1435.0
0.910000026226 -0.388000011444 0.201000005007 1457.0
0.907000005245 -0.393000006676 0.201000005007 1445.0
0.90499997139 -0.398999989033 0.201000005007 1444.0
0.898999989033 -0.402999997139 0.20000000298 1449.0
0.896000027657 -0.407999992371 0.20000000298 1469.0
0.898000001907 -0.416000008583 0.201000005007 1444.0
0.893000006676 -0.419999986887 0.20000000298 1441.0
0.893999993801 -0.426999986172 0.201000005007 1471.0
0.887000024319 -0.430999994278 0.20000000298 1483.0
0.885999977589 -0.437000006437 0.20000000298 1480.0
0.885999977589 -0.444000005722 0.201000005007 1471.0
0.879000008106 -0.446999996901 0.20000000298 1455.0
0.882000029087 -0.456000000238 0.201000005007 1465.0
0.878000020981 -0.46099999547 0.201000005007 1473.0
0.875999987125 -0.467000007629 0.201000005007 1452.0
0.879000008106 -0.476000010967 0.202000007033 1478.0
0.879000008106 -0.483000010252 0.202999994159 1480.0
0.870999991894 -0.485000014305 0.202000007033 1464.0
0.874000012875 -0.493999987841 0.202999994159 1450.0
4.25299978256 2.46000003815 0.949000000954 106.0
4.25 2.42300009727 0.944999992847 111.0
4.1890001297 2.35299992561 0.929000020027 93.0
4.18699979782 2.31699991226 0.925999999046 98.0
4.25199985504 2.31900000572 0.938000023365 119.0
4.25199985504 2.28399991989 0.935000002384 104.0
4.21299982071 2.22900009155 0.924000024796 88.0
4.35699987411 2.26999998093 0.95300000906 110.0
4.32399988174 2.21900010109 0.943000018597 94.0
4.29099988937 2.16799998283 0.933000028133 99.0
4.37900018692 2.1779999733 0.949999988079 115.0
4.26900005341 2.09100008011 0.924000024796 107.0
3.91100001335 1.88600003719 0.84399998188 116.0
4.05200004578 1.92299997807 0.871999979019 120.0
4.22399997711 1.97200000286 0.907000005245 124.0
4.14099979401 1.90199995041 0.887000024319 167.0
4.13399982452 1.86899995804 0.884000003338 168.0
4.16099977493 1.85000002384 0.887000024319 165.0
4.32800006866 1.89199995995 0.921000003815 134.0
4.3860001564 1.88600003719 0.931999981403 127.0
4.34399986267 1.83599996567 0.921000003815 135.0
4.30399990082 1.7879999876 0.910000026226 157.0
4.29500007629 1.7539999485 0.907000005245 185.0
4.31799983978 1.73300004005 0.908999979496 181.0
4.31799983978 1.70200002193 0.907999992371 180.0
4.33699989319 1.67900002003 0.910000026226 175.0
4.31500005722 1.64100003242 0.903999984264 166.0
4.39699983597 1.64100003242 0.919000029564 145.0
4.49599981308 1.64699995518 0.938000023365 115.0
4.51900005341 1.625 0.940999984741 102.0
4.53700017929 1.60000002384 0.943000018597 101.0
4.53499984741 1.56900000572 0.941999971867 108.0
4.51000022888 1.52999997139 0.935000002384 106.0
4.5560002327 1.51499998569 0.943000018597 105.0
4.5720000267 1.49000000954 0.944999992847 108.0
