ply
format ascii 1.0
element vertex 924
property float x
property float y
property float z
property float intensity
end_header
0.950999975204 -0.150999993086 -0.115999996662 156.0
0.962999999523 -0.158999994397 -0.116999998689 159.0
0.981000006199 -0.167999997735 -0.119999997318 162.0
0.971000015736 -0.172000005841 -0.118000000715 153.0
0.967000007629 -0.177000001073 -0.118000000715 159.0
0.945999979973 -0.179000005126 -0.115000002086 168.0
0.93900001049 -0.182999998331 -0.115000002086 171.0
0.934000015259 -0.187999993563 -0.11400000006 169.0
0.949000000954 -0.196999996901 -0.115999996662 166.0
0.967999994755 -0.206000000238 -0.119000002742 168.0
0.967000007629 -0.211999997497 -0.119000002742 164.0
0.940999984741 -0.211999997497 -0.115000002086 174.0
0.944000005722 -0.218999996781 -0.115999996662 164.0
0.954999983311 -0.226999998093 -0.116999998689 165.0
0.962999999523 -0.234999999404 -0.118000000715 162.0
0.949999988079 -0.238000005484 -0.116999998689 159.0
0.930000007153 -0.238999992609 -0.115000002086 157.0
0.952000021935 -0.25 -0.118000000715 161.0
0.944000005722 -0.254000008106 -0.116999998689 160.0
0.944999992847 -0.259999990463 -0.116999998689 156.0
0.935000002384 -0.263000011444 -0.115999996662 150.0
0.959999978542 -0.277000010014 -0.119000002742 158.0
0.930000007153 -0.273999989033 -0.115999996662 156.0
0.93599998951 -0.282000005245 -0.115999996662 156.0
0.934000015259 -0.287000000477 -0.115999996662 144.0
0.958999991417 -0.300999999046 -0.119999997318 149.0
0.930999994278 -0.298000007868 -0.115999996662 148.0
0.920000016689 -0.300000011921 -0.115000002086 150.0
0.930999994278 -0.310000002384 -0.116999998689 145.0
0.921000003815 -0.312999993563 -0.115000002086 152.0
0.943000018597 -0.326999992132 -0.118000000715 148.0
0.958000004292 -0.338999986649 -0.119999997318 143.0
0.922999978065 -0.331999987364 -0.115999996662 143.0
0.938000023365 -0.344000011683 -0.118000000715 139.0
0.924000024796 -0.344999998808 -0.116999998689 139.0
0.916000008583 -0.347999989986 -0.115999996662 134.0
0.925000011921 -0.358000010252 -0.116999998689 129.0
0.924000024796 -0.363999992609 -0.116999998689 126.0
0.922999978065 -0.370000004768 -0.116999998689 137.0
0.917999982834 -0.375 -0.116999998689 123.0
0.910000026226 -0.377999991179 -0.115999996662 127.0
0.927999973297 -0.391999989748 -0.119000002742 130.0
0.93599998951 -0.402000010014 -0.119999997318 121.0
0.907999992371 -0.395999997854 -0.116999998689 122.0
0.908999979496 -0.402999997139 -0.116999998689 121.0
0.919000029564 -0.414999991655 -0.119000002742 122.0
0.879000008106 -0.402999997139 -0.11400000006 118.0
0.920000016689 -0.428999990225 -0.119000002742 113.0
0.879000008106 -0.416000008583 -0.11400000006 113.0
0.920000016689 -0.442999988794 -0.119999997318 108.0
0.920000016689 -0.449999988079 -0.119999997318 116.0
0.899999976158 -0.446000009775 -0.118000000715 115.0
0.93599998951 -0.472000002861 -0.123000003397 120.0
0.912999987602 -0.467000007629 -0.119999997318 112.0
0.869000017643 -0.451000005007 -0.115000002086 109.0
0.910000026226 -0.479999989271 -0.119999997318 111.0
0.89099997282 -0.476999998093 -0.118000000715 109.0
0.926999986172 -0.504000008106 -0.123000003397 107.0
0.902000010014 -0.497000008821 -0.119999997318 108.0
0.90499997139 -0.507000029087 -0.120999999344 112.0
3.09200000763 1.58500003815 -0.442000001669 96.0
3.15499997139 1.59399998188 -0.449999988079 98.0
3.52399992943 1.72599995136 -0.5 98.0
3.57100009918 1.72099995613 -0.504999995232 120.0
3.53099989891 1.67599999905 -0.497999995947 114.0
3.69400000572 1.72500002384 -0.518999993801 102.0
3.65599989891 1.67999994755 -0.513000011444 126.0
3.76099991798 1.7009999752 -0.526000022888 89.0
3.76300001144 1.6740000248 -0.524999976158 101.0
3.75900006294 1.64499998093 -0.523000001907 66.0
3.70799994469 1.28699994087 -0.500999987125 64.0
3.97300004959 1.35300004482 -0.536000013351 65.0
3.96900010109 1.32500004768 -0.533999979496 71.0
3.97699999809 1.30099999905 -0.533999979496 70.0
3.89400005341 1.24899995327 -0.522000014782 75.0
3.90000009537 1.22500002384 -0.522000014782 96.0
3.9509999752 1.21500003338 -0.527999997139 125.0
3.94799995422 1.18900001049 -0.526000022888 126.0
3.98399996758 1.1740000248 -0.52999997139 138.0
3.95799994469 1.14100003242 -0.526000022888 119.0
3.9430000782 1.11199998856 -0.523000001907 82.0
4.4310002327 1.22099995613 -0.587000012398 59.0
4.46000003815 1.2009999752 -0.589999973774 79.0
4.45699977875 1.17200005054 -0.587999999523 90.0
4.48000001907 1.14999997616 -0.591000020504 84.0
4.45399999619 1.11500000954 -0.586000025272 83.0
4.52500009537 1.10500001907 -0.59500002861 77.0
4.46199989319 1.06200003624 -0.586000025272 76.0
4.54500007629 1.0529999733 -0.596000015736 78.0
4.57999992371 1.03299999237 -0.598999977112 68.0
4.55200004578 0.999000012875 -0.59500002861 75.0
4.60099983215 0.981000006199 -0.601000010967 68.0
4.58300018311 0.949000000954 -0.597999989986 65.0
4.60699987411 0.925999999046 -0.600000023842 66.0
4.61199998856 0.898999989033 -0.600000023842 66.0
4.63700008392 0.875999987125 -0.601999998093 63.0
4.65399980545 0.851000010967 -0.603999972343 68.0
4.70699977875 0.833000004292 -0.610000014305 60.0
4.66599988937 0.79699999094 -0.603999972343 61.0
4.65999984741 0.768000006676 -0.602999985218 64.0
4.69999980927 0.746999979019 -0.606999993324 62.0
4.66900014877 0.713999986649 -0.602999985218 64.0
4.742000103 0.697000026703 -0.611999988556 61.0
4.72499990463 0.666999995708 -0.60900002718 62.0
4.73000001907 0.638999998569 -0.60900002718 61.0
4.78900003433 0.619000017643 -0.615999996662 63.0
4.74100017548 0.584999978542 -0.60900002718 56.0
4.79500007629 0.563000023365 -0.615999996662 63.0
4.77099990845 0.532000005245 -0.611999988556 63.0
2.33699989319 -0.116999998689 -0.29699999094 152.0
2.40199995041 -0.135000005364 -0.305000007153 189.0
2.35400009155 -0.144999995828 -0.298999994993 109.0
2.29099988937 -0.155000001192 -0.291000008583 212.0
2.32299995422 -0.171000003815 -0.294999986887 113.0
0.991999983788 -0.082000002265 -0.126000002027 138.0
0.971000015736 -0.0860000029206 -0.123000003397 141.0
0.959999978542 -0.0909999981523 -0.122000001371 152.0
0.986000001431 -0.0989999994636 -0.125 147.0
0.953999996185 -0.101000003517 -0.120999999344 149.0
0.949000000954 -0.105999998748 -0.120999999344 143.0
0.981999993324 -0.115999996662 -0.125 151.0
1.00499999523 -0.125 -0.12800000608 150.0
0.980000019073 -0.127000004053 -0.125 151.0
0.977999985218 -0.133000001311 -0.125 153.0
0.944000005722 -0.134000003338 -0.119999997318 158.0
0.95300000906 -0.141000002623 -0.122000001371 157.0
0.98299998045 -0.150999993086 -0.125 157.0
0.955999970436 -0.151999995112 -0.122000001371 152.0
0.954999983311 -0.158000007272 -0.122000001371 157.0
0.943000018597 -0.16099999845 -0.120999999344 161.0
0.97000002861 -0.172000005841 -0.123999997973 162.0
0.966000020504 -0.177000001073 -0.123999997973 155.0
0.973999977112 -0.184000000358 -0.125 167.0
0.972000002861 -0.189999997616 -0.125 165.0
0.953999996185 -0.192000001669 -0.122000001371 160.0
0.944999992847 -0.195999994874 -0.120999999344 164.0
0.962999999523 -0.206000000238 -0.123999997973 170.0
0.949999988079 -0.209000006318 -0.122000001371 166.0
0.962000012398 -0.216999992728 -0.123999997973 162.0
0.950999975204 -0.219999998808 -0.122000001371 166.0
0.955999970436 -0.228000000119 -0.123000003397 171.0
0.947000026703 -0.231000006199 -0.122000001371 164.0
0.944000005722 -0.236000001431 -0.122000001371 157.0
0.959999978542 -0.246000006795 -0.123999997973 155.0
0.962000012398 -0.252999991179 -0.125 162.0
0.955999970436 -0.256999999285 -0.123999997973 160.0
0.948000013828 -0.261000007391 -0.123000003397 155.0
0.944999992847 -0.266000002623 -0.123000003397 155.0
0.931999981403 -0.268000006676 -0.120999999344 154.0
0.912999987602 -0.268999993801 -0.119000002742 157.0
0.919000029564 -0.277000010014 -0.119999997318 155.0
0.945999979973 -0.291000008583 -0.123999997973 149.0
0.916000008583 -0.287000000477 -0.119999997318 146.0
0.931999981403 -0.298999994993 -0.122000001371 152.0
0.938000023365 -0.307000011206 -0.123000003397 149.0
0.930000007153 -0.310000002384 -0.122000001371 143.0
0.912000000477 -0.310000002384 -0.119999997318 149.0
0.943000018597 -0.326999992132 -0.123999997973 139.0
0.931999981403 -0.330000013113 -0.123000003397 139.0
0.894999980927 -0.321999996901 -0.118000000715 145.0
0.917999982834 -0.337000012398 -0.122000001371 138.0
0.916999995708 -0.342999994755 -0.120999999344 133.0
0.934000015259 -0.354999989271 -0.123999997973 135.0
0.89099997282 -0.344999998808 -0.118000000715 130.0
0.913999974728 -0.360000014305 -0.122000001371 122.0
0.902999997139 -0.361999988556 -0.120999999344 129.0
0.889999985695 -0.363000005484 -0.119000002742 129.0
0.893999993801 -0.370999991894 -0.119999997318 134.0
0.902999997139 -0.381000012159 -0.120999999344 127.0
0.921000003815 -0.395999997854 -0.123999997973 122.0
0.919000029564 -0.402000010014 -0.123999997973 124.0
0.898000001907 -0.398999989033 -0.120999999344 122.0
0.930999994278 -0.419999986887 -0.126000002027 123.0
0.911000013351 -0.418000012636 -0.123999997973 124.0
0.89200001955 -0.416000008583 -0.120999999344 113.0
0.884999990463 -0.418999999762 -0.120999999344 113.0
0.899999976158 -0.432999998331 -0.123000003397 120.0
0.903999984264 -0.442000001669 -0.123999997973 120.0
0.902999997139 -0.448000013828 -0.123999997973 114.0
0.875999987125 -0.441000014544 -0.120999999344 116.0
0.910000026226 -0.465999990702 -0.126000002027 110.0
0.939999997616 -0.488999992609 -0.129999995232 109.0
0.93900001049 -0.495999991894 -0.129999995232 108.0
0.92199999094 -0.493999987841 -0.12800000608 99.0
0.938000023365 -0.509999990463 -0.130999997258 108.0
0.862999975681 -0.476000010967 -0.120999999344 108.0
0.907000005245 -0.508000016212 -0.127000004053 108.0
3.22099995613 1.65299999714 -0.481999993324 77.0
3.24900007248 1.64199995995 -0.483999997377 78.0
3.65199995041 1.76199996471 -0.540000021458 91.0
3.5569999218 1.68900001049 -0.523999989033 89.0
3.76999998093 1.73399996758 -0.552999973297 91.0
3.76600003242 1.70399999619 -0.550999999046 79.0
3.91700005531 1.20599997044 -0.54699999094 106.0
3.9470000267 1.18900001049 -0.550000011921 112.0
3.96700000763 1.16999995708 -0.551999986172 118.0
3.95700001717 1.14100003242 -0.550000011921 106.0
4.09999990463 1.15699994564 -0.569000005722 78.0
4.37699985504 1.20700001717 -0.606000006199 61.0
4.45900011063 1.2009999752 -0.616999983788 79.0
4.45800018311 1.17299997807 -0.615999996662 82.0
4.46700000763 1.14699995518 -0.615999996662 78.0
4.52500009537 1.13300001621 -0.623000025749 76.0
4.46099996567 1.09000003338 -0.612999975681 74.0
4.51000022888 1.07400000095 -0.619000017643 68.0
4.507999897 1.04499995708 -0.617999970913 79.0
4.47599983215 1.00999999046 -0.612999975681 70.0
4.58099985123 1.00600004196 -0.625999987125 67.0
4.5689997673 0.975000023842 -0.624000012875 67.0
4.57499980927 0.948000013828 -0.624000012875 71.0
4.60500001907 0.925999999046 -0.626999974251 61.0
4.51800012589 0.880999982357 -0.615000009537 62.0
4.64400005341 0.878000020981 -0.630999982357 58.0
4.59999990463 0.842000007629 -0.624000012875 60.0
4.65000009537 0.823000013828 -0.629999995232 58.0
4.64400005341 0.794000029564 -0.629000008106 63.0
4.66499996185 0.769999980927 -0.630999982357 64.0
4.74499988556 0.754000008106 -0.64099997282 61.0
4.67899990082 0.716000020504 -0.632000029087 63.0
4.72100019455 0.694000005722 -0.637000024319 59.0
4.75699996948 0.643000006676 -0.64099997282 58.0
4.77500009537 0.616999983788 -0.643000006676 60.0
4.75899982452 0.587000012398 -0.639999985695 59.0
4.79400014877 0.563000023365 -0.643999993801 58.0
1.13699996471 -0.0489999987185 -0.150999993086 51.0
2.33299994469 -0.116999998689 -0.310000002384 157.0
2.39700007439 -0.134000003338 -0.319000005722 181.0
2.32899999619 -0.143999993801 -0.310000002384 113.0
2.30100011826 -0.156000003219 -0.305999994278 217.0
2.32500004768 -0.171000003815 -0.308999985456 105.0
1.04999995232 -0.082000002265 -0.140000000596 85.0
0.978999972343 -0.0810000002384 -0.129999995232 142.0
0.985000014305 -0.0879999995232 -0.130999997258 145.0
0.986000001431 -0.0939999967813 -0.130999997258 140.0
0.943000018597 -0.0949999988079 -0.125 142.0
0.978999972343 -0.104000002146 -0.129999995232 145.0
0.989000022411 -0.111000001431 -0.131999999285 153.0
0.978999972343 -0.115999996662 -0.129999995232 146.0
0.957000017166 -0.119000002742 -0.127000004053 148.0
0.933000028133 -0.120999999344 -0.123999997973 150.0
0.97000002861 -0.131999999285 -0.128999993205 156.0
0.955999970436 -0.135000005364 -0.127000004053 154.0
0.962999999523 -0.142000004649 -0.128999993205 148.0
0.977999985218 -0.15000000596 -0.130999997258 158.0
0.952000021935 -0.151999995112 -0.127000004053 155.0
0.954999983311 -0.158000007272 -0.12800000608 160.0
0.958999991417 -0.16400000453 -0.12800000608 163.0
0.981999993324 -0.173999994993 -0.130999997258 158.0
0.958000004292 -0.175999999046 -0.12800000608 162.0
0.955999970436 -0.180999994278 -0.12800000608 162.0
0.949999988079 -0.186000004411 -0.127000004053 163.0
0.953999996185 -0.192000001669 -0.12800000608 158.0
0.947000026703 -0.196999996901 -0.127000004053 160.0
0.927999973297 -0.197999998927 -0.125 164.0
0.967000007629 -0.212999999523 -0.129999995232 160.0
0.954999983311 -0.216000005603 -0.128999993205 157.0
0.947000026703 -0.219999998808 -0.12800000608 162.0
0.952000021935 -0.226999998093 -0.12800000608 167.0
0.944999992847 -0.231000006199 -0.12800000608 160.0
0.944999992847 -0.237000003457 -0.12800000608 158.0
0.930999994278 -0.238999992609 -0.126000002027 158.0
0.941999971867 -0.247999995947 -0.12800000608 158.0
0.948000013828 -0.254999995232 -0.128999993205 152.0
0.948000013828 -0.261000007391 -0.128999993205 160.0
0.917999982834 -0.259000003338 -0.125 152.0
0.924000024796 -0.266000002623 -0.126000002027 153.0
0.930999994278 -0.273999989033 -0.127000004053 150.0
0.922999978065 -0.277999997139 -0.126000002027 146.0
0.934000015259 -0.287000000477 -0.12800000608 152.0
0.913999974728 -0.287000000477 -0.125 151.0
0.948000013828 -0.303999990225 -0.129999995232 149.0
0.936999976635 -0.305999994278 -0.128999993205 150.0
0.920000016689 -0.307000011206 -0.126000002027 138.0
0.947000026703 -0.321999996901 -0.129999995232 148.0
0.931999981403 -0.323000013828 -0.12800000608 140.0
0.897000014782 -0.317000001669 -0.123999997973 144.0
0.912999987602 -0.328999996185 -0.126000002027 145.0
0.958000004292 -0.351999998093 -0.133000001311 137.0
0.912999987602 -0.342000007629 -0.127000004053 143.0
0.945999979973 -0.360000014305 -0.130999997258 140.0
0.911000013351 -0.352999985218 -0.127000004053 131.0
0.931999981403 -0.368000000715 -0.129999995232 125.0
0.916000008583 -0.368000000715 -0.12800000608 127.0
0.924000024796 -0.377999991179 -0.128999993205 126.0
0.912999987602 -0.379999995232 -0.12800000608 135.0
0.924000024796 -0.391000002623 -0.129999995232 124.0
0.898999989033 -0.386000007391 -0.127000004053 118.0
0.916000008583 -0.400999993086 -0.128999993205 119.0
0.931999981403 -0.414999991655 -0.131999999285 119.0
0.898000001907 -0.405999988317 -0.127000004053 127.0
0.93900001049 -0.430999994278 -0.133000001311 121.0
0.93599998951 -0.437000006437 -0.133000001311 116.0
0.893000006676 -0.423000007868 -0.127000004053 112.0
0.927999973297 -0.446999996901 -0.133000001311 125.0
0.938000023365 -0.458999991417 -0.135000005364 122.0
0.916999995708 -0.456000000238 -0.131999999285 119.0
0.887000024319 -0.448000013828 -0.12800000608 108.0
0.887000024319 -0.453999996185 -0.12800000608 110.0
0.93599998951 -0.486999988556 -0.136000007391 113.0
0.934000015259 -0.493000000715 -0.136000007391 112.0
0.861999988556 -0.462000012398 -0.126000002027 114.0
0.89200001955 -0.485000014305 -0.129999995232 111.0
0.924000024796 -0.510999977589 -0.135000005364 106.0
0.856999993324 -0.479999989271 -0.126000002027 100.0
0.955999970436 0.551999986172 -0.152999997139 315.0
0.955999970436 0.497999995947 -0.149000003934 75.0
3.58800005913 1.70500004292 -0.551999986172 71.0
3.80599999428 1.75199997425 -0.582000017166 86.0
3.9960000515 1.23099994659 -0.583000004292 69.0
3.98399996758 1.2009999752 -0.579999983311 79.0
3.9509999752 1.16600000858 -0.574000000954 83.0
3.98600006104 1.14999997616 -0.57800000906 75.0
4.16800022125 1.17599999905 -0.603999972343 66.0
4.45499992371 1.2009999752 -0.643000006676 59.0
4.507999897 1.18700003624 -0.649999976158 62.0
4.49100017548 1.15400004387 -0.646000027657 59.0
4.50500011444 1.1289999485 -0.647000014782 66.0
4.51399993896 1.10300004482 -0.648000001907 58.0
4.44799995422 1.05900001526 -0.637000024319 63.0
4.45599985123 1.00600004196 -0.637000024319 57.0
4.40799999237 0.967999994755 -0.629000008106 60.0
4.59100008011 0.980000019073 -0.653999984264 55.0
4.58300018311 0.949999988079 -0.652999997139 61.0
4.632999897 0.875999987125 -0.657000005245 55.0
4.76300001144 0.842999994755 -0.674000024796 60.0
4.71099996567 0.805999994278 -0.666000008583 57.0
4.69500017166 0.774999976158 -0.662999987602 56.0
4.69799995422 0.746999979019 -0.662999987602 58.0
4.71199989319 0.721000015736 -0.663999974728 52.0
4.7610001564 0.699999988079 -0.671000003815 58.0
4.75500011444 0.671000003815 -0.669000029564 64.0
4.84800004959 0.65600001812 -0.681999981403 55.0
4.72100019455 0.611000001431 -0.662999987602 63.0
4.79099988937 0.591000020504 -0.672999978065 56.0
4.86000013351 0.570999979973 -0.681999981403 60.0
2.34200000763 -0.118000000715 -0.324999988079 164.0
2.39800000191 -0.135000005364 -0.333000004292 182.0
2.33599996567 -0.144999995828 -0.324000000954 118.0
2.29699993134 -0.156000003219 -0.319000005722 215.0
2.30399990082 -0.168999999762 -0.319999992847 103.0
1.0529999733 -0.082000002265 -0.145999997854 84.0
0.967000007629 -0.0810000002384 -0.134000003338 139.0
0.981000006199 -0.0869999974966 -0.136000007391 142.0
0.967000007629 -0.0920000001788 -0.134000003338 145.0
0.967999994755 -0.097999997437 -0.135000005364 144.0
0.957000017166 -0.101999998093 -0.133000001311 143.0
0.967999994755 -0.108999997377 -0.135000005364 143.0
0.980000019073 -0.115999996662 -0.136000007391 150.0
0.962000012398 -0.119000002742 -0.134000003338 156.0
0.954999983311 -0.123999997973 -0.133000001311 151.0
0.978999972343 -0.133000001311 -0.136000007391 153.0
0.986000001431 -0.140000000596 -0.136999994516 150.0
0.971000015736 -0.143999993801 -0.135000005364 153.0
0.971000015736 -0.149000003934 -0.135000005364 150.0
0.93599998951 -0.149000003934 -0.130999997258 151.0
0.959999978542 -0.158999994397 -0.134000003338 154.0
0.957000017166 -0.16400000453 -0.134000003338 161.0
0.971000015736 -0.172000005841 -0.136000007391 158.0
0.954999983311 -0.17499999702 -0.134000003338 158.0
0.940999984741 -0.178000003099 -0.131999999285 164.0
0.940999984741 -0.184000000358 -0.131999999285 161.0
0.962000012398 -0.194000005722 -0.135000005364 161.0
0.967000007629 -0.201000005007 -0.136000007391 160.0
0.95300000906 -0.203999996185 -0.134000003338 166.0
0.961000025272 -0.21099999547 -0.135000005364 169.0
0.957000017166 -0.216000005603 -0.135000005364 163.0
0.948000013828 -0.219999998808 -0.133000001311 158.0
0.935000002384 -0.223000004888 -0.131999999285 162.0
0.967000007629 -0.237000003457 -0.136000007391 150.0
0.939999997616 -0.236000001431 -0.133000001311 162.0
0.935000002384 -0.239999994636 -0.131999999285 158.0
0.944999992847 -0.248999997973 -0.134000003338 157.0
0.921000003815 -0.247999995947 -0.129999995232 153.0
0.93900001049 -0.259000003338 -0.133000001311 157.0
0.933000028133 -0.263000011444 -0.131999999285 154.0
0.931999981403 -0.268999993801 -0.131999999285 152.0
0.944000005722 -0.279000014067 -0.134000003338 153.0
0.936999976635 -0.282999992371 -0.134000003338 147.0
0.958000004292 -0.294999986887 -0.136999994516 155.0
0.924000024796 -0.289999991655 -0.131999999285 147.0
0.952000021935 -0.305999994278 -0.136000007391 147.0
0.935000002384 -0.305999994278 -0.134000003338 148.0
0.926999986172 -0.310000002384 -0.133000001311 145.0
0.949999988079 -0.324000000954 -0.136999994516 146.0
0.92199999094 -0.319999992847 -0.133000001311 143.0
0.899999976158 -0.319000005722 -0.129999995232 141.0
0.934000015259 -0.337000012398 -0.135000005364 135.0
0.922999978065 -0.338999986649 -0.134000003338 135.0
0.915000021458 -0.342000007629 -0.133000001311 136.0
0.90600001812 -0.344999998808 -0.131999999285 141.0
0.941999971867 -0.365999996662 -0.136999994516 131.0
0.927999973297 -0.36700001359 -0.135000005364 131.0
0.917999982834 -0.368999987841 -0.134000003338 132.0
0.898999989033 -0.368000000715 -0.131999999285 125.0
0.90499997139 -0.377000004053 -0.133000001311 125.0
0.908999979496 -0.384000003338 -0.133000001311 131.0
0.912000000477 -0.391999989748 -0.134000003338 123.0
0.925999999046 -0.405000001192 -0.136999994516 128.0
0.90499997139 -0.402000010014 -0.134000003338 120.0
0.915000021458 -0.41400000453 -0.136000007391 122.0
0.952000021935 -0.437999993563 -0.141000002623 121.0
0.912999987602 -0.425999999046 -0.136000007391 119.0
0.89200001955 -0.423000007868 -0.133000001311 111.0
0.902000010014 -0.435000002384 -0.135000005364 110.0
0.902000010014 -0.442000001669 -0.135000005364 119.0
0.917999982834 -0.456999987364 -0.137999996543 115.0
0.90499997139 -0.456999987364 -0.136000007391 113.0
0.884000003338 -0.45300000906 -0.133000001311 111.0
0.893000006676 -0.465000003576 -0.135000005364 108.0
0.876999974251 -0.463999986649 -0.133000001311 103.0
0.894999980927 -0.479999989271 -0.136000007391 108.0
0.934000015259 -0.509000003338 -0.143000006676 106.0
0.883000016212 -0.488000005484 -0.135000005364 112.0
0.889999985695 -0.499000012875 -0.136999994516 96.0
0.93900001049 0.542999982834 -0.157000005245 889.0
0.93900001049 0.535000026226 -0.156000003219 876.0
0.936999976635 0.526000022888 -0.155000001192 820.0
0.931999981403 0.514999985695 -0.153999999166 776.0
0.941999971867 0.513999998569 -0.155000001192 739.0
0.952000021935 0.510999977589 -0.156000003219 706.0
0.945999979973 0.5 -0.155000001192 656.0
0.949000000954 0.495000004768 -0.155000001192 615.0
0.950999975204 0.488000005484 -0.155000001192 557.0
0.944999992847 0.477999985218 -0.152999997139 513.0
0.944000005722 0.469999998808 -0.152999997139 478.0
0.940999984741 0.46099999547 -0.151999995112 437.0
0.93900001049 0.45300000906 -0.150999993086 375.0
0.912000000477 0.432999998331 -0.145999997854 324.0
0.947000026703 0.442999988794 -0.150999993086 293.0
0.916000008583 0.421000003815 -0.145999997854 315.0
0.929000020027 0.419999986887 -0.148000001907 396.0
0.943000018597 0.419999986887 -0.15000000596 352.0
0.944999992847 0.41400000453 -0.149000003934 303.0
0.949000000954 0.388999998569 -0.149000003934 136.0
0.78100001812 0.303000003099 -0.120999999344 65.0
4.01200008392 1.23599994183 -0.610000014305 70.0
3.96000003815 1.19500005245 -0.601000010967 72.0
4.06699991226 1.2009999752 -0.615999996662 70.0
4.03000020981 1.16400003433 -0.60900002718 64.0
4.61899995804 1.2460000515 -0.694999992847 57.0
4.55100011826 1.19900000095 -0.684000015259 59.0
4.57399988174 1.17599999905 -0.68599998951 59.0
4.58799982071 1.15100002289 -0.686999976635 58.0
4.78200006485 0.703999996185 -0.702000021935 53.0
2.35400009155 -0.119000002742 -0.340999990702 164.0
2.38800001144 -0.134000003338 -0.345999985933 178.0
2.32899999619 -0.143999993801 -0.337000012398 123.0
2.29999995232 -0.156000003219 -0.333000004292 216.0
2.31999993324 -0.171000003815 -0.33599999547 108.0
1.05599999428 -0.082000002265 -0.152999997139 89.0
0.981999993324 -0.082000002265 -0.142000004649 137.0
0.981999993324 -0.0879999995232 -0.142000004649 141.0
0.977999985218 -0.0930000022054 -0.142000004649 144.0
0.934000015259 -0.0939999967813 -0.135000005364 142.0
0.961000025272 -0.103000000119 -0.138999998569 135.0
0.954999983311 -0.108000002801 -0.137999996543 137.0
0.96899998188 -0.115000002086 -0.140000000596 141.0
0.981999993324 -0.122000001371 -0.143000006676 153.0
0.958999991417 -0.125 -0.138999998569 152.0
0.967999994755 -0.131999999285 -0.141000002623 148.0
0.98299998045 -0.140000000596 -0.143000006676 148.0
0.96899998188 -0.143000006676 -0.141000002623 148.0
0.96899998188 -0.149000003934 -0.141000002623 147.0
0.948000013828 -0.151999995112 -0.137999996543 150.0
0.962000012398 -0.158999994397 -0.140000000596 149.0
0.962999999523 -0.165000006557 -0.140000000596 153.0
0.961000025272 -0.171000003815 -0.140000000596 154.0
0.962000012398 -0.177000001073 -0.140000000596 152.0
0.945999979973 -0.179000005126 -0.137999996543 154.0
0.944999992847 -0.185000002384 -0.137999996543 153.0
0.958999991417 -0.194000005722 -0.140000000596 157.0
0.957000017166 -0.199000000954 -0.140000000596 156.0
0.940999984741 -0.201000005007 -0.137999996543 160.0
0.958999991417 -0.21099999547 -0.140000000596 164.0
0.944000005722 -0.21400000155 -0.137999996543 159.0
0.939999997616 -0.218999996781 -0.137999996543 161.0
0.963999986649 -0.230000004172 -0.142000004649 158.0
0.961000025272 -0.234999999404 -0.141000002623 165.0
0.958000004292 -0.240999996662 -0.141000002623 163.0
0.941999971867 -0.241999998689 -0.138999998569 151.0
0.939999997616 -0.247999995947 -0.138999998569 152.0
0.944000005722 -0.254999995232 -0.138999998569 155.0
0.963999986649 -0.266000002623 -0.143000006676 156.0
0.941999971867 -0.266000002623 -0.140000000596 155.0
0.93900001049 -0.270999997854 -0.138999998569 154.0
0.948000013828 -0.280000001192 -0.141000002623 150.0
0.943000018597 -0.284999996424 -0.140000000596 147.0
0.97000002861 -0.298999994993 -0.143999993801 145.0
0.930999994278 -0.293000012636 -0.138999998569 148.0
0.961000025272 -0.308999985456 -0.143000006676 145.0
0.933000028133 -0.305999994278 -0.140000000596 145.0
0.936999976635 -0.312999993563 -0.140000000596 143.0
0.912999987602 -0.31099998951 -0.136999994516 143.0
0.927999973297 -0.323000013828 -0.138999998569 145.0
0.934000015259 -0.331000000238 -0.141000002623 139.0
0.944000005722 -0.340999990702 -0.142000004649 134.0
0.922999978065 -0.338999986649 -0.138999998569 141.0
0.93900001049 -0.351999998093 -0.142000004649 141.0
0.924000024796 -0.352999985218 -0.140000000596 136.0
0.899999976158 -0.349000006914 -0.136999994516 133.0
0.931999981403 -0.368000000715 -0.142000004649 128.0
0.902000010014 -0.363000005484 -0.136999994516 130.0
0.944999992847 -0.386999994516 -0.143999993801 128.0
0.90600001812 -0.377000004053 -0.138999998569 125.0
0.915000021458 -0.388000011444 -0.140000000596 130.0
0.884999990463 -0.381000012159 -0.136000007391 125.0
0.901000022888 -0.393999993801 -0.138999998569 123.0
0.884999990463 -0.393999993801 -0.136000007391 125.0
0.884999990463 -0.400999993086 -0.136999994516 119.0
0.917999982834 -0.42199999094 -0.142000004649 113.0
0.898999989033 -0.419999986887 -0.140000000596 122.0
0.916000008583 -0.435000002384 -0.142000004649 116.0
0.903999984264 -0.43599998951 -0.141000002623 115.0
0.884999990463 -0.433999985456 -0.137999996543 121.0
0.919000029564 -0.458000004292 -0.143999993801 117.0
0.903999984264 -0.456999987364 -0.142000004649 108.0
0.907000005245 -0.465999990702 -0.143000006676 113.0
0.901000022888 -0.469999998808 -0.142000004649 109.0
0.919000029564 -0.486000001431 -0.145999997854 106.0
0.967000007629 -0.519999980927 -0.153999999166 111.0
0.897000014782 -0.488999992609 -0.143000006676 112.0
0.856000006199 -0.472999989986 -0.136999994516 99.0
0.915000021458 -0.513999998569 -0.146999999881 103.0
0.925000011921 0.535000026226 -0.159999996424 1096.0
0.935000002384 0.532999992371 -0.162000000477 1115.0
0.934000015259 0.524999976158 -0.16099999845 1133.0
0.93599998951 0.518000006676 -0.16099999845 1131.0
0.934000015259 0.509999990463 -0.159999996424 1139.0
0.940999984741 0.505999982357 -0.16099999845 1139.0
0.93900001049 0.497000008821 -0.159999996424 1117.0
0.949000000954 0.495000004768 -0.16099999845 1151.0
0.944000005722 0.485000014305 -0.159999996424 1140.0
0.944000005722 0.476999998093 -0.158999994397 1137.0
0.949999988079 0.472999989986 -0.159999996424 1131.0
0.952000021935 0.467000007629 -0.158999994397 1122.0
0.949000000954 0.458999991417 -0.158999994397 1105.0
0.945999979973 0.449999988079 -0.158000007272 1090.0
0.944999992847 0.442000001669 -0.157000005245 1088.0
0.953999996185 0.43900001049 -0.158000007272 1047.0
0.957000017166 0.433999985456 -0.158000007272 1038.0
0.959999978542 0.428000003099 -0.158000007272 1009.0
0.955999970436 0.418999999762 -0.157000005245 974.0
0.954999983311 0.412000000477 -0.157000005245 933.0
0.948000013828 0.402000010014 -0.155000001192 905.0
0.959999978542 0.40000000596 -0.157000005245 862.0
0.966000020504 0.395999997854 -0.157000005245 840.0
0.962999999523 0.388000011444 -0.157000005245 799.0
0.967999994755 0.38299998641 -0.157000005245 773.0
0.964999973774 0.375 -0.156000003219 733.0
0.967999994755 0.370000004768 -0.156000003219 700.0
0.97000002861 0.363999992609 -0.156000003219 659.0
0.97000002861 0.356999993324 -0.156000003219 613.0
0.985000014305 0.356000006199 -0.158000007272 580.0
0.971000015736 0.344999998808 -0.155000001192 527.0
0.972999989986 0.338999986649 -0.155000001192 489.0
0.980000019073 0.335000008345 -0.156000003219 445.0
0.972000002861 0.324999988079 -0.155000001192 420.0
0.977999985218 0.321000009775 -0.155000001192 386.0
0.981000006199 0.314999997616 -0.155000001192 361.0
0.96899998188 0.305000007153 -0.152999997139 325.0
0.990000009537 0.305999994278 -0.156000003219 489.0
0.919000029564 0.277999997139 -0.144999995828 309.0
0.962999999523 0.284999996424 -0.151999995112 413.0
0.961000025272 0.277999997139 -0.150999993086 368.0
0.940999984741 0.266000002623 -0.148000001907 347.0
0.990999996662 0.273999989033 -0.155000001192 297.0
0.93900001049 0.254000008106 -0.146999999881 272.0
0.945999979973 0.248999997973 -0.148000001907 237.0
0.893000006676 0.230000004172 -0.138999998569 212.0
0.901000022888 0.221000000834 -0.140000000596 160.0
0.862999975681 0.206000000238 -0.134000003338 133.0
0.709999978542 0.16099999845 -0.109999999404 104.0
0.697000026703 0.15000000596 -0.108000002801 71.0
0.75 0.156000003219 -0.115999996662 62.0
0.60900002718 0.123000003397 -0.0939999967813 66.0
2.35899996758 -0.119000002742 -0.354999989271 178.0
2.39599990845 -0.135000005364 -0.361000001431 181.0
2.33800005913 -0.144999995828 -0.351999998093 124.0
2.30500006676 -0.156000003219 -0.347000002861 213.0
2.32399988174 -0.171000003815 -0.34999999404 105.0
1.01699995995 -0.0790000036359 -0.152999997139 90.0
0.985000014305 -0.082000002265 -0.148000001907 137.0
0.991999983788 -0.0890000015497 -0.15000000596 142.0
0.963999986649 -0.0920000001788 -0.144999995828 146.0
0.978999972343 -0.0989999994636 -0.148000001907 142.0
0.949999988079 -0.101000003517 -0.143000006676 144.0
0.949000000954 -0.107000000775 -0.143000006676 148.0
0.957000017166 -0.112999998033 -0.143999993801 145.0
0.949000000954 -0.118000000715 -0.143000006676 148.0
0.948000013828 -0.123000003397 -0.143000006676 153.0
0.945999979973 -0.128999993205 -0.143000006676 152.0
0.962999999523 -0.136999994516 -0.145999997854 152.0
0.944999992847 -0.140000000596 -0.143000006676 146.0
0.97000002861 -0.149000003934 -0.146999999881 147.0
0.958000004292 -0.152999997139 -0.144999995828 151.0
0.941999971867 -0.156000003219 -0.143000006676 154.0
0.966000020504 -0.165999993682 -0.146999999881 156.0
0.952000021935 -0.168999999762 -0.143999993801 156.0
0.958999991417 -0.175999999046 -0.145999997854 160.0
0.987999975681 -0.187999993563 -0.15000000596 158.0
0.93599998951 -0.182999998331 -0.142000004649 160.0
0.955999970436 -0.193000003695 -0.144999995828 164.0
0.954999983311 -0.199000000954 -0.145999997854 159.0
0.925999999046 -0.197999998927 -0.141000002623 157.0
0.944999992847 -0.208000004292 -0.143999993801 157.0
0.955999970436 -0.216999992728 -0.145999997854 160.0
0.947000026703 -0.219999998808 -0.144999995828 156.0
0.944999992847 -0.225999996066 -0.144999995828 155.0
0.953999996185 -0.233999997377 -0.145999997854 160.0
0.920000016689 -0.231000006199 -0.141000002623 161.0
0.930000007153 -0.239999994636 -0.143000006676 158.0
0.962999999523 -0.254000008106 -0.148000001907 152.0
0.959999978542 -0.259000003338 -0.148000001907 149.0
0.927999973297 -0.256999999285 -0.143000006676 147.0
0.925000011921 -0.261000007391 -0.143000006676 155.0
0.954999983311 -0.275999993086 -0.146999999881 149.0
0.924000024796 -0.273000001907 -0.143000006676 144.0
0.949000000954 -0.287000000477 -0.146999999881 144.0
0.949000000954 -0.293000012636 -0.146999999881 146.0
0.924000024796 -0.291000008583 -0.143000006676 149.0
0.920000016689 -0.296000003815 -0.143000006676 144.0
0.949999988079 -0.312000006437 -0.148000001907 140.0
0.917999982834 -0.307000011206 -0.143000006676 141.0
0.90499997139 -0.308999985456 -0.141000002623 142.0
0.950999975204 -0.331000000238 -0.149000003934 138.0
0.93599998951 -0.331999987364 -0.146999999881 138.0
0.907000005245 -0.32800000906 -0.142000004649 129.0
0.934000015259 -0.344000011683 -0.146999999881 137.0
0.943000018597 -0.354000002146 -0.148000001907 134.0
0.925999999046 -0.354000002146 -0.145999997854 137.0
0.931999981403 -0.363000005484 -0.146999999881 130.0
0.90600001812 -0.358999997377 -0.143999993801 133.0
0.938000023365 -0.377999991179 -0.149000003934 133.0
0.90499997139 -0.370999991894 -0.143999993801 132.0
0.926999986172 -0.386000007391 -0.148000001907 127.0
0.888999998569 -0.377000004053 -0.142000004649 123.0
0.93900001049 -0.405000001192 -0.15000000596 127.0
0.90499997139 -0.397000014782 -0.144999995828 119.0
0.910000026226 -0.405000001192 -0.145999997854 117.0
0.901000022888 -0.407999992371 -0.144999995828 123.0
0.898000001907 -0.412999987602 -0.144999995828 121.0
0.916999995708 -0.428999990225 -0.148000001907 115.0
0.901000022888 -0.428000003099 -0.145999997854 117.0
0.883000016212 -0.425999999046 -0.143000006676 115.0
0.915000021458 -0.449000000954 -0.149000003934 116.0
0.907999992371 -0.45300000906 -0.148000001907 115.0
0.919000029564 -0.465000003576 -0.15000000596 113.0
0.907999992371 -0.467000007629 -0.149000003934 106.0
0.899999976158 -0.469000011683 -0.148000001907 105.0
0.883000016212 -0.467999994755 -0.145999997854 110.0
0.898000001907 -0.483000010252 -0.149000003934 101.0
0.916999995708 -0.5 -0.151999995112 106.0
0.93900001049 -0.519999980927 -0.156000003219 101.0
0.888000011444 -0.499000012875 -0.148000001907 101.0
0.935000002384 0.541000008583 -0.167999997735 547.0
0.934000015259 0.532999992371 -0.167999997735 613.0
0.93599998951 0.526000022888 -0.166999995708 674.0
0.943000018597 0.523000001907 -0.167999997735 726.0
0.947000026703 0.51700001955 -0.167999997735 761.0
0.941999971867 0.507000029087 -0.166999995708 820.0
0.935000002384 0.495999991894 -0.165000006557 862.0
0.941999971867 0.49200001359 -0.165999993682 909.0
0.940999984741 0.483999997377 -0.165000006557 952.0
0.944000005722 0.477999985218 -0.165000006557 993.0
0.944000005722 0.470999985933 -0.165000006557 1040.0
0.945999979973 0.465000003576 -0.165000006557 1077.0
0.948000013828 0.458000004292 -0.165000006557 1099.0
0.944999992847 0.449999988079 -0.16400000453 1132.0
0.952000021935 0.446000009775 -0.16400000453 1141.0
0.952000021935 0.43900001049 -0.16400000453 1157.0
0.945999979973 0.428999990225 -0.163000002503 1210.0
0.949000000954 0.423000007868 -0.163000002503 1212.0
0.950999975204 0.418000012636 -0.163000002503 1217.0
0.954999983311 0.412000000477 -0.163000002503 1226.0
0.954999983311 0.405000001192 -0.162000000477 1233.0
0.958999991417 0.40000000596 -0.163000002503 1243.0
0.959999978542 0.393999993801 -0.162000000477 1255.0
0.953999996185 0.384999990463 -0.16099999845 1258.0
0.963999986649 0.381999999285 -0.162000000477 1268.0
0.958000004292 0.372999995947 -0.16099999845 1284.0
0.964999973774 0.368999987841 -0.162000000477 1289.0
0.966000020504 0.363000005484 -0.162000000477 1282.0
0.962000012398 0.354000002146 -0.16099999845 1283.0
0.976999998093 0.354000002146 -0.163000002503 1285.0
0.967999994755 0.344000011683 -0.16099999845 1258.0
0.975000023842 0.340000003576 -0.162000000477 1256.0
0.973999977112 0.333000004292 -0.16099999845 1268.0
0.978999972343 0.32800000906 -0.162000000477 1274.0
0.980000019073 0.321999996901 -0.162000000477 1250.0
0.980000019073 0.314999997616 -0.16099999845 1244.0
0.980000019073 0.308999985456 -0.16099999845 1253.0
0.977999985218 0.301999986172 -0.16099999845 1244.0
0.972000002861 0.293999999762 -0.158999994397 1213.0
0.98400002718 0.291000008583 -0.16099999845 1203.0
0.98400002718 0.284999996424 -0.16099999845 1168.0
0.981999993324 0.277999997139 -0.159999996424 1153.0
0.990000009537 0.273999989033 -0.16099999845 1138.0
0.991999983788 0.268000006676 -0.16099999845 1099.0
0.991999983788 0.261999994516 -0.16099999845 1086.0
0.989000022411 0.254999995232 -0.159999996424 1069.0
0.995000004768 0.25 -0.16099999845 1005.0
0.990999996662 0.243000000715 -0.159999996424 981.0
0.992999970913 0.237000003457 -0.159999996424 958.0
1.0 0.232999995351 -0.16099999845 917.0
0.991999983788 0.22499999404 -0.159999996424 874.0
0.998000025749 0.219999998808 -0.159999996424 835.0
0.994000017643 0.212999999523 -0.159999996424 796.0
1.0 0.208000004292 -0.159999996424 766.0
0.996999979019 0.202000007033 -0.159999996424 736.0
1.00600004196 0.196999996901 -0.16099999845 702.0
1.00100004673 0.189999997616 -0.159999996424 660.0
1.00100004673 0.184000000358 -0.159999996424 616.0
0.998000025749 0.178000003099 -0.158999994397 582.0
1.01499998569 0.17499999702 -0.162000000477 553.0
1.00699996948 0.166999995708 -0.159999996424 538.0
1.00600004196 0.16099999845 -0.159999996424 526.0
1.01699995995 0.157000005245 -0.16099999845 530.0
1.00600004196 0.149000003934 -0.159999996424 556.0
1.01300001144 0.143999993801 -0.16099999845 527.0
1.01300001144 0.137999996543 -0.16099999845 498.0
1.01400005817 0.131999999285 -0.159999996424 443.0
1.00300002098 0.125 -0.158999994397 327.0
0.986999988556 0.116999998689 -0.156000003219 291.0
1.01600003242 0.115000002086 -0.159999996424 298.0
1.03499996662 0.109999999404 -0.163000002503 296.0
1.03499996662 0.104000002146 -0.163000002503 269.0
1.0379999876 0.0989999994636 -0.16400000453 304.0
1.0379999876 0.0930000022054 -0.16400000453 272.0
1.04799997807 0.0869999974966 -0.165000006557 244.0
1.04100000858 0.0810000002384 -0.16400000453 227.0
1.04200005531 0.0750000029802 -0.16400000453 214.0
1.04200005531 0.0689999982715 -0.16400000453 356.0
1.02799999714 0.0619999989867 -0.162000000477 339.0
1.03999996185 0.0560000017285 -0.163000002503 329.0
1.05599999428 0.0509999990463 -0.165999993682 313.0
1.05700004101 0.0450000017881 -0.165999993682 307.0
1.04600000381 0.0390000008047 -0.16400000453 291.0
1.05999994278 0.0329999998212 -0.165999993682 267.0
2.35400009155 -0.119000002742 -0.368000000715 173.0
2.42899990082 -0.136999994516 -0.379999995232 158.0
2.3180000782 -0.143999993801 -0.363000005484 122.0
2.2990000248 -0.156000003219 -0.360000014305 211.0
2.34999990463 -0.172999992967 -0.368000000715 126.0
1.04400002956 -0.0810000002384 -0.16400000453 95.0
0.97000002861 -0.0810000002384 -0.151999995112 138.0
0.964999973774 -0.0860000029206 -0.150999993086 141.0
0.985000014305 -0.0939999967813 -0.153999999166 141.0
0.962999999523 -0.097000002861 -0.150999993086 145.0
0.973999977112 -0.104000002146 -0.152999997139 142.0
0.98299998045 -0.111000001431 -0.153999999166 145.0
0.962000012398 -0.11400000006 -0.150999993086 144.0
0.967999994755 -0.120999999344 -0.151999995112 144.0
0.967999994755 -0.126000002027 -0.151999995112 146.0
0.964999973774 -0.131999999285 -0.151999995112 142.0
0.959999978542 -0.136999994516 -0.150999993086 142.0
0.964999973774 -0.143000006676 -0.151999995112 146.0
0.950999975204 -0.146999999881 -0.15000000596 150.0
0.967000007629 -0.155000001192 -0.151999995112 150.0
0.975000023842 -0.162000000477 -0.153999999166 154.0
0.958999991417 -0.165000006557 -0.150999993086 158.0
0.958999991417 -0.171000003815 -0.150999993086 155.0
0.972999989986 -0.179000005126 -0.152999997139 160.0
0.95300000906 -0.180999994278 -0.15000000596 155.0
0.959999978542 -0.187999993563 -0.151999995112 159.0
0.952000021935 -0.192000001669 -0.150999993086 159.0
0.953999996185 -0.199000000954 -0.150999993086 156.0
0.949999988079 -0.203999996185 -0.15000000596 159.0
0.943000018597 -0.208000004292 -0.149000003934 153.0
0.939999997616 -0.212999999523 -0.149000003934 158.0
0.939999997616 -0.218999996781 -0.149000003934 155.0
0.96899998188 -0.231999993324 -0.153999999166 156.0
0.940999984741 -0.231000006199 -0.15000000596 157.0
0.915000021458 -0.230000004172 -0.145999997854 151.0
0.919000029564 -0.237000003457 -0.146999999881 150.0
0.952000021935 -0.250999987125 -0.151999995112 151.0
0.933000028133 -0.252000004053 -0.149000003934 151.0
0.949000000954 -0.263000011444 -0.151999995112 152.0
0.97000002861 -0.27500000596 -0.156000003219 145.0
0.962999999523 -0.279000014067 -0.155000001192 151.0
0.898999989033 -0.266000002623 -0.144999995828 147.0
0.939999997616 -0.284000009298 -0.150999993086 151.0
0.940999984741 -0.291000008583 -0.151999995112 148.0
0.952000021935 -0.300000011921 -0.153999999166 149.0
0.911000013351 -0.293000012636 -0.146999999881 148.0
0.911000013351 -0.298999994993 -0.146999999881 147.0
0.941999971867 -0.314999997616 -0.152999997139 144.0
0.938000023365 -0.319999992847 -0.151999995112 140.0
0.935000002384 -0.326000005007 -0.151999995112 139.0
0.926999986172 -0.328999996185 -0.150999993086 137.0
0.958999991417 -0.347000002861 -0.157000005245 132.0
0.950999975204 -0.351000010967 -0.155000001192 135.0
0.944999992847 -0.354999989271 -0.155000001192 137.0
0.927999973297 -0.354999989271 -0.151999995112 133.0
0.902999997139 -0.351000010967 -0.148000001907 132.0
0.952000021935 -0.377000004053 -0.157000005245 129.0
0.897000014782 -0.361000001431 -0.148000001907 128.0
0.897000014782 -0.368000000715 -0.148000001907 130.0
0.901000022888 -0.375999987125 -0.149000003934 131.0
0.927999973297 -0.393999993801 -0.153999999166 123.0
0.925000011921 -0.398999989033 -0.153999999166 122.0
0.883000016212 -0.386999994516 -0.146999999881 129.0
0.911000013351 -0.407000005245 -0.151999995112 124.0
0.898000001907 -0.407000005245 -0.15000000596 123.0
0.950999975204 -0.437999993563 -0.159999996424 120.0
0.902999997139 -0.423000007868 -0.151999995112 111.0
0.927999973297 -0.442000001669 -0.156000003219 116.0
0.92199999094 -0.446000009775 -0.156000003219 112.0
0.907000005245 -0.444999992847 -0.153999999166 113.0
0.917999982834 -0.458000004292 -0.156000003219 113.0
0.874000012875 -0.442000001669 -0.149000003934 110.0
0.912000000477 -0.469000011683 -0.156000003219 106.0
0.936999976635 -0.488999992609 -0.159999996424 111.0
0.930000007153 -0.493000000715 -0.159999996424 105.0
0.901000022888 -0.485000014305 -0.155000001192 109.0
0.887000024319 -0.485000014305 -0.152999997139 110.0
0.915000021458 -0.507000029087 -0.158000007272 100.0
0.912000000477 -0.513000011444 -0.158000007272 105.0
0.955999970436 0.469999998808 -0.172999992967 316.0
0.962000012398 0.465999990702 -0.172999992967 373.0
0.957000017166 0.456000000238 -0.172000005841 419.0
0.961000025272 0.449999988079 -0.172000005841 470.0
0.949000000954 0.437999993563 -0.170000001788 521.0
0.943000018597 0.428000003099 -0.167999997735 566.0
0.958000004292 0.428000003099 -0.170000001788 616.0
0.958000004292 0.421000003815 -0.170000001788 661.0
0.962999999523 0.416000008583 -0.170000001788 703.0
0.961000025272 0.407999992371 -0.170000001788 757.0
0.953999996185 0.398000001907 -0.167999997735 807.0
0.96899998188 0.398000001907 -0.170000001788 861.0
0.967999994755 0.391000002623 -0.170000001788 928.0
0.964999973774 0.381999999285 -0.168999999762 957.0
0.964999973774 0.375999987125 -0.167999997735 998.0
0.967999994755 0.370000004768 -0.167999997735 1036.0
0.972000002861 0.365000009537 -0.168999999762 1071.0
0.96899998188 0.356999993324 -0.167999997735 1128.0
0.967999994755 0.34999999404 -0.166999995708 1145.0
0.972999989986 0.345999985933 -0.167999997735 1172.0
0.972999989986 0.338999986649 -0.167999997735 1191.0
0.973999977112 0.333000004292 -0.166999995708 1246.0
0.973999977112 0.326999992132 -0.166999995708 1293.0
0.973999977112 0.319999992847 -0.166999995708 1299.0
0.977999985218 0.314999997616 -0.166999995708 1330.0
0.972999989986 0.307000011206 -0.165999993682 1361.0
0.977999985218 0.301999986172 -0.166999995708 1420.0
0.977999985218 0.296000003815 -0.165999993682 1427.0
0.981999993324 0.291000008583 -0.166999995708 1422.0
0.980000019073 0.284000009298 -0.165999993682 1416.0
0.980000019073 0.277999997139 -0.165999993682 1451.0
0.985000014305 0.273000001907 -0.165999993682 1452.0
0.980000019073 0.264999985695 -0.165000006557 1503.0
0.987999975681 0.261000007391 -0.165999993682 1504.0
0.98400002718 0.254000008106 -0.165000006557 1506.0
0.985000014305 0.247999995947 -0.165000006557 1502.0
0.990999996662 0.243000000715 -0.165999993682 1538.0
0.992999970913 0.237000003457 -0.165999993682 1538.0
0.991999983788 0.231000006199 -0.165999993682 1554.0
0.990999996662 0.22499999404 -0.165000006557 1535.0
1.0 0.221000000834 -0.166999995708 1507.0
0.998000025749 0.21400000155 -0.165999993682 1492.0
0.999000012875 0.208000004292 -0.165999993682 1513.0
1.0 0.202000007033 -0.165999993682 1491.0
0.998000025749 0.195999994874 -0.165999993682 1479.0
0.998000025749 0.189999997616 -0.165000006557 1414.0
1.00499999523 0.185000002384 -0.165999993682 1369.0
1.00600004196 0.179000005126 -0.165999993682 1339.0
1.00800001621 0.172999992967 -0.166999995708 1299.0
1.00600004196 0.166999995708 -0.165999993682 1318.0
1.01300001144 0.162000000477 -0.166999995708 1329.0
1.01499998569 0.157000005245 -0.166999995708 1340.0
1.01100003719 0.15000000596 -0.165999993682 1348.0
1.01400005817 0.143999993801 -0.166999995708 1333.0
1.00899994373 0.137999996543 -0.165999993682 1307.0
1.01499998569 0.131999999285 -0.166999995708 1275.0
1.01499998569 0.126000002027 -0.166999995708 1215.0
1.01699995995 0.120999999344 -0.166999995708 1157.0
1.01999998093 0.115000002086 -0.166999995708 1122.0
1.01800000668 0.108999997377 -0.166999995708 1092.0
1.01999998093 0.103000000119 -0.166999995708 1071.0
1.01999998093 0.097000002861 -0.166999995708 1063.0
1.01900005341 0.0909999981523 -0.165999993682 1043.0
1.02600002289 0.0860000029206 -0.167999997735 1008.0
1.02499997616 0.0799999982119 -0.166999995708 966.0
1.02900004387 0.0740000009537 -0.167999997735 935.0
1.03100001812 0.0680000036955 -0.167999997735 931.0
1.03499996662 0.0619999989867 -0.168999999762 902.0
1.02999997139 0.0560000017285 -0.167999997735 912.0
1.03299999237 0.0500000007451 -0.167999997735 873.0
1.03199994564 0.0439999997616 -0.167999997735 873.0
1.03499996662 0.0379999987781 -0.167999997735 842.0
1.0340000391 0.0320000015199 -0.167999997735 792.0
2.34800004959 -0.119000002742 -0.381999999285 149.0
2.40300011635 -0.136000007391 -0.389999985695 132.0
2.2990000248 -0.143000006676 -0.374000012875 111.0
2.30399990082 -0.157000005245 -0.374000012875 203.0
2.39499998093 -0.177000001073 -0.388999998569 110.0
0.981000006199 -0.082000002265 -0.158999994397 134.0
0.975000023842 -0.0869999974966 -0.158000007272 138.0
0.98400002718 -0.0939999967813 -0.159999996424 142.0
0.976000010967 -0.0989999994636 -0.158999994397 135.0
0.967999994755 -0.104000002146 -0.158000007272 136.0
0.978999972343 -0.111000001431 -0.158999994397 139.0
0.981000006199 -0.116999998689 -0.159999996424 142.0
0.976000010967 -0.122000001371 -0.158999994397 143.0
0.972000002861 -0.127000004053 -0.158000007272 145.0
0.981999993324 -0.134000003338 -0.159999996424 145.0
0.98400002718 -0.140000000596 -0.159999996424 146.0
0.976000010967 -0.144999995828 -0.158999994397 152.0
0.972999989986 -0.15000000596 -0.158999994397 148.0
0.97000002861 -0.156000003219 -0.158999994397 150.0
0.967999994755 -0.16099999845 -0.158000007272 155.0
0.971000015736 -0.166999995708 -0.158999994397 158.0
0.952000021935 -0.170000001788 -0.156000003219 155.0
0.949999988079 -0.17499999702 -0.156000003219 155.0
0.966000020504 -0.184000000358 -0.158000007272 156.0
0.967000007629 -0.189999997616 -0.158999994397 152.0
0.962000012398 -0.194999992847 -0.158000007272 156.0
0.952000021935 -0.199000000954 -0.156000003219 153.0
0.944999992847 -0.202999994159 -0.155000001192 157.0
0.945999979973 -0.209000006318 -0.156000003219 163.0
0.958000004292 -0.216999992728 -0.158000007272 160.0
0.948000013828 -0.221000000834 -0.156000003219 158.0
0.936999976635 -0.224000006914 -0.155000001192 157.0
0.931999981403 -0.229000002146 -0.153999999166 151.0
0.949000000954 -0.238999992609 -0.157000005245 150.0
