ply
format ascii 1.0
element vertex 951
property float x
property float y
property float z
property float intensity
end_header
3.95900011063 1.33299994469 1.0490000248 116.0
3.92000007629 1.29299998283 1.03699994087 115.0
3.95600008965 1.27900004387 1.04499995708 115.0
4.00400018692 1.26699995995 1.05599999428 118.0
4.01900005341 1.24500000477 1.05799996853 119.0
3.97699999809 1.20599997044 1.04499995708 117.0
3.95300006866 1.17299997807 1.0379999876 116.0
3.97799992561 1.15400004387 1.04299998283 119.0
4.00899982452 1.13699996471 1.0490000248 115.0
3.9509999752 1.09500002861 1.03299999237 114.0
3.98600006104 1.07899999619 1.04100000858 113.0
3.96799993515 1.04799997807 1.03499996662 111.0
3.91100001335 1.00800001621 1.01800000668 78.0
0.989000022411 -0.105999998748 0.252000004053 91.0
0.994000017643 -0.112000003457 0.252999991179 99.0
0.999000012875 -0.118000000715 0.254000008106 109.0
0.978999972343 -0.122000001371 0.248999997973 98.0
0.949999988079 -0.123999997973 0.241999998689 103.0
1.0 -0.136999994516 0.254999995232 101.0
0.925000011921 -0.131999999285 0.236000001431 102.0
0.97000002861 -0.143999993801 0.247999995947 105.0
0.955999970436 -0.148000001907 0.244000002742 104.0
0.98400002718 -0.158000007272 0.252000004053 107.0
0.967999994755 -0.16099999845 0.247999995947 104.0
0.972999989986 -0.167999997735 0.25 99.0
0.944999992847 -0.168999999762 0.243000000715 107.0
0.95300000906 -0.175999999046 0.245000004768 105.0
0.977999985218 -0.187000006437 0.252000004053 112.0
0.958999991417 -0.188999995589 0.24699999392 104.0
0.959999978542 -0.194999992847 0.24699999392 107.0
0.972999989986 -0.203999996185 0.250999987125 106.0
0.977999985218 -0.21099999547 0.252999991179 111.0
0.957000017166 -0.212999999523 0.247999995947 110.0
0.938000023365 -0.21400000155 0.243000000715 113.0
0.939999997616 -0.221000000834 0.244000002742 109.0
0.972999989986 -0.234999999404 0.252999991179 110.0
0.967000007629 -0.238999992609 0.252000004053 112.0
0.972000002861 -0.24699999392 0.252999991179 113.0
0.962000012398 -0.25 0.250999987125 109.0
0.945999979973 -0.252000004053 0.24699999392 114.0
0.973999977112 -0.266000002623 0.254999995232 115.0
0.952000021935 -0.266000002623 0.25 112.0
0.955999970436 -0.273000001907 0.250999987125 111.0
0.962999999523 -0.282000005245 0.252999991179 107.0
0.967999994755 -0.289999991655 0.254999995232 108.0
0.926999986172 -0.282999992371 0.245000004768 111.0
0.966000020504 -0.301999986172 0.254999995232 112.0
0.935000002384 -0.298000007868 0.247999995947 116.0
0.961000025272 -0.312999993563 0.254999995232 106.0
0.958999991417 -0.319000005722 0.254999995232 108.0
0.976000010967 -0.331000000238 0.259999990463 113.0
0.924000024796 -0.319000005722 0.246000006795 113.0
0.958000004292 -0.337999999523 0.256000012159 102.0
0.950999975204 -0.342000007629 0.254999995232 110.0
0.920000016689 -0.337000012398 0.24699999392 115.0
0.948000013828 -0.354000002146 0.254999995232 113.0
0.939999997616 -0.358000010252 0.252999991179 113.0
0.915000021458 -0.354000002146 0.24699999392 110.0
0.954999983311 -0.377000004053 0.259000003338 105.0
0.884999990463 -0.354999989271 0.239999994636 105.0
0.907999992371 -0.370999991894 0.24699999392 106.0
0.955999970436 -0.398000001907 0.261000007391 103.0
0.920000016689 -0.388999998569 0.250999987125 105.0
0.924000024796 -0.398000001907 0.252999991179 95.0
0.944999992847 -0.41400000453 0.259000003338 92.0
0.90600001812 -0.404000014067 0.25 101.0
0.884000003338 -0.40000000596 0.244000002742 101.0
0.889999985695 -0.409999996424 0.246000006795 98.0
0.920000016689 -0.430999994278 0.254999995232 106.0
0.926999986172 -0.441000014544 0.25799998641 101.0
0.893000006676 -0.430999994278 0.248999997973 106.0
0.938000023365 -0.460000008345 0.261999994516 89.0
0.938000023365 -0.467999994755 0.263000011444 92.0
0.912000000477 -0.462000012398 0.256999999285 98.0
0.934000015259 -0.481000006199 0.263999998569 91.0
0.957000017166 -0.5 0.270999997854 89.0
0.912999987602 -0.485000014305 0.259000003338 98.0
0.930999994278 -0.501999974251 0.264999985695 99.0
0.901000022888 -0.493000000715 0.25799998641 89.0
0.911000013351 -0.505999982357 0.261000007391 97.0
0.933000028133 -0.526000022888 0.268000006676 88.0
0.929000020027 -0.532000005245 0.268000006676 93.0
3.15100002289 1.53600001335 0.850000023842 105.0
3.1740000248 1.52300000191 0.853999972343 93.0
3.25099992752 1.53499996662 0.873000025749 85.0
3.60700011253 1.67599999905 0.966000020504 99.0
3.59599995613 1.64300000668 0.961000025272 120.0
3.60400009155 1.62000000477 0.961000025272 116.0
3.63100004196 1.60500001907 0.966000020504 92.0
3.91400003433 1.67299997807 1.03699994087 77.0
3.81500005722 1.60300004482 1.00800001621 98.0
3.875 1.60000002384 1.02199995518 128.0
3.86999988556 1.57000005245 1.01900005341 122.0
3.93000006676 1.56599998474 1.03199994564 124.0
3.92700004578 1.53699994087 1.02900004387 110.0
3.92000007629 1.50699996948 1.02600002289 112.0
3.88400006294 1.4659999609 1.01400005817 116.0
3.93000006676 1.45599997044 1.02400004864 119.0
3.93600010872 1.43099999428 1.02400004864 119.0
3.9240000248 1.39900004864 1.01900005341 118.0
3.91499996185 1.36899995804 1.01499998569 114.0
3.94799995422 1.35399997234 1.02199995518 112.0
3.95799994469 1.33099997044 1.02300000191 112.0
3.96900010109 1.30700004101 1.02400004864 109.0
3.96199989319 1.27799999714 1.01999998093 115.0
4.01300001144 1.26800000668 1.03199994564 115.0
3.98300004005 1.23199999332 1.02300000191 118.0
4.0110001564 1.21399998665 1.02799999714 115.0
3.98000001907 1.17900002003 1.01900005341 115.0
4.03000020981 1.16700005531 1.02999997139 114.0
4.00199985504 1.13300001621 1.02199995518 117.0
3.97600007057 1.10000002384 1.01400005817 114.0
3.98000001907 1.07500004768 1.01300001144 106.0
3.94199991226 1.03999996185 1.00199997425 107.0
3.96099996567 1.01999998093 1.00600004196 87.0
0.986999988556 -0.104999996722 0.245000004768 93.0
0.980000019073 -0.109999999404 0.243000000715 96.0
0.97000002861 -0.115000002086 0.240999996662 102.0
0.98299998045 -0.122000001371 0.244000002742 102.0
0.990999996662 -0.128999993205 0.246000006795 106.0
0.967999994755 -0.131999999285 0.240999996662 105.0
0.95300000906 -0.136000007391 0.237000003457 103.0
0.980000019073 -0.145999997854 0.244000002742 106.0
0.972999989986 -0.15000000596 0.243000000715 111.0
0.966000020504 -0.155000001192 0.240999996662 107.0
0.967999994755 -0.16099999845 0.241999998689 106.0
1.01600003242 -0.175999999046 0.254000008106 109.0
0.959999978542 -0.172000005841 0.239999994636 107.0
0.980000019073 -0.180999994278 0.246000006795 108.0
0.981999993324 -0.187999993563 0.246000006795 110.0
0.96899998188 -0.190999999642 0.243000000715 111.0
0.971000015736 -0.196999996901 0.244000002742 111.0
0.949000000954 -0.199000000954 0.238999992609 98.0
0.955999970436 -0.206000000238 0.240999996662 112.0
0.949999988079 -0.21099999547 0.239999994636 113.0
0.944000005722 -0.215000003576 0.238999992609 119.0
0.977999985218 -0.229000002146 0.247999995947 115.0
0.958000004292 -0.231000006199 0.243000000715 115.0
0.966000020504 -0.238999992609 0.245000004768 116.0
0.972000002861 -0.246000006795 0.24699999392 117.0
0.944999992847 -0.246000006795 0.239999994636 107.0
0.949999988079 -0.252999991179 0.241999998689 114.0
0.962999999523 -0.263000011444 0.246000006795 111.0
0.986000001431 -0.27500000596 0.252000004053 115.0
0.959999978542 -0.273999989033 0.246000006795 116.0
0.964999973774 -0.282000005245 0.247999995947 117.0
0.933000028133 -0.279000014067 0.239999994636 122.0
0.948000013828 -0.28900000453 0.244000002742 112.0
0.957000017166 -0.298000007868 0.24699999392 118.0
0.934000015259 -0.29699999094 0.240999996662 120.0
0.973999977112 -0.317000001669 0.252000004053 112.0
0.939999997616 -0.312000006437 0.244000002742 114.0
0.935000002384 -0.317000001669 0.243000000715 108.0
0.940999984741 -0.324999988079 0.245000004768 119.0
0.967999994755 -0.340999990702 0.252000004053 111.0
0.963999986649 -0.345999985933 0.252000004053 110.0
0.93599998951 -0.342999994755 0.245000004768 111.0
0.931999981403 -0.347000002861 0.244000002742 110.0
0.963999986649 -0.365999996662 0.254000008106 117.0
0.916000008583 -0.354000002146 0.240999996662 107.0
0.934000015259 -0.368000000715 0.24699999392 101.0
0.916999995708 -0.368000000715 0.243000000715 107.0
0.921000003815 -0.375999987125 0.244000002742 105.0
0.930000007153 -0.386000007391 0.24699999392 108.0
0.95300000906 -0.402999997139 0.254000008106 97.0
0.935000002384 -0.402000010014 0.25 104.0
0.940999984741 -0.411000013351 0.252000004053 107.0
0.912000000477 -0.405000001192 0.245000004768 99.0
0.944999992847 -0.426999986172 0.254999995232 101.0
0.962000012398 -0.442000001669 0.259999990463 99.0
0.921000003815 -0.430000007153 0.248999997973 99.0
0.927999973297 -0.441000014544 0.252000004053 100.0
0.929000020027 -0.448000013828 0.252999991179 95.0
0.936999976635 -0.460000008345 0.256000012159 97.0
0.90499997139 -0.451000005007 0.247999995947 97.0
0.893999993801 -0.451999992132 0.245000004768 93.0
0.896000027657 -0.460000008345 0.24699999392 93.0
0.912999987602 -0.476000010967 0.252000004053 92.0
0.957000017166 -0.508000016212 0.264999985695 93.0
0.948000013828 -0.509999990463 0.263999998569 93.0
0.948000013828 -0.518000006676 0.263999998569 91.0
0.916999995708 -0.508000016212 0.256000012159 91.0
0.894999980927 -0.503000020981 0.250999987125 87.0
0.913999974728 -0.522000014782 0.256999999285 94.0
3.15599989891 1.53600001335 0.828999996185 103.0
3.10100007057 1.48500001431 0.813000023365 89.0
3.26999998093 1.54200005531 0.855000019073 85.0
3.55999994278 1.65100002289 0.929000020027 114.0
3.58100008965 1.63399994373 0.933000028133 117.0
3.6779999733 1.65100002289 0.955999970436 109.0
3.60199999809 1.59000003338 0.934000015259 94.0
3.87299990654 1.625 0.998000025749 93.0
3.88899993896 1.60300004482 1.0 125.0
3.93300008774 1.59300005436 1.00899994373 111.0
3.90000009537 1.55200004578 0.998000025749 115.0
3.90499997139 1.52600002289 0.998000025749 112.0
3.96300005913 1.52100002766 1.00999999046 116.0
3.8789999485 1.4620000124 0.986999988556 110.0
3.91899991035 1.44900000095 0.995000004768 116.0
3.95600008965 1.43599998951 1.00300002098 109.0
3.93499994278 1.40100002289 0.995999991894 121.0
3.91499996185 1.36699998379 0.989000022411 121.0
3.9509999752 1.35300004482 0.996999979019 115.0
3.90199995041 1.30999994278 0.98299998045 113.0
3.90199995041 1.28299999237 0.981000006199 115.0
4.02199983597 1.29600000381 1.00999999046 114.0
3.95499992371 1.24800002575 0.990999996662 112.0
3.95399999619 1.22200000286 0.989000022411 113.0
3.98099994659 1.20399999619 0.995000004768 121.0
3.94099998474 1.16600000858 0.98400002718 110.0
4.03800010681 1.16799998283 1.00600004196 119.0
3.93600010872 1.11300003529 0.980000019073 118.0
3.95900011063 1.09399998188 0.98400002718 106.0
3.90899991989 1.05499994755 0.97000002861 116.0
3.93000006676 1.03499996662 0.973999977112 109.0
3.89499998093 1.00100004673 0.963999986649 84.0
0.985000014305 -0.104999996722 0.238000005484 92.0
0.986000001431 -0.111000001431 0.238000005484 95.0
0.959999978542 -0.112999998033 0.231999993324 100.0
1.01999998093 -0.127000004053 0.24699999392 100.0
0.976000010967 -0.127000004053 0.237000003457 100.0
0.962999999523 -0.130999997258 0.233999997377 103.0
1.01499998569 -0.144999995828 0.24699999392 103.0
0.962999999523 -0.143000006676 0.233999997377 104.0
0.971000015736 -0.15000000596 0.236000001431 111.0
0.986999988556 -0.158000007272 0.239999994636 116.0
0.971000015736 -0.162000000477 0.237000003457 111.0
0.986000001431 -0.170000001788 0.240999996662 116.0
0.990999996662 -0.177000001073 0.241999998689 106.0
0.986000001431 -0.181999996305 0.240999996662 109.0
0.972999989986 -0.186000004411 0.238000005484 114.0
0.989000022411 -0.194999992847 0.241999998689 110.0
0.962999999523 -0.195999994874 0.236000001431 110.0
0.987999975681 -0.207000002265 0.243000000715 113.0
0.95300000906 -0.204999998212 0.233999997377 112.0
1.00499999523 -0.223000004888 0.24699999392 115.0
0.975000023842 -0.222000002861 0.239999994636 118.0
0.949999988079 -0.222000002861 0.233999997377 116.0
0.959999978542 -0.231000006199 0.237000003457 113.0
0.949999988079 -0.233999997377 0.234999999404 116.0
0.962000012398 -0.244000002742 0.238000005484 118.0
0.963999986649 -0.25 0.238999992609 120.0
0.958000004292 -0.254999995232 0.238000005484 124.0
0.944999992847 -0.256999999285 0.234999999404 116.0
0.948000013828 -0.263999998569 0.236000001431 106.0
0.954999983311 -0.272000014782 0.238000005484 113.0
0.962999999523 -0.280999988317 0.240999996662 117.0
0.954999983311 -0.284999996424 0.238999992609 111.0
0.926999986172 -0.282999992371 0.232999995351 120.0
0.943000018597 -0.293999999762 0.237000003457 114.0
0.975000023842 -0.310000002384 0.246000006795 121.0
0.933000028133 -0.303000003099 0.234999999404 116.0
0.931999981403 -0.308999985456 0.236000001431 109.0
0.95300000906 -0.321999996901 0.240999996662 115.0
0.933000028133 -0.321999996901 0.237000003457 111.0
0.964999973774 -0.340000003576 0.245000004768 112.0
0.931999981403 -0.333999991417 0.237000003457 116.0
0.930999994278 -0.340000003576 0.238000005484 115.0
0.962999999523 -0.358999997377 0.246000006795 113.0
0.927999973297 -0.351999998093 0.238000005484 108.0
0.902999997139 -0.349000006914 0.231999993324 112.0
0.925000011921 -0.363999992609 0.238000005484 112.0
0.972000002861 -0.388999998569 0.250999987125 106.0
0.93599998951 -0.381999999285 0.241999998689 110.0
0.903999984264 -0.375 0.233999997377 106.0
0.930000007153 -0.393000006676 0.241999998689 104.0
0.917999982834 -0.393999993801 0.238999992609 111.0
0.902999997139 -0.393999993801 0.236000001431 99.0
0.933000028133 -0.41400000453 0.244000002742 101.0
0.944999992847 -0.426999986172 0.247999995947 100.0
0.898000001907 -0.412000000477 0.236000001431 99.0
0.912000000477 -0.425999999046 0.240999996662 103.0
0.936999976635 -0.444000005722 0.247999995947 94.0
0.93900001049 -0.451999992132 0.248999997973 103.0
0.925999999046 -0.453999996185 0.246000006795 92.0
0.925000011921 -0.460000008345 0.24699999392 90.0
0.919000029564 -0.463999986649 0.246000006795 92.0
0.908999979496 -0.465999990702 0.244000002742 98.0
0.861999988556 -0.449000000954 0.231999993324 97.0
0.861999988556 -0.456000000238 0.232999995351 89.0
0.846000015736 -0.453999996185 0.229000002146 88.0
0.866999983788 -0.472999989986 0.234999999404 89.0
0.874000012875 -0.483999997377 0.238000005484 100.0
0.912999987602 -0.513000011444 0.25 94.0
0.903999984264 -0.51599997282 0.247999995947 93.0
3.08899998665 1.50100004673 0.791000008583 105.0
3.21600008011 1.53900003433 0.820999979973 90.0
3.5490000248 1.64400005341 0.902000010014 111.0
3.54500007629 1.61500000954 0.898999989033 113.0
3.55500006676 1.59300005436 0.899999976158 111.0
3.625 1.59800004959 0.915000021458 87.0
3.74300003052 1.62199997902 0.943000018597 71.0
3.87800002098 1.65199995041 0.975000023842 69.0
3.90400004387 1.63499999046 0.978999972343 98.0
3.89899992943 1.60500001907 0.976000010967 123.0
3.87800002098 1.56900000572 0.96899998188 120.0
3.9470000267 1.56799995899 0.98400002718 118.0
3.93700003624 1.53699994087 0.980000019073 112.0
3.95199990273 1.51499998569 0.981999993324 123.0
3.9240000248 1.47599995136 0.972999989986 120.0
3.93400001526 1.45299994946 0.972999989986 114.0
3.9849998951 1.44400000572 0.98400002718 122.0
3.98600006104 1.41700005531 0.98299998045 114.0
3.97300004959 1.38499999046 0.977999985218 107.0
4.00699996948 1.37000000477 0.985000014305 121.0
3.9470000267 1.32299995422 0.967999994755 116.0
3.93400001526 1.29200005531 0.962999999523 115.0
3.91599988937 1.25999999046 0.958000004292 118.0
3.98600006104 1.25600004196 0.972999989986 113.0
3.93899989128 1.21500003338 0.959999978542 118.0
3.99399995804 1.20599997044 0.972000002861 117.0
4.00299978256 1.18200004101 0.972999989986 114.0
3.97699999809 1.14900004864 0.966000020504 116.0
4.00199985504 1.12999999523 0.97000002861 116.0
3.93700003624 1.08599996567 0.95300000906 112.0
3.99099993706 1.07500004768 0.964999973774 114.0
3.94400000572 1.03699994087 0.952000021935 107.0
3.88899993896 0.998000025749 0.938000023365 81.0
0.994000017643 -0.105999998748 0.233999997377 93.0
0.989000022411 -0.111000001431 0.232999995351 108.0
0.995999991894 -0.118000000715 0.234999999404 99.0
1.0 -0.123999997973 0.236000001431 101.0
0.989000022411 -0.128999993205 0.233999997377 100.0
1.00999999046 -0.137999996543 0.238999992609 100.0
0.96899998188 -0.137999996543 0.229000002146 106.0
0.989000022411 -0.146999999881 0.233999997377 105.0
0.961000025272 -0.148000001907 0.228000000119 115.0
0.952000021935 -0.151999995112 0.225999996066 112.0
1.00800001621 -0.167999997735 0.238999992609 110.0
1.00100004673 -0.172999992967 0.238000005484 116.0
0.978999972343 -0.17499999702 0.232999995351 117.0
0.98400002718 -0.181999996305 0.233999997377 107.0
0.962000012398 -0.182999998331 0.229000002146 116.0
0.990999996662 -0.194999992847 0.237000003457 116.0
0.97000002861 -0.196999996901 0.231999993324 118.0
0.941999971867 -0.196999996901 0.22499999404 112.0
0.945999979973 -0.202999994159 0.225999996066 115.0
0.981999993324 -0.217999994755 0.236000001431 115.0
0.96899998188 -0.221000000834 0.232999995351 113.0
0.943000018597 -0.221000000834 0.226999998093 116.0
0.972000002861 -0.233999997377 0.233999997377 119.0
0.987999975681 -0.244000002742 0.238000005484 111.0
0.961000025272 -0.243000000715 0.231999993324 108.0
0.954999983311 -0.247999995947 0.231000006199 108.0
0.986999988556 -0.261999994516 0.238999992609 116.0
0.972000002861 -0.264999985695 0.236000001431 116.0
0.967999994755 -0.270000010729 0.234999999404 117.0
0.976999998093 -0.279000014067 0.238000005484 124.0
0.922999978065 -0.268999993801 0.22499999404 116.0
0.922999978065 -0.27500000596 0.22499999404 120.0
0.898999989033 -0.273999989033 0.219999998808 114.0
0.963999986649 -0.300000011921 0.236000001431 117.0
0.976999998093 -0.310000002384 0.239999994636 123.0
0.92199999094 -0.298999994993 0.226999998093 123.0
0.93900001049 -0.31099998951 0.231000006199 113.0
0.963999986649 -0.326000005007 0.238000005484 112.0
0.93599998951 -0.321999996901 0.231000006199 113.0
0.972999989986 -0.342000007629 0.240999996662 114.0
0.938000023365 -0.33599999547 0.232999995351 110.0
0.916999995708 -0.335000008345 0.228000000119 117.0
0.912999987602 -0.338999986649 0.226999998093 100.0
0.945999979973 -0.358000010252 0.236000001431 119.0
0.921000003815 -0.354999989271 0.231000006199 114.0
0.945999979973 -0.372000008821 0.237000003457 109.0
0.912999987602 -0.365000009537 0.230000004172 106.0
0.947000026703 -0.386000007391 0.238999992609 110.0
0.920000016689 -0.381000012159 0.231999993324 111.0
0.903999984264 -0.381000012159 0.229000002146 105.0
0.885999977589 -0.379999995232 0.22499999404 104.0
0.902000010014 -0.393000006676 0.229000002146 101.0
0.894999980927 -0.397000014782 0.228000000119 100.0
0.952000021935 -0.428999990225 0.243000000715 102.0
0.902000010014 -0.412999987602 0.231000006199 96.0
0.893000006676 -0.416000008583 0.230000004172 101.0
0.978999972343 -0.463999986649 0.252000004053 104.0
0.883000016212 -0.425000011921 0.228000000119 99.0
0.903999984264 -0.442000001669 0.233999997377 98.0
0.901000022888 -0.448000013828 0.233999997377 99.0
0.913999974728 -0.46099999547 0.238000005484 96.0
0.922999978065 -0.472999989986 0.240999996662 93.0
0.898000001907 -0.467000007629 0.234999999404 100.0
0.907000005245 -0.479000002146 0.238999992609 91.0
0.864000022411 -0.462999999523 0.228000000119 93.0
0.920000016689 -0.500999987125 0.244000002742 96.0
0.95300000906 -0.527000010014 0.252999991179 88.0
0.889999985695 -0.499000012875 0.237000003457 97.0
0.939999997616 -0.536000013351 0.250999987125 91.0
3.13499999046 1.52100002766 0.78100001812 104.0
3.16599988937 1.51199996471 0.787000000477 81.0
3.43099999428 1.61300003529 0.851000010967 77.0
3.52399992943 1.62999999523 0.871999979019 108.0
3.55999994278 1.62000000477 0.879000008106 114.0
3.54399991035 1.58599996567 0.873000025749 117.0
3.60100007057 1.58500003815 0.884999990463 81.0
3.88400006294 1.65299999714 0.950999975204 69.0
3.89599990845 1.62999999523 0.952000021935 96.0
3.90499997139 1.60500001907 0.952000021935 127.0
3.87199997902 1.56400001049 0.941999971867 114.0
3.89100003242 1.54400002956 0.944999992847 109.0
3.93099999428 1.53199994564 0.952000021935 116.0
3.98399996758 1.52499997616 0.962999999523 111.0
3.90700006485 1.46800005436 0.943000018597 119.0
3.9240000248 1.4470000267 0.944999992847 114.0
3.96799993515 1.43599998951 0.953999996185 114.0
4.01000022888 1.4240000248 0.962999999523 102.0
3.97300004959 1.38399994373 0.952000021935 115.0
3.9319999218 1.34300005436 0.940999984741 111.0
3.96799993515 1.32799994946 0.948000013828 114.0
3.96900010109 1.30200004578 0.945999979973 117.0
3.95700001717 1.27100002766 0.941999971867 116.0
3.91400003433 1.23199999332 0.930000007153 110.0
4.02500009537 1.24000000954 0.955999970436 115.0
4.03200006485 1.2159999609 0.955999970436 116.0
3.99099993706 1.17700004578 0.944999992847 117.0
4.00600004196 1.15499997139 0.947000026703 115.0
3.99799990654 1.12699997425 0.944000005722 117.0
4.00099992752 1.10300004482 0.943000018597 107.0
3.96199989319 1.06599998474 0.933000028133 105.0
3.98799991608 1.04799997807 0.938000023365 111.0
4.00299978256 1.02600002289 0.939999997616 78.0
1.03299999237 -0.109999999404 0.237000003457 93.0
1.0340000391 -0.115999996662 0.237000003457 104.0
0.976000010967 -0.115000002086 0.224000006914 103.0
0.96899998188 -0.119999997318 0.223000004888 101.0
0.991999983788 -0.128999993205 0.228000000119 104.0
1.00100004673 -0.136000007391 0.230000004172 106.0
0.986999988556 -0.140000000596 0.226999998093 104.0
0.92199999094 -0.136000007391 0.211999997497 111.0
0.985000014305 -0.151999995112 0.226999998093 110.0
0.972000002861 -0.156000003219 0.22499999404 113.0
0.978999972343 -0.163000002503 0.225999996066 115.0
0.986000001431 -0.170000001788 0.228000000119 111.0
0.964999973774 -0.172000005841 0.224000006914 112.0
0.950999975204 -0.17499999702 0.221000000834 107.0
0.964999973774 -0.184000000358 0.224000006914 115.0
0.962000012398 -0.188999995589 0.224000006914 114.0
1.0039999485 -0.203999996185 0.233999997377 115.0
0.971000015736 -0.202999994159 0.225999996066 115.0
0.967999994755 -0.208000004292 0.225999996066 121.0
0.966000020504 -0.21400000155 0.225999996066 124.0
0.987999975681 -0.22499999404 0.231000006199 117.0
0.959999978542 -0.224000006914 0.22499999404 116.0
0.948000013828 -0.226999998093 0.222000002861 118.0
0.981999993324 -0.241999998689 0.231000006199 116.0
0.962999999523 -0.243000000715 0.226999998093 115.0
0.949000000954 -0.246000006795 0.223000004888 109.0
0.962000012398 -0.254999995232 0.226999998093 115.0
0.97000002861 -0.263999998569 0.229000002146 116.0
0.987999975681 -0.27500000596 0.233999997377 116.0
0.947000026703 -0.270000010729 0.224000006914 121.0
0.978999972343 -0.284999996424 0.231999993324 117.0
0.949999988079 -0.282999992371 0.225999996066 116.0
0.95300000906 -0.289999991655 0.226999998093 117.0
0.930000007153 -0.28900000453 0.222000002861 116.0
0.95300000906 -0.301999986172 0.228000000119 121.0
0.921000003815 -0.298000007868 0.219999998808 112.0
0.936999976635 -0.310000002384 0.22499999404 116.0
0.93900001049 -0.317000001669 0.225999996066 119.0
0.930999994278 -0.319999992847 0.224000006914 107.0
0.955999970436 -0.335000008345 0.231000006199 117.0
0.930000007153 -0.331999987364 0.22499999404 116.0
0.908999979496 -0.331000000238 0.219999998808 112.0
0.944000005722 -0.351000010967 0.229000002146 114.0
0.916000008583 -0.347000002861 0.223000004888 112.0
0.939999997616 -0.361999988556 0.229000002146 107.0
0.967000007629 -0.379000008106 0.236000001431 114.0
0.929000020027 -0.370999991894 0.226999998093 113.0
0.941999971867 -0.38299998641 0.231000006199 106.0
0.907000005245 -0.375 0.223000004888 111.0
0.870999991894 -0.365999996662 0.215000003576 108.0
0.949000000954 -0.407000005245 0.234999999404 110.0
0.90600001812 -0.393999993801 0.224000006914 108.0
0.957000017166 -0.423999994993 0.238000005484 107.0
0.936999976635 -0.42199999094 0.232999995351 99.0
0.90499997139 -0.41400000453 0.225999996066 110.0
0.917999982834 -0.426999986172 0.230000004172 108.0
0.884000003338 -0.418000012636 0.222000002861 96.0
0.901000022888 -0.432999998331 0.226999998093 98.0
0.912999987602 -0.446000009775 0.230000004172 98.0
0.917999982834 -0.455000013113 0.231999993324 101.0
0.934000015259 -0.470999985933 0.237000003457 99.0
0.898000001907 -0.458999991417 0.229000002146 103.0
0.964999973774 -0.501999974251 0.24699999392 99.0
0.907000005245 -0.479000002146 0.231999993324 93.0
0.941999971867 -0.504999995232 0.241999998689 100.0
0.940999984741 -0.512000024319 0.243000000715 89.0
0.938000023365 -0.518000006676 0.243000000715 95.0
0.935000002384 -0.523999989033 0.243000000715 90.0
0.894999980927 -0.509000003338 0.232999995351 95.0
3.17000007629 1.53600001335 0.768000006676 96.0
3.24900007248 1.54999995232 0.786000013351 86.0
3.54399991035 1.6629999876 0.855000019073 77.0
3.53099989891 1.63100004196 0.850000023842 112.0
3.59899997711 1.63499999046 0.865000009537 122.0
3.59100008011 1.60500001907 0.861000001431 110.0
3.63100004196 1.59599995613 0.867999970913 74.0
3.89899992943 1.68499994278 0.930999994278 69.0
3.85299992561 1.60899996758 0.916000008583 106.0
3.82699990273 1.57099997997 0.907000005245 127.0
3.86899995804 1.56099998951 0.916000008583 124.0
3.85700011253 1.52799999714 0.911000013351 119.0
3.90400004387 1.51999998093 0.920000016689 124.0
3.90199995041 1.49100005627 0.917999982834 118.0
3.93099999428 1.47500002384 0.922999978065 110.0
3.9470000267 1.45399999619 0.925000011921 109.0
3.90799999237 1.41199994087 0.913999974728 97.0
3.85299992561 1.36600005627 0.899999976158 95.0
3.94099998474 1.3710000515 0.919000029564 88.0
3.92300009727 1.33800005913 0.912999987602 81.0
3.95700001717 1.32299995422 0.920000016689 90.0
3.99300003052 1.30799996853 0.926999986172 107.0
3.95000004768 1.26800000668 0.915000021458 116.0
4.00099992752 1.25800001621 0.925999999046 108.0
4.00600004196 1.23300004005 0.925000011921 110.0
3.94000005722 1.18599998951 0.908999979496 116.0
3.95700001717 1.16600000858 0.912000000477 115.0
3.98300004005 1.14699995518 0.916000008583 112.0
3.97499990463 1.11899995804 0.912999987602 116.0
3.98699998856 1.09700000286 0.915000021458 114.0
3.95499992371 1.06299996376 0.90600001812 109.0
3.94199991226 1.0340000391 0.902000010014 110.0
4.04899978638 1.03600001335 0.925000011921 81.0
0.96899998188 -0.103000000119 0.216000005603 92.0
0.93900001049 -0.104999996722 0.209999993443 100.0
0.972999989986 -0.115000002086 0.216999992728 104.0
0.964999973774 -0.119999997318 0.216000005603 107.0
0.955999970436 -0.123999997973 0.21400000155 98.0
0.995999991894 -0.135000005364 0.223000004888 111.0
0.990000009537 -0.141000002623 0.222000002861 108.0
1.00899994373 -0.149000003934 0.226999998093 108.0
0.976999998093 -0.15000000596 0.219999998808 113.0
0.987999975681 -0.158000007272 0.222000002861 109.0
0.963999986649 -0.159999996424 0.216999992728 112.0
0.976999998093 -0.167999997735 0.219999998808 111.0
0.945999979973 -0.167999997735 0.212999999523 113.0
0.98400002718 -0.180999994278 0.222000002861 116.0
0.972000002861 -0.185000002384 0.219999998808 116.0
0.950999975204 -0.187000006437 0.215000003576 112.0
0.971000015736 -0.196999996901 0.219999998808 116.0
0.948000013828 -0.197999998927 0.215000003576 116.0
0.93900001049 -0.202000007033 0.212999999523 116.0
0.986999988556 -0.217999994755 0.224000006914 119.0
0.958000004292 -0.217999994755 0.217999994755 116.0
0.967000007629 -0.225999996066 0.219999998808 116.0
0.952000021935 -0.228000000119 0.216999992728 119.0
0.958000004292 -0.236000001431 0.218999996781 122.0
0.949000000954 -0.238999992609 0.216999992728 118.0
0.986999988556 -0.254999995232 0.225999996066 116.0
0.962000012398 -0.254999995232 0.221000000834 117.0
0.949000000954 -0.25799998641 0.217999994755 113.0
0.978999972343 -0.272000014782 0.22499999404 118.0
0.98400002718 -0.280000001192 0.226999998093 119.0
0.917999982834 -0.266999989748 0.211999997497 122.0
0.953999996185 -0.284000009298 0.221000000834 119.0
0.930000007153 -0.282000005245 0.215000003576 115.0
0.950999975204 -0.294999986887 0.221000000834 120.0
0.966000020504 -0.305999994278 0.22499999404 120.0
0.962999999523 -0.312000006437 0.224000006914 121.0
0.972999989986 -0.321999996901 0.226999998093 121.0
0.947000026703 -0.319000005722 0.222000002861 122.0
0.924000024796 -0.317000001669 0.216000005603 123.0
0.944000005722 -0.331000000238 0.222000002861 117.0
0.925999999046 -0.331000000238 0.217999994755 110.0
0.962000012398 -0.351000010967 0.226999998093 113.0
0.916999995708 -0.340000003576 0.216000005603 119.0
0.948000013828 -0.358000010252 0.224000006914 112.0
0.947000026703 -0.365000009537 0.22499999404 114.0
0.919000029564 -0.360000014305 0.217999994755 104.0
0.910000026226 -0.363000005484 0.216999992728 111.0
0.944000005722 -0.38299998641 0.22499999404 106.0
0.945999979973 -0.391000002623 0.226999998093 110.0
0.913999974728 -0.384000003338 0.218999996781 106.0
0.93599998951 -0.40000000596 0.22499999404 108.0
0.924000024796 -0.402000010014 0.223000004888 104.0
0.921000003815 -0.407000005245 0.223000004888 106.0
0.927999973297 -0.416999995708 0.22499999404 109.0
0.972999989986 -0.444999992847 0.237000003457 107.0
0.898000001907 -0.416999995708 0.218999996781 102.0
0.935000002384 -0.441000014544 0.228000000119 105.0
0.901000022888 -0.432000011206 0.221000000834 100.0
0.910000026226 -0.444000005722 0.223000004888 104.0
0.944000005722 -0.467999994755 0.232999995351 103.0
0.920000016689 -0.462999999523 0.226999998093 100.0
0.837999999523 -0.428000003099 0.207000002265 100.0
0.876999974251 -0.455000013113 0.217999994755 106.0
0.930000007153 -0.490000009537 0.231999993324 99.0
0.927999973297 -0.497000008821 0.231999993324 96.0
0.851999998093 -0.462999999523 0.21400000155 92.0
0.894999980927 -0.493000000715 0.22499999404 92.0
0.878000020981 -0.490999996662 0.221000000834 90.0
0.938000023365 -0.532999992371 0.238000005484 92.0
2.25699996948 1.31099998951 0.549000024796 87.0
3.15100002289 1.52499997616 0.742999970913 115.0
3.23099994659 1.53900003433 0.759999990463 89.0
3.47300004959 1.62800002098 0.814999997616 87.0
3.53999996185 1.63300001621 0.828999996185 113.0
3.58299994469 1.62600004673 0.837000012398 111.0
3.58299994469 1.59899997711 0.834999978542 99.0
3.79200005531 1.60899996758 0.878000020981 71.0
3.8789999485 1.61800003052 0.896000027657 113.0
3.86400008202 1.58399999142 0.89099997282 122.0
3.88599991798 1.56500005722 0.893999993801 114.0
3.93400001526 1.55700004101 0.903999984264 117.0
3.93099999428 1.52799999714 0.901000022888 118.0
3.8710000515 1.47699999809 0.885999977589 111.0
3.91400003433 1.46700000763 0.893999993801 101.0
3.94799995422 1.45200002193 0.899999976158 78.0
4.07100009918 1.46899998188 0.925999999046 79.0
3.8900001049 1.27199995518 0.878000020981 79.0
3.96499991417 1.27100002766 0.893000006676 96.0
3.99699997902 1.25499999523 0.898999989033 112.0
3.97699999809 1.22200000286 0.893000006676 124.0
3.91300010681 1.17700004578 0.878000020981 116.0
4.03599977493 1.18700003624 0.903999984264 113.0
3.98600006104 1.14699995518 0.89200001955 112.0
3.96300005913 1.11500000954 0.884999990463 111.0
3.95600008965 1.0870000124 0.883000016212 107.0
4.05200004578 1.08800005913 0.902999997139 111.0
3.93000006676 1.02999997139 0.875 96.0
1.00300002098 -0.105999998748 0.217999994755 99.0
1.01900005341 -0.11400000006 0.221000000834 105.0
0.976000010967 -0.115000002086 0.211999997497 105.0
0.949999988079 -0.116999998689 0.206000000238 107.0
1.00999999046 -0.130999997258 0.219999998808 108.0
1.00800001621 -0.136999994516 0.219999998808 108.0
0.981000006199 -0.138999998569 0.21400000155 109.0
0.989000022411 -0.145999997854 0.216000005603 109.0
0.978999972343 -0.150999993086 0.21400000155 107.0
0.976999998093 -0.156000003219 0.21400000155 118.0
0.990999996662 -0.16400000453 0.216999992728 118.0
0.986999988556 -0.170000001788 0.216000005603 111.0
0.980000019073 -0.173999994993 0.215000003576 120.0
0.986000001431 -0.181999996305 0.216999992728 108.0
0.950999975204 -0.180999994278 0.209000006318 115.0
0.954999983311 -0.187000006437 0.209999993443 117.0
0.976999998093 -0.197999998927 0.215000003576 120.0
0.967000007629 -0.202000007033 0.212999999523 119.0
0.98299998045 -0.21099999547 0.216999992728 121.0
0.958999991417 -0.211999997497 0.211999997497 124.0
0.95300000906 -0.216000005603 0.21099999547 117.0
0.98299998045 -0.229000002146 0.217999994755 120.0
0.949000000954 -0.226999998093 0.21099999547 120.0
0.938000023365 -0.231000006199 0.208000004292 122.0
0.963999986649 -0.243000000715 0.215000003576 115.0
0.990999996662 -0.256000012159 0.221000000834 120.0
0.958000004292 -0.254000008106 0.21400000155 120.0
0.944999992847 -0.256000012159 0.21099999547 121.0
0.957000017166 -0.264999985695 0.21400000155 117.0
0.978999972343 -0.277999997139 0.219999998808 117.0
0.964999973774 -0.280000001192 0.216999992728 117.0
0.959999978542 -0.284999996424 0.216000005603 124.0
0.93599998951 -0.284000009298 0.21099999547 123.0
0.97000002861 -0.300999999046 0.218999996781 118.0
0.958000004292 -0.303000003099 0.216999992728 119.0
0.939999997616 -0.303999990225 0.212999999523 120.0
0.908999979496 -0.300000011921 0.206000000238 115.0
0.92199999094 -0.310000002384 0.209999993443 118.0
0.938000023365 -0.321999996901 0.21400000155 120.0
0.910000026226 -0.317999988794 0.208000004292 117.0
0.947000026703 -0.337999999523 0.216999992728 119.0
0.941999971867 -0.342000007629 0.216000005603 110.0
0.936999976635 -0.347000002861 0.215000003576 113.0
0.940999984741 -0.354999989271 0.216999992728 118.0
0.902000010014 -0.347000002861 0.208000004292 110.0
0.911000013351 -0.356000006199 0.21099999547 116.0
0.944000005722 -0.375999987125 0.218999996781 112.0
0.935000002384 -0.379000008106 0.216999992728 111.0
0.89200001955 -0.368000000715 0.208000004292 110.0
0.981999993324 -0.412000000477 0.229000002146 104.0
0.896000027657 -0.381999999285 0.209000006318 110.0
0.935000002384 -0.405999988317 0.218999996781 108.0
0.966000020504 -0.426999986172 0.226999998093 109.0
0.949000000954 -0.425999999046 0.224000006914 106.0
0.916000008583 -0.418000012636 0.216000005603 105.0
0.910000026226 -0.42199999094 0.216000005603 106.0
0.896000027657 -0.42199999094 0.212999999523 106.0
0.882000029087 -0.423000007868 0.209999993443 107.0
0.919000029564 -0.448000013828 0.219999998808 92.0
0.955999970436 -0.472999989986 0.229000002146 103.0
0.925999999046 -0.465000003576 0.223000004888 104.0
0.925999999046 -0.472999989986 0.223000004888 95.0
0.902999997139 -0.467999994755 0.217999994755 98.0
0.930999994278 -0.490000009537 0.225999996066 96.0
0.929000020027 -0.495999991894 0.225999996066 96.0
0.878000020981 -0.476000010967 0.21400000155 97.0
0.921000003815 -0.507000029087 0.22499999404 95.0
0.916999995708 -0.512000024319 0.22499999404 97.0
0.879999995232 -0.499000012875 0.216999992728 88.0
3.13199996948 1.5379999876 0.71899998188 93.0
3.07999992371 1.48899996281 0.704999983311 104.0
3.24900007248 1.54600000381 0.741999983788 85.0
3.45600008965 1.61800003052 0.787999987602 87.0
3.55500006676 1.63699996471 0.809000015259 123.0
3.55800008774 1.61199998856 0.806999981403 110.0
3.59999990463 1.60399997234 0.814999997616 98.0
3.7460000515 1.61500000954 0.84500002861 72.0
3.91400003433 1.6590000391 0.879999995232 82.0
3.84899997711 1.60300004482 0.864000022411 118.0
3.89800000191 1.59599995613 0.873000025749 126.0
3.89499998093 1.56700003147 0.870999991894 120.0
3.94000005722 1.55700004101 0.879000008106 118.0
3.95000004768 1.53299999237 0.879999995232 115.0
3.96600008011 1.51199996471 0.882000029087 108.0
3.97099995613 1.27100002766 0.869000017643 79.0
3.97300004959 1.24500000477 0.867999970913 99.0
3.98900008202 1.22399997711 0.870999991894 115.0
3.99300003052 1.19900000095 0.870000004768 115.0
3.92600011826 1.15400004387 0.855000019073 113.0
3.98200011253 1.14400005341 0.865999996662 115.0
3.9509999752 1.11000001431 0.856999993324 106.0
3.94799995422 1.08399999142 0.856000006199 104.0
3.9509999752 1.05900001526 0.855000019073 110.0
3.95399999619 1.03499996662 0.855000019073 100.0
0.972000002861 -0.103000000119 0.204999998212 97.0
1.01900005341 -0.11400000006 0.215000003576 103.0
0.998000025749 -0.118000000715 0.21099999547 104.0
1.00499999523 -0.123999997973 0.211999997497 104.0
0.981000006199 -0.127000004053 0.208000004292 103.0
0.953999996185 -0.128999993205 0.202000007033 107.0
1.01199996471 -0.143000006676 0.215000003576 102.0
0.98299998045 -0.144999995828 0.209000006318 113.0
0.952000021935 -0.145999997854 0.202000007033 112.0
1.00100004673 -0.159999996424 0.212999999523 110.0
0.976000010967 -0.162000000477 0.208000004292 116.0
0.972000002861 -0.166999995708 0.207000002265 115.0
0.964999973774 -0.172000005841 0.206000000238 114.0
0.964999973774 -0.177000001073 0.206000000238 116.0
0.962999999523 -0.182999998331 0.206000000238 107.0
0.963999986649 -0.188999995589 0.206000000238 113.0
0.98299998045 -0.199000000954 0.21099999547 118.0
0.962999999523 -0.20000000298 0.206000000238 120.0
0.994000017643 -0.212999999523 0.212999999523 120.0
0.963999986649 -0.212999999523 0.207000002265 126.0
0.944999992847 -0.21400000155 0.202999994159 122.0
0.96899998188 -0.225999996066 0.209000006318 116.0
0.944000005722 -0.225999996066 0.203999996185 117.0
0.957000017166 -0.234999999404 0.207000002265 118.0
0.962999999523 -0.243000000715 0.208000004292 124.0
0.949000000954 -0.245000004768 0.206000000238 126.0
0.93599998951 -0.247999995947 0.202999994159 127.0
0.941999971867 -0.254999995232 0.203999996185 116.0
0.912999987602 -0.252999991179 0.197999998927 120.0
0.971000015736 -0.275999993086 0.211999997497 124.0
0.967999994755 -0.280999988317 0.21099999547 125.0
0.93900001049 -0.277999997139 0.204999998212 123.0
0.935000002384 -0.282999992371 0.204999998212 121.0
0.962999999523 -0.298000007868 0.21099999547 116.0
0.939999997616 -0.29699999094 0.207000002265 121.0
0.954999983311 -0.307999998331 0.209999993443 115.0
0.964999973774 -0.317999988794 0.212999999523 119.0
0.964999973774 -0.324999988079 0.212999999523 114.0
0.964999973774 -0.331000000238 0.21400000155 122.0
0.962000012398 -0.33599999547 0.212999999523 117.0
0.959999978542 -0.342000007629 0.212999999523 113.0
0.962000012398 -0.34999999404 0.21400000155 122.0
0.941999971867 -0.349000006914 0.209999993443 113.0
0.935000002384 -0.352999985218 0.209000006318 119.0
0.93900001049 -0.361000001431 0.209999993443 113.0
0.907000005245 -0.354999989271 0.203999996185 111.0
0.955999970436 -0.381000012159 0.215000003576 99.0
0.927999973297 -0.375999987125 0.209000006318 109.0
0.920000016689 -0.379000008106 0.208000004292 112.0
0.949000000954 -0.398000001907 0.215000003576 108.0
0.916999995708 -0.391000002623 0.209000006318 112.0
0.899999976158 -0.389999985695 0.204999998212 110.0
0.915000021458 -0.404000014067 0.209000006318 106.0
0.930000007153 -0.416999995708 0.212999999523 102.0
0.930999994278 -0.425000011921 0.21400000155 103.0
0.916000008583 -0.423999994993 0.21099999547 98.0
0.940999984741 -0.442999988794 0.216999992728 109.0
0.853999972343 -0.409000009298 0.197999998927 108.0
0.921000003815 -0.448000013828 0.21400000155 96.0
0.907999992371 -0.449000000954 0.21099999547 97.0
0.916000008583 -0.460000008345 0.21400000155 95.0
0.913999974728 -0.465999990702 0.21400000155 97.0
0.894999980927 -0.462999999523 0.209999993443 101.0
0.916999995708 -0.481999993324 0.216000005603 99.0
0.874000012875 -0.465999990702 0.206000000238 105.0
0.898000001907 -0.486000001431 0.212999999523 94.0
0.888999998569 -0.488999992609 0.21099999547 95.0
0.926999986172 -0.518000006676 0.221000000834 93.0
0.893000006676 -0.505999982357 0.21400000155 90.0
2.38700008392 1.40199995041 0.549000024796 85.0
2.78500008583 1.47500002384 0.628000020981 81.0
3.24499988556 1.5909999609 0.722999989986 88.0
3.13499999046 1.51300001144 0.697000026703 103.0
3.26300001144 1.54999995232 0.723999977112 80.0
3.35700011253 1.57000005245 0.742999970913 87.0
3.57899999619 1.64600002766 0.790000021458 121.0
3.56299996376 1.61199998856 0.785000026226 116.0
3.65000009537 1.625 0.801999986172 96.0
3.85599994659 1.63199996948 0.842000007629 84.0
3.87700009346 1.61300003529 0.84500002861 120.0
3.90700006485 1.59700000286 0.850000023842 121.0
3.88100004196 1.55900001526 0.842000007629 117.0
3.95700001717 1.56200003624 0.856999993324 114.0
3.882999897 1.50499999523 0.839999973774 101.0
3.97099995613 1.24300003052 0.842999994755 70.0
3.9849998951 1.22099995613 0.84399998188 107.0
4.0 1.20000004768 0.847000002861 113.0
3.98200011253 1.16900002956 0.842000007629 119.0
4.00400018692 1.14900004864 0.84500002861 116.0
3.99000000954 1.11899995804 0.841000020504 116.0
3.97199988365 1.08899998665 0.836000025272 110.0
3.94600009918 1.05599999428 0.829999983311 114.0
3.98600006104 1.04200005531 0.837000012398 98.0
0.975000023842 -0.103000000119 0.20000000298 100.0
0.977999985218 -0.108999997377 0.201000005007 102.0
1.0 -0.118000000715 0.204999998212 107.0
0.991999983788 -0.123000003397 0.203999996185 108.0
0.962999999523 -0.125 0.197999998927 104.0
0.958000004292 -0.129999995232 0.196999996901 108.0
0.991999983788 -0.140000000596 0.203999996185 107.0
0.981999993324 -0.144999995828 0.202000007033 110.0
0.977999985218 -0.15000000596 0.202000007033 106.0
1.00300002098 -0.159999996424 0.207000002265 112.0
0.978999972343 -0.162000000477 0.202000007033 113.0
0.976000010967 -0.166999995708 0.202000007033 115.0
0.981000006199 -0.173999994993 0.202999994159 119.0
0.958000004292 -0.175999999046 0.197999998927 115.0
0.952000021935 -0.180999994278 0.196999996901 115.0
0.948000013828 -0.186000004411 0.196999996901 117.0
0.999000012875 -0.202000007033 0.208000004292 116.0
0.95300000906 -0.197999998927 0.197999998927 117.0
0.991999983788 -0.212999999523 0.207000002265 121.0
0.98400002718 -0.216999992728 0.204999998212 123.0
0.962999999523 -0.217999994755 0.201000005007 128.0
0.95300000906 -0.222000002861 0.199000000954 119.0
0.941999971867 -0.22499999404 0.196999996901 123.0
0.957000017166 -0.234999999404 0.201000005007 128.0
0.925999999046 -0.232999995351 0.194000005722 128.0
0.976999998093 -0.252000004053 0.206000000238 123.0
0.947000026703 -0.25 0.199000000954 127.0
0.930000007153 -0.252000004053 0.195999994874 125.0
0.972999989986 -0.270000010729 0.206000000238 118.0
0.949999988079 -0.268999993801 0.201000005007 123.0
0.944000005722 -0.273999989033 0.20000000298 119.0
0.957000017166 -0.284000009298 0.202999994159 127.0
0.943000018597 -0.284999996424 0.201000005007 121.0
0.938000023365 -0.289999991655 0.20000000298 122.0
0.950999975204 -0.300000011921 0.202999994159 126.0
0.964999973774 -0.31099998951 0.206000000238 121.0
0.939999997616 -0.308999985456 0.201000005007 119.0
0.954999983311 -0.321000009775 0.204999998212 122.0
0.972999989986 -0.333000004292 0.209000006318 121.0
0.95300000906 -0.333000004292 0.204999998212 118.0
0.912000000477 -0.324999988079 0.196999996901 118.0
0.926999986172 -0.33599999547 0.201000005007 121.0
0.95300000906 -0.351999998093 0.207000002265 117.0
0.972000002861 -0.365999996662 0.21099999547 116.0
0.921000003815 -0.352999985218 0.201000005007 116.0
0.961000025272 -0.375 0.209999993443 118.0
0.939999997616 -0.374000012875 0.206000000238 112.0
0.917999982834 -0.370999991894 0.201000005007 113.0
0.920000016689 -0.379000008106 0.202000007033 109.0
0.953999996185 -0.40000000596 0.209999993443 108.0
0.962000012398 -0.409999996424 0.212999999523 111.0
0.915000021458 -0.395999997854 0.202000007033 99.0
0.927999973297 -0.409000009298 0.206000000238 107.0
0.915000021458 -0.409999996424 0.203999996185 100.0
0.930999994278 -0.423999994993 0.208000004292 109.0
0.948000013828 -0.43900001049 0.211999997497 108.0
0.893000006676 -0.419999986887 0.20000000298 107.0
0.916000008583 -0.437999993563 0.206000000238 101.0
0.93599998951 -0.455000013113 0.21099999547 101.0
0.936999976635 -0.462999999523 0.211999997497 109.0
0.899999976158 -0.451000005007 0.203999996185 97.0
0.875 -0.444999992847 0.199000000954 98.0
0.865999996662 -0.446999996901 0.196999996901 98.0
0.939999997616 -0.493000000715 0.215000003576 96.0
0.907000005245 -0.483000010252 0.208000004292 101.0
0.898999989033 -0.486000001431 0.207000002265 98.0
0.92199999094 -0.505999982357 0.212999999523 100.0
0.967999994755 -0.540000021458 0.224000006914 83.0
0.930000007153 -0.526000022888 0.216000005603 98.0
2.55599999428 1.5 0.570999979973 89.0
3.125 1.50600004196 0.674000024796 98.0
3.19400000572 1.51499998569 0.686999976635 92.0
3.51699995995 1.64199995995 0.754999995232 107.0
3.57999992371 1.64400005341 0.76700001955 122.0
3.54500007629 1.60199999809 0.757000029087 116.0
3.62299990654 1.61099994183 0.772000014782 90.0
3.73300004005 1.60500001907 0.791999995708 70.0
3.882999897 1.64100003242 0.823000013828 88.0
3.8710000515 1.60800004005 0.818000018597 125.0
3.97499990463 1.62300002575 0.838999986649 124.0
3.90799999237 1.56799995899 0.823000013828 117.0
3.92499995232 1.54700005054 0.824999988079 111.0
3.90799999237 1.51300001144 0.819999992847 88.0
4.0 1.25100004673 0.824000000954 74.0
3.93799996376 1.20599997044 0.810000002384 83.0
4.00699996948 1.2009999752 0.823000013828 112.0
3.95300006866 1.1590000391 0.810000002384 114.0
4.0110001564 1.14999997616 0.820999979973 123.0
3.9849998951 1.11699998379 0.814999997616 115.0
4.007999897 1.09700000286 0.819000005722 114.0
4.0 1.07000005245 0.815999984741 112.0
3.95600008965 1.03299999237 0.805999994278 94.0
1.00199997425 -0.105999998748 0.199000000954 94.0
0.97000002861 -0.108000002801 0.193000003695 106.0
1.00100004673 -0.118000000715 0.199000000954 107.0
0.981999993324 -0.120999999344 0.195999994874 110.0
1.01499998569 -0.131999999285 0.202999994159 111.0
0.990000009537 -0.134000003338 0.197999998927 111.0
0.950999975204 -0.134000003338 0.189999997616 108.0
0.971000015736 -0.143000006676 0.194000005722 107.0
0.967999994755 -0.148000001907 0.194000005722 114.0
0.963999986649 -0.153999999166 0.193000003695 111.0
0.976000010967 -0.16099999845 0.195999994874 112.0
0.972999989986 -0.166999995708 0.194999992847 119.0
1.01199996471 -0.180000007153 0.202999994159 119.0
0.966000020504 -0.177000001073 0.194000005722 123.0
0.980000019073 -0.186000004411 0.196999996901 120.0
0.967999994755 -0.188999995589 0.194999992847 118.0
0.975000023842 -0.196999996901 0.196999996901 117.0
0.962999999523 -0.20000000298 0.194999992847 122.0
0.97000002861 -0.208000004292 0.195999994874 127.0
0.971000015736 -0.21400000155 0.196999996901 130.0
0.985000014305 -0.223000004888 0.20000000298 121.0
0.93900001049 -0.217999994755 0.190999999642 126.0
0.948000013828 -0.225999996066 0.193000003695 126.0
0.938000023365 -0.230000004172 0.190999999642 125.0
0.941999971867 -0.237000003457 0.192000001669 127.0
0.972000002861 -0.250999987125 0.197999998927 125.0
0.93900001049 -0.247999995947 0.192000001669 127.0
0.958999991417 -0.259000003338 0.195999994874 126.0
0.949999988079 -0.263000011444 0.194999992847 127.0
0.934000015259 -0.263999998569 0.192000001669 121.0
0.973999977112 -0.282000005245 0.20000000298 125.0
0.986999988556 -0.291999995708 0.203999996185 126.0
0.973999977112 -0.294999986887 0.201000005007 123.0
0.963999986649 -0.298000007868 0.199000000954 119.0
0.954999983311 -0.301999986172 0.197999998927 124.0
0.934000015259 -0.300999999046 0.194000005722 123.0
0.930999994278 -0.305999994278 0.193000003695 129.0
0.93900001049 -0.314999997616 0.195999994874 124.0
0.930000007153 -0.317999988794 0.194000005722 125.0
0.925999999046 -0.323000013828 0.194000005722 118.0
0.945999979973 -0.33599999547 0.197999998927 118.0
0.958000004292 -0.347000002861 0.201000005007 125.0
0.930000007153 -0.342999994755 0.195999994874 120.0
0.958000004292 -0.360000014305 0.202000007033 122.0
0.884999990463 -0.338999986649 0.187000006437 119.0
0.926999986172 -0.361000001431 0.195999994874 122.0
0.916999995708 -0.363999992609 0.194999992847 118.0
0.925000011921 -0.374000012875 0.196999996901 112.0
0.911000013351 -0.375 0.194000005722 110.0
0.962999999523 -0.402999997139 0.206000000238 103.0
0.921000003815 -0.391999989748 0.196999996901 115.0
0.922999978065 -0.40000000596 0.197999998927 112.0
0.927999973297 -0.407999992371 0.20000000298 109.0
