ply
format ascii 1.0
element vertex 910
property float x
property float y
property float z
property float intensity
end_header
0.583000004292 -0.115000002086 -0.206000000238 211.0
0.481999993324 -0.097000002861 -0.170000001788 184.0
0.493000000715 -0.103000000119 -0.17499999702 187.0
0.462999999523 -0.0989999994636 -0.16400000453 178.0
0.486000001431 -0.107000000775 -0.172000005841 180.0
0.467999994755 -0.105999998748 -0.165999993682 182.0
0.469999998808 -0.109999999404 -0.166999995708 193.0
0.462000012398 -0.111000001431 -0.16400000453 187.0
0.472000002861 -0.115999996662 -0.167999997735 190.0
0.497999995947 -0.126000002027 -0.177000001073 185.0
0.444000005722 -0.115000002086 -0.158000007272 183.0
0.458000004292 -0.120999999344 -0.16400000453 187.0
0.444000005722 -0.119999997318 -0.158999994397 187.0
0.830999970436 -0.234999999404 -0.298999994993 484.0
0.898000001907 -0.259999990463 -0.324000000954 867.0
0.903999984264 -0.268000006676 -0.326000005007 905.0
0.902999997139 -0.273000001907 -0.326000005007 889.0
0.902000010014 -0.279000014067 -0.326000005007 876.0
0.901000022888 -0.284999996424 -0.326000005007 864.0
0.889999985695 -0.287999987602 -0.323000013828 856.0
0.897000014782 -0.296000003815 -0.326000005007 852.0
0.901000022888 -0.303999990225 -0.32800000906 824.0
0.897000014782 -0.307999998331 -0.326999992132 823.0
0.89200001955 -0.312999993563 -0.326000005007 822.0
0.884999990463 -0.316000014544 -0.324000000954 812.0
0.884000003338 -0.323000013828 -0.324000000954 807.0
0.882000029087 -0.32800000906 -0.324000000954 755.0
0.726999998093 -0.27500000596 -0.268000006676 350.0
0.400999993086 -0.151999995112 -0.146999999881 190.0
0.358000010252 -0.137999996543 -0.131999999285 183.0
0.389999985695 -0.152999997139 -0.143999993801 199.0
0.324999988079 -0.129999995232 -0.119999997318 187.0
0.338999986649 -0.137999996543 -0.125 180.0
0.363999992609 -0.150999993086 -0.135000005364 195.0
0.340999990702 -0.143999993801 -0.127000004053 189.0
0.340999990702 -0.145999997854 -0.127000004053 193.0
0.363999992609 -0.158999994397 -0.136000007391 186.0
0.356000006199 -0.158000007272 -0.133000001311 190.0
0.340000003576 -0.153999999166 -0.12800000608 187.0
0.414999991655 -0.192000001669 -0.156000003219 199.0
0.799000024796 -0.379999995232 -0.303000003099 522.0
0.84399998188 -0.407999992371 -0.321000009775 721.0
0.842000007629 -0.41400000453 -0.321000009775 731.0
0.84399998188 -0.421000003815 -0.321999996901 732.0
0.846000015736 -0.428999990225 -0.324000000954 722.0
0.842999994755 -0.435000002384 -0.324000000954 730.0
0.837999999523 -0.43900001049 -0.323000013828 736.0
0.832000017166 -0.442999988794 -0.321999996901 724.0
0.82800000906 -0.446999996901 -0.321000009775 735.0
0.827000021935 -0.45300000906 -0.321000009775 733.0
0.827000021935 -0.460000008345 -0.321999996901 733.0
0.814999997616 -0.46099999547 -0.319000005722 736.0
0.740000009537 -0.423999994993 -0.289999991655 465.0
0.375 -0.215000003576 -0.146999999881 227.0
0.259000003338 -0.149000003934 -0.101000003517 216.0
0.019999999553 0.0109999999404 -0.00700000021607 301.0
0.00899999961257 0.00400000018999 -0.00200000009499 310.0
4.12699985504 2.44199991226 -1.68900001049 301.0
0.00999999977648 0.00499999988824 -0.00300000002608 298.0
4.14599990845 2.38100004196 -1.68599998951 308.0
4.16400003433 2.35500001907 -1.68799996376 298.0
0.00600000005215 0.00200000009499 -0.0010000000475 289.0
0.0179999992251 0.00899999961257 -0.00600000005215 295.0
0.0230000000447 0.0109999999404 -0.00800000037998 293.0
4.23400020599 2.25200009346 -1.69500005245 276.0
0.0130000002682 0.00600000005215 -0.00400000018999 280.0
0.01600000076 0.00700000021607 -0.00499999988824 280.0
0.0170000009239 0.00800000037998 -0.00499999988824 280.0
0.00800000037998 0.00300000002608 -0.00200000009499 274.0
4.28399991989 2.10400009155 -1.69000005722 271.0
4.29600000381 2.0759999752 -1.69000005722 269.0
4.32399988174 2.05500006676 -1.69599997997 263.0
4.32700014114 2.02300000191 -1.69299995899 257.0
4.34499979019 1.99800002575 -1.69599997997 264.0
4.34999990463 1.9659999609 -1.69299995899 258.0
4.375 1.94400000572 -1.69900000095 246.0
4.36899995804 1.90799999237 -1.69200003147 253.0
4.39300012589 1.88600003719 -1.6970000267 255.0
0.00700000021607 0.00300000002608 -0.00200000009499 244.0
4.41099977493 1.82799994946 -1.69599997997 240.0
4.4279999733 1.80200004578 -1.69900000095 235.0
4.44099998474 1.77499997616 -1.70000004768 230.0
4.44299983978 1.74300003052 -1.6970000267 226.0
4.45800018311 1.71700000763 -1.69799995422 224.0
4.47200012207 1.69000005722 -1.70000004768 215.0
4.47900009155 1.65999996662 -1.69900000095 219.0
4.4889998436 1.63199996948 -1.69900000095 211.0
4.50199985504 1.60500001907 -1.7009999752 206.0
4.51499986649 1.57799994946 -1.70299994946 206.0
4.49300003052 1.53900003433 -1.69099998474 194.0
4.53299999237 1.52100002766 -1.70299994946 192.0
4.52899980545 1.48800003529 -1.69799995422 191.0
4.52099990845 1.45399999619 -1.69200003147 184.0
4.56699991226 1.43799996376 -1.70599997044 181.0
4.53399991989 1.39600002766 -1.69099998474 185.0
4.5720000267 1.37699997425 -1.70200002193 176.0
4.56599998474 1.34500002861 -1.6970000267 178.0
4.55999994278 1.31200003624 -1.69200003147 177.0
4.57899999619 1.28699994087 -1.69599997997 169.0
4.59100008011 1.25999999046 -1.69799995422 163.0
4.60699987411 1.23399996758 -1.7009999752 166.0
4.61199998856 1.20500004292 -1.70000004768 163.0
0.00499999988824 0.00200000009499 -0.0010000000475 161.0
0.0120000001043 0.00300000002608 -0.00300000002608 153.0
4.65700006485 1.125 -1.71000003815 160.0
0.0270000007004 0.00700000021607 -0.00800000037998 154.0
4.65799999237 1.06500005722 -1.70500004292 151.0
0.00700000021607 0.00200000009499 -0.0010000000475 147.0
4.65199995041 1.0039999485 -1.69900000095 138.0
4.65799999237 0.975000023842 -1.69900000095 143.0
4.67299985886 0.949000000954 -1.70299994946 136.0
4.69099998474 0.92199999094 -1.70799994469 137.0
4.69099998474 0.893000006676 -1.70599997044 134.0
4.68200016022 0.861000001431 -1.70000004768 133.0
4.69000005722 0.833000004292 -1.70200002193 134.0
0.00700000021607 0.00200000009499 -0.0010000000475 138.0
4.72499990463 0.77999997139 -1.71099996567 128.0
4.72599983215 0.750999987125 -1.71000003815 122.0
4.73400020599 0.722000002861 -1.71099996567 129.0
0.0230000000447 0.00400000018999 -0.00700000021607 120.0
0.0120000001043 0.00300000002608 -0.00300000002608 132.0
0.0209999997169 0.00400000018999 -0.00700000021607 128.0
4.74100017548 0.606000006199 -1.70799994469 128.0
4.73099994659 0.575999975204 -1.70299994946 126.0
4.74300003052 0.547999978065 -1.70599997044 130.0
4.75500011444 0.519999980927 -1.70899999142 126.0
4.75099992752 0.490000009537 -1.70700001717 124.0
0.00700000021607 0.00200000009499 -0.0010000000475 118.0
4.76900005341 0.433999985456 -1.71099996567 110.0
0.0309999994934 0.00400000018999 -0.00999999977648 115.0
0.0170000009239 0.00300000002608 -0.00499999988824 108.0
4.76300001144 0.345999985933 -1.70700001717 106.0
0.0289999991655 0.00300000002608 -0.00899999961257 107.0
0.0130000002682 0.00200000009499 -0.00300000002608 107.0
4.77600002289 0.259999990463 -1.70899999142 110.0
4.78200006485 0.231000006199 -1.71099996567 108.0
0.0189999993891 0.00200000009499 -0.00600000005215 105.0
4.757999897 0.172999992967 -1.7009999752 104.0
0.0680000036955 0.00400000018999 -0.0230000000447 101.0
0.0230000000447 0.00200000009499 -0.00700000021607 104.0
4.76900005341 0.0869999974966 -1.70399999619 103.0
0.00899999961257 0.00200000009499 -0.00200000009499 102.0
0.0309999994934 0.00200000009499 -0.00999999977648 99.0
4.78599977493 0.0 -1.70899999142 102.0
0.0260000005364 0.00200000009499 -0.00800000037998 101.0
0.0309999994934 0.0010000000475 -0.00999999977648 109.0
0.759999990463 -0.0109999999404 -0.270000010729 270.0
0.939999997616 -0.019999999553 -0.335000008345 742.0
0.742999970913 -0.019999999553 -0.263999998569 255.0
0.537000000477 -0.0170000009239 -0.190999999642 172.0
0.472999989986 -0.0170000009239 -0.167999997735 176.0
0.509000003338 -0.0219999998808 -0.180999994278 170.0
0.509000003338 -0.0250000003725 -0.180999994278 170.0
0.504000008106 -0.0280000008643 -0.179000005126 177.0
0.513999998569 -0.0309999994934 -0.181999996305 169.0
0.47499999404 -0.0320000015199 -0.168999999762 173.0
0.485000014305 -0.035000000149 -0.172000005841 177.0
0.479999989271 -0.0379999987781 -0.171000003815 176.0
0.465000003576 -0.0390000008047 -0.165000006557 177.0
0.479000002146 -0.0430000014603 -0.170000001788 175.0
0.514999985695 -0.0500000007451 -0.182999998331 167.0
0.827000021935 -0.0869999974966 -0.294999986887 402.0
0.936999976635 -0.104999996722 -0.335000008345 831.0
0.949999988079 -0.112999998033 -0.340000003576 858.0
0.941999971867 -0.116999998689 -0.337000012398 863.0
0.939999997616 -0.123000003397 -0.33599999547 851.0
0.944000005722 -0.128999993205 -0.337999999523 851.0
0.93900001049 -0.134000003338 -0.337000012398 857.0
0.939999997616 -0.140000000596 -0.337000012398 876.0
0.939999997616 -0.145999997854 -0.337000012398 871.0
0.929000020027 -0.15000000596 -0.333999991417 864.0
0.930000007153 -0.156000003219 -0.333999991417 863.0
0.929000020027 -0.162000000477 -0.333999991417 864.0
0.927999973297 -0.166999995708 -0.333999991417 870.0
0.924000024796 -0.172000005841 -0.333000004292 861.0
0.875 -0.168999999762 -0.314999997616 557.0
0.569000005722 -0.112000003457 -0.204999998212 201.0
0.472000002861 -0.0949999988079 -0.170000001788 183.0
0.467000007629 -0.097000002861 -0.167999997735 179.0
0.449000000954 -0.0960000008345 -0.162000000477 177.0
0.458999991417 -0.101000003517 -0.165999993682 189.0
0.451999992132 -0.101999998093 -0.163000002503 179.0
0.418999999762 -0.097000002861 -0.150999993086 186.0
0.441000014544 -0.105999998748 -0.159999996424 182.0
0.458000004292 -0.112999998033 -0.165999993682 184.0
0.444000005722 -0.112000003457 -0.16099999845 191.0
0.456000000238 -0.118000000715 -0.165999993682 184.0
0.446999996901 -0.119000002742 -0.163000002503 188.0
0.456999987364 -0.125 -0.166999995708 187.0
0.841000020504 -0.238000005484 -0.307999998331 502.0
0.898000001907 -0.259999990463 -0.330000013113 825.0
0.90499997139 -0.268000006676 -0.333000004292 841.0
0.893000006676 -0.270999997854 -0.328999996185 848.0
0.902000010014 -0.280000001192 -0.333000004292 833.0
0.897000014782 -0.284000009298 -0.331000000238 809.0
0.89099997282 -0.287999987602 -0.330000013113 808.0
0.89200001955 -0.294999986887 -0.331000000238 807.0
0.887000024319 -0.298999994993 -0.328999996185 788.0
0.882000029087 -0.303999990225 -0.32800000906 784.0
0.889999985695 -0.312999993563 -0.331999987364 765.0
0.882000029087 -0.316000014544 -0.328999996185 777.0
0.887000024319 -0.324000000954 -0.331999987364 759.0
0.867999970913 -0.323000013828 -0.324999988079 701.0
0.676999986172 -0.256000012159 -0.254000008106 301.0
0.388999998569 -0.148000001907 -0.145999997854 189.0
0.354999989271 -0.136999994516 -0.133000001311 181.0
0.321999996901 -0.126000002027 -0.120999999344 189.0
0.345999985933 -0.137999996543 -0.129999995232 191.0
0.340999990702 -0.138999998569 -0.128999993205 186.0
0.381000012159 -0.158000007272 -0.143999993801 187.0
0.331999987364 -0.140000000596 -0.126000002027 187.0
0.335000008345 -0.143999993801 -0.127000004053 188.0
0.31400001049 -0.136999994516 -0.119000002742 183.0
0.344000011683 -0.152999997139 -0.130999997258 196.0
0.347999989986 -0.158000007272 -0.133000001311 190.0
0.483000010252 -0.224000006914 -0.186000004411 220.0
0.805999994278 -0.384000003338 -0.31099998951 564.0
0.842999994755 -0.407999992371 -0.326999992132 706.0
0.851999998093 -0.418999999762 -0.331000000238 735.0
0.830999970436 -0.416000008583 -0.324000000954 745.0
0.837999999523 -0.425999999046 -0.326999992132 719.0
0.834999978542 -0.430999994278 -0.326999992132 730.0
0.82800000906 -0.433999985456 -0.324999988079 730.0
0.822000026703 -0.437999993563 -0.324000000954 733.0
0.82800000906 -0.448000013828 -0.326999992132 726.0
0.834999978542 -0.458999991417 -0.331000000238 737.0
0.81400001049 -0.453999996185 -0.324000000954 740.0
0.819000005722 -0.463999986649 -0.326000005007 726.0
0.70300000906 -0.404000014067 -0.280999988317 403.0
0.344000011683 -0.197999998927 -0.136999994516 220.0
0.287999987602 -0.166999995708 -0.115000002086 216.0
4.07999992371 2.49300003052 -1.71399998665 307.0
4.10099983215 2.46900010109 -1.71700000763 312.0
4.11299991608 2.43899989128 -1.7159999609 320.0
4.13100004196 2.41400003433 -1.71800005436 312.0
0.0109999999404 0.00499999988824 -0.00300000002608 315.0
0.00800000037998 0.00300000002608 -0.00200000009499 310.0
0.0130000002682 0.00600000005215 -0.00400000018999 297.0
4.18400001526 2.29999995232 -1.71700000763 298.0
4.19500017166 2.27099990845 -1.7159999609 297.0
0.0109999999404 0.00499999988824 -0.00300000002608 295.0
4.23400020599 2.22199988365 -1.72200000286 288.0
0.0189999993891 0.00899999961257 -0.00600000005215 281.0
0.00700000021607 0.00300000002608 -0.0010000000475 282.0
4.27500009537 2.13800001144 -1.72300004959 285.0
4.28499984741 2.10899996758 -1.72300004959 283.0
4.29199981689 2.07800006866 -1.72099995613 268.0
4.30499982834 2.05100011826 -1.72099995613 276.0
4.31699991226 2.02200007439 -1.72099995613 269.0
4.34200000763 2.0 -1.72699999809 262.0
4.33400011063 1.96300005913 -1.71899998188 260.0
4.35699987411 1.94000005722 -1.72399997711 259.0
0.00700000021607 0.00200000009499 -0.0010000000475 263.0
4.36299991608 1.87699997425 -1.71800005436 250.0
0.0189999993891 0.00800000037998 -0.00600000005215 244.0
4.375 1.81700003147 -1.71399998665 247.0
4.41099977493 1.7990000248 -1.72399997711 237.0
4.4279999733 1.77300000191 -1.72699999809 230.0
4.44600009918 1.74800002575 -1.73000001907 238.0
4.4310002327 1.71000003815 -1.72000002861 222.0
4.4470000267 1.68400001526 -1.72300004959 227.0
4.47100019455 1.66100001335 -1.72800004482 218.0
0.00999999977648 0.00300000002608 -0.00300000002608 217.0
4.49399995804 1.60500001907 -1.73000001907 221.0
0.00999999977648 0.00300000002608 -0.00300000002608 205.0
4.49800014496 1.54299998283 -1.72500002384 202.0
4.51999998093 1.51900005341 -1.73000001907 199.0
4.52299976349 1.48899996281 -1.72800004482 190.0
4.52799987793 1.45899999142 -1.72699999809 186.0
4.52699995041 1.4279999733 -1.72300004959 195.0
4.55200004578 1.40499997139 -1.72899997234 187.0
4.55700016022 1.375 -1.72800004482 192.0
4.5560002327 1.34399998188 -1.72500002384 188.0
4.58500003815 1.3220000267 -1.73300004005 184.0
4.59000015259 1.29299998283 -1.73199999332 177.0
4.59000015259 1.26199996471 -1.73000001907 172.0
4.58500003815 1.23000001907 -1.72500002384 168.0
0.0120000001043 0.00400000018999 -0.00300000002608 153.0
4.62300014496 1.17900002003 -1.73399996758 166.0
4.61299991608 1.14699995518 -1.72800004482 162.0
4.63199996948 1.1210000515 -1.73300004005 155.0
0.00899999961257 0.00300000002608 -0.00200000009499 154.0
0.00700000021607 0.00200000009499 -0.0010000000475 148.0
0.0230000000447 0.00600000005215 -0.00700000021607 156.0
0.0230000000447 0.00499999988824 -0.00700000021607 146.0
0.0109999999404 0.00300000002608 -0.00300000002608 143.0
4.67399978638 0.949999988079 -1.73500001431 142.0
4.6859998703 0.922999978065 -1.73800003529 138.0
4.68699979782 0.893000006676 -1.73599994183 140.0
4.6810002327 0.862999975681 -1.73199999332 142.0
4.67700004578 0.832000017166 -1.72899997234 134.0
4.69600009918 0.805999994278 -1.73399996758 137.0
4.69000005722 0.776000022888 -1.73000001907 134.0
0.0179999992251 0.00400000018999 -0.00499999988824 131.0
0.0230000000447 0.00400000018999 -0.00700000021607 131.0
0.0120000001043 0.00300000002608 -0.00300000002608 129.0
4.72900009155 0.663999974728 -1.73800003529 135.0
0.0179999992251 0.00300000002608 -0.00499999988824 131.0
0.0299999993294 0.00499999988824 -0.00999999977648 126.0
0.0289999991655 0.00499999988824 -0.00899999961257 128.0
0.0140000004321 0.00300000002608 -0.00400000018999 130.0
4.73699998856 0.518999993801 -1.73500001431 123.0
4.72499990463 0.488999992609 -1.72899997234 122.0
0.01600000076 0.00300000002608 -0.00499999988824 121.0
4.75400018692 0.432999998331 -1.73800003529 118.0
4.75299978256 0.404000014067 -1.73699998856 119.0
0.0189999993891 0.00300000002608 -0.00600000005215 114.0
0.035000000149 0.00400000018999 -0.0120000001043 111.0
0.0149999996647 0.00200000009499 -0.00400000018999 111.0
4.76800012589 0.28900000453 -1.73899996281 111.0
4.77099990845 0.259999990463 -1.73899996281 118.0
0.019999999553 0.00200000009499 -0.00600000005215 118.0
0.0270000007004 0.00300000002608 -0.00899999961257 114.0
4.74599981308 0.172000005841 -1.72899997234 106.0
0.0529999993742 0.00300000002608 -0.0179999992251 106.0
0.00899999961257 0.00200000009499 -0.00200000009499 109.0
0.035000000149 0.00200000009499 -0.0109999999404 98.0
0.0250000003725 0.00200000009499 -0.00800000037998 110.0
0.0309999994934 0.00200000009499 -0.00999999977648 105.0
0.0149999996647 0.00200000009499 -0.00400000018999 104.0
0.0189999993891 0.00200000009499 -0.00600000005215 110.0
0.01600000076 0.00200000009499 -0.00499999988824 111.0
0.790000021458 -0.0120000001043 -0.286000013351 283.0
0.935000002384 -0.019999999553 -0.338999986649 684.0
0.704999983311 -0.0189999993891 -0.256000012159 245.0
0.493000000715 -0.0149999996647 -0.178000003099 173.0
0.465000003576 -0.0170000009239 -0.167999997735 163.0
0.485000014305 -0.0209999997169 -0.17499999702 174.0
0.460000008345 -0.0219999998808 -0.165999993682 168.0
0.45300000906 -0.0250000003725 -0.16400000453 170.0
0.476999998093 -0.0289999991655 -0.172999992967 169.0
0.495999991894 -0.0329999998212 -0.179000005126 168.0
0.479999989271 -0.035000000149 -0.173999994993 176.0
0.467999994755 -0.0370000004768 -0.168999999762 166.0
0.483000010252 -0.0410000011325 -0.17499999702 177.0
0.43900001049 -0.0399999991059 -0.158999994397 177.0
0.490000009537 -0.0480000004172 -0.178000003099 181.0
0.837999999523 -0.0890000015497 -0.305000007153 408.0
0.933000028133 -0.104999996722 -0.340000003576 797.0
0.944000005722 -0.112000003457 -0.344000011683 807.0
0.939999997616 -0.116999998689 -0.342999994755 807.0
0.938000023365 -0.123000003397 -0.342000007629 799.0
0.936999976635 -0.128999993205 -0.342000007629 810.0
0.931999981403 -0.134000003338 -0.340000003576 815.0
0.931999981403 -0.138999998569 -0.340999990702 822.0
0.930000007153 -0.144999995828 -0.340000003576 825.0
0.924000024796 -0.15000000596 -0.337999999523 818.0
0.927999973297 -0.156000003219 -0.340000003576 813.0
0.924000024796 -0.16099999845 -0.338999986649 816.0
0.938000023365 -0.170000001788 -0.344000011683 815.0
0.931999981403 -0.173999994993 -0.342000007629 815.0
0.862999975681 -0.166999995708 -0.317000001669 489.0
0.535000026226 -0.104999996722 -0.195999994874 189.0
0.439999997616 -0.0890000015497 -0.16099999845 179.0
0.425999999046 -0.0879999995232 -0.156000003219 177.0
0.432000011206 -0.0930000022054 -0.158999994397 179.0
0.453999996185 -0.10000000149 -0.166999995708 189.0
0.409000009298 -0.0920000001788 -0.15000000596 182.0
0.442000001669 -0.103000000119 -0.163000002503 185.0
0.435000002384 -0.104000002146 -0.159999996424 182.0
0.433999985456 -0.107000000775 -0.159999996424 181.0
0.432000011206 -0.108999997377 -0.159999996424 180.0
0.423999994993 -0.109999999404 -0.157000005245 187.0
0.405999988317 -0.108000002801 -0.15000000596 185.0
0.477999985218 -0.130999997258 -0.178000003099 193.0
0.847000002861 -0.239999994636 -0.316000014544 522.0
0.901000022888 -0.261999994516 -0.337000012398 787.0
0.888000011444 -0.263999998569 -0.333000004292 808.0
0.893000006676 -0.270999997854 -0.335000008345 798.0
0.897000014782 -0.279000014067 -0.337000012398 780.0
0.888999998569 -0.282000005245 -0.335000008345 765.0
0.89099997282 -0.28900000453 -0.33599999547 761.0
0.882000029087 -0.291999995708 -0.333000004292 770.0
0.885999977589 -0.300000011921 -0.335000008345 758.0
0.882000029087 -0.303999990225 -0.333999991417 758.0
0.873000025749 -0.307000011206 -0.331000000238 753.0
0.883000016212 -0.317000001669 -0.33599999547 748.0
0.875999987125 -0.321000009775 -0.333999991417 746.0
0.856000006199 -0.319999992847 -0.326999992132 642.0
0.602999985218 -0.228000000119 -0.230000004172 260.0
0.340000003576 -0.128999993205 -0.129999995232 195.0
0.34999999404 -0.135000005364 -0.134000003338 188.0
0.317000001669 -0.125 -0.120999999344 186.0
0.328999996185 -0.131999999285 -0.126000002027 194.0
0.328999996185 -0.134000003338 -0.126000002027 188.0
0.32800000906 -0.136000007391 -0.126000002027 188.0
0.361999988556 -0.152999997139 -0.140000000596 189.0
0.32800000906 -0.141000002623 -0.127000004053 189.0
0.31099998951 -0.136000007391 -0.119999997318 193.0
0.337999999523 -0.150999993086 -0.130999997258 200.0
0.337999999523 -0.152999997139 -0.131999999285 199.0
0.518000006676 -0.240999996662 -0.202999994159 259.0
0.816999971867 -0.389999985695 -0.321999996901 618.0
0.837999999523 -0.407000005245 -0.331000000238 721.0
0.836000025272 -0.412999987602 -0.331000000238 738.0
0.828999996185 -0.416000008583 -0.328999996185 721.0
0.827000021935 -0.421000003815 -0.328999996185 726.0
0.832000017166 -0.430999994278 -0.331999987364 738.0
0.827000021935 -0.435000002384 -0.331000000238 722.0
0.833000004292 -0.444999992847 -0.335000008345 724.0
0.82800000906 -0.449000000954 -0.333000004292 717.0
0.822000026703 -0.45300000906 -0.331999987364 726.0
0.825999975204 -0.462000012398 -0.335000008345 723.0
0.802999973297 -0.456000000238 -0.326000005007 704.0
0.624000012875 -0.358999997377 -0.254000008106 345.0
0.279000014067 -0.159999996424 -0.112999998033 225.0
0.21099999547 -0.120999999344 -0.0860000029206 213.0
0.0120000001043 0.00600000005215 -0.00300000002608 326.0
0.01600000076 0.00800000037998 -0.00499999988824 320.0
0.0120000001043 0.00600000005215 -0.00400000018999 324.0
0.0299999993294 0.0170000009239 -0.0109999999404 321.0
0.00899999961257 0.00400000018999 -0.00200000009499 322.0
0.0209999997169 0.0109999999404 -0.00700000021607 323.0
0.0189999993891 0.00899999961257 -0.00600000005215 315.0
0.0240000002086 0.0120000001043 -0.00899999961257 307.0
4.19299983978 2.27500009537 -1.74800002575 301.0
4.19799995422 2.24300003052 -1.74500000477 304.0
4.20699977875 2.21199989319 -1.74300003052 303.0
4.22700023651 2.18799996376 -1.7460000515 303.0
0.00600000005215 0.00200000009499 -0.0010000000475 286.0
0.0170000009239 0.00700000021607 -0.00499999988824 296.0
0.00700000021607 0.00200000009499 -0.0010000000475 296.0
4.28200006485 2.07800006866 -1.74899995327 286.0
0.00499999988824 0.00200000009499 -0.0010000000475 277.0
4.31599998474 2.02699995041 -1.7539999485 283.0
4.33199977875 2.0 -1.75499999523 279.0
4.33300018311 1.96700000763 -1.75100004673 267.0
0.00800000037998 0.00300000002608 -0.00200000009499 267.0
4.3639998436 1.91400003433 -1.75499999523 262.0
4.37599992752 1.88600003719 -1.75499999523 261.0
4.37699985504 1.85399997234 -1.75100004673 263.0
4.40299987793 1.83200001717 -1.75699996948 254.0
4.39799976349 1.79700005054 -1.75199997425 243.0
4.41599988937 1.77199995518 -1.7539999485 244.0
4.4310002327 1.74500000477 -1.75699996948 242.0
4.43800020218 1.7159999609 -1.75499999523 235.0
4.44299983978 1.68499994278 -1.75300002098 224.0
4.45599985123 1.6590000391 -1.75499999523 229.0
4.45100021362 1.625 -1.74899995327 214.0
4.47399997711 1.60099995136 -1.75499999523 217.0
4.48099994659 1.5720000267 -1.7539999485 219.0
0.0240000002086 0.00800000037998 -0.00800000037998 206.0
4.49700021744 1.51499998569 -1.75300002098 201.0
4.52500009537 1.49300003052 -1.76100003719 200.0
4.51700019836 1.45899999142 -1.75499999523 196.0
4.51599979401 1.42700004578 -1.75100004673 194.0
4.55700016022 1.4090000391 -1.76400005817 196.0
4.54699993134 1.375 -1.75699996948 186.0
4.53100013733 1.33899998665 -1.74800002575 185.0
4.54600000381 1.31299996376 -1.75100004673 186.0
4.57700014114 1.29100000858 -1.75999999046 184.0
0.00899999961257 0.00300000002608 -0.00200000009499 178.0
4.60500001907 1.23800003529 -1.76499998569 171.0
4.57399988174 1.19900000095 -1.75 171.0
4.61499977112 1.17999994755 -1.76400005817 160.0
0.0250000003725 0.00700000021607 -0.00800000037998 163.0
0.01600000076 0.00400000018999 -0.00499999988824 162.0
0.0219999998808 0.00600000005215 -0.00700000021607 156.0
0.01600000076 0.00400000018999 -0.00499999988824 159.0
0.0109999999404 0.00300000002608 -0.00300000002608 156.0
0.0399999991059 0.00899999961257 -0.0140000004321 150.0
0.00600000005215 0.00200000009499 -0.0010000000475 150.0
4.64400005341 0.945999979973 -1.75600004196 147.0
4.65899991989 0.919000029564 -1.75999999046 138.0
0.0359999984503 0.00800000037998 -0.0120000001043 136.0
4.67700004578 0.862999975681 -1.76300001144 145.0
0.0140000004321 0.00300000002608 -0.00400000018999 138.0
4.68400001526 0.805999994278 -1.76199996471 142.0
0.00899999961257 0.00200000009499 -0.00200000009499 135.0
0.00999999977648 0.00300000002608 -0.00300000002608 136.0
0.0340000018477 0.00600000005215 -0.0120000001043 136.0
0.0170000009239 0.00300000002608 -0.00499999988824 128.0
0.00700000021607 0.00200000009499 -0.0010000000475 134.0
4.72499990463 0.634999990463 -1.76800000668 134.0
0.0209999997169 0.00400000018999 -0.00700000021607 129.0
0.0209999997169 0.00400000018999 -0.00700000021607 131.0
0.00800000037998 0.00200000009499 -0.00200000009499 126.0
0.0489999987185 0.00700000021607 -0.0170000009239 128.0
4.73600006104 0.490000009537 -1.76600003242 121.0
0.0439999997616 0.00499999988824 -0.0149999996647 124.0
0.0280000008643 0.00400000018999 -0.00899999961257 125.0
0.0390000008047 0.00499999988824 -0.0130000002682 118.0
0.0179999992251 0.00300000002608 -0.00499999988824 118.0
0.0120000001043 0.00200000009499 -0.00300000002608 126.0
0.0430000014603 0.00400000018999 -0.0149999996647 118.0
0.00499999988824 0.00200000009499 -0.0010000000475 112.0
4.75600004196 0.259999990463 -1.76600003242 117.0
0.00999999977648 0.00200000009499 -0.00200000009499 116.0
4.75899982452 0.202000007033 -1.76600003242 115.0
0.0570000000298 0.00400000018999 -0.019999999553 114.0
0.0390000008047 0.00300000002608 -0.0130000002682 110.0
0.0439999997616 0.00300000002608 -0.0149999996647 110.0
0.019999999553 0.00200000009499 -0.00600000005215 107.0
0.0120000001043 0.00200000009499 -0.00300000002608 106.0
0.0450000017881 0.00200000009499 -0.01600000076 109.0
4.76499986649 0.0 -1.76600003242 109.0
4.76599979401 -0.0280000008643 -1.76600003242 115.0
0.0619999989867 0.0010000000475 -0.0219999998808 112.0
0.768000006676 -0.0109999999404 -0.284000009298 278.0
0.925999999046 -0.019999999553 -0.342000007629 640.0
0.623000025749 -0.01600000076 -0.230000004172 224.0
0.435000002384 -0.0130000002682 -0.159999996424 168.0
0.441000014544 -0.01600000076 -0.162000000477 161.0
0.423000007868 -0.0179999992251 -0.156000003219 171.0
0.477999985218 -0.0230000000447 -0.175999999046 167.0
0.428000003099 -0.0230000000447 -0.157000005245 168.0
0.430999994278 -0.0260000005364 -0.158999994397 168.0
0.442000001669 -0.0289999991655 -0.163000002503 168.0
0.449999988079 -0.0329999998212 -0.165999993682 169.0
0.444000005722 -0.035000000149 -0.16400000453 171.0
0.391000002623 -0.0329999998212 -0.143999993801 166.0
0.449000000954 -0.0410000011325 -0.165999993682 173.0
0.439999997616 -0.0430000014603 -0.162000000477 178.0
0.830999970436 -0.0879999995232 -0.307999998331 414.0
0.935000002384 -0.104999996722 -0.347000002861 746.0
0.934000015259 -0.111000001431 -0.347000002861 772.0
0.933000028133 -0.116999998689 -0.345999985933 776.0
0.941999971867 -0.123999997973 -0.34999999404 763.0
0.934000015259 -0.12800000608 -0.347000002861 772.0
0.930999994278 -0.134000003338 -0.345999985933 778.0
0.925999999046 -0.138999998569 -0.344999998808 785.0
0.926999986172 -0.144999995828 -0.344999998808 772.0
0.927999973297 -0.150999993086 -0.345999985933 778.0
0.929000020027 -0.157000005245 -0.345999985933 773.0
0.930999994278 -0.163000002503 -0.347999989986 783.0
0.92199999094 -0.166999995708 -0.344999998808 781.0
0.916000008583 -0.172000005841 -0.342000007629 766.0
0.825999975204 -0.159999996424 -0.308999985456 420.0
0.481000006199 -0.0939999967813 -0.180000007153 191.0
0.407000005245 -0.082000002265 -0.151999995112 176.0
0.395999997854 -0.082000002265 -0.148000001907 176.0
0.379999995232 -0.0810000002384 -0.142000004649 175.0
0.40000000596 -0.0879999995232 -0.15000000596 184.0
0.407000005245 -0.0920000001788 -0.152999997139 182.0
0.409000009298 -0.0949999988079 -0.152999997139 187.0
0.400999993086 -0.0960000008345 -0.150999993086 183.0
0.407000005245 -0.10000000149 -0.152999997139 175.0
0.395000010729 -0.10000000149 -0.149000003934 173.0
0.446999996901 -0.115999996662 -0.168999999762 180.0
0.391000002623 -0.104000002146 -0.148000001907 186.0
0.451999992132 -0.123000003397 -0.171000003815 197.0
0.850000023842 -0.240999996662 -0.323000013828 545.0
0.896000027657 -0.261000007391 -0.342000007629 755.0
0.89099997282 -0.266000002623 -0.340000003576 754.0
0.902000010014 -0.27500000596 -0.344999998808 752.0
0.887000024319 -0.275999993086 -0.340000003576 757.0
0.887000024319 -0.282000005245 -0.340000003576 743.0
0.880999982357 -0.286000013351 -0.337999999523 745.0
0.887000024319 -0.293999999762 -0.340999990702 737.0
0.879000008106 -0.298000007868 -0.338999986649 734.0
0.883000016212 -0.305999994278 -0.340999990702 732.0
0.873000025749 -0.307999998331 -0.337999999523 728.0
0.870000004768 -0.312999993563 -0.337000012398 730.0
0.873000025749 -0.321000009775 -0.338999986649 712.0
0.833000004292 -0.31099998951 -0.324000000954 587.0
0.537999987602 -0.202999994159 -0.209000006318 237.0
0.352999985218 -0.134000003338 -0.136999994516 192.0
0.317999988794 -0.123000003397 -0.123000003397 184.0
0.324999988079 -0.12800000608 -0.127000004053 188.0
0.300999999046 -0.119999997318 -0.116999998689 191.0
0.321999996901 -0.131999999285 -0.126000002027 186.0
0.296000003815 -0.123000003397 -0.115999996662 193.0
0.300000011921 -0.127000004053 -0.118000000715 192.0
0.347000002861 -0.15000000596 -0.136999994516 187.0
0.354999989271 -0.156000003219 -0.140000000596 197.0
0.31099998951 -0.138999998569 -0.123000003397 194.0
0.324000000954 -0.146999999881 -0.12800000608 193.0
0.597000002861 -0.280000001192 -0.238999992609 288.0
0.833000004292 -0.398999989033 -0.333999991417 638.0
0.842000007629 -0.409999996424 -0.338999986649 729.0
0.833999991417 -0.412999987602 -0.337000012398 731.0
0.832000017166 -0.418000012636 -0.337000012398 738.0
0.839999973774 -0.428999990225 -0.340999990702 725.0
0.828999996185 -0.430000007153 -0.337000012398 734.0
0.819999992847 -0.432000011206 -0.335000008345 732.0
0.824000000954 -0.441000014544 -0.337000012398 729.0
0.819000005722 -0.444999992847 -0.33599999547 736.0
0.818000018597 -0.451999992132 -0.337000012398 734.0
0.823000013828 -0.46099999547 -0.340000003576 723.0
0.801999986172 -0.456999987364 -0.331999987364 659.0
0.545000016689 -0.312999993563 -0.225999996066 300.0
0.279000014067 -0.159999996424 -0.115000002086 214.0
0.261999994516 -0.151999995112 -0.108999997377 224.0
0.0219999998808 0.0120000001043 -0.00800000037998 339.0
0.00600000005215 0.00200000009499 -0.0010000000475 337.0
0.00700000021607 0.00300000002608 -0.00200000009499 334.0
0.0170000009239 0.00899999961257 -0.00600000005215 326.0
0.00700000021607 0.00300000002608 -0.0010000000475 329.0
0.0140000004321 0.00700000021607 -0.00499999988824 328.0
4.14300012589 2.32299995422 -1.77100002766 326.0
0.0209999997169 0.00999999977648 -0.00700000021607 326.0
4.18499994278 2.27600002289 -1.77699995041 325.0
4.19799995422 2.24799990654 -1.77799999714 328.0
4.21400022507 2.22099995613 -1.77900004387 309.0
0.0130000002682 0.00600000005215 -0.00400000018999 310.0
0.0209999997169 0.00999999977648 -0.00700000021607 306.0
4.25 2.13499999046 -1.77799999714 305.0
0.00700000021607 0.00300000002608 -0.00200000009499 305.0
4.26800012589 2.0759999752 -1.77600002289 297.0
4.27899980545 2.04699993134 -1.77600002289 295.0
4.30399990082 2.02500009537 -1.78100001812 285.0
4.30700016022 1.99300003052 -1.77799999714 288.0
4.32600021362 1.96800005436 -1.78100001812 282.0
4.33199977875 1.93700003624 -1.77900004387 280.0
4.35900020599 1.91600000858 -1.78499996662 268.0
4.36000013351 1.88399994373 -1.78100001812 265.0
4.37099981308 1.85500001907 -1.78100001812 264.0
4.38800001144 1.83000004292 -1.7840000391 259.0
4.40500020981 1.80400002003 -1.78699994087 255.0
4.39499998093 1.76699995995 -1.77900004387 249.0
4.41800022125 1.74399995804 -1.7840000391 239.0
4.41099977493 1.70899999142 -1.77699995041 236.0
4.44600009918 1.69000005722 -1.78699994087 239.0
4.44600009918 1.65799999237 -1.7840000391 235.0
4.45599985123 1.62999999523 -1.7840000391 228.0
4.46799993515 1.60199999809 -1.78499996662 233.0
4.46999979019 1.57099997997 -1.78199994564 228.0
4.492000103 1.54700005054 -1.78699994087 226.0
4.492000103 1.51600003242 -1.7840000391 207.0
4.51000022888 1.49100005627 -1.78699994087 215.0
4.51499986649 1.46099996567 -1.78600001335 204.0
4.52199983597 1.43200004101 -1.78600001335 196.0
4.51200008392 1.39800000191 -1.77900004387 194.0
4.53900003433 1.375 -1.78600001335 196.0
4.56199979782 1.35099995136 -1.79200005531 188.0
4.55100011826 1.31700003147 -1.78499996662 189.0
4.57399988174 1.29299998283 -1.79100000858 183.0
4.57800006866 1.26300001144 -1.78999996185 180.0
4.58699989319 1.23500001431 -1.78999996185 179.0
4.59899997711 1.20799994469 -1.79200005531 172.0
4.59299993515 1.17599999905 -1.78699994087 169.0
0.0140000004321 0.00400000018999 -0.00400000018999 164.0
4.60200023651 1.11800003052 -1.78600001335 166.0
0.0219999998808 0.00600000005215 -0.00700000021607 164.0
4.63199996948 1.06500005722 -1.79299998283 159.0
4.64300012589 1.03699994087 -1.79499995708 161.0
0.0149999996647 0.00400000018999 -0.00499999988824 149.0
0.0109999999404 0.00300000002608 -0.00300000002608 150.0
0.0240000002086 0.00600000005215 -0.00800000037998 151.0
0.0140000004321 0.00400000018999 -0.00400000018999 137.0
0.00600000005215 0.00200000009499 -0.0010000000475 143.0
4.66200017929 0.861999988556 -1.78999996185 147.0
0.0140000004321 0.00300000002608 -0.00400000018999 143.0
0.0450000017881 0.00899999961257 -0.01600000076 140.0
4.67999982834 0.777000010014 -1.79100000858 138.0
0.0240000002086 0.00499999988824 -0.00800000037998 138.0
0.0240000002086 0.00499999988824 -0.00800000037998 135.0
0.0280000008643 0.00499999988824 -0.00899999961257 138.0
4.68800020218 0.661000013351 -1.7879999876 137.0
4.70699977875 0.634000003338 -1.79400002956 132.0
0.0209999997169 0.00400000018999 -0.00700000021607 134.0
0.00899999961257 0.00200000009499 -0.00200000009499 126.0
0.00600000005215 0.00200000009499 -0.0010000000475 126.0
0.0109999999404 0.00200000009499 -0.00300000002608 134.0
0.0260000005364 0.00400000018999 -0.00899999961257 127.0
0.0240000002086 0.00400000018999 -0.00800000037998 121.0
0.00600000005215 0.00200000009499 -0.0010000000475 125.0
0.0130000002682 0.00200000009499 -0.00400000018999 120.0
4.72700023651 0.374000012875 -1.79100000858 126.0
0.0189999993891 0.00300000002608 -0.00600000005215 120.0
0.019999999553 0.00300000002608 -0.00600000005215 122.0
0.0340000018477 0.00300000002608 -0.0120000001043 117.0
0.0590000003576 0.00499999988824 -0.0209999997169 116.0
4.72200012207 0.229000002146 -1.78499996662 120.0
0.0540000014007 0.00400000018999 -0.0189999993891 116.0
0.0340000018477 0.00300000002608 -0.0109999999404 115.0
0.0390000008047 0.00300000002608 -0.0130000002682 109.0
4.73799991608 0.115000002086 -1.78900003433 110.0
0.0270000007004 0.00200000009499 -0.00899999961257 114.0
4.74800014496 0.0570000000298 -1.79200005531 109.0
0.00499999988824 0.00200000009499 -0.0010000000475 104.0
0.0149999996647 0.00200000009499 -0.00400000018999 111.0
0.0480000004172 0.0010000000475 -0.0170000009239 109.0
0.0520000010729 0.0010000000475 -0.0179999992251 113.0
0.772000014782 -0.0120000001043 -0.289999991655 290.0
0.931999981403 -0.019999999553 -0.351000010967 599.0
0.575999975204 -0.0149999996647 -0.216000005603 206.0
0.45300000906 -0.0140000004321 -0.170000001788 163.0
0.428000003099 -0.0149999996647 -0.159999996424 166.0
0.389999985695 -0.01600000076 -0.145999997854 167.0
0.41400000453 -0.019999999553 -0.155000001192 163.0
0.423000007868 -0.0230000000447 -0.158000007272 163.0
0.405000001192 -0.0240000002086 -0.151999995112 169.0
0.432999998331 -0.0289999991655 -0.162000000477 167.0
0.419999986887 -0.0299999993294 -0.157000005245 162.0
0.437000006437 -0.0340000018477 -0.16400000453 165.0
0.442000001669 -0.0370000004768 -0.165999993682 171.0
0.393999993801 -0.035000000149 -0.148000001907 166.0
0.455000013113 -0.0439999997616 -0.171000003815 173.0
0.84500002861 -0.0900000035763 -0.319000005722 423.0
0.930000007153 -0.104999996722 -0.351000010967 709.0
0.934000015259 -0.111000001431 -0.352999985218 733.0
0.938000023365 -0.118000000715 -0.354999989271 731.0
0.926999986172 -0.122000001371 -0.351000010967 732.0
0.924000024796 -0.127000004053 -0.34999999404 727.0
0.924000024796 -0.133000001311 -0.34999999404 729.0
0.926999986172 -0.138999998569 -0.351000010967 738.0
0.919000029564 -0.143999993801 -0.349000006914 737.0
0.924000024796 -0.15000000596 -0.351000010967 724.0
0.917999982834 -0.155000001192 -0.349000006914 736.0
0.920000016689 -0.16099999845 -0.34999999404 745.0
0.921000003815 -0.166999995708 -0.34999999404 754.0
0.916000008583 -0.172000005841 -0.349000006914 724.0
0.801999986172 -0.155000001192 -0.305999994278 376.0
0.425000011921 -0.082999996841 -0.162000000477 176.0
0.354999989271 -0.0710000023246 -0.135000005364 175.0
0.402000010014 -0.0839999988675 -0.152999997139 175.0
0.377000004053 -0.0810000002384 -0.143999993801 175.0
0.381000012159 -0.0839999988675 -0.144999995828 173.0
0.368999987841 -0.082999996841 -0.141000002623 179.0
0.354999989271 -0.082000002265 -0.135000005364 184.0
0.398000001907 -0.0949999988079 -0.151999995112 181.0
0.372999995947 -0.0920000001788 -0.143000006676 181.0
0.388000011444 -0.097999997437 -0.149000003934 175.0
0.349000006914 -0.0900000035763 -0.134000003338 182.0
0.365999996662 -0.097000002861 -0.141000002623 186.0
0.495999991894 -0.136000007391 -0.190999999642 207.0
0.853999972343 -0.243000000715 -0.331000000238 570.0
0.879999995232 -0.256999999285 -0.340999990702 735.0
0.884000003338 -0.263999998569 -0.344000011683 729.0
0.883000016212 -0.268999993801 -0.344000011683 722.0
0.887000024319 -0.277000010014 -0.345999985933 738.0
0.884999990463 -0.282000005245 -0.345999985933 718.0
0.870999991894 -0.284000009298 -0.340999990702 733.0
0.873000025749 -0.291000008583 -0.342000007629 724.0
0.874000012875 -0.29699999094 -0.342999994755 728.0
0.875 -0.303000003099 -0.344000011683 716.0
0.871999979019 -0.307999998331 -0.342999994755 712.0
0.875 -0.316000014544 -0.345999985933 713.0
0.866999983788 -0.319000005722 -0.342999994755 723.0
0.827000021935 -0.310000002384 -0.32800000906 531.0
0.490000009537 -0.185000002384 -0.194000005722 224.0
0.347999989986 -0.133000001311 -0.137999996543 191.0
0.324000000954 -0.126000002027 -0.12800000608 192.0
0.331000000238 -0.130999997258 -0.130999997258 191.0
0.331999987364 -0.134000003338 -0.131999999285 190.0
0.319000005722 -0.129999995232 -0.127000004053 204.0
0.29699999094 -0.123000003397 -0.119000002742 188.0
0.284999996424 -0.119999997318 -0.11400000006 185.0
0.316000014544 -0.136000007391 -0.127000004053 201.0
0.303999990225 -0.133000001311 -0.122000001371 195.0
0.308999985456 -0.137999996543 -0.125 191.0
0.296000003815 -0.134000003338 -0.119000002742 201.0
0.657999992371 -0.308999985456 -0.268000006676 338.0
0.819000005722 -0.393000006676 -0.335000008345 668.0
0.82800000906 -0.404000014067 -0.340000003576 725.0
0.839999973774 -0.416999995708 -0.344999998808 722.0
0.830999970436 -0.418999999762 -0.342999994755 729.0
0.822000026703 -0.421000003815 -0.340000003576 730.0
0.819999992847 -0.426999986172 -0.340000003576 739.0
0.81400001049 -0.430000007153 -0.338999986649 733.0
0.811999976635 -0.43599998951 -0.338999986649 712.0
0.815999984741 -0.444999992847 -0.340999990702 722.0
0.800999999046 -0.442999988794 -0.33599999547 717.0
0.81099998951 -0.456000000238 -0.340999990702 726.0
0.777000010014 -0.442999988794 -0.32800000906 606.0
0.43900001049 -0.250999987125 -0.185000002384 273.0
0.263999998569 -0.150999993086 -0.111000001431 222.0
0.237000003457 -0.136999994516 -0.10000000149 226.0
4.04799985886 2.49099993706 -1.79799997807 347.0
0.00899999961257 0.00400000018999 -0.00200000009499 338.0
4.08099985123 2.43700003624 -1.79999995232 343.0
0.00700000021607 0.00300000002608 -0.00200000009499 350.0
0.0240000002086 0.0120000001043 -0.00899999961257 351.0
0.0250000003725 0.0130000002682 -0.00899999961257 351.0
0.00600000005215 0.00200000009499 -0.0010000000475 342.0
0.00999999977648 0.00400000018999 -0.00300000002608 339.0
0.0130000002682 0.00600000005215 -0.00400000018999 324.0
4.18699979782 2.24699997902 -1.80599999428 326.0
0.00800000037998 0.00300000002608 -0.00200000009499 320.0
0.0130000002682 0.00600000005215 -0.00400000018999 317.0
0.00499999988824 0.00200000009499 -0.0010000000475 313.0
0.0109999999404 0.00499999988824 -0.00300000002608 305.0
4.25 2.10599994659 -1.80599999428 319.0
4.27199983597 2.08200001717 -1.80999994278 304.0
4.27799987793 2.05100011826 -1.80799996853 301.0
0.00600000005215 0.00200000009499 -0.0010000000475 298.0
4.30200004578 1.99500000477 -1.80799996853 283.0
4.32100009918 1.97000002861 -1.81099998951 273.0
4.33400011063 1.94299995899 -1.81200003624 284.0
4.34200000763 1.9129999876 -1.81099998951 270.0
4.34200000763 1.87999999523 -1.80599999428 273.0
4.36999988556 1.85899996758 -1.81299996376 278.0
4.38199996948 1.83099997044 -1.81400001049 268.0
0.00999999977648 0.00400000018999 -0.00300000002608 263.0
0.00800000037998 0.00300000002608 -0.00200000009499 258.0
4.37799978256 1.73199999332 -1.79999995232 248.0
4.41300010681 1.71300005913 -1.80999994278 235.0
4.43300008774 1.68900001049 -1.81500005722 243.0
4.43800020218 1.6590000391 -1.81299996376 240.0
4.44899988174 1.63100004196 -1.81400001049 230.0
4.45200014114 1.60000002384 -1.81099998951 229.0
4.47200012207 1.57500004768 -1.81500005722 232.0
4.4889998436 1.54999995232 -1.81900000572 220.0
0.00600000005215 0.00200000009499 -0.0010000000475 223.0
4.48799991608 1.48599994183 -1.81099998951 219.0
4.49700021744 1.45799994469 -1.81200003624 214.0
4.52600002289 1.43599998951 -1.82000005245 209.0
0.0109999999404 0.00300000002608 -0.00300000002608 200.0
4.53299999237 1.37600004673 -1.81599998474 201.0
4.52600002289 1.34300005436 -1.81099998951 202.0
4.53800010681 1.31599998474 -1.81200003624 193.0
4.5529999733 1.28999996185 -1.81500005722 191.0
4.56300020218 1.26199996471 -1.81700003147 187.0
4.54899978638 1.22800004482 -1.80799996853 179.0
4.57700014114 1.20500004292 -1.81599998474 181.0
0.00899999961257 0.00300000002608 -0.00200000009499 182.0
0.00600000005215 0.00200000009499 -0.0010000000475 183.0
0.035000000149 0.00899999961257 -0.0130000002682 170.0
4.61800003052 1.09399998188 -1.8220000267 170.0
0.0189999993891 0.00499999988824 -0.00600000005215 161.0
0.00899999961257 0.00300000002608 -0.00200000009499 160.0
0.0250000003725 0.00600000005215 -0.00899999961257 163.0
0.0120000001043 0.00300000002608 -0.00400000018999 162.0
0.0140000004321 0.00400000018999 -0.00400000018999 158.0
4.65600013733 0.92199999094 -1.82400000095 149.0
0.0179999992251 0.00400000018999 -0.00600000005215 146.0
0.0260000005364 0.00600000005215 -0.00899999961257 146.0
0.0140000004321 0.00300000002608 -0.00400000018999 145.0
4.67000007629 0.805999994278 -1.82099997997 147.0
0.0140000004321 0.00300000002608 -0.00400000018999 143.0
0.0390000008047 0.00700000021607 -0.0140000004321 140.0
0.0149999996647 0.00300000002608 -0.00499999988824 144.0
0.00600000005215 0.00200000009499 -0.0010000000475 133.0
0.035000000149 0.00600000005215 -0.0120000001043 131.0
4.69999980927 0.634000003338 -1.82299995422 137.0
0.0270000007004 0.00499999988824 -0.00899999961257 131.0
0.0439999997616 0.00600000005215 -0.01600000076 130.0
0.0109999999404 0.00200000009499 -0.00300000002608 138.0
4.71600008011 0.518999993801 -1.82400000095 130.0
0.0120000001043 0.00200000009499 -0.00300000002608 132.0
0.0309999994934 0.00400000018999 -0.0109999999404 126.0
0.019999999553 0.00300000002608 -0.00700000021607 128.0
0.0480000004172 0.00499999988824 -0.0170000009239 125.0
0.019999999553 0.00300000002608 -0.00600000005215 119.0
0.0370000004768 0.00400000018999 -0.0130000002682 125.0
0.0390000008047 0.00400000018999 -0.0140000004321 121.0
0.0240000002086 0.00300000002608 -0.00800000037998 124.0
4.72700023651 0.259000003338 -1.82000005245 124.0
0.0230000000447 0.00300000002608 -0.00700000021607 122.0
4.73600006104 0.202000007033 -1.8220000267 120.0
0.019999999553 0.00200000009499 -0.00600000005215 113.0
0.0289999991655 0.00200000009499 -0.00999999977648 109.0
0.0179999992251 0.00200000009499 -0.00600000005215 110.0
0.0419999994338 0.00200000009499 -0.0149999996647 115.0
0.0179999992251 0.00200000009499 -0.00600000005215 107.0
4.74700021744 0.0280000008643 -1.82400000095 111.0
0.0260000005364 0.00200000009499 -0.00800000037998 114.0
0.0590000003576 0.0010000000475 -0.0209999997169 118.0
0.0689999982715 0.0010000000475 -0.0250000003725 116.0
0.776000022888 -0.0120000001043 -0.29699999094 290.0
0.919000029564 -0.019999999553 -0.351999998093 553.0
0.56400001049 -0.0149999996647 -0.216000005603 200.0
0.379000008106 -0.0109999999404 -0.143999993801 166.0
0.381999999285 -0.0140000004321 -0.144999995828 164.0
0.363999992609 -0.0149999996647 -0.138999998569 165.0
0.374000012875 -0.0179999992251 -0.142000004649 166.0
0.407999992371 -0.0219999998808 -0.156000003219 165.0
0.375999987125 -0.0219999998808 -0.143000006676 166.0
0.430999994278 -0.0289999991655 -0.165000006557 168.0
0.441000014544 -0.0320000015199 -0.168999999762 159.0
0.397000014782 -0.0309999994934 -0.151999995112 168.0
0.389999985695 -0.0329999998212 -0.149000003934 172.0
0.377000004053 -0.0340000018477 -0.143999993801 167.0
0.409999996424 -0.0399999991059 -0.157000005245 173.0
0.85799998045 -0.0920000001788 -0.330000013113 426.0
0.925000011921 -0.104999996722 -0.356000006199 685.0
0.930000007153 -0.111000001431 -0.358000010252 698.0
0.926999986172 -0.116999998689 -0.356999993324 706.0
0.921000003815 -0.120999999344 -0.354999989271 695.0
0.933000028133 -0.128999993205 -0.360000014305 696.0
0.926999986172 -0.134000003338 -0.358000010252 707.0
0.920000016689 -0.137999996543 -0.354999989271 701.0
0.919000029564 -0.143999993801 -0.354999989271 699.0
0.916000008583 -0.149000003934 -0.354000002146 705.0
0.917999982834 -0.155000001192 -0.354999989271 714.0
0.912000000477 -0.159999996424 -0.352999985218 714.0
0.907999992371 -0.165000006557 -0.351999998093 710.0
0.907999992371 -0.171000003815 -0.351999998093 705.0
0.754000008106 -0.145999997854 -0.293000012636 333.0
0.381000012159 -0.0740000009537 -0.146999999881 183.0
0.36700001359 -0.0740000009537 -0.142000004649 183.0
0.33599999547 -0.0689999982715 -0.129999995232 182.0
0.361999988556 -0.0769999995828 -0.140000000596 171.0
0.361999988556 -0.0799999982119 -0.141000002623 184.0
0.377000004053 -0.0850000008941 -0.145999997854 177.0
0.368999987841 -0.0860000029206 -0.143999993801 181.0
0.347999989986 -0.082999996841 -0.135000005364 181.0
0.361000001431 -0.0890000015497 -0.141000002623 184.0
0.331999987364 -0.0839999988675 -0.129999995232 177.0
0.354000002146 -0.0920000001788 -0.137999996543 191.0
0.34999999404 -0.0930000022054 -0.136999994516 182.0
0.528999984264 -0.145999997854 -0.208000004292 219.0
0.860000014305 -0.246000006795 -0.340000003576 584.0
0.880999982357 -0.25799998641 -0.347999989986 716.0
0.875 -0.261999994516 -0.345999985933 718.0
0.884999990463 -0.270999997854 -0.351000010967 710.0
0.883000016212 -0.275999993086 -0.351000010967 723.0
0.870999991894 -0.277999997139 -0.347000002861 730.0
0.875 -0.286000013351 -0.349000006914 711.0
0.874000012875 -0.291000008583 -0.349000006914 705.0
0.869000017643 -0.296000003815 -0.347999989986 708.0
0.870999991894 -0.301999986172 -0.349000006914 706.0
0.867999970913 -0.307999998331 -0.347999989986 701.0
0.864000022411 -0.312000006437 -0.347000002861 719.0
0.85799998045 -0.316000014544 -0.345999985933 705.0
0.791999995708 -0.29699999094 -0.319999992847 480.0
0.425999999046 -0.16099999845 -0.172000005841 214.0
0.331000000238 -0.126000002027 -0.133000001311 196.0
0.335000008345 -0.129999995232 -0.135000005364 184.0
