ply
format ascii 1.0
element vertex 928
property float x
property float y
property float z
property float intensity
end_header
0.873000025749 -0.425000011921 0.123000003397 1492.0
0.879999995232 -0.43599998951 0.123999997973 1474.0
0.878000020981 -0.441000014544 0.123999997973 1461.0
0.876999974251 -0.448000013828 0.123999997973 1477.0
0.871999979019 -0.451999992132 0.123999997973 1453.0
0.875999987125 -0.46099999547 0.125 1448.0
0.869000017643 -0.463999986649 0.123999997973 1442.0
0.870999991894 -0.472000002861 0.125 1477.0
0.865999996662 -0.476000010967 0.125 1444.0
0.874000012875 -0.488000005484 0.126000002027 1451.0
0.875 0.505999982357 0.116999998689 934.0
0.862999975681 0.490999996662 0.115000002086 947.0
0.875 0.490999996662 0.115999996662 931.0
0.870000004768 0.481000006199 0.115000002086 914.0
0.875 0.476999998093 0.115000002086 917.0
0.875999987125 0.469999998808 0.115000002086 891.0
0.875999987125 0.462999999523 0.115000002086 880.0
0.874000012875 0.455000013113 0.11400000006 871.0
0.879000008106 0.451000005007 0.115000002086 872.0
0.880999982357 0.444999992847 0.115000002086 835.0
0.883000016212 0.439999997616 0.115000002086 811.0
0.875 0.428999990225 0.112999998033 781.0
0.876999974251 0.423000007868 0.112999998033 761.0
0.876999974251 0.416999995708 0.112999998033 755.0
0.879999995232 0.412000000477 0.112999998033 726.0
0.880999982357 0.405000001192 0.112999998033 713.0
0.879999995232 0.398999989033 0.112999998033 687.0
0.883000016212 0.393000006676 0.112999998033 670.0
0.889999985695 0.389999985695 0.112999998033 638.0
0.885999977589 0.381999999285 0.112999998033 615.0
0.889999985695 0.377000004053 0.112999998033 615.0
0.882000029087 0.368000000715 0.112000003457 611.0
0.885999977589 0.363000005484 0.112000003457 592.0
0.879000008106 0.354000002146 0.111000001431 576.0
0.884999990463 0.34999999404 0.111000001431 513.0
0.888999998569 0.345999985933 0.112000003457 475.0
0.893000006676 0.340999990702 0.112000003457 470.0
0.887000024319 0.333000004292 0.111000001431 461.0
0.883000016212 0.324999988079 0.109999999404 429.0
0.894999980927 0.324000000954 0.112000003457 396.0
0.882000029087 0.312999993563 0.109999999404 371.0
0.856000006199 0.298000007868 0.105999998748 349.0
0.861999988556 0.293999999762 0.107000000775 326.0
0.847000002861 0.284000009298 0.104999996722 290.0
0.861000001431 0.282999992371 0.107000000775 278.0
0.867999970913 0.279000014067 0.107000000775 271.0
0.848999977112 0.268000006676 0.104999996722 257.0
0.815999984741 0.252000004053 0.10000000149 227.0
0.876999974251 0.264999985695 0.108000002801 390.0
0.846000015736 0.245000004768 0.104000002146 339.0
0.842999994755 0.238999992609 0.103000000119 316.0
0.824999988079 0.223000004888 0.101000003517 277.0
0.801999986172 0.211999997497 0.097999997437 240.0
0.68900001049 0.173999994993 0.0839999988675 149.0
0.684000015259 0.167999997735 0.082999996841 140.0
0.772000014782 0.185000002384 0.0939999967813 192.0
0.481999993324 0.112999998033 0.0579999983311 91.0
0.395999997854 0.0900000035763 0.0469999983907 79.0
0.699999988079 0.155000001192 0.0850000008941 134.0
0.725000023842 0.156000003219 0.0879999995232 127.0
0.616999983788 0.128999993205 0.0740000009537 113.0
0.337999999523 0.0689999982715 0.0399999991059 72.0
0.0590000003576 0.0120000001043 0.00499999988824 56.0
0.231999993324 0.0450000017881 0.0260000005364 61.0
0.082000002265 0.01600000076 0.00800000037998 57.0
4.9359998703 0.879000008106 0.606999993324 49.0
0.263999998569 0.0460000000894 0.0299999993294 59.0
4.97499990463 0.825999975204 0.611000001431 49.0
0.228000000119 0.0370000004768 0.0260000005364 53.0
0.975000023842 -0.0570000000298 0.118000000715 373.0
0.930999994278 -0.0599999986589 0.112000003457 1232.0
0.924000024796 -0.0649999976158 0.112000003457 1432.0
0.925000011921 -0.070000000298 0.112000003457 1436.0
0.925000011921 -0.0750000029802 0.112000003457 1431.0
0.925000011921 -0.0810000002384 0.112000003457 1443.0
0.927999973297 -0.0869999974966 0.112000003457 1436.0
0.925000011921 -0.0920000001788 0.112000003457 1419.0
0.926999986172 -0.097000002861 0.112000003457 1422.0
0.925000011921 -0.101999998093 0.112000003457 1421.0
0.92199999094 -0.108000002801 0.112000003457 1423.0
0.920000016689 -0.112999998033 0.112000003457 1437.0
0.920000016689 -0.118000000715 0.112000003457 1426.0
0.92199999094 -0.123999997973 0.112000003457 1455.0
0.912000000477 -0.12800000608 0.111000001431 1465.0
0.921000003815 -0.135000005364 0.112000003457 1457.0
0.919000029564 -0.140000000596 0.112000003457 1450.0
0.916999995708 -0.144999995828 0.112000003457 1467.0
0.911000013351 -0.149000003934 0.111000001431 1472.0
0.917999982834 -0.156000003219 0.112000003457 1470.0
0.913999974728 -0.16099999845 0.112000003457 1459.0
0.911000013351 -0.165999993682 0.112000003457 1474.0
0.907999992371 -0.171000003815 0.112000003457 1482.0
0.912999987602 -0.177000001073 0.112000003457 1487.0
0.911000013351 -0.181999996305 0.112000003457 1483.0
0.907000005245 -0.187000006437 0.112000003457 1508.0
0.913999974728 -0.194000005722 0.112999998033 1527.0
0.90499997139 -0.196999996901 0.112000003457 1509.0
0.910000026226 -0.203999996185 0.112999998033 1507.0
0.911000013351 -0.209999993443 0.112999998033 1493.0
0.907000005245 -0.21400000155 0.112999998033 1490.0
0.911000013351 -0.221000000834 0.112999998033 1502.0
0.90600001812 -0.22499999404 0.112999998033 1499.0
0.899999976158 -0.229000002146 0.112000003457 1521.0
0.899999976158 -0.234999999404 0.112000003457 1520.0
0.902000010014 -0.240999996662 0.112999998033 1528.0
0.899999976158 -0.246000006795 0.112999998033 1512.0
0.899999976158 -0.252000004053 0.112999998033 1532.0
0.898999989033 -0.25799998641 0.112999998033 1528.0
0.899999976158 -0.263999998569 0.112999998033 1550.0
0.898999989033 -0.268999993801 0.112999998033 1525.0
0.896000027657 -0.273999989033 0.112999998033 1502.0
0.902000010014 -0.282000005245 0.11400000006 1488.0
0.901000022888 -0.287000000477 0.11400000006 1508.0
0.898999989033 -0.291999995708 0.11400000006 1513.0
0.89200001955 -0.296000003815 0.11400000006 1510.0
0.897000014782 -0.303000003099 0.11400000006 1515.0
0.894999980927 -0.308999985456 0.11400000006 1508.0
0.897000014782 -0.316000014544 0.115000002086 1507.0
0.89200001955 -0.319999992847 0.11400000006 1544.0
0.89099997282 -0.324999988079 0.115000002086 1533.0
0.89099997282 -0.331000000238 0.115000002086 1509.0
0.887000024319 -0.33599999547 0.115000002086 1505.0
0.893999993801 -0.344999998808 0.115999996662 1511.0
0.882000029087 -0.345999985933 0.11400000006 1507.0
0.887000024319 -0.354999989271 0.115000002086 1526.0
0.887000024319 -0.361000001431 0.115999996662 1534.0
0.884999990463 -0.365999996662 0.115999996662 1531.0
0.884999990463 -0.372000008821 0.115999996662 1528.0
0.888000011444 -0.379999995232 0.116999998689 1534.0
0.887000024319 -0.386000007391 0.116999998689 1522.0
0.880999982357 -0.389999985695 0.115999996662 1502.0
0.879999995232 -0.395999997854 0.116999998689 1464.0
0.879999995232 -0.402000010014 0.116999998689 1472.0
0.884000003338 -0.409999996424 0.118000000715 1503.0
0.882000029087 -0.416000008583 0.118000000715 1539.0
0.876999974251 -0.421000003815 0.116999998689 1508.0
0.879000008106 -0.428000003099 0.118000000715 1496.0
0.873000025749 -0.432000011206 0.116999998689 1498.0
0.876999974251 -0.441000014544 0.118000000715 1493.0
0.875 -0.446000009775 0.118000000715 1503.0
0.874000012875 -0.45300000906 0.119000002742 1491.0
0.871999979019 -0.458000004292 0.119000002742 1473.0
0.873000025749 -0.465999990702 0.119000002742 1469.0
0.870999991894 -0.472000002861 0.119000002742 1491.0
0.873000025749 -0.479999989271 0.119999997318 1481.0
0.873000025749 -0.486999988556 0.120999999344 1471.0
0.89099997282 0.514999985695 0.112999998033 618.0
0.901000022888 0.513000011444 0.11400000006 591.0
0.913999974728 0.512000024319 0.115000002086 561.0
0.926999986172 0.513000011444 0.116999998689 507.0
0.939999997616 0.512000024319 0.118000000715 483.0
0.93900001049 0.504000008106 0.118000000715 436.0
0.948000013828 0.500999987125 0.118000000715 406.0
0.943000018597 0.490999996662 0.116999998689 371.0
0.972999989986 0.499000012875 0.120999999344 327.0
1.06200003624 0.537000000477 0.131999999285 290.0
1.00899994373 0.501999974251 0.125 253.0
0.985000014305 0.483000010252 0.120999999344 223.0
0.938000023365 0.45300000906 0.115000002086 210.0
0.907999992371 0.430999994278 0.111000001431 313.0
0.899999976158 0.421000003815 0.109999999404 286.0
0.921000003815 0.416999995708 0.112000003457 207.0
0.967999994755 0.409999996424 0.116999998689 125.0
4.18300008774 1.29100000858 0.499000012875 65.0
4.18699979782 1.23800003529 0.497999995947 58.0
4.17899990082 1.20899999142 0.495999991894 58.0
4.03299999237 1.14100003242 0.477999985218 62.0
4.1139998436 1.13800001144 0.488000005484 57.0
4.28999996185 1.1590000391 0.508000016212 55.0
4.36299991608 1.15100002289 0.51599997282 55.0
4.26000022888 1.09800004959 0.503000020981 58.0
4.31599998474 1.08500003815 0.509000003338 55.0
4.1890001297 1.02699995041 0.493999987841 60.0
4.1779999733 0.998000025749 0.49200001359 56.0
4.20599985123 0.978999972343 0.495000004768 56.0
4.22200012207 0.957000017166 0.495999991894 60.0
4.15299987793 0.916000008583 0.488000005484 53.0
4.25299978256 0.912000000477 0.499000012875 66.0
4.17100000381 0.869000017643 0.488999992609 59.0
4.46099996567 0.902000010014 0.523000001907 58.0
4.28399991989 0.839999973774 0.501999974251 65.0
4.08400011063 0.776000022888 0.477999985218 64.0
4.39900016785 0.809000015259 0.513999998569 56.0
4.28200006485 0.736999988556 0.5 54.0
4.28700017929 0.712000012398 0.5 57.0
4.32999992371 0.693000018597 0.504999995232 52.0
0.930000007153 -0.0599999986589 0.107000000775 1239.0
0.926999986172 -0.0649999976158 0.105999998748 1435.0
0.925999999046 -0.070000000298 0.105999998748 1446.0
0.92199999094 -0.0750000029802 0.105999998748 1439.0
0.920000016689 -0.0799999982119 0.105999998748 1435.0
0.922999978065 -0.0860000029206 0.105999998748 1437.0
0.921000003815 -0.0909999981523 0.105999998748 1447.0
0.924000024796 -0.097000002861 0.107000000775 1425.0
0.92199999094 -0.101999998093 0.105999998748 1429.0
0.92199999094 -0.107000000775 0.107000000775 1416.0
0.916999995708 -0.112000003457 0.105999998748 1429.0
0.920000016689 -0.118000000715 0.105999998748 1436.0
0.917999982834 -0.123000003397 0.105999998748 1454.0
0.916999995708 -0.12800000608 0.105999998748 1467.0
0.92199999094 -0.135000005364 0.107000000775 1481.0
0.917999982834 -0.138999998569 0.107000000775 1453.0
0.916999995708 -0.144999995828 0.107000000775 1464.0
0.917999982834 -0.15000000596 0.107000000775 1491.0
0.910000026226 -0.153999999166 0.105999998748 1479.0
0.912999987602 -0.159999996424 0.107000000775 1483.0
0.916000008583 -0.165999993682 0.107000000775 1470.0
0.910000026226 -0.171000003815 0.105999998748 1507.0
0.908999979496 -0.175999999046 0.105999998748 1480.0
0.912999987602 -0.181999996305 0.107000000775 1468.0
0.907999992371 -0.187000006437 0.107000000775 1488.0
0.910000026226 -0.193000003695 0.107000000775 1528.0
0.911000013351 -0.199000000954 0.107000000775 1513.0
0.907000005245 -0.202999994159 0.107000000775 1531.0
0.902999997139 -0.208000004292 0.105999998748 1495.0
0.902000010014 -0.212999999523 0.107000000775 1491.0
0.90499997139 -0.218999996781 0.107000000775 1507.0
0.90600001812 -0.22499999404 0.107000000775 1511.0
0.911000013351 -0.231999993324 0.108000002801 1524.0
0.903999984264 -0.236000001431 0.107000000775 1540.0
0.899999976158 -0.240999996662 0.107000000775 1534.0
0.902000010014 -0.24699999392 0.108000002801 1513.0
0.903999984264 -0.252999991179 0.108000002801 1523.0
0.898000001907 -0.256999999285 0.107000000775 1519.0
0.896000027657 -0.261999994516 0.107000000775 1525.0
0.899999976158 -0.268999993801 0.108000002801 1538.0
0.898999989033 -0.27500000596 0.108000002801 1524.0
0.894999980927 -0.279000014067 0.108000002801 1529.0
0.893000006676 -0.284000009298 0.108000002801 1521.0
0.897000014782 -0.291999995708 0.108000002801 1510.0
0.898999989033 -0.298000007868 0.108999997377 1519.0
0.888999998569 -0.300999999046 0.108000002801 1514.0
0.893000006676 -0.307999998331 0.108999997377 1535.0
0.896000027657 -0.314999997616 0.108999997377 1511.0
0.894999980927 -0.321000009775 0.108999997377 1530.0
0.888999998569 -0.324000000954 0.108999997377 1549.0
0.889999985695 -0.331000000238 0.108999997377 1524.0
0.89200001955 -0.337999999523 0.109999999404 1518.0
0.889999985695 -0.342999994755 0.109999999404 1511.0
0.889999985695 -0.349000006914 0.109999999404 1531.0
0.888999998569 -0.354999989271 0.109999999404 1537.0
0.885999977589 -0.360000014305 0.109999999404 1548.0
0.888999998569 -0.36700001359 0.111000001431 1535.0
0.884000003338 -0.372000008821 0.109999999404 1536.0
0.880999982357 -0.377000004053 0.109999999404 1545.0
0.879000008106 -0.381999999285 0.109999999404 1539.0
0.880999982357 -0.388999998569 0.111000001431 1516.0
0.879999995232 -0.395000010729 0.111000001431 1488.0
0.879000008106 -0.400999993086 0.111000001431 1499.0
0.879000008106 -0.407999992371 0.111000001431 1515.0
0.875999987125 -0.412999987602 0.111000001431 1520.0
0.878000020981 -0.421000003815 0.112000003457 1510.0
0.875 -0.425999999046 0.112000003457 1506.0
0.874000012875 -0.432000011206 0.112000003457 1518.0
0.874000012875 -0.43900001049 0.112000003457 1489.0
0.873000025749 -0.444999992847 0.112999998033 1496.0
0.880999982357 -0.456000000238 0.11400000006 1494.0
0.874000012875 -0.458999991417 0.112999998033 1480.0
0.871999979019 -0.465000003576 0.11400000006 1501.0
0.865000009537 -0.467999994755 0.112999998033 1502.0
0.869000017643 -0.476999998093 0.11400000006 1502.0
0.870000004768 -0.485000014305 0.11400000006 1478.0
1.01699995995 0.587000012398 0.122000001371 186.0
1.17599999905 0.669000029564 0.142000004649 122.0
1.68299996853 0.944000005722 0.202999994159 125.0
1.79499995708 0.991999983788 0.216000005603 150.0
1.83500003815 1.0 0.219999998808 151.0
1.8789999485 1.00800001621 0.22499999404 151.0
1.85099995136 0.977999985218 0.221000000834 112.0
1.73699998856 0.90499997139 0.207000002265 79.0
2.00300002098 1.02799999714 0.238000005484 95.0
2.08999991417 1.05599999428 0.247999995947 161.0
2.10299992561 1.04700005054 0.248999997973 91.0
3.95300006866 1.34899997711 0.449999988079 67.0
4.25 1.31099998951 0.481000006199 58.0
4.29199981689 1.29600000381 0.485000014305 62.0
4.12900018692 1.22000002861 0.465999990702 59.0
4.15500020981 1.2009999752 0.467999994755 60.0
4.28700017929 1.2120000124 0.483000010252 59.0
4.22900009155 1.16900002956 0.476000010967 62.0
4.13700008392 1.0909999609 0.463999986649 60.0
4.22200012207 1.0870000124 0.472999989986 62.0
4.23099994659 1.06299996376 0.474000006914 59.0
4.26900005341 1.04600000381 0.477999985218 60.0
4.26000022888 1.01699995995 0.476000010967 61.0
4.21500015259 0.980000019073 0.470999985933 59.0
4.27500009537 0.967999994755 0.476999998093 64.0
4.17500019073 0.920000016689 0.465000003576 60.0
4.22599983215 0.90499997139 0.470999985933 63.0
4.15500020981 0.865000009537 0.462000012398 63.0
4.29799985886 0.867999970913 0.477999985218 64.0
4.24499988556 0.832000017166 0.472000002861 61.0
4.17299985886 0.792999982834 0.462999999523 59.0
4.14599990845 0.762000024319 0.460000008345 59.0
4.17100000381 0.741999983788 0.462999999523 61.0
4.13500022888 0.711000025272 0.458000004292 56.0
4.17600011826 0.693000018597 0.462999999523 63.0
4.23000001907 0.676999986172 0.467999994755 55.0
0.955999970436 -0.0560000017285 0.104000002146 424.0
0.936999976635 -0.0599999986589 0.101999998093 1251.0
0.926999986172 -0.0649999976158 0.101000003517 1452.0
0.927999973297 -0.070000000298 0.101000003517 1469.0
0.927999973297 -0.0759999975562 0.101000003517 1452.0
0.920000016689 -0.0799999982119 0.101000003517 1457.0
0.924000024796 -0.0860000029206 0.101000003517 1457.0
0.920000016689 -0.0909999981523 0.101000003517 1460.0
0.924000024796 -0.097000002861 0.101000003517 1450.0
0.92199999094 -0.101999998093 0.101000003517 1445.0
0.919000029564 -0.107000000775 0.101000003517 1448.0
0.916999995708 -0.112000003457 0.101000003517 1450.0
0.913999974728 -0.116999998689 0.10000000149 1449.0
0.917999982834 -0.123000003397 0.101000003517 1469.0
0.920000016689 -0.128999993205 0.101000003517 1491.0
0.915000021458 -0.133000001311 0.101000003517 1490.0
0.913999974728 -0.138999998569 0.101000003517 1481.0
0.911000013351 -0.143999993801 0.101000003517 1481.0
0.912000000477 -0.149000003934 0.101000003517 1505.0
0.912000000477 -0.155000001192 0.101000003517 1484.0
0.913999974728 -0.16099999845 0.101000003517 1485.0
0.920000016689 -0.166999995708 0.101999998093 1497.0
0.912000000477 -0.171000003815 0.101000003517 1509.0
0.912000000477 -0.175999999046 0.101000003517 1507.0
0.910000026226 -0.181999996305 0.101000003517 1481.0
0.912999987602 -0.187999993563 0.101999998093 1486.0
0.911000013351 -0.193000003695 0.101999998093 1506.0
0.912999987602 -0.199000000954 0.101999998093 1519.0
0.910000026226 -0.203999996185 0.101999998093 1522.0
0.908999979496 -0.209000006318 0.101999998093 1509.0
0.908999979496 -0.215000003576 0.101999998093 1500.0
0.912000000477 -0.221000000834 0.101999998093 1499.0
0.90600001812 -0.22499999404 0.101999998093 1514.0
0.901000022888 -0.229000002146 0.101000003517 1537.0
0.902000010014 -0.234999999404 0.101999998093 1534.0
0.902999997139 -0.240999996662 0.101999998093 1524.0
0.902000010014 -0.24699999392 0.101999998093 1531.0
0.90600001812 -0.254000008106 0.103000000119 1539.0
0.898999989033 -0.256999999285 0.101999998093 1540.0
0.902999997139 -0.263999998569 0.103000000119 1535.0
0.901000022888 -0.268999993801 0.103000000119 1556.0
0.894999980927 -0.273000001907 0.101999998093 1555.0
0.897000014782 -0.280000001192 0.103000000119 1530.0
0.898999989033 -0.286000013351 0.103000000119 1510.0
0.896000027657 -0.291000008583 0.103000000119 1523.0
0.897000014782 -0.29699999094 0.103000000119 1517.0
0.894999980927 -0.303000003099 0.103000000119 1534.0
0.893999993801 -0.307999998331 0.103000000119 1520.0
0.896000027657 -0.314999997616 0.104000002146 1516.0
0.894999980927 -0.321000009775 0.104000002146 1530.0
0.893999993801 -0.326000005007 0.104000002146 1533.0
0.89099997282 -0.331000000238 0.104000002146 1548.0
0.889999985695 -0.337000012398 0.104000002146 1522.0
0.89099997282 -0.342999994755 0.104000002146 1532.0
0.888999998569 -0.349000006914 0.104000002146 1539.0
0.888000011444 -0.354000002146 0.104000002146 1528.0
0.883000016212 -0.358999997377 0.104000002146 1530.0
0.889999985695 -0.368000000715 0.104999996722 1530.0
0.880999982357 -0.370000004768 0.104000002146 1525.0
0.884000003338 -0.377999991179 0.104999996722 1531.0
0.879999995232 -0.381999999285 0.104999996722 1524.0
0.879000008106 -0.388000011444 0.104999996722 1510.0
0.880999982357 -0.395000010729 0.104999996722 1469.0
0.879999995232 -0.402000010014 0.105999998748 1497.0
0.873000025749 -0.405000001192 0.104999996722 1545.0
0.884000003338 -0.416999995708 0.107000000775 1529.0
0.879000008106 -0.421000003815 0.105999998748 1529.0
0.879000008106 -0.426999986172 0.107000000775 1528.0
0.874000012875 -0.432000011206 0.105999998748 1525.0
0.874000012875 -0.43900001049 0.107000000775 1515.0
0.875999987125 -0.446000009775 0.107000000775 1504.0
0.875 -0.45300000906 0.108000002801 1520.0
0.874000012875 -0.458999991417 0.108000002801 1498.0
0.873000025749 -0.465000003576 0.108000002801 1511.0
0.869000017643 -0.469999998808 0.108000002801 1508.0
0.870000004768 -0.477999985218 0.108000002801 1531.0
0.869000017643 -0.483999997377 0.108999997377 1495.0
2.007999897 1.1590000391 0.231000006199 102.0
1.96099996567 1.11600005627 0.22499999404 141.0
2.00999999046 1.12699997425 0.230000004172 195.0
2.0490000248 1.13199996948 0.233999997377 182.0
2.0150001049 1.09700000286 0.229000002146 189.0
2.00600004196 1.0759999752 0.226999998093 185.0
2.03600001335 1.0759999752 0.230000004172 127.0
2.05100011826 1.06799995899 0.231000006199 83.0
2.1289999485 1.09200000763 0.239999994636 121.0
2.1400001049 1.08000004292 0.239999994636 204.0
2.16899991035 1.07899999619 0.243000000715 106.0
2.19600009918 1.07500004768 0.245000004768 78.0
3.25600004196 1.19799995422 0.352999985218 63.0
3.4430000782 1.24300003052 0.372999995947 70.0
3.80399990082 1.29700005054 0.409999996424 75.0
3.71199989319 1.24100005627 0.398999989033 74.0
4.10599994659 1.26499998569 0.439999997616 77.0
4.11100006104 1.24000000954 0.439999997616 84.0
4.12599992752 1.21800005436 0.441000014544 81.0
4.07999992371 1.17900002003 0.435000002384 84.0
4.132999897 1.16799998283 0.439999997616 83.0
4.132999897 1.14100003242 0.439999997616 83.0
4.18499994278 1.1289999485 0.444999992847 80.0
4.13700008392 1.09000003338 0.43900001049 81.0
4.21500015259 1.08399999142 0.446999996901 83.0
4.18499994278 1.05099999905 0.444000005722 83.0
4.12400007248 1.00999999046 0.437000006437 88.0
4.10500001907 0.978999972343 0.433999985456 88.0
4.17500019073 0.97000002861 0.441000014544 84.0
4.19999980927 0.949999988079 0.442999988794 85.0
4.16099977493 0.916000008583 0.43900001049 87.0
4.14200019836 0.887000024319 0.437000006437 82.0
4.15999984741 0.865000009537 0.437999993563 88.0
4.05700016022 0.819000005722 0.426999986172 83.0
4.15700006485 0.81400001049 0.437000006437 85.0
4.15399980545 0.787999987602 0.437000006437 87.0
4.18200016022 0.768999993801 0.43900001049 91.0
4.23000001907 0.751999974251 0.444000005722 88.0
4.1360001564 0.709999978542 0.433999985456 88.0
4.1139998436 0.681999981403 0.430999994278 91.0
4.15700006485 0.663999974728 0.43599998951 91.0
0.930000007153 -0.0599999986589 0.0960000008345 1277.0
0.926999986172 -0.0649999976158 0.0960000008345 1467.0
0.921000003815 -0.070000000298 0.0949999988079 1481.0
0.925000011921 -0.0750000029802 0.0960000008345 1460.0
0.92199999094 -0.0810000002384 0.0949999988079 1457.0
0.925000011921 -0.0860000029206 0.0960000008345 1465.0
0.922999978065 -0.0909999981523 0.0960000008345 1465.0
0.925000011921 -0.097000002861 0.0960000008345 1464.0
0.922999978065 -0.101999998093 0.0960000008345 1455.0
0.920000016689 -0.107000000775 0.0960000008345 1463.0
0.92199999094 -0.112999998033 0.0960000008345 1465.0
0.92199999094 -0.118000000715 0.0960000008345 1476.0
0.917999982834 -0.123000003397 0.0960000008345 1483.0
0.916000008583 -0.12800000608 0.0949999988079 1492.0
0.917999982834 -0.134000003338 0.0960000008345 1496.0
0.917999982834 -0.138999998569 0.0960000008345 1506.0
0.912999987602 -0.143999993801 0.0949999988079 1515.0
0.916999995708 -0.15000000596 0.0960000008345 1529.0
0.910000026226 -0.153999999166 0.0949999988079 1515.0
0.916000008583 -0.16099999845 0.0960000008345 1518.0
0.916000008583 -0.165999993682 0.0960000008345 1520.0
0.912999987602 -0.171000003815 0.0960000008345 1526.0
0.907000005245 -0.17499999702 0.0949999988079 1525.0
0.912999987602 -0.181999996305 0.0960000008345 1521.0
0.912000000477 -0.187000006437 0.0960000008345 1511.0
0.907999992371 -0.192000001669 0.0960000008345 1522.0
0.907999992371 -0.197999998927 0.0960000008345 1524.0
0.901000022888 -0.202000007033 0.0949999988079 1535.0
0.902000010014 -0.207000002265 0.0960000008345 1531.0
0.90600001812 -0.21400000155 0.0960000008345 1529.0
0.907999992371 -0.219999998808 0.097000002861 1509.0
0.902999997139 -0.224000006914 0.0960000008345 1537.0
0.903999984264 -0.230000004172 0.0960000008345 1543.0
0.90499997139 -0.236000001431 0.097000002861 1547.0
0.907999992371 -0.243000000715 0.097000002861 1542.0
0.899999976158 -0.246000006795 0.0960000008345 1550.0
0.902999997139 -0.252999991179 0.097000002861 1533.0
0.898999989033 -0.256999999285 0.097000002861 1538.0
0.901000022888 -0.263000011444 0.097000002861 1560.0
0.896000027657 -0.268000006676 0.097000002861 1550.0
0.896000027657 -0.273000001907 0.097000002861 1578.0
0.897000014782 -0.280000001192 0.097000002861 1574.0
0.896000027657 -0.284999996424 0.097000002861 1554.0
0.893000006676 -0.289999991655 0.097000002861 1552.0
0.899999976158 -0.298000007868 0.097999997437 1540.0
0.89200001955 -0.300999999046 0.097000002861 1558.0
0.893999993801 -0.307999998331 0.097999997437 1563.0
0.889999985695 -0.312999993563 0.097999997437 1535.0
0.889999985695 -0.319000005722 0.097999997437 1541.0
0.89099997282 -0.324999988079 0.097999997437 1543.0
0.889999985695 -0.331000000238 0.097999997437 1522.0
0.889999985695 -0.33599999547 0.097999997437 1557.0
0.89200001955 -0.344000011683 0.0989999994636 1533.0
0.884999990463 -0.347000002861 0.097999997437 1533.0
0.884000003338 -0.352999985218 0.097999997437 1546.0
0.883000016212 -0.358000010252 0.0989999994636 1519.0
0.887000024319 -0.365999996662 0.0989999994636 1531.0
0.884999990463 -0.372000008821 0.0989999994636 1522.0
0.885999977589 -0.377999991179 0.10000000149 1532.0
0.880999982357 -0.381999999285 0.0989999994636 1526.0
0.879999995232 -0.388999998569 0.0989999994636 1497.0
0.880999982357 -0.395999997854 0.10000000149 1460.0
0.882000029087 -0.402999997139 0.10000000149 1527.0
0.875999987125 -0.405999988317 0.10000000149 1550.0
0.874000012875 -0.411000013351 0.10000000149 1537.0
0.883000016212 -0.42199999094 0.101000003517 1541.0
0.876999974251 -0.425999999046 0.101000003517 1530.0
0.871999979019 -0.430000007153 0.101000003517 1526.0
0.875999987125 -0.43900001049 0.101000003517 1520.0
0.871999979019 -0.444000005722 0.101000003517 1525.0
0.875999987125 -0.45300000906 0.101999998093 1514.0
0.874000012875 -0.458999991417 0.101999998093 1508.0
0.870999991894 -0.463999986649 0.101999998093 1513.0
0.875 -0.472999989986 0.103000000119 1516.0
0.871999979019 -0.477999985218 0.103000000119 1528.0
0.865000009537 -0.481999993324 0.101999998093 1523.0
1.99399995804 1.14999997616 0.216000005603 161.0
2.03299999237 1.15600001812 0.219999998808 213.0
2.03200006485 1.13800001144 0.218999996781 250.0
2.06200003624 1.13900005817 0.222000002861 271.0
2.06500005722 1.12300002575 0.221000000834 270.0
2.04399991035 1.09599995613 0.217999994755 272.0
2.02699995041 1.07099997997 0.216000005603 155.0
2.09299993515 1.08899998665 0.223000004888 125.0
2.13499999046 1.09399998188 0.225999996066 178.0
2.18799996376 1.10399997234 0.231999993324 288.0
2.20900011063 1.09800004959 0.232999995351 167.0
2.18899989128 1.07099997997 0.231000006199 104.0
2.37800002098 1.09200000763 0.247999995947 78.0
3.28200006485 1.20700001717 0.335000008345 90.0
3.36599993706 1.21500003338 0.342999994755 79.0
3.72099995613 1.29299998283 0.379000008106 94.0
3.78200006485 1.28900003433 0.384000003338 93.0
3.74099993706 1.25 0.379999995232 89.0
4.21999979019 1.32700002193 0.426999986172 60.0
4.12799978256 1.27100002766 0.416999995708 87.0
4.13700008392 1.24699997902 0.416999995708 100.0
4.16499996185 1.22899997234 0.419999986887 100.0
4.11999988556 1.18900001049 0.414999991655 101.0
4.13899993896 1.16900002956 0.416000008583 93.0
4.05900001526 1.12000000477 0.407000005245 100.0
4.10599994659 1.10699999332 0.412000000477 91.0
4.1139998436 1.08399999142 0.412000000477 98.0
4.12200021744 1.05999994278 0.412999987602 93.0
4.10799980164 1.03100001812 0.411000013351 101.0
4.12099981308 1.00800001621 0.412000000477 97.0
4.13399982452 0.986000001431 0.412999987602 101.0
4.14099979401 0.962000012398 0.412999987602 100.0
4.13000011444 0.934000015259 0.411000013351 94.0
4.14499998093 0.912000000477 0.412999987602 101.0
4.12599992752 0.883000016212 0.409999996424 101.0
4.18200016022 0.869000017643 0.416000008583 99.0
4.16099977493 0.839999973774 0.412999987602 100.0
4.20800018311 0.823000013828 0.418000012636 103.0
4.12099981308 0.782000005245 0.409000009298 98.0
4.13199996948 0.759000003338 0.409999996424 97.0
4.14099979401 0.736000001431 0.409999996424 99.0
4.1890001297 0.71899998188 0.414999991655 101.0
4.17100000381 0.690999984741 0.412999987602 104.0
4.09499979019 0.653999984264 0.405000001192 91.0
4.22800016403 0.649999976158 0.418000012636 61.0
0.925000011921 -0.0590000003576 0.0900000035763 1270.0
0.925999999046 -0.0649999976158 0.0900000035763 1474.0
0.925000011921 -0.070000000298 0.0900000035763 1484.0
0.920000016689 -0.0750000029802 0.0900000035763 1475.0
0.925000011921 -0.0810000002384 0.0900000035763 1470.0
0.920000016689 -0.0860000029206 0.0900000035763 1486.0
0.924000024796 -0.0909999981523 0.0900000035763 1477.0
0.921000003815 -0.097000002861 0.0900000035763 1486.0
0.921000003815 -0.101999998093 0.0900000035763 1478.0
0.920000016689 -0.107000000775 0.0900000035763 1486.0
0.924000024796 -0.112999998033 0.0909999981523 1484.0
0.916999995708 -0.118000000715 0.0900000035763 1485.0
0.921000003815 -0.123000003397 0.0900000035763 1495.0
0.913999974728 -0.12800000608 0.0900000035763 1527.0
0.916999995708 -0.134000003338 0.0900000035763 1520.0
0.916999995708 -0.138999998569 0.0900000035763 1519.0
0.917999982834 -0.144999995828 0.0909999981523 1525.0
0.912999987602 -0.149000003934 0.0900000035763 1547.0
0.913999974728 -0.155000001192 0.0900000035763 1523.0
0.913999974728 -0.159999996424 0.0900000035763 1529.0
0.910000026226 -0.165000006557 0.0900000035763 1529.0
0.915000021458 -0.171000003815 0.0909999981523 1534.0
0.907999992371 -0.175999999046 0.0900000035763 1533.0
0.908999979496 -0.180999994278 0.0900000035763 1537.0
0.910000026226 -0.187000006437 0.0909999981523 1554.0
0.907000005245 -0.192000001669 0.0900000035763 1538.0
0.90600001812 -0.196999996901 0.0900000035763 1536.0
0.901000022888 -0.202000007033 0.0900000035763 1536.0
0.90600001812 -0.208000004292 0.0909999981523 1538.0
0.907000005245 -0.21400000155 0.0909999981523 1545.0
0.90499997139 -0.218999996781 0.0909999981523 1536.0
0.898999989033 -0.223000004888 0.0900000035763 1542.0
0.90600001812 -0.231000006199 0.0909999981523 1544.0
0.898999989033 -0.233999997377 0.0909999981523 1555.0
0.903999984264 -0.240999996662 0.0909999981523 1559.0
0.897000014782 -0.245000004768 0.0909999981523 1554.0
0.898000001907 -0.250999987125 0.0909999981523 1568.0
0.898999989033 -0.256999999285 0.0909999981523 1571.0
0.898000001907 -0.263000011444 0.0909999981523 1566.0
0.898999989033 -0.268000006676 0.0920000001788 1562.0
0.898000001907 -0.273999989033 0.0920000001788 1568.0
0.898999989033 -0.280000001192 0.0920000001788 1574.0
0.89099997282 -0.282999992371 0.0909999981523 1562.0
0.893999993801 -0.289999991655 0.0920000001788 1552.0
0.89099997282 -0.294999986887 0.0920000001788 1560.0
0.893999993801 -0.301999986172 0.0920000001788 1557.0
0.889999985695 -0.305999994278 0.0920000001788 1568.0
0.89099997282 -0.312999993563 0.0920000001788 1559.0
0.888999998569 -0.317999988794 0.0920000001788 1570.0
0.884000003338 -0.321999996901 0.0920000001788 1563.0
0.888999998569 -0.330000013113 0.0930000022054 1551.0
0.89099997282 -0.337000012398 0.0930000022054 1556.0
0.885999977589 -0.340999990702 0.0930000022054 1543.0
0.885999977589 -0.347000002861 0.0930000022054 1564.0
0.887000024319 -0.354000002146 0.0930000022054 1559.0
0.887000024319 -0.360000014305 0.0939999967813 1542.0
0.880999982357 -0.363000005484 0.0930000022054 1567.0
0.880999982357 -0.370000004768 0.0930000022054 1563.0
0.884999990463 -0.377999991179 0.0939999967813 1554.0
0.879999995232 -0.381999999285 0.0939999967813 1554.0
0.882000029087 -0.388999998569 0.0939999967813 1526.0
0.878000020981 -0.393999993801 0.0939999967813 1519.0
0.884000003338 -0.402999997139 0.0949999988079 1546.0
0.876999974251 -0.405999988317 0.0939999967813 1560.0
0.880999982357 -0.414999991655 0.0949999988079 1557.0
0.879000008106 -0.419999986887 0.0949999988079 1547.0
0.876999974251 -0.425999999046 0.0949999988079 1527.0
0.878000020981 -0.432999998331 0.0960000008345 1535.0
0.874000012875 -0.437999993563 0.0949999988079 1531.0
0.870000004768 -0.442999988794 0.0949999988079 1523.0
0.867999970913 -0.448000013828 0.0949999988079 1535.0
0.870999991894 -0.456999987364 0.0960000008345 1515.0
0.870000004768 -0.462999999523 0.0960000008345 1525.0
0.867999970913 -0.469000011683 0.0960000008345 1537.0
0.867999970913 -0.476000010967 0.097000002861 1534.0
0.865000009537 -0.481000006199 0.097000002861 1531.0
1.9960000515 1.15100002289 0.202999994159 97.0
2.01099991798 1.14199995995 0.203999996185 150.0
2.04299998283 1.14400005341 0.207000002265 273.0
2.04299998283 1.12699997425 0.206000000238 314.0
2.07299995422 1.12699997425 0.209000006318 297.0
2.0759999752 1.11199998856 0.208000004292 297.0
2.09400010109 1.10500001907 0.209999993443 156.0
2.08999991417 1.08599996567 0.209000006318 133.0
2.14100003242 1.09599995613 0.212999999523 207.0
2.18000006676 1.09899997711 0.216999992728 300.0
2.21099996567 1.09800004959 0.218999996781 162.0
2.20600008965 1.07899999619 0.217999994755 116.0
2.41199994087 1.10699999332 0.237000003457 77.0
2.54200005531 1.09300005436 0.247999995947 66.0
3.28900003433 1.20799994469 0.316000014544 76.0
3.39299988747 1.22399997711 0.324999988079 71.0
3.78500008583 1.31400001049 0.361999988556 86.0
3.742000103 1.27400004864 0.356999993324 78.0
3.80200004578 1.26999998093 0.363000005484 82.0
4.13199996948 1.27199995518 0.391999989748 72.0
4.16400003433 1.25499999523 0.395000010729 78.0
4.19799995422 1.23800003529 0.398000001907 79.0
4.11899995804 1.18799996376 0.389999985695 72.0
4.21199989319 1.18799996376 0.398000001907 73.0
4.25 1.17200005054 0.400999993086 78.0
4.16900014877 1.12399995327 0.393000006676 76.0
4.19600009918 1.10399997234 0.395000010729 70.0
4.19999980927 1.07899999619 0.395000010729 72.0
4.21400022507 1.05700004101 0.395999997854 70.0
4.18400001526 1.02300000191 0.393000006676 70.0
4.17700004578 0.995000004768 0.391999989748 67.0
4.27799987793 0.992999970913 0.400999993086 72.0
4.22599983215 0.954999983311 0.395999997854 67.0
4.26900005341 0.93900001049 0.40000000596 75.0
4.22399997711 0.902999997139 0.395000010729 76.0
4.23999977112 0.880999982357 0.395999997854 74.0
4.23500013351 0.853999972343 0.395999997854 74.0
4.21600008011 0.824999988079 0.393999993801 69.0
4.25299978256 0.805999994278 0.397000014782 66.0
4.28399991989 0.786000013351 0.398999989033 69.0
4.21099996567 0.748000025749 0.391999989748 68.0
4.21999979019 0.723999977112 0.393000006676 66.0
4.23199987411 0.700999975204 0.393999993801 75.0
4.12900018692 0.658999979496 0.384000003338 72.0
0.929000020027 -0.0599999986589 0.0850000008941 1302.0
0.925000011921 -0.0649999976158 0.0850000008941 1497.0
0.925000011921 -0.070000000298 0.0850000008941 1496.0
0.925999999046 -0.0759999975562 0.0850000008941 1501.0
0.927999973297 -0.0810000002384 0.0850000008941 1490.0
0.921000003815 -0.0860000029206 0.0850000008941 1484.0
0.919000029564 -0.0909999981523 0.0839999988675 1483.0
0.917999982834 -0.0960000008345 0.0839999988675 1480.0
0.920000016689 -0.101999998093 0.0850000008941 1500.0
0.922999978065 -0.107000000775 0.0850000008941 1503.0
0.922999978065 -0.112999998033 0.0850000008941 1486.0
0.913999974728 -0.116999998689 0.0839999988675 1481.0
0.919000029564 -0.123000003397 0.0850000008941 1509.0
0.911000013351 -0.127000004053 0.0839999988675 1503.0
0.913999974728 -0.133000001311 0.0850000008941 1529.0
0.916999995708 -0.138999998569 0.0850000008941 1539.0
0.912999987602 -0.143999993801 0.0850000008941 1559.0
0.921000003815 -0.150999993086 0.0860000029206 1565.0
0.912999987602 -0.155000001192 0.0850000008941 1541.0
0.912999987602 -0.159999996424 0.0850000008941 1552.0
0.916000008583 -0.165999993682 0.0850000008941 1539.0
0.910000026226 -0.170000001788 0.0850000008941 1550.0
0.907999992371 -0.17499999702 0.0850000008941 1543.0
0.911000013351 -0.181999996305 0.0850000008941 1546.0
0.911000013351 -0.187000006437 0.0850000008941 1542.0
0.901000022888 -0.189999997616 0.0839999988675 1556.0
0.907999992371 -0.197999998927 0.0850000008941 1547.0
0.907999992371 -0.202999994159 0.0850000008941 1545.0
0.908999979496 -0.209000006318 0.0860000029206 1531.0
0.90499997139 -0.212999999523 0.0850000008941 1546.0
0.90499997139 -0.218999996781 0.0860000029206 1548.0
0.908999979496 -0.225999996066 0.0860000029206 1547.0
0.903999984264 -0.230000004172 0.0860000029206 1549.0
0.903999984264 -0.236000001431 0.0860000029206 1566.0
0.898999989033 -0.239999994636 0.0850000008941 1568.0
0.898999989033 -0.246000006795 0.0860000029206 1562.0
0.901000022888 -0.252000004053 0.0860000029206 1565.0
0.893000006676 -0.254999995232 0.0850000008941 1584.0
0.899999976158 -0.263000011444 0.0860000029206 1569.0
0.893999993801 -0.266999989748 0.0860000029206 1560.0
0.896000027657 -0.273000001907 0.0860000029206 1582.0
0.897000014782 -0.279000014067 0.0860000029206 1582.0
0.897000014782 -0.284999996424 0.0869999974966 1578.0
0.893000006676 -0.289999991655 0.0860000029206 1570.0
0.89200001955 -0.294999986887 0.0860000029206 1557.0
0.893000006676 -0.301999986172 0.0869999974966 1564.0
0.893999993801 -0.307999998331 0.0869999974966 1567.0
0.888999998569 -0.312000006437 0.0869999974966 1549.0
0.889999985695 -0.317999988794 0.0869999974966 1575.0
0.89200001955 -0.324999988079 0.0869999974966 1573.0
0.888000011444 -0.328999996185 0.0869999974966 1574.0
0.887000024319 -0.335000008345 0.0869999974966 1568.0
0.888999998569 -0.342000007629 0.0879999995232 1571.0
0.887000024319 -0.347000002861 0.0879999995232 1576.0
0.887000024319 -0.354000002146 0.0879999995232 1583.0
0.885999977589 -0.358999997377 0.0879999995232 1579.0
0.885999977589 -0.365000009537 0.0879999995232 1583.0
0.874000012875 -0.36700001359 0.0869999974966 1573.0
0.884000003338 -0.377000004053 0.0879999995232 1567.0
0.887000024319 -0.384999990463 0.0890000015497 1571.0
0.884000003338 -0.389999985695 0.0890000015497 1564.0
0.883000016212 -0.395999997854 0.0890000015497 1548.0
0.876999974251 -0.40000000596 0.0890000015497 1580.0
0.874000012875 -0.404000014067 0.0890000015497 1572.0
0.876999974251 -0.412999987602 0.0890000015497 1567.0
0.874000012875 -0.418000012636 0.0890000015497 1547.0
0.874000012875 -0.423999994993 0.0890000015497 1547.0
0.874000012875 -0.430999994278 0.0900000035763 1528.0
0.874000012875 -0.437000006437 0.0900000035763 1540.0
0.871999979019 -0.442999988794 0.0900000035763 1522.0
0.870999991894 -0.449000000954 0.0900000035763 1529.0
0.870999991894 -0.456000000238 0.0900000035763 1542.0
0.873000025749 -0.463999986649 0.0909999981523 1526.0
0.871999979019 -0.470999985933 0.0909999981523 1549.0
0.865000009537 -0.474000006914 0.0909999981523 1532.0
0.870999991894 -0.483999997377 0.0920000001788 1544.0
1.98300004005 1.14199995995 0.188999995589 112.0
2.01300001144 1.14300000668 0.190999999642 201.0
2.07500004768 1.16100001335 0.195999994874 275.0
2.06200003624 1.13699996471 0.194999992847 281.0
2.06200003624 1.12000000477 0.194000005722 278.0
2.06599998474 1.10599994659 0.194000005722 267.0
2.07399988174 1.09399998188 0.194000005722 143.0
2.117000103 1.10000002384 0.197999998927 108.0
2.15499997139 1.10300004482 0.201000005007 188.0
2.19000005722 1.10399997234 0.203999996185 250.0
2.21700000763 1.10000002384 0.206000000238 120.0
2.19400000572 1.0720000267 0.202999994159 94.0
3.93899989128 1.3409999609 0.351999998093 64.0
3.8029999733 1.26900005341 0.340000003576 59.0
4.39699983597 1.35199999809 0.391000002623 70.0
4.31500005722 1.29999995232 0.38299998641 63.0
4.32100009918 1.27400004864 0.38299998641 64.0
4.27799987793 1.23399996758 0.379000008106 62.0
4.23500013351 1.19400000572 0.375 56.0
4.38500022888 1.20899999142 0.388000011444 55.0
4.33199977875 1.16700005531 0.38299998641 60.0
4.22300004959 1.11099994183 0.372000008821 61.0
4.25500011444 1.09300005436 0.375 59.0
4.31300020218 1.08099997044 0.379999995232 58.0
4.25099992752 1.03900003433 0.374000012875 59.0
4.35400009155 1.03699994087 0.38299998641 59.0
4.26200008392 0.989000022411 0.374000012875 59.0
4.24800014496 0.958999991417 0.372999995947 59.0
4.32899999619 0.950999975204 0.379999995232 61.0
4.35500001907 0.930000007153 0.381999999285 56.0
4.26300001144 0.884999990463 0.372999995947 60.0
4.38399982452 0.883000016212 0.384000003338 61.0
4.29199981689 0.838999986649 0.375 60.0
4.26000022888 0.806999981403 0.372000008821 58.0
4.23999977112 0.777999997139 0.370000004768 61.0
4.3109998703 0.764999985695 0.375999987125 61.0
4.30499982834 0.737999975681 0.375999987125 64.0
4.28299999237 0.708999991417 0.372999995947 62.0
4.27899980545 0.681999981403 0.372999995947 60.0
0.971000015736 -0.0570000000298 0.082999996841 344.0
0.933000028133 -0.0599999986589 0.0799999982119 1313.0
0.925000011921 -0.0649999976158 0.0790000036359 1504.0
0.924000024796 -0.070000000298 0.0790000036359 1508.0
0.920000016689 -0.0750000029802 0.0790000036359 1486.0
0.922999978065 -0.0810000002384 0.0790000036359 1490.0
0.92199999094 -0.0860000029206 0.0790000036359 1498.0
0.917999982834 -0.0909999981523 0.0790000036359 1493.0
0.917999982834 -0.0960000008345 0.0790000036359 1486.0
0.919000029564 -0.101999998093 0.0790000036359 1502.0
0.92199999094 -0.107000000775 0.0799999982119 1503.0
0.916000008583 -0.112000003457 0.0790000036359 1495.0
0.915000021458 -0.116999998689 0.0790000036359 1493.0
0.916999995708 -0.123000003397 0.0790000036359 1499.0
0.916000008583 -0.12800000608 0.0790000036359 1524.0
0.915000021458 -0.133000001311 0.0790000036359 1556.0
0.911000013351 -0.137999996543 0.0790000036359 1560.0
0.913999974728 -0.143999993801 0.0790000036359 1571.0
0.917999982834 -0.15000000596 0.0799999982119 1565.0
0.912000000477 -0.155000001192 0.0790000036359 1572.0
0.911000013351 -0.159999996424 0.0790000036359 1574.0
0.907999992371 -0.165000006557 0.0790000036359 1548.0
0.910000026226 -0.170000001788 0.0799999982119 1558.0
0.910000026226 -0.175999999046 0.0799999982119 1555.0
0.911000013351 -0.181999996305 0.0799999982119 1558.0
0.908999979496 -0.187000006437 0.0799999982119 1547.0
0.907000005245 -0.192000001669 0.0799999982119 1570.0
0.903999984264 -0.196999996901 0.0799999982119 1557.0
0.902000010014 -0.202000007033 0.0790000036359 1554.0
0.90499997139 -0.208000004292 0.0799999982119 1558.0
0.90600001812 -0.21400000155 0.0799999982119 1573.0
0.907000005245 -0.218999996781 0.0799999982119 1570.0
0.903999984264 -0.224000006914 0.0799999982119 1552.0
0.903999984264 -0.230000004172 0.0799999982119 1577.0
0.902000010014 -0.234999999404 0.0799999982119 1578.0
0.902000010014 -0.240999996662 0.0799999982119 1597.0
0.901000022888 -0.246000006795 0.0799999982119 1594.0
0.902000010014 -0.252000004053 0.0810000002384 1578.0
0.902999997139 -0.25799998641 0.0810000002384 1583.0
0.893999993801 -0.261000007391 0.0799999982119 1571.0
0.901000022888 -0.268999993801 0.0810000002384 1570.0
0.896000027657 -0.273000001907 0.0810000002384 1574.0
0.894999980927 -0.279000014067 0.0810000002384 1595.0
0.896000027657 -0.284999996424 0.0810000002384 1586.0
0.894999980927 -0.289999991655 0.0810000002384 1594.0
0.893000006676 -0.294999986887 0.0810000002384 1573.0
0.89200001955 -0.300999999046 0.0810000002384 1566.0
0.888999998569 -0.305999994278 0.0810000002384 1566.0
0.884000003338 -0.310000002384 0.0810000002384 1561.0
0.893999993801 -0.319999992847 0.082000002265 1573.0
0.888999998569 -0.324000000954 0.082000002265 1572.0
0.889999985695 -0.330000013113 0.082000002265 1571.0
0.884999990463 -0.333999991417 0.0810000002384 1580.0
0.888000011444 -0.340999990702 0.082000002265 1585.0
0.888000011444 -0.347999989986 0.082000002265 1593.0
0.884000003338 -0.351999998093 0.082000002265 1603.0
0.888999998569 -0.360000014305 0.082999996841 1594.0
0.884999990463 -0.365000009537 0.082999996841 1580.0
0.879999995232 -0.368999987841 0.082000002265 1581.0
0.880999982357 -0.375999987125 0.082999996841 1589.0
0.878000020981 -0.381000012159 0.082999996841 1584.0
0.880999982357 -0.388000011444 0.082999996841 1596.0
0.879999995232 -0.393999993801 0.082999996841 1559.0
0.882000029087 -0.402000010014 0.0839999988675 1574.0
0.876999974251 -0.405999988317 0.082999996841 1571.0
0.878000020981 -0.412999987602 0.0839999988675 1564.0
0.874000012875 -0.416999995708 0.082999996841 1558.0
0.870999991894 -0.423000007868 0.082999996841 1564.0
0.871999979019 -0.430000007153 0.0839999988675 1553.0
0.878000020981 -0.43900001049 0.0850000008941 1538.0
0.870999991894 -0.442999988794 0.0839999988675 1518.0
0.870999991894 -0.449999988079 0.0850000008941 1526.0
0.867999970913 -0.455000013113 0.0839999988675 1544.0
0.870999991894 -0.462999999523 0.0850000008941 1547.0
0.874000012875 -0.472000002861 0.0860000029206 1551.0
0.864000022411 -0.472999989986 0.0850000008941 1536.0
0.869000017643 -0.483000010252 0.0860000029206 1553.0
2.02999997139 1.16900002956 0.180000007153 135.0
2.04600000381 1.16100001335 0.180999994278 204.0
2.04699993134 1.14499998093 0.180000007153 191.0
2.03500008583 1.1210000515 0.179000005126 188.0
2.10500001907 1.14300000668 0.184000000358 188.0
2.09400010109 1.1210000515 0.182999998331 166.0
2.08599996567 1.09899997711 0.181999996305 89.0
2.15100002289 1.11699998379 0.187000006437 82.0
2.18000006676 1.11500000954 0.188999995589 124.0
2.20799994469 1.11199998856 0.190999999642 166.0
2.16100001335 1.0720000267 0.187000006437 91.0
4.15100002289 1.43900001049 0.347000002861 66.0
4.04799985886 1.37699997425 0.337000012398 60.0
3.91400003433 1.30499994755 0.326000005007 57.0
4.41400003433 1.35699999332 0.365999996662 60.0
4.32600021362 1.30200004578 0.358000010252 62.0
4.39400005341 1.29499995708 0.363000005484 58.0
4.29400014877 1.21000003815 0.354000002146 60.0
4.28999996185 1.18200004101 0.352999985218 61.0
4.53700017929 1.22099995613 0.374000012875 60.0
4.30499982834 1.13199996948 0.354000002146 67.0
4.49100017548 1.15299999714 0.368999987841 67.0
4.4279999733 1.10899996758 0.363999992609 56.0
4.39799976349 1.07400000095 0.361000001431 62.0
4.50199985504 1.0720000267 0.368999987841 59.0
4.39699983597 1.01999998093 0.360000014305 62.0
4.45499992371 1.00600004196 0.365000009537 56.0
4.39400005341 0.964999973774 0.358999997377 59.0
4.4359998703 0.947000026703 0.361999988556 56.0
4.29799985886 0.89200001955 0.351000010967 61.0
4.31500005722 0.869000017643 0.351999998093 57.0
4.38999986649 0.85799998045 0.358000010252 55.0
4.43800020218 0.839999973774 0.361999988556 60.0
4.44299983978 0.81400001049 0.361999988556 54.0
4.34499979019 0.769999980927 0.354000002146 57.0
4.28900003433 0.708999991417 0.349000006914 55.0
4.26800012589 0.680000007153 0.347000002861 60.0
0.948000013828 -0.0560000017285 0.0759999975562 362.0
0.927999973297 -0.0599999986589 0.0740000009537 1356.0
0.925000011921 -0.0649999976158 0.0740000009537 1519.0
0.924000024796 -0.070000000298 0.0740000009537 1492.0
0.919000029564 -0.0750000029802 0.0740000009537 1495.0
0.926999986172 -0.0810000002384 0.0740000009537 1501.0
0.920000016689 -0.0860000029206 0.0740000009537 1498.0
0.917999982834 -0.0909999981523 0.0740000009537 1490.0
0.92199999094 -0.097000002861 0.0740000009537 1479.0
0.920000016689 -0.101999998093 0.0740000009537 1506.0
0.92199999094 -0.107000000775 0.0740000009537 1500.0
0.916999995708 -0.112000003457 0.0740000009537 1516.0
0.916000008583 -0.116999998689 0.0740000009537 1499.0
0.919000029564 -0.123000003397 0.0740000009537 1495.0
0.912999987602 -0.12800000608 0.0740000009537 1536.0
0.915000021458 -0.133000001311 0.0740000009537 1568.0
0.912999987602 -0.137999996543 0.0740000009537 1564.0
0.916999995708 -0.143999993801 0.0740000009537 1572.0
0.916999995708 -0.15000000596 0.0740000009537 1560.0
0.907000005245 -0.153999999166 0.0740000009537 1577.0
0.912999987602 -0.159999996424 0.0740000009537 1575.0
0.910000026226 -0.165000006557 0.0740000009537 1570.0
0.911000013351 -0.171000003815 0.0740000009537 1566.0
0.910000026226 -0.175999999046 0.0740000009537 1570.0
0.910000026226 -0.180999994278 0.0740000009537 1566.0
0.907999992371 -0.186000004411 0.0740000009537 1561.0
0.90499997139 -0.190999999642 0.0740000009537 1572.0
0.907000005245 -0.196999996901 0.0740000009537 1585.0
0.901000022888 -0.201000005007 0.0740000009537 1590.0
0.90499997139 -0.208000004292 0.0750000029802 1577.0
0.907000005245 -0.21400000155 0.0750000029802 1595.0
0.907000005245 -0.218999996781 0.0750000029802 1579.0
0.901000022888 -0.223000004888 0.0740000009537 1570.0
0.90499997139 -0.230000004172 0.0750000029802 1590.0
0.907999992371 -0.236000001431 0.0750000029802 1605.0
0.902000010014 -0.240999996662 0.0750000029802 1601.0
0.898999989033 -0.246000006795 0.0750000029802 1602.0
0.899999976158 -0.250999987125 0.0750000029802 1602.0
0.898999989033 -0.256999999285 0.0750000029802 1610.0
0.898000001907 -0.261999994516 0.0750000029802 1592.0
0.897000014782 -0.268000006676 0.0750000029802 1586.0
0.897000014782 -0.273000001907 0.0750000029802 1592.0
