ply
format ascii 1.0
element vertex 925
property float x
property float y
property float z
property float intensity
end_header
0.876999974251 -0.441000014544 0.123999997973 1673.0
0.879000008106 -0.449000000954 0.125 1681.0
0.867999970913 -0.449999988079 0.123999997973 1685.0
0.870000004768 -0.458000004292 0.123999997973 1688.0
0.865999996662 -0.462000012398 0.123999997973 1691.0
0.862999975681 -0.467999994755 0.123999997973 1713.0
0.856000006199 -0.470999985933 0.123000003397 1695.0
0.813000023365 -0.45300000906 0.116999998689 1001.0
1.00899994373 0.583000004292 0.135000005364 252.0
1.00800001621 0.574000000954 0.134000003338 284.0
1.00999999046 0.566999971867 0.134000003338 305.0
0.975000023842 0.538999974728 0.128999993205 349.0
0.987999975681 0.537999987602 0.130999997258 378.0
0.981000006199 0.527000010014 0.128999993205 403.0
0.972999989986 0.514999985695 0.12800000608 440.0
0.964999973774 0.503000020981 0.126000002027 467.0
0.986000001431 0.505999982357 0.128999993205 491.0
0.977999985218 0.493999987841 0.127000004053 527.0
0.987999975681 0.49200001359 0.12800000608 566.0
0.97000002861 0.476000010967 0.126000002027 600.0
0.978999972343 0.472999989986 0.127000004053 623.0
0.98400002718 0.467999994755 0.127000004053 665.0
0.980000019073 0.458000004292 0.126000002027 696.0
0.991999983788 0.456999987364 0.12800000608 724.0
0.986000001431 0.446999996901 0.126000002027 734.0
0.981999993324 0.437999993563 0.126000002027 767.0
0.990999996662 0.435000002384 0.127000004053 784.0
0.992999970913 0.428000003099 0.127000004053 793.0
0.991999983788 0.421000003815 0.126000002027 823.0
0.995000004768 0.414999991655 0.126000002027 833.0
0.992999970913 0.407000005245 0.126000002027 822.0
0.991999983788 0.40000000596 0.125 842.0
0.992999970913 0.393000006676 0.125 848.0
0.995000004768 0.386999994516 0.125 857.0
0.994000017643 0.379999995232 0.125 874.0
0.995999991894 0.374000012875 0.125 878.0
0.989000022411 0.363999992609 0.123999997973 877.0
0.994000017643 0.360000014305 0.123999997973 885.0
0.985000014305 0.34999999404 0.123000003397 899.0
0.986000001431 0.342999994755 0.123000003397 907.0
0.986999988556 0.337000012398 0.123000003397 910.0
0.98400002718 0.330000013113 0.122000001371 918.0
0.990000009537 0.324999988079 0.123000003397 917.0
0.985000014305 0.317000001669 0.122000001371 929.0
0.987999975681 0.312000006437 0.122000001371 954.0
0.985000014305 0.303999990225 0.122000001371 952.0
0.985000014305 0.298000007868 0.122000001371 964.0
0.98400002718 0.291000008583 0.120999999344 956.0
0.986000001431 0.286000013351 0.120999999344 969.0
0.985000014305 0.279000014067 0.120999999344 991.0
0.98299998045 0.272000014782 0.120999999344 1003.0
0.990000009537 0.268000006676 0.120999999344 1009.0
0.986000001431 0.261000007391 0.120999999344 1017.0
0.981999993324 0.252999991179 0.119999997318 1035.0
0.98299998045 0.247999995947 0.119999997318 1042.0
0.981999993324 0.240999996662 0.119999997318 1047.0
0.990000009537 0.237000003457 0.120999999344 1056.0
0.986999988556 0.230000004172 0.119999997318 1078.0
0.977999985218 0.222000002861 0.119000002742 1081.0
0.981999993324 0.216999992728 0.119000002742 1078.0
0.975000023842 0.209999993443 0.119000002742 1098.0
0.980000019073 0.204999998212 0.119000002742 1095.0
0.985000014305 0.20000000298 0.119999997318 1090.0
0.978999972343 0.193000003695 0.119000002742 1106.0
0.977999985218 0.187000006437 0.118000000715 1124.0
0.978999972343 0.180999994278 0.118000000715 1135.0
0.977999985218 0.17499999702 0.118000000715 1142.0
0.977999985218 0.168999999762 0.118000000715 1158.0
0.971000015736 0.162000000477 0.116999998689 1177.0
0.976000010967 0.157000005245 0.118000000715 1187.0
0.978999972343 0.151999995112 0.118000000715 1181.0
0.977999985218 0.145999997854 0.118000000715 1182.0
0.976999998093 0.140000000596 0.118000000715 1176.0
0.975000023842 0.134000003338 0.118000000715 1175.0
0.976999998093 0.12800000608 0.118000000715 1168.0
0.975000023842 0.122000001371 0.116999998689 1193.0
0.976999998093 0.116999998689 0.118000000715 1215.0
0.972000002861 0.111000001431 0.116999998689 1215.0
0.976999998093 0.104999996722 0.118000000715 1214.0
0.975000023842 0.10000000149 0.116999998689 1241.0
0.980000019073 0.0939999967813 0.118000000715 1256.0
0.972000002861 0.0879999995232 0.116999998689 1294.0
0.975000023842 0.082000002265 0.116999998689 1300.0
0.980000019073 0.0769999995828 0.118000000715 1312.0
0.977999985218 0.0710000023246 0.118000000715 1370.0
0.971000015736 0.0649999976158 0.116999998689 1412.0
0.972000002861 0.0599999986589 0.116999998689 1363.0
0.976999998093 0.0540000014007 0.116999998689 1344.0
0.977999985218 0.0489999987185 0.118000000715 1377.0
0.976000010967 0.0430000014603 0.116999998689 1388.0
0.978999972343 0.0379999987781 0.118000000715 1397.0
0.971000015736 0.0320000015199 0.116999998689 1432.0
0.96899998188 0.0260000005364 0.116999998689 1472.0
0.975000023842 0.0209999997169 0.116999998689 1482.0
0.977999985218 0.0149999996647 0.118000000715 1519.0
0.975000023842 0.00899999961257 0.116999998689 1548.0
0.975000023842 0.00400000018999 0.116999998689 1581.0
0.975000023842 -0.0010000000475 0.116999998689 1603.0
0.971000015736 -0.00700000021607 0.116999998689 1634.0
0.977999985218 -0.0120000001043 0.118000000715 1650.0
0.975000023842 -0.0179999992251 0.116999998689 1660.0
0.973999977112 -0.0230000000447 0.116999998689 1656.0
0.971000015736 -0.0289999991655 0.116999998689 1670.0
0.972000002861 -0.035000000149 0.116999998689 1711.0
0.972999989986 -0.0399999991059 0.116999998689 1762.0
0.97000002861 -0.0460000000894 0.116999998689 1844.0
0.972999989986 -0.0509999990463 0.116999998689 1851.0
0.96899998188 -0.0570000000298 0.116999998689 1844.0
0.972000002861 -0.0630000010133 0.116999998689 1836.0
0.971000015736 -0.0680000036955 0.116999998689 1858.0
0.945999979973 -0.0719999969006 0.11400000006 1535.0
0.967000007629 -0.170000001788 0.119000002742 858.0
0.913999974728 -0.165999993682 0.112000003457 226.0
0.898000001907 -0.167999997735 0.109999999404 173.0
0.902999997139 -0.17499999702 0.111000001431 169.0
0.939999997616 -0.187999993563 0.115999996662 175.0
0.893000006676 -0.184000000358 0.109999999404 175.0
0.894999980927 -0.188999995589 0.109999999404 182.0
0.915000021458 -0.20000000298 0.112999998033 181.0
0.90499997139 -0.202999994159 0.112000003457 181.0
0.896000027657 -0.206000000238 0.111000001431 190.0
0.907999992371 -0.215000003576 0.112999998033 193.0
0.89099997282 -0.216000005603 0.111000001431 203.0
0.888999998569 -0.221000000834 0.111000001431 202.0
0.89200001955 -0.228000000119 0.111000001431 208.0
1.00100004673 -0.261999994516 0.125 585.0
0.966000020504 -0.259000003338 0.120999999344 1267.0
0.959999978542 -0.263000011444 0.119999997318 1354.0
0.959999978542 -0.268999993801 0.120999999344 1346.0
0.953999996185 -0.273999989033 0.119999997318 1375.0
0.947000026703 -0.277999997139 0.119000002742 1361.0
0.949999988079 -0.284000009298 0.119999997318 1364.0
0.947000026703 -0.289999991655 0.119999997318 1383.0
0.944000005722 -0.294999986887 0.119999997318 1389.0
0.944000005722 -0.300999999046 0.119999997318 1392.0
0.939999997616 -0.305999994278 0.119999997318 1394.0
0.935000002384 -0.310000002384 0.119000002742 1388.0
0.939999997616 -0.317999988794 0.119999997318 1412.0
0.935000002384 -0.323000013828 0.119999997318 1413.0
0.899999976158 -0.316000014544 0.115000002086 1140.0
0.871999979019 -0.312000006437 0.112000003457 376.0
0.880999982357 -0.321999996901 0.112999998033 288.0
0.878000020981 -0.326999992132 0.112999998033 292.0
0.865000009537 -0.32800000906 0.112000003457 295.0
0.867999970913 -0.335000008345 0.112000003457 301.0
0.856000006199 -0.33599999547 0.111000001431 301.0
0.875999987125 -0.34999999404 0.11400000006 309.0
0.846000015736 -0.344000011683 0.109999999404 309.0
0.862999975681 -0.356999993324 0.112999998033 306.0
0.852999985218 -0.358999997377 0.112000003457 322.0
0.865000009537 -0.370000004768 0.112999998033 318.0
0.856000006199 -0.372000008821 0.112999998033 321.0
0.841000020504 -0.372000008821 0.111000001431 323.0
0.913999974728 -0.411000013351 0.120999999344 533.0
0.893999993801 -0.409000009298 0.119000002742 1368.0
0.889999985695 -0.412999987602 0.118000000715 1509.0
0.89200001955 -0.421000003815 0.119000002742 1526.0
0.883000016212 -0.423000007868 0.118000000715 1541.0
0.879000008106 -0.428000003099 0.118000000715 1539.0
0.876999974251 -0.433999985456 0.118000000715 1552.0
0.874000012875 -0.43900001049 0.118000000715 1551.0
0.873000025749 -0.444999992847 0.118000000715 1575.0
0.870000004768 -0.449999988079 0.118000000715 1594.0
0.865999996662 -0.455000013113 0.118000000715 1589.0
0.864000022411 -0.46099999547 0.118000000715 1593.0
0.864000022411 -0.467999994755 0.119000002742 1605.0
0.861999988556 -0.474000006914 0.119000002742 1595.0
0.822000026703 -0.458000004292 0.112999998033 1044.0
0.977999985218 0.564999997616 0.123999997973 538.0
0.972000002861 0.552999973297 0.123000003397 571.0
0.975000023842 0.54699999094 0.123000003397 583.0
0.966000020504 0.533999979496 0.122000001371 608.0
0.96899998188 0.527999997139 0.122000001371 645.0
0.972000002861 0.522000014782 0.122000001371 664.0
0.976999998093 0.51599997282 0.122000001371 688.0
0.96899998188 0.504000008106 0.120999999344 714.0
0.981000006199 0.503000020981 0.122000001371 740.0
0.981000006199 0.495999991894 0.122000001371 770.0
0.980000019073 0.486999988556 0.120999999344 818.0
0.995000004768 0.486999988556 0.123000003397 835.0
0.98400002718 0.474000006914 0.120999999344 872.0
0.986000001431 0.467999994755 0.120999999344 901.0
0.987999975681 0.462000012398 0.120999999344 911.0
1.0 0.460000008345 0.122000001371 921.0
0.991999983788 0.449000000954 0.120999999344 935.0
0.995999991894 0.444000005722 0.120999999344 958.0
1.00100004673 0.43900001049 0.122000001371 967.0
0.989000022411 0.425999999046 0.119999997318 973.0
0.990000009537 0.418999999762 0.119999997318 974.0
0.998000025749 0.416000008583 0.119999997318 969.0
0.992999970913 0.407000005245 0.119999997318 981.0
0.990999996662 0.398999989033 0.119000002742 990.0
0.994000017643 0.393000006676 0.119000002742 989.0
0.992999970913 0.386000007391 0.119000002742 1000.0
0.990000009537 0.377999991179 0.118000000715 1000.0
0.995000004768 0.372999995947 0.119000002742 994.0
0.995999991894 0.36700001359 0.119000002742 996.0
0.996999979019 0.360000014305 0.119000002742 1002.0
0.991999983788 0.351999998093 0.118000000715 1007.0
0.986000001431 0.342999994755 0.116999998689 1012.0
0.991999983788 0.338999986649 0.116999998689 1016.0
0.994000017643 0.333000004292 0.116999998689 1018.0
0.986999988556 0.324000000954 0.115999996662 1021.0
0.981000006199 0.316000014544 0.115999996662 1014.0
0.98299998045 0.310000002384 0.115999996662 1027.0
0.989000022411 0.305000007153 0.115999996662 1050.0
0.98299998045 0.29699999094 0.115000002086 1043.0
0.985000014305 0.291000008583 0.115000002086 1038.0
0.985000014305 0.284999996424 0.115000002086 1049.0
0.986999988556 0.279000014067 0.115000002086 1063.0
0.981000006199 0.270999997854 0.11400000006 1069.0
0.986000001431 0.266999989748 0.115000002086 1075.0
0.981999993324 0.259000003338 0.11400000006 1071.0
0.98299998045 0.254000008106 0.11400000006 1082.0
0.98400002718 0.247999995947 0.11400000006 1087.0
0.986000001431 0.241999998689 0.115000002086 1092.0
0.976999998093 0.233999997377 0.112999998033 1093.0
0.980000019073 0.228000000119 0.11400000006 1110.0
0.981000006199 0.223000004888 0.11400000006 1103.0
0.987999975681 0.217999994755 0.11400000006 1096.0
0.977999985218 0.209999993443 0.112999998033 1097.0
0.98299998045 0.204999998212 0.11400000006 1097.0
0.989000022411 0.201000005007 0.11400000006 1097.0
0.986999988556 0.194000005722 0.11400000006 1095.0
0.98400002718 0.187999993563 0.112999998033 1095.0
0.98400002718 0.181999996305 0.112999998033 1105.0
0.980000019073 0.17499999702 0.112999998033 1094.0
0.986999988556 0.170000001788 0.11400000006 1100.0
0.985000014305 0.16400000453 0.112999998033 1124.0
0.977999985218 0.157000005245 0.112000003457 1138.0
0.980000019073 0.151999995112 0.112999998033 1152.0
0.980000019073 0.145999997854 0.112999998033 1150.0
0.978999972343 0.140000000596 0.112000003457 1154.0
0.981999993324 0.135000005364 0.112999998033 1193.0
0.98299998045 0.128999993205 0.112999998033 1200.0
0.980000019073 0.123000003397 0.112000003457 1229.0
0.977999985218 0.116999998689 0.112000003457 1227.0
0.985000014305 0.112000003457 0.112999998033 1223.0
0.978999972343 0.105999998748 0.112000003457 1260.0
0.978999972343 0.10000000149 0.112000003457 1273.0
0.976999998093 0.0939999967813 0.112000003457 1277.0
0.977999985218 0.0879999995232 0.112000003457 1300.0
0.981000006199 0.082999996841 0.112000003457 1291.0
0.978999972343 0.0769999995828 0.112000003457 1279.0
0.98299998045 0.0719999969006 0.112000003457 1338.0
0.976999998093 0.0659999996424 0.112000003457 1335.0
0.981000006199 0.0599999986589 0.112000003457 1291.0
0.972000002861 0.0540000014007 0.111000001431 1272.0
0.977999985218 0.0489999987185 0.112000003457 1288.0
0.976999998093 0.0430000014603 0.112000003457 1313.0
0.976999998093 0.0370000004768 0.112000003457 1328.0
0.972999989986 0.0320000015199 0.111000001431 1360.0
0.976999998093 0.0260000005364 0.112000003457 1387.0
0.975000023842 0.019999999553 0.112000003457 1426.0
0.980000019073 0.0149999996647 0.112000003457 1430.0
0.980000019073 0.00899999961257 0.112000003457 1433.0
0.977999985218 0.00400000018999 0.112000003457 1445.0
0.976000010967 -0.0010000000475 0.112000003457 1484.0
0.973999977112 -0.00700000021607 0.112000003457 1516.0
0.97000002861 -0.0120000001043 0.111000001431 1514.0
0.976000010967 -0.0179999992251 0.112000003457 1491.0
0.972999989986 -0.0230000000447 0.112000003457 1515.0
0.972000002861 -0.0289999991655 0.111000001431 1526.0
0.973999977112 -0.035000000149 0.112000003457 1556.0
0.977999985218 -0.0399999991059 0.112000003457 1616.0
0.976000010967 -0.0460000000894 0.112000003457 1662.0
0.973999977112 -0.0509999990463 0.112000003457 1677.0
0.977999985218 -0.0570000000298 0.112000003457 1669.0
0.973999977112 -0.0630000010133 0.112000003457 1695.0
0.972000002861 -0.0680000036955 0.112000003457 1697.0
0.955999970436 -0.0729999989271 0.109999999404 1482.0
0.981999993324 -0.172999992967 0.115000002086 950.0
0.976000010967 -0.178000003099 0.11400000006 470.0
0.978999972343 -0.184000000358 0.115000002086 455.0
0.981000006199 -0.189999997616 0.115000002086 469.0
0.972000002861 -0.194000005722 0.11400000006 497.0
0.980000019073 -0.202000007033 0.115000002086 513.0
0.971000015736 -0.206000000238 0.11400000006 546.0
0.976999998093 -0.212999999523 0.115000002086 558.0
0.964999973774 -0.216999992728 0.11400000006 587.0
0.97000002861 -0.224000006914 0.115000002086 611.0
0.959999978542 -0.226999998093 0.11400000006 632.0
0.957000017166 -0.231999993324 0.112999998033 657.0
0.958000004292 -0.238999992609 0.11400000006 669.0
0.957000017166 -0.244000002742 0.11400000006 687.0
0.958999991417 -0.250999987125 0.11400000006 706.0
0.952000021935 -0.254999995232 0.112999998033 795.0
0.945999979973 -0.259000003338 0.112999998033 784.0
0.952000021935 -0.266999989748 0.11400000006 769.0
0.945999979973 -0.270999997854 0.112999998033 779.0
0.948000013828 -0.277999997139 0.11400000006 773.0
0.940999984741 -0.282000005245 0.112999998033 754.0
0.940999984741 -0.287999987602 0.112999998033 758.0
0.939999997616 -0.293999999762 0.112999998033 759.0
0.930000007153 -0.296000003815 0.112000003457 753.0
0.935000002384 -0.303999990225 0.112999998033 747.0
0.924000024796 -0.305999994278 0.112000003457 725.0
0.922999978065 -0.312000006437 0.112000003457 735.0
0.921000003815 -0.317999988794 0.112000003457 742.0
0.926999986172 -0.326000005007 0.112999998033 802.0
0.924000024796 -0.331000000238 0.112999998033 903.0
0.917999982834 -0.335000008345 0.112999998033 957.0
0.916999995708 -0.340999990702 0.112999998033 969.0
0.910000026226 -0.344999998808 0.112000003457 976.0
0.910000026226 -0.351000010967 0.112000003457 973.0
0.910000026226 -0.356999993324 0.112000003457 985.0
0.910000026226 -0.363999992609 0.112999998033 991.0
0.90499997139 -0.368000000715 0.112000003457 984.0
0.896000027657 -0.370999991894 0.112000003457 993.0
0.896000027657 -0.377000004053 0.112000003457 1005.0
0.893999993801 -0.381999999285 0.112000003457 1003.0
0.896000027657 -0.389999985695 0.112000003457 1006.0
0.885999977589 -0.391999989748 0.111000001431 1007.0
0.878000020981 -0.393999993801 0.111000001431 937.0
0.885999977589 -0.404000014067 0.112000003457 829.0
0.878000020981 -0.407999992371 0.111000001431 826.0
0.876999974251 -0.41400000453 0.111000001431 838.0
0.875 -0.418999999762 0.112000003457 851.0
0.875 -0.425999999046 0.112000003457 844.0
0.870000004768 -0.430000007153 0.111000001431 859.0
0.869000017643 -0.43599998951 0.112000003457 869.0
0.856000006199 -0.43599998951 0.109999999404 892.0
0.856999993324 -0.442999988794 0.111000001431 904.0
0.85900002718 -0.451000005007 0.111000001431 916.0
0.85900002718 -0.458000004292 0.112000003457 921.0
0.848999977112 -0.460000008345 0.111000001431 960.0
0.852999985218 -0.469000011683 0.112000003457 961.0
0.846000015736 -0.472000002861 0.111000001431 982.0
0.981999993324 0.565999984741 0.118000000715 731.0
0.976999998093 0.555000007153 0.116999998689 755.0
0.977999985218 0.547999978065 0.116999998689 779.0
0.972000002861 0.537000000477 0.115999996662 814.0
0.971000015736 0.527999997139 0.115999996662 821.0
0.987999975681 0.52999997139 0.116999998689 856.0
0.981000006199 0.518000006676 0.115999996662 888.0
0.981999993324 0.510999977589 0.115999996662 916.0
0.981999993324 0.503000020981 0.115999996662 919.0
0.989000022411 0.499000012875 0.115999996662 952.0
0.992999970913 0.493999987841 0.115999996662 979.0
0.987999975681 0.483999997377 0.115999996662 989.0
0.992999970913 0.479000002146 0.115999996662 1007.0
0.996999979019 0.472999989986 0.115999996662 1018.0
0.995000004768 0.465000003576 0.115999996662 1021.0
1.00100004673 0.460000008345 0.115999996662 1023.0
0.998000025749 0.451000005007 0.115000002086 1037.0
0.998000025749 0.444000005722 0.115000002086 1048.0
1.0 0.437999993563 0.115000002086 1052.0
1.0 0.430000007153 0.115000002086 1042.0
1.00100004673 0.423999994993 0.115000002086 1041.0
0.996999979019 0.414999991655 0.11400000006 1047.0
0.998000025749 0.409000009298 0.11400000006 1036.0
0.995000004768 0.40000000596 0.112999998033 1023.0
0.989000022411 0.391000002623 0.112000003457 1017.0
0.992999970913 0.386000007391 0.112999998033 1010.0
0.990999996662 0.377999991179 0.112000003457 1020.0
0.989000022411 0.370999991894 0.112000003457 1012.0
0.992999970913 0.365000009537 0.112000003457 986.0
0.990999996662 0.358000010252 0.112000003457 1012.0
0.990999996662 0.351000010967 0.112000003457 1005.0
0.991999983788 0.344999998808 0.112000003457 1007.0
0.987999975681 0.337000012398 0.111000001431 1003.0
0.992999970913 0.331999987364 0.111000001431 1012.0
0.991999983788 0.326000005007 0.111000001431 1008.0
0.989000022411 0.317999988794 0.109999999404 1007.0
0.990000009537 0.312000006437 0.109999999404 996.0
0.98400002718 0.303999990225 0.109999999404 1010.0
0.986000001431 0.298000007868 0.109999999404 1008.0
0.986999988556 0.291999995708 0.109999999404 1009.0
0.992999970913 0.287000000477 0.109999999404 1016.0
0.985000014305 0.279000014067 0.108999997377 1013.0
0.986000001431 0.273000001907 0.108999997377 1029.0
0.990000009537 0.268000006676 0.109999999404 1025.0
0.985000014305 0.259999990463 0.108999997377 1023.0
0.987999975681 0.254999995232 0.108999997377 1020.0
0.98400002718 0.247999995947 0.108000002801 1021.0
0.986000001431 0.241999998689 0.108999997377 1026.0
0.989000022411 0.236000001431 0.108999997377 1029.0
0.985000014305 0.229000002146 0.108000002801 1030.0
0.981999993324 0.223000004888 0.108000002801 1038.0
0.986000001431 0.217999994755 0.108000002801 1030.0
0.987999975681 0.211999997497 0.108000002801 1034.0
0.986999988556 0.206000000238 0.108000002801 1038.0
0.98299998045 0.199000000954 0.108000002801 1042.0
0.981999993324 0.193000003695 0.107000000775 1039.0
0.980000019073 0.187000006437 0.107000000775 1041.0
0.981000006199 0.180999994278 0.107000000775 1050.0
0.987999975681 0.175999999046 0.108000002801 1035.0
0.980000019073 0.168999999762 0.107000000775 1035.0
0.98299998045 0.16400000453 0.107000000775 1057.0
0.989000022411 0.158999994397 0.108000002801 1071.0
0.985000014305 0.151999995112 0.107000000775 1073.0
0.985000014305 0.146999999881 0.107000000775 1093.0
0.980000019073 0.140000000596 0.107000000775 1100.0
0.98299998045 0.135000005364 0.107000000775 1119.0
0.980000019073 0.128999993205 0.107000000775 1120.0
0.981000006199 0.123000003397 0.107000000775 1115.0
0.985000014305 0.118000000715 0.107000000775 1128.0
0.977999985218 0.111000001431 0.105999998748 1131.0
0.98400002718 0.105999998748 0.107000000775 1129.0
0.981000006199 0.10000000149 0.107000000775 1151.0
0.98299998045 0.0939999967813 0.107000000775 1157.0
0.981000006199 0.0890000015497 0.105999998748 1163.0
0.981000006199 0.082999996841 0.105999998748 1140.0
0.981000006199 0.0769999995828 0.105999998748 1110.0
0.980000019073 0.0710000023246 0.105999998748 1116.0
0.981999993324 0.0659999996424 0.107000000775 1129.0
0.98400002718 0.0599999986589 0.107000000775 1123.0
0.980000019073 0.0540000014007 0.105999998748 1125.0
0.980000019073 0.0489999987185 0.105999998748 1148.0
0.98299998045 0.0430000014603 0.107000000775 1163.0
0.985000014305 0.0379999987781 0.107000000775 1171.0
0.98299998045 0.0320000015199 0.107000000775 1208.0
0.981000006199 0.0260000005364 0.105999998748 1221.0
0.98299998045 0.0209999997169 0.107000000775 1241.0
0.981999993324 0.0149999996647 0.107000000775 1240.0
0.975000023842 0.00899999961257 0.105999998748 1223.0
0.977999985218 0.00400000018999 0.105999998748 1224.0
0.980000019073 -0.0010000000475 0.105999998748 1256.0
0.98299998045 -0.00700000021607 0.107000000775 1240.0
0.981999993324 -0.0120000001043 0.107000000775 1242.0
0.976999998093 -0.0179999992251 0.105999998748 1220.0
0.98299998045 -0.0240000002086 0.107000000775 1225.0
0.976000010967 -0.0289999991655 0.105999998748 1209.0
0.978999972343 -0.035000000149 0.107000000775 1210.0
0.981000006199 -0.0410000011325 0.107000000775 1241.0
0.978999972343 -0.0460000000894 0.107000000775 1258.0
0.98299998045 -0.0520000010729 0.107000000775 1294.0
0.973999977112 -0.0570000000298 0.105999998748 1292.0
0.978999972343 -0.0630000010133 0.107000000775 1277.0
0.976999998093 -0.0689999982715 0.107000000775 1261.0
0.966000020504 -0.0729999989271 0.105999998748 1141.0
1.00699996948 -0.177000001073 0.112000003457 1181.0
0.995000004768 -0.180999994278 0.109999999404 1191.0
0.995999991894 -0.187000006437 0.111000001431 1212.0
0.995000004768 -0.193000003695 0.111000001431 1221.0
0.986999988556 -0.196999996901 0.109999999404 1242.0
0.986999988556 -0.202999994159 0.109999999404 1249.0
0.98400002718 -0.209000006318 0.109999999404 1262.0
0.98299998045 -0.21400000155 0.109999999404 1265.0
0.978999972343 -0.219999998808 0.109999999404 1278.0
0.978999972343 -0.225999996066 0.109999999404 1300.0
0.973999977112 -0.230000004172 0.108999997377 1319.0
0.976000010967 -0.237000003457 0.109999999404 1324.0
0.975000023842 -0.243000000715 0.109999999404 1320.0
0.966000020504 -0.246000006795 0.108999997377 1341.0
0.930000007153 -0.243000000715 0.104999996722 965.0
0.885999977589 -0.237000003457 0.10000000149 263.0
0.860000014305 -0.234999999404 0.097000002861 202.0
0.879999995232 -0.246000006795 0.10000000149 200.0
0.89099997282 -0.254999995232 0.101000003517 202.0
0.897000014782 -0.261999994516 0.101999998093 202.0
0.879999995232 -0.263000011444 0.10000000149 202.0
0.876999974251 -0.268000006676 0.10000000149 205.0
0.876999974251 -0.273999989033 0.10000000149 208.0
0.865999996662 -0.275999993086 0.0989999994636 207.0
0.856999993324 -0.277999997139 0.097999997437 212.0
0.874000012875 -0.289999991655 0.101000003517 212.0
0.861999988556 -0.291000008583 0.0989999994636 211.0
0.862999975681 -0.29699999094 0.10000000149 216.0
0.958999991417 -0.337000012398 0.111000001431 439.0
0.938000023365 -0.33599999547 0.108999997377 1353.0
0.926999986172 -0.337999999523 0.108000002801 1509.0
0.920000016689 -0.342000007629 0.107000000775 1514.0
0.920000016689 -0.347999989986 0.108000002801 1531.0
0.920000016689 -0.354999989271 0.108000002801 1541.0
0.913999974728 -0.358000010252 0.107000000775 1558.0
0.911000013351 -0.363999992609 0.107000000775 1562.0
0.907999992371 -0.368999987841 0.107000000775 1547.0
0.90499997139 -0.374000012875 0.107000000775 1561.0
0.90499997139 -0.379999995232 0.107000000775 1573.0
0.899999976158 -0.384999990463 0.107000000775 1581.0
0.893999993801 -0.388999998569 0.105999998748 1580.0
0.898000001907 -0.397000014782 0.107000000775 1580.0
0.878000020981 -0.393999993801 0.104999996722 1400.0
0.828999996185 -0.377999991179 0.0989999994636 447.0
0.808000028133 -0.375 0.097000002861 256.0
0.806999981403 -0.379999995232 0.097000002861 259.0
0.808000028133 -0.386000007391 0.097999997437 262.0
0.82800000906 -0.402000010014 0.10000000149 268.0
0.792999982834 -0.391000002623 0.0960000008345 271.0
0.800999999046 -0.400999993086 0.097999997437 282.0
0.805000007153 -0.409999996424 0.097999997437 278.0
0.787000000477 -0.405999988317 0.0960000008345 292.0
0.804000020027 -0.42199999094 0.0989999994636 292.0
0.791000008583 -0.421000003815 0.097999997437 300.0
0.804000020027 -0.435000002384 0.10000000149 306.0
0.796000003815 -0.43599998951 0.0989999994636 310.0
0.882000029087 -0.49200001359 0.109999999404 785.0
0.978999972343 0.56400001049 0.111000001431 833.0
0.967000007629 0.549000024796 0.109999999404 860.0
0.978999972343 0.547999978065 0.111000001431 877.0
0.981000006199 0.541000008583 0.111000001431 901.0
0.981999993324 0.533999979496 0.111000001431 942.0
0.992999970913 0.532000005245 0.111000001431 977.0
0.98400002718 0.519999980927 0.109999999404 991.0
0.992999970913 0.51599997282 0.111000001431 1013.0
1.0 0.512000024319 0.111000001431 1021.0
0.996999979019 0.503000020981 0.111000001431 1031.0
0.995999991894 0.495000004768 0.109999999404 1067.0
1.0039999485 0.490999996662 0.111000001431 1066.0
1.0 0.481999993324 0.109999999404 1065.0
1.0 0.474000006914 0.109999999404 1068.0
1.00100004673 0.467000007629 0.109999999404 1043.0
0.996999979019 0.458000004292 0.108999997377 1055.0
1.0 0.451999992132 0.108999997377 1047.0
1.0 0.444999992847 0.108999997377 1045.0
1.0039999485 0.43900001049 0.108999997377 1033.0
0.996999979019 0.428999990225 0.108000002801 1009.0
0.994000017643 0.421000003815 0.108000002801 1001.0
1.00300002098 0.416999995708 0.108000002801 1011.0
0.996999979019 0.407999992371 0.108000002801 991.0
0.995000004768 0.40000000596 0.107000000775 977.0
0.998000025749 0.393999993801 0.107000000775 967.0
0.995000004768 0.386000007391 0.107000000775 968.0
1.00199997425 0.381999999285 0.107000000775 966.0
0.996999979019 0.372999995947 0.107000000775 944.0
0.986000001431 0.361999988556 0.104999996722 941.0
0.991999983788 0.358000010252 0.105999998748 940.0
0.998000025749 0.354000002146 0.105999998748 932.0
0.989000022411 0.344000011683 0.104999996722 927.0
0.990999996662 0.337999999523 0.104999996722 927.0
0.992999970913 0.331999987364 0.104999996722 929.0
0.991999983788 0.324999988079 0.104999996722 927.0
0.995999991894 0.319999992847 0.104999996722 913.0
0.991999983788 0.312000006437 0.104999996722 926.0
0.995999991894 0.307000011206 0.104999996722 927.0
0.987999975681 0.298000007868 0.104000002146 916.0
0.994000017643 0.293999999762 0.104000002146 918.0
0.991999983788 0.287000000477 0.104000002146 921.0
0.991999983788 0.280999988317 0.104000002146 921.0
0.990999996662 0.273999989033 0.104000002146 927.0
0.986000001431 0.266000002623 0.103000000119 921.0
0.990999996662 0.261999994516 0.104000002146 901.0
0.995999991894 0.256000012159 0.104000002146 904.0
0.990000009537 0.248999997973 0.103000000119 912.0
0.987999975681 0.241999998689 0.103000000119 914.0
0.990999996662 0.237000003457 0.103000000119 919.0
0.981000006199 0.228000000119 0.101999998093 928.0
0.986999988556 0.224000006914 0.103000000119 913.0
0.987999975681 0.217999994755 0.103000000119 903.0
0.987999975681 0.211999997497 0.101999998093 893.0
0.991999983788 0.207000002265 0.103000000119 901.0
0.991999983788 0.201000005007 0.103000000119 900.0
0.987999975681 0.194000005722 0.101999998093 897.0
0.995999991894 0.189999997616 0.103000000119 890.0
0.985000014305 0.181999996305 0.101999998093 889.0
0.995999991894 0.178000003099 0.103000000119 883.0
0.994000017643 0.171000003815 0.103000000119 884.0
0.985000014305 0.16400000453 0.101999998093 899.0
0.994000017643 0.158999994397 0.101999998093 904.0
0.990000009537 0.152999997139 0.101999998093 899.0
0.985000014305 0.145999997854 0.101000003517 902.0
0.986999988556 0.141000002623 0.101999998093 911.0
0.986999988556 0.135000005364 0.101999998093 927.0
0.991999983788 0.129999995232 0.101999998093 934.0
0.985000014305 0.123000003397 0.101000003517 935.0
0.986999988556 0.118000000715 0.101999998093 948.0
0.990999996662 0.112000003457 0.101999998093 951.0
0.98400002718 0.105999998748 0.101000003517 964.0
0.990999996662 0.101000003517 0.101999998093 961.0
0.98299998045 0.0939999967813 0.101000003517 966.0
0.98299998045 0.0890000015497 0.101000003517 962.0
0.987999975681 0.082999996841 0.101999998093 932.0
0.986000001431 0.0769999995828 0.101000003517 904.0
0.98400002718 0.0719999969006 0.101000003517 893.0
0.986999988556 0.0659999996424 0.101000003517 892.0
0.990999996662 0.0610000006855 0.101999998093 898.0
0.986000001431 0.054999999702 0.101000003517 898.0
0.990999996662 0.0489999987185 0.101999998093 910.0
0.992999970913 0.0439999997616 0.101999998093 907.0
0.987999975681 0.0379999987781 0.101000003517 901.0
0.986000001431 0.0320000015199 0.101000003517 909.0
0.985000014305 0.0260000005364 0.101000003517 916.0
0.98299998045 0.0209999997169 0.101000003517 941.0
0.990000009537 0.0149999996647 0.101999998093 925.0
0.98400002718 0.00899999961257 0.101000003517 916.0
0.989000022411 0.00400000018999 0.101999998093 904.0
0.98400002718 -0.0010000000475 0.101000003517 905.0
0.990000009537 -0.00700000021607 0.101999998093 917.0
0.990000009537 -0.0120000001043 0.101999998093 907.0
0.987999975681 -0.0179999992251 0.101999998093 903.0
0.985000014305 -0.0240000002086 0.101000003517 898.0
0.981999993324 -0.0289999991655 0.101000003517 891.0
0.98299998045 -0.035000000149 0.101000003517 873.0
0.98400002718 -0.0410000011325 0.101000003517 888.0
0.980000019073 -0.0460000000894 0.101000003517 889.0
0.981999993324 -0.0520000010729 0.101000003517 913.0
0.98400002718 -0.0579999983311 0.101999998093 896.0
0.981999993324 -0.0630000010133 0.101000003517 889.0
0.981000006199 -0.0689999982715 0.101000003517 868.0
0.964999973774 -0.0729999989271 0.10000000149 770.0
1.00600004196 -0.177000001073 0.105999998748 1202.0
1.00100004673 -0.181999996305 0.104999996722 1240.0
0.998000025749 -0.187000006437 0.104999996722 1265.0
0.986999988556 -0.190999999642 0.104000002146 1278.0
0.990999996662 -0.197999998927 0.104999996722 1271.0
0.987999975681 -0.202999994159 0.104000002146 1280.0
0.985000014305 -0.209000006318 0.104000002146 1290.0
0.980000019073 -0.21400000155 0.104000002146 1306.0
0.985000014305 -0.221000000834 0.104999996722 1305.0
0.977999985218 -0.22499999404 0.104000002146 1321.0
0.973999977112 -0.230000004172 0.104000002146 1333.0
0.97000002861 -0.234999999404 0.103000000119 1346.0
0.972000002861 -0.241999998689 0.104000002146 1349.0
0.967000007629 -0.24699999392 0.103000000119 1353.0
0.930999994278 -0.243000000715 0.10000000149 995.0
0.899999976158 -0.240999996662 0.0960000008345 263.0
0.884000003338 -0.241999998689 0.0949999988079 193.0
0.853999972343 -0.238999992609 0.0920000001788 182.0
0.875999987125 -0.25 0.0939999967813 186.0
0.878000020981 -0.256999999285 0.0949999988079 192.0
0.871999979019 -0.259999990463 0.0939999967813 197.0
0.870000004768 -0.264999985695 0.0939999967813 197.0
0.866999983788 -0.270000010729 0.0939999967813 199.0
0.865000009537 -0.27500000596 0.0939999967813 196.0
0.836000025272 -0.270999997854 0.0909999981523 206.0
0.853999972343 -0.282999992371 0.0930000022054 202.0
0.870999991894 -0.293999999762 0.0949999988079 211.0
0.84500002861 -0.291000008583 0.0920000001788 207.0
0.958000004292 -0.337000012398 0.104999996722 424.0
0.939999997616 -0.337000012398 0.103000000119 1357.0
0.925000011921 -0.337999999523 0.101999998093 1516.0
0.925000011921 -0.344000011683 0.101999998093 1533.0
0.922999978065 -0.349000006914 0.101999998093 1544.0
0.916999995708 -0.352999985218 0.101999998093 1543.0
0.916000008583 -0.358999997377 0.101999998093 1575.0
0.912000000477 -0.363999992609 0.101999998093 1563.0
0.910000026226 -0.368999987841 0.101999998093 1563.0
0.912000000477 -0.377000004053 0.101999998093 1572.0
0.90600001812 -0.381000012159 0.101999998093 1604.0
0.902000010014 -0.386000007391 0.101999998093 1602.0
0.898999989033 -0.391000002623 0.101000003517 1615.0
0.901000022888 -0.398000001907 0.101999998093 1614.0
0.879000008106 -0.395000010729 0.10000000149 1457.0
0.820999979973 -0.374000012875 0.0930000022054 453.0
0.805000007153 -0.372999995947 0.0920000001788 235.0
0.785000026226 -0.368999987841 0.0900000035763 238.0
0.791000008583 -0.377999991179 0.0900000035763 237.0
0.785000026226 -0.381000012159 0.0900000035763 238.0
0.777000010014 -0.38299998641 0.0890000015497 237.0
0.768000006676 -0.384000003338 0.0890000015497 236.0
0.763999998569 -0.388000011444 0.0879999995232 247.0
0.763999998569 -0.393999993801 0.0890000015497 234.0
0.778999984264 -0.407999992371 0.0909999981523 244.0
0.759999990463 -0.404000014067 0.0890000015497 250.0
0.778999984264 -0.419999986887 0.0909999981523 248.0
0.774999976158 -0.425000011921 0.0909999981523 252.0
0.885999977589 -0.493000000715 0.104999996722 706.0
0.98400002718 0.566999971867 0.105999998748 856.0
0.986000001431 0.560000002384 0.104999996722 903.0
0.986999988556 0.551999986172 0.104999996722 938.0
0.986000001431 0.544000029564 0.104999996722 967.0
0.990999996662 0.537999987602 0.104999996722 995.0
0.996999979019 0.533999979496 0.104999996722 1020.0
0.989000022411 0.522000014782 0.104000002146 1019.0
0.996999979019 0.518000006676 0.104999996722 1025.0
0.996999979019 0.509999990463 0.104999996722 1038.0
1.00199997425 0.504999995232 0.104999996722 1025.0
0.998000025749 0.495000004768 0.104000002146 1027.0
1.00499999523 0.490999996662 0.104999996722 1008.0
1.0 0.481999993324 0.104000002146 1016.0
1.00600004196 0.476999998093 0.104000002146 996.0
1.00199997425 0.467000007629 0.104000002146 991.0
0.995999991894 0.456999987364 0.103000000119 967.0
1.00699996948 0.455000013113 0.104000002146 960.0
1.0 0.444000005722 0.103000000119 949.0
1.00199997425 0.437999993563 0.103000000119 929.0
1.00199997425 0.430999994278 0.103000000119 911.0
1.00199997425 0.423999994993 0.101999998093 892.0
1.00300002098 0.416999995708 0.101999998093 894.0
1.00100004673 0.409000009298 0.101999998093 869.0
0.999000012875 0.400999993086 0.101000003517 871.0
0.990999996662 0.391000002623 0.10000000149 849.0
1.00499999523 0.389999985695 0.101999998093 841.0
0.996999979019 0.379999995232 0.101000003517 842.0
0.998000025749 0.372999995947 0.101000003517 825.0
0.995999991894 0.365999996662 0.10000000149 820.0
1.01100003719 0.365000009537 0.101999998093 810.0
0.996999979019 0.352999985218 0.10000000149 816.0
1.00300002098 0.347999989986 0.10000000149 804.0
0.986000001431 0.33599999547 0.0989999994636 810.0
0.999000012875 0.333999991417 0.10000000149 791.0
0.996999979019 0.326000005007 0.0989999994636 792.0
1.0 0.321000009775 0.10000000149 783.0
0.995999991894 0.312999993563 0.0989999994636 789.0
0.998000025749 0.307999998331 0.0989999994636 785.0
0.996999979019 0.300999999046 0.0989999994636 779.0
0.998000025749 0.294999986887 0.0989999994636 775.0
0.995999991894 0.287999987602 0.0989999994636 769.0
0.992999970913 0.280000001192 0.097999997437 777.0
0.999000012875 0.275999993086 0.0989999994636 770.0
1.00100004673 0.270000010729 0.0989999994636 755.0
0.995000004768 0.261999994516 0.097999997437 746.0
0.989000022411 0.254999995232 0.097000002861 751.0
0.995999991894 0.25 0.097999997437 740.0
0.994000017643 0.244000002742 0.097999997437 733.0
0.991999983788 0.237000003457 0.097000002861 723.0
0.986999988556 0.230000004172 0.097000002861 718.0
0.989000022411 0.224000006914 0.097000002861 695.0
0.987999975681 0.217999994755 0.097000002861 683.0
0.990000009537 0.211999997497 0.097000002861 678.0
0.995999991894 0.208000004292 0.097000002861 666.0
0.994000017643 0.201000005007 0.097000002861 659.0
0.990000009537 0.194000005722 0.097000002861 649.0
0.992999970913 0.188999995589 0.097000002861 649.0
0.98400002718 0.180999994278 0.0960000008345 650.0
0.980000019073 0.17499999702 0.0949999988079 620.0
0.990000009537 0.170000001788 0.0960000008345 610.0
0.986999988556 0.16400000453 0.0960000008345 608.0
0.986000001431 0.158000007272 0.0960000008345 607.0
0.978999972343 0.150999993086 0.0949999988079 614.0
0.980000019073 0.145999997854 0.0949999988079 603.0
0.978999972343 0.140000000596 0.0949999988079 592.0
0.981999993324 0.134000003338 0.0949999988079 576.0
0.986999988556 0.128999993205 0.0960000008345 582.0
0.980000019073 0.123000003397 0.0949999988079 574.0
0.981999993324 0.116999998689 0.0949999988079 579.0
0.975000023842 0.111000001431 0.0949999988079 565.0
0.976000010967 0.104999996722 0.0949999988079 546.0
0.977999985218 0.10000000149 0.0949999988079 533.0
0.972999989986 0.0930000022054 0.0939999967813 512.0
0.972999989986 0.0879999995232 0.0939999967813 503.0
0.975000023842 0.082000002265 0.0939999967813 486.0
0.981000006199 0.0769999995828 0.0949999988079 477.0
0.991999983788 0.0719999969006 0.0960000008345 472.0
0.986999988556 0.0659999996424 0.0960000008345 466.0
0.975000023842 0.0599999986589 0.0939999967813 460.0
0.981999993324 0.0540000014007 0.0949999988079 440.0
0.981000006199 0.0489999987185 0.0949999988079 425.0
0.986999988556 0.0430000014603 0.0960000008345 421.0
0.976000010967 0.0370000004768 0.0939999967813 416.0
0.981999993324 0.0320000015199 0.0949999988079 415.0
0.995999991894 0.0260000005364 0.097000002861 401.0
0.981000006199 0.019999999553 0.0949999988079 409.0
0.986000001431 0.0149999996647 0.0960000008345 398.0
0.985000014305 0.00899999961257 0.0960000008345 397.0
0.977999985218 0.00400000018999 0.0949999988079 384.0
0.987999975681 -0.0010000000475 0.0960000008345 380.0
0.981000006199 -0.00700000021607 0.0949999988079 377.0
0.985000014305 -0.0120000001043 0.0960000008345 372.0
0.978999972343 -0.0179999992251 0.0949999988079 368.0
0.976999998093 -0.0240000002086 0.0949999988079 364.0
0.978999972343 -0.0289999991655 0.0949999988079 351.0
0.986999988556 -0.035000000149 0.0960000008345 340.0
0.985000014305 -0.0410000011325 0.0960000008345 337.0
0.981000006199 -0.0460000000894 0.0960000008345 328.0
0.971000015736 -0.0509999990463 0.0949999988079 321.0
0.976000010967 -0.0570000000298 0.0949999988079 324.0
0.964999973774 -0.0619999989867 0.0939999967813 323.0
0.971000015736 -0.0680000036955 0.0949999988079 308.0
0.962999999523 -0.0729999989271 0.0939999967813 268.0
0.852999985218 -0.0689999982715 0.082999996841 103.0
1.00199997425 -0.175999999046 0.0989999994636 1198.0
0.996999979019 -0.180999994278 0.0989999994636 1239.0
0.992999970913 -0.186000004411 0.0989999994636 1261.0
0.990999996662 -0.192000001669 0.0989999994636 1266.0
0.992999970913 -0.197999998927 0.0989999994636 1275.0
0.989000022411 -0.203999996185 0.0989999994636 1287.0
0.981999993324 -0.208000004292 0.097999997437 1299.0
0.98400002718 -0.215000003576 0.097999997437 1306.0
0.986000001431 -0.221000000834 0.0989999994636 1309.0
0.981999993324 -0.225999996066 0.0989999994636 1316.0
0.973999977112 -0.230000004172 0.097999997437 1339.0
0.976000010967 -0.237000003457 0.097999997437 1350.0
0.971000015736 -0.240999996662 0.097999997437 1368.0
0.96899998188 -0.24699999392 0.097999997437 1361.0
0.926999986172 -0.241999998689 0.0939999967813 1002.0
0.887000024319 -0.237000003457 0.0900000035763 256.0
0.885999977589 -0.241999998689 0.0900000035763 189.0
0.866999983788 -0.241999998689 0.0879999995232 186.0
0.876999974251 -0.250999987125 0.0890000015497 197.0
0.851000010967 -0.247999995947 0.0860000029206 191.0
0.873000025749 -0.261000007391 0.0890000015497 191.0
0.865999996662 -0.263999998569 0.0879999995232 195.0
0.867999970913 -0.270000010729 0.0890000015497 199.0
0.847000002861 -0.268999993801 0.0869999974966 197.0
0.85900002718 -0.279000014067 0.0879999995232 201.0
0.851000010967 -0.282000005245 0.0869999974966 199.0
0.851999998093 -0.287999987602 0.0879999995232 209.0
0.856999993324 -0.294999986887 0.0879999995232 208.0
0.966000020504 -0.338999986649 0.10000000149 398.0
0.934000015259 -0.333999991417 0.097000002861 1338.0
0.924000024796 -0.337000012398 0.0960000008345 1527.0
0.924000024796 -0.342999994755 0.0960000008345 1529.0
0.922999978065 -0.349000006914 0.0960000008345 1553.0
0.917999982834 -0.352999985218 0.0960000008345 1543.0
0.916000008583 -0.358999997377 0.0960000008345 1562.0
0.915000021458 -0.365000009537 0.0960000008345 1565.0
0.911000013351 -0.370000004768 0.0960000008345 1570.0
0.908999979496 -0.375 0.0960000008345 1586.0
0.903999984264 -0.379000008106 0.0960000008345 1593.0
0.907999992371 -0.388000011444 0.097000002861 1609.0
0.902000010014 -0.391999989748 0.0960000008345 1619.0
0.897000014782 -0.395999997854 0.0960000008345 1609.0
0.879999995232 -0.395000010729 0.0939999967813 1479.0
0.819999992847 -0.372999995947 0.0879999995232 471.0
0.787000000477 -0.363999992609 0.0839999988675 235.0
0.792999982834 -0.372999995947 0.0850000008941 240.0
0.787999987602 -0.375999987125 0.0850000008941 240.0
0.792999982834 -0.384999990463 0.0860000029206 242.0
0.772000014782 -0.379999995232 0.0839999988675 236.0
0.778999984264 -0.389999985695 0.0850000008941 237.0
0.763999998569 -0.388000011444 0.082999996841 242.0
0.769999980927 -0.397000014782 0.0839999988675 239.0
0.786000013351 -0.411000013351 0.0860000029206 243.0
0.763000011444 -0.405000001192 0.0839999988675 253.0
0.754000008106 -0.407000005245 0.082999996841 250.0
0.769999980927 -0.421000003815 0.0850000008941 244.0
0.879000008106 -0.488999992609 0.097999997437 653.0
0.990999996662 0.570999979973 0.10000000149 879.0
0.992999970913 0.56400001049 0.10000000149 914.0
0.990999996662 0.554000020027 0.0989999994636 941.0
0.990000009537 0.545000016689 0.0989999994636 930.0
0.998000025749 0.541999995708 0.0989999994636 957.0
0.999000012875 0.535000026226 0.0989999994636 954.0
1.00300002098 0.528999984264 0.0989999994636 937.0
0.991999983788 0.514999985695 0.097999997437 932.0
0.996999979019 0.509999990463 0.097999997437 911.0
1.00199997425 0.504999995232 0.097999997437 904.0
1.00800001621 0.5 0.0989999994636 877.0
1.00699996948 0.49200001359 0.0989999994636 870.0
1.00899994373 0.486000001431 0.097999997437 852.0
1.00899994373 0.477999985218 0.097999997437 847.0
1.00699996948 0.469000011683 0.097999997437 816.0
1.00499999523 0.46099999547 0.097000002861 793.0
1.00899994373 0.455000013113 0.097999997437 790.0
1.00199997425 0.444999992847 0.097000002861 773.0
1.00899994373 0.441000014544 0.097000002861 752.0
1.0 0.430000007153 0.0960000008345 723.0
1.00199997425 0.423000007868 0.0960000008345 712.0
1.00499999523 0.418000012636 0.0960000008345 709.0
0.998000025749 0.407000005245 0.0949999988079 694.0
0.999000012875 0.400999993086 0.0949999988079 670.0
1.00699996948 0.397000014782 0.0960000008345 645.0
1.00199997425 0.388999998569 0.0949999988079 642.0
0.998000025749 0.379999995232 0.0949999988079 629.0
1.00300002098 0.375 0.0949999988079 610.0
0.994000017643 0.365000009537 0.0939999967813 601.0
0.996999979019 0.358999997377 0.0939999967813 578.0
0.995999991894 0.351999998093 0.0939999967813 562.0
0.985000014305 0.342000007629 0.0930000022054 549.0
0.978999972343 0.333999991417 0.0920000001788 538.0
0.998000025749 0.333000004292 0.0939999967813 517.0
0.985000014305 0.321999996901 0.0920000001788 502.0
0.989000022411 0.317000001669 0.0930000022054 491.0
0.991999983788 0.312000006437 0.0930000022054 479.0
0.995999991894 0.307000011206 0.0930000022054 461.0
0.987999975681 0.298000007868 0.0920000001788 444.0
0.996999979019 0.293999999762 0.0930000022054 419.0
0.98400002718 0.284000009298 0.0909999981523 392.0
0.989000022411 0.279000014067 0.0920000001788 387.0
0.986999988556 0.272000014782 0.0920000001788 352.0
0.949999988079 0.256000012159 0.0879999995232 331.0
0.941999971867 0.247999995947 0.0869999974966 315.0
0.943000018597 0.243000000715 0.0869999974966 296.0
0.952000021935 0.238999992609 0.0879999995232 273.0
0.935000002384 0.229000002146 0.0860000029206 262.0
0.925999999046 0.221000000834 0.0850000008941 248.0
0.888999998569 0.207000002265 0.082000002265 215.0
0.865999996662 0.195999994874 0.0790000036359 208.0
0.860000014305 0.188999995589 0.0790000036359 186.0
0.837999999523 0.180000007153 0.0769999995828 171.0
0.815999984741 0.170000001788 0.0750000029802 166.0
0.764999985695 0.155000001192 0.070000000298 155.0
0.760999977589 0.149000003934 0.0689999982715 141.0
0.722999989986 0.137999996543 0.0659999996424 136.0
0.686999976635 0.127000004053 0.0619999989867 124.0
0.612999975681 0.109999999404 0.054999999702 121.0
0.623000025749 0.108000002801 0.0560000017285 106.0
0.597999989986 0.10000000149 0.0540000014007 102.0
0.580999970436 0.0939999967813 0.0520000010729 94.0
0.446000009775 0.0689999982715 0.0399999991059 88.0
0.409999996424 0.0610000006855 0.0359999984503 86.0
0.305000007153 0.0439999997616 0.0260000005364 85.0
0.204999998212 0.0289999991655 0.0170000009239 70.0
0.150999993086 0.0209999997169 0.0120000001043 65.0
0.166999995708 0.0219999998808 0.0140000004321 64.0
0.0610000006855 0.00800000037998 0.00400000018999 66.0
0.0520000010729 0.00700000021607 0.00300000002608 65.0
5.01700019836 0.533999979496 0.465999990702 63.0
4.96500015259 0.5 0.46099999547 60.0
5.01700019836 0.476000010967 0.465999990702 58.0
0.122000001371 0.0120000001043 0.00899999961257 55.0
0.833999991417 0.0610000006855 0.0759999975562 61.0
0.862999975681 0.0529999993742 0.0780000016093 54.0
0.917999982834 0.0509999990463 0.082999996841 50.0
0.598999977112 0.0130000002682 0.0540000014007 50.0
1.00600004196 -0.177000001073 0.0939999967813 1197.0
0.995999991894 -0.180999994278 0.0930000022054 1244.0
0.995999991894 -0.187000006437 0.0930000022054 1260.0
0.992999970913 -0.192000001669 0.0930000022054 1269.0
0.995000004768 -0.199000000954 0.0930000022054 1280.0
0.989000022411 -0.203999996185 0.0930000022054 1282.0
0.986000001431 -0.209000006318 0.0930000022054 1304.0
0.981000006199 -0.21400000155 0.0920000001788 1306.0
0.980000019073 -0.219999998808 0.0920000001788 1318.0
0.98299998045 -0.225999996066 0.0930000022054 1323.0
0.976000010967 -0.230000004172 0.0920000001788 1336.0
0.972999989986 -0.236000001431 0.0920000001788 1355.0
0.972999989986 -0.241999998689 0.0920000001788 1347.0
0.967000007629 -0.246000006795 0.0920000001788 1366.0
0.929000020027 -0.241999998689 0.0879999995232 1024.0
0.898999989033 -0.239999994636 0.0850000008941 268.0
0.862999975681 -0.234999999404 0.082000002265 188.0
0.873000025749 -0.244000002742 0.082999996841 189.0
0.876999974251 -0.250999987125 0.0839999988675 199.0
0.887000024319 -0.259000003338 0.0850000008941 192.0
0.875 -0.261000007391 0.0839999988675 190.0
0.864000022411 -0.263000011444 0.082999996841 191.0
0.870000004768 -0.270999997854 0.0839999988675 206.0
0.875999987125 -0.279000014067 0.0839999988675 196.0
0.885999977589 -0.287000000477 0.0860000029206 200.0
0.847000002861 -0.280000001192 0.082000002265 201.0
0.842000007629 -0.284000009298 0.082000002265 204.0
0.865999996662 -0.298000007868 0.0839999988675 211.0
0.949000000954 -0.333000004292 0.0930000022054 396.0
0.936999976635 -0.335000008345 0.0920000001788 1337.0
0.926999986172 -0.337999999523 0.0909999981523 1536.0
0.925000011921 -0.344000011683 0.0909999981523 1533.0
0.920000016689 -0.347999989986 0.0909999981523 1543.0
0.922999978065 -0.354999989271 0.0909999981523 1560.0
0.917999982834 -0.360000014305 0.0909999981523 1571.0
0.913999974728 -0.363999992609 0.0909999981523 1577.0
0.912000000477 -0.370000004768 0.0909999981523 1568.0
0.910000026226 -0.375 0.0909999981523 1587.0
