ply
format ascii 1.0
element vertex 919
property float x
property float y
property float z
property float intensity
end_header
0.89200001955 0.185000002384 0.0500000007451 1325.0
0.887000024319 0.179000005126 0.0500000007451 1320.0
0.89099997282 0.173999994993 0.0500000007451 1326.0
0.888000011444 0.167999997735 0.0500000007451 1332.0
0.885999977589 0.163000002503 0.0500000007451 1352.0
0.885999977589 0.157000005245 0.0500000007451 1369.0
0.883000016212 0.151999995112 0.0500000007451 1364.0
0.885999977589 0.146999999881 0.0500000007451 1386.0
0.883000016212 0.141000002623 0.0500000007451 1416.0
0.882000029087 0.136000007391 0.0489999987185 1438.0
0.876999974251 0.129999995232 0.0489999987185 1403.0
0.882000029087 0.125 0.0489999987185 1411.0
0.880999982357 0.119999997318 0.0489999987185 1418.0
0.882000029087 0.115000002086 0.0489999987185 1420.0
0.880999982357 0.109999999404 0.0489999987185 1427.0
0.876999974251 0.104000002146 0.0489999987185 1448.0
0.879999995232 0.10000000149 0.0489999987185 1468.0
0.882000029087 0.0949999988079 0.0489999987185 1466.0
0.875 0.0890000015497 0.0489999987185 1472.0
0.876999974251 0.0839999988675 0.0489999987185 1486.0
0.873000025749 0.0780000016093 0.0489999987185 1477.0
0.875999987125 0.0740000009537 0.0489999987185 1484.0
0.879000008106 0.0689999982715 0.0489999987185 1495.0
0.871999979019 0.0630000010133 0.0489999987185 1520.0
0.874000012875 0.0579999983311 0.0489999987185 1567.0
0.869000017643 0.0529999993742 0.0489999987185 1605.0
0.871999979019 0.0480000004172 0.0489999987185 1626.0
0.867999970913 0.0430000014603 0.0489999987185 1610.0
0.870000004768 0.0379999987781 0.0489999987185 1648.0
0.866999983788 0.0329999998212 0.0489999987185 1682.0
0.870000004768 0.0280000008643 0.0489999987185 1672.0
0.870000004768 0.0230000000447 0.0489999987185 1683.0
0.866999983788 0.0179999992251 0.0489999987185 1701.0
0.865000009537 0.0130000002682 0.0489999987185 1721.0
0.865999996662 0.00800000037998 0.0489999987185 1696.0
0.832000017166 0.00300000002608 0.0469999983907 1149.0
0.924000024796 -0.189999997616 0.0540000014007 1378.0
0.901000022888 -0.189999997616 0.0529999993742 1737.0
0.896000027657 -0.194999992847 0.0520000010729 1764.0
0.896000027657 -0.20000000298 0.0529999993742 1721.0
0.896000027657 -0.204999998212 0.0529999993742 1723.0
0.893000006676 -0.209999993443 0.0529999993742 1742.0
0.888000011444 -0.215000003576 0.0520000010729 1730.0
0.893000006676 -0.221000000834 0.0529999993742 1748.0
0.89099997282 -0.225999996066 0.0529999993742 1749.0
0.880999982357 -0.229000002146 0.0520000010729 1749.0
0.888999998569 -0.237000003457 0.0529999993742 1744.0
0.879999995232 -0.239999994636 0.0520000010729 1732.0
0.884999990463 -0.24699999392 0.0529999993742 1727.0
0.884000003338 -0.252000004053 0.0529999993742 1732.0
0.876999974251 -0.256000012159 0.0520000010729 1729.0
0.884999990463 -0.263999998569 0.0529999993742 1729.0
0.882000029087 -0.268000006676 0.0529999993742 1754.0
0.874000012875 -0.272000014782 0.0529999993742 1749.0
0.875999987125 -0.277999997139 0.0529999993742 1767.0
0.870000004768 -0.282000005245 0.0520000010729 1781.0
0.870999991894 -0.287999987602 0.0529999993742 1777.0
0.866999983788 -0.291999995708 0.0529999993742 1766.0
0.865999996662 -0.29699999094 0.0529999993742 1768.0
0.870999991894 -0.305000007153 0.0529999993742 1764.0
0.866999983788 -0.308999985456 0.0529999993742 1784.0
0.865000009537 -0.31400001049 0.0529999993742 1808.0
0.865999996662 -0.321000009775 0.0529999993742 1809.0
0.865000009537 -0.326000005007 0.0529999993742 1799.0
0.864000022411 -0.331999987364 0.0529999993742 1792.0
0.856999993324 -0.335000008345 0.0529999993742 1789.0
0.856999993324 -0.340999990702 0.0529999993742 1786.0
0.860000014305 -0.347999989986 0.0529999993742 1761.0
0.85799998045 -0.352999985218 0.0529999993742 1758.0
0.856000006199 -0.358000010252 0.0529999993742 1780.0
0.851999998093 -0.363000005484 0.0529999993742 1786.0
0.851000010967 -0.368000000715 0.0529999993742 1787.0
0.852999985218 -0.375 0.0540000014007 1785.0
0.848999977112 -0.379000008106 0.0540000014007 1792.0
0.846000015736 -0.384000003338 0.0540000014007 1798.0
0.846000015736 -0.391000002623 0.0540000014007 1794.0
0.84500002861 -0.397000014782 0.0540000014007 1795.0
0.841000020504 -0.400999993086 0.0540000014007 1796.0
0.846000015736 -0.409999996424 0.0540000014007 1792.0
0.839999973774 -0.412999987602 0.0540000014007 1806.0
0.837999999523 -0.418000012636 0.0540000014007 1796.0
0.838999986649 -0.425000011921 0.0540000014007 1796.0
0.834999978542 -0.430000007153 0.0540000014007 1800.0
0.836000025272 -0.437000006437 0.0540000014007 1784.0
0.833999991417 -0.442999988794 0.054999999702 1787.0
0.833999991417 -0.449000000954 0.054999999702 1774.0
0.832000017166 -0.455000013113 0.054999999702 1764.0
0.827000021935 -0.458999991417 0.054999999702 1783.0
0.940999984741 0.540000021458 0.0520000010729 840.0
0.93900001049 0.53100001812 0.0509999990463 855.0
0.93900001049 0.523000001907 0.0509999990463 863.0
0.93900001049 0.51599997282 0.0509999990463 857.0
0.930000007153 0.503000020981 0.0500000007451 855.0
0.933000028133 0.497999995947 0.0500000007451 864.0
0.933000028133 0.490000009537 0.0500000007451 875.0
0.940999984741 0.486999988556 0.0509999990463 859.0
0.931999981403 0.47499999404 0.0500000007451 873.0
0.929000020027 0.465999990702 0.0500000007451 880.0
0.931999981403 0.46099999547 0.0500000007451 882.0
0.922999978065 0.449999988079 0.0489999987185 894.0
0.917999982834 0.439999997616 0.0489999987185 904.0
0.934000015259 0.441000014544 0.0500000007451 912.0
0.925000011921 0.430000007153 0.0489999987185 920.0
0.925000011921 0.423000007868 0.0489999987185 927.0
0.922999978065 0.414999991655 0.0489999987185 931.0
0.929000020027 0.411000013351 0.0489999987185 940.0
0.927999973297 0.404000014067 0.0489999987185 938.0
0.922999978065 0.395000010729 0.0480000004172 949.0
0.926999986172 0.389999985695 0.0489999987185 956.0
0.917999982834 0.379999995232 0.0480000004172 973.0
0.924000024796 0.375999987125 0.0480000004172 962.0
0.915000021458 0.365999996662 0.0480000004172 990.0
0.919000029564 0.361000001431 0.0480000004172 977.0
0.916999995708 0.354000002146 0.0480000004172 976.0
0.916999995708 0.347999989986 0.0480000004172 969.0
0.917999982834 0.342000007629 0.0469999983907 974.0
0.916999995708 0.33599999547 0.0469999983907 977.0
0.917999982834 0.330000013113 0.0469999983907 996.0
0.912999987602 0.321999996901 0.0469999983907 995.0
0.912999987602 0.316000014544 0.0469999983907 1001.0
0.912999987602 0.310000002384 0.0469999983907 998.0
0.911000013351 0.303000003099 0.0469999983907 1003.0
0.916000008583 0.298999994993 0.0469999983907 1003.0
0.902999997139 0.28900000453 0.0460000000894 1007.0
0.910000026226 0.284999996424 0.0469999983907 1020.0
0.907999992371 0.279000014067 0.0460000000894 1027.0
0.911000013351 0.273999989033 0.0469999983907 1026.0
0.911000013351 0.268000006676 0.0460000000894 1036.0
0.907000005245 0.261000007391 0.0460000000894 1041.0
0.907999992371 0.254999995232 0.0460000000894 1045.0
0.902000010014 0.247999995947 0.0460000000894 1058.0
0.90499997139 0.243000000715 0.0460000000894 1054.0
0.908999979496 0.238999992609 0.0460000000894 1059.0
0.899999976158 0.231000006199 0.0460000000894 1060.0
0.898000001907 0.22499999404 0.0460000000894 1054.0
0.902000010014 0.219999998808 0.0460000000894 1048.0
0.898000001907 0.21400000155 0.0450000017881 1057.0
0.90600001812 0.209999993443 0.0460000000894 1070.0
0.90499997139 0.203999996185 0.0460000000894 1084.0
0.902000010014 0.197999998927 0.0460000000894 1074.0
0.899999976158 0.192000001669 0.0450000017881 1087.0
0.896000027657 0.186000004411 0.0450000017881 1084.0
0.898000001907 0.180999994278 0.0450000017881 1088.0
0.897000014782 0.17499999702 0.0450000017881 1075.0
0.893999993801 0.168999999762 0.0450000017881 1086.0
0.89099997282 0.16400000453 0.0450000017881 1092.0
0.899999976158 0.159999996424 0.0450000017881 1093.0
0.894999980927 0.153999999166 0.0450000017881 1116.0
0.888000011444 0.146999999881 0.0450000017881 1138.0
0.89200001955 0.143000006676 0.0450000017881 1154.0
0.888999998569 0.136999994516 0.0450000017881 1169.0
0.884000003338 0.130999997258 0.0439999997616 1172.0
0.884999990463 0.126000002027 0.0439999997616 1180.0
0.884999990463 0.120999999344 0.0439999997616 1173.0
0.888999998569 0.115999996662 0.0450000017881 1161.0
0.889999985695 0.111000001431 0.0450000017881 1150.0
0.89200001955 0.105999998748 0.0450000017881 1161.0
0.887000024319 0.10000000149 0.0450000017881 1174.0
0.883000016212 0.0949999988079 0.0439999997616 1183.0
0.879999995232 0.0890000015497 0.0439999997616 1172.0
0.884999990463 0.0850000008941 0.0439999997616 1179.0
0.883000016212 0.0790000036359 0.0439999997616 1200.0
0.880999982357 0.0740000009537 0.0439999997616 1179.0
0.879999995232 0.0689999982715 0.0439999997616 1188.0
0.885999977589 0.0640000030398 0.0450000017881 1218.0
0.876999974251 0.0590000003576 0.0439999997616 1242.0
0.885999977589 0.0540000014007 0.0450000017881 1280.0
0.875 0.0480000004172 0.0439999997616 1274.0
0.873000025749 0.0430000014603 0.0439999997616 1250.0
0.879000008106 0.0379999987781 0.0439999997616 1285.0
0.875 0.0329999998212 0.0439999997616 1312.0
0.874000012875 0.0280000008643 0.0439999997616 1305.0
0.875999987125 0.0230000000447 0.0439999997616 1316.0
0.874000012875 0.0179999992251 0.0439999997616 1327.0
0.875 0.0130000002682 0.0439999997616 1341.0
0.867999970913 0.00800000037998 0.0439999997616 1338.0
0.839999973774 0.00300000002608 0.0419999994338 959.0
0.929000020027 -0.190999999642 0.0489999987185 1375.0
0.896000027657 -0.188999995589 0.0469999983907 1743.0
0.896000027657 -0.194999992847 0.0469999983907 1765.0
0.89200001955 -0.199000000954 0.0469999983907 1718.0
0.898000001907 -0.206000000238 0.0469999983907 1745.0
0.893000006676 -0.209999993443 0.0469999983907 1768.0
0.896000027657 -0.216999992728 0.0469999983907 1755.0
0.89099997282 -0.221000000834 0.0469999983907 1751.0
0.888000011444 -0.22499999404 0.0469999983907 1773.0
0.885999977589 -0.230000004172 0.0469999983907 1743.0
0.889999985695 -0.237000003457 0.0469999983907 1759.0
0.883000016212 -0.240999996662 0.0469999983907 1737.0
0.884000003338 -0.246000006795 0.0469999983907 1750.0
0.880999982357 -0.250999987125 0.0469999983907 1761.0
0.884000003338 -0.25799998641 0.0480000004172 1759.0
0.879000008106 -0.261999994516 0.0469999983907 1744.0
0.876999974251 -0.266999989748 0.0469999983907 1762.0
0.873000025749 -0.270999997854 0.0469999983907 1779.0
0.875999987125 -0.277999997139 0.0469999983907 1770.0
0.876999974251 -0.284000009298 0.0480000004172 1787.0
0.871999979019 -0.287999987602 0.0469999983907 1786.0
0.871999979019 -0.293999999762 0.0480000004172 1791.0
0.870000004768 -0.298999994993 0.0480000004172 1781.0
0.866999983788 -0.303000003099 0.0480000004172 1774.0
0.867999970913 -0.310000002384 0.0480000004172 1795.0
0.861000001431 -0.312999993563 0.0469999983907 1795.0
0.865000009537 -0.319999992847 0.0480000004172 1783.0
0.861999988556 -0.324999988079 0.0480000004172 1807.0
0.862999975681 -0.331000000238 0.0480000004172 1785.0
0.85799998045 -0.335000008345 0.0480000004172 1778.0
0.85799998045 -0.340999990702 0.0480000004172 1772.0
0.856999993324 -0.347000002861 0.0480000004172 1750.0
0.860000014305 -0.354000002146 0.0480000004172 1760.0
0.855000019073 -0.358000010252 0.0480000004172 1786.0
0.852999985218 -0.363000005484 0.0480000004172 1787.0
0.847000002861 -0.365999996662 0.0480000004172 1804.0
0.851000010967 -0.374000012875 0.0480000004172 1778.0
0.850000023842 -0.379999995232 0.0480000004172 1808.0
0.84399998188 -0.384000003338 0.0480000004172 1806.0
0.84500002861 -0.389999985695 0.0480000004172 1804.0
0.839999973774 -0.393999993801 0.0480000004172 1807.0
0.84399998188 -0.402000010014 0.0489999987185 1803.0
0.841000020504 -0.407000005245 0.0489999987185 1797.0
0.839999973774 -0.412999987602 0.0489999987185 1796.0
0.839999973774 -0.418999999762 0.0489999987185 1812.0
0.838999986649 -0.425000011921 0.0489999987185 1830.0
0.837000012398 -0.430999994278 0.0489999987185 1818.0
0.833000004292 -0.435000002384 0.0489999987185 1794.0
0.836000025272 -0.442999988794 0.0489999987185 1804.0
0.828999996185 -0.446000009775 0.0489999987185 1793.0
0.832000017166 -0.453999996185 0.0489999987185 1772.0
0.825999975204 -0.458000004292 0.0489999987185 1784.0
0.944999992847 0.541999995708 0.0460000000894 740.0
0.948000013828 0.536000013351 0.0460000000894 735.0
0.953999996185 0.532000005245 0.0460000000894 731.0
0.950999975204 0.522000014782 0.0460000000894 735.0
0.947000026703 0.512000024319 0.0450000017881 735.0
0.948000013828 0.504999995232 0.0450000017881 743.0
0.945999979973 0.497000008821 0.0450000017881 730.0
0.950999975204 0.49200001359 0.0450000017881 712.0
0.947000026703 0.483000010252 0.0450000017881 698.0
0.949000000954 0.476000010967 0.0450000017881 706.0
0.950999975204 0.469999998808 0.0450000017881 675.0
0.962000012398 0.467999994755 0.0450000017881 694.0
0.945999979973 0.45300000906 0.0439999997616 704.0
0.947000026703 0.446999996901 0.0439999997616 712.0
0.949999988079 0.441000014544 0.0439999997616 699.0
0.944999992847 0.432000011206 0.0439999997616 699.0
0.949999988079 0.426999986172 0.0439999997616 688.0
0.948000013828 0.418999999762 0.0439999997616 691.0
0.945999979973 0.412000000477 0.0439999997616 681.0
0.941999971867 0.402999997139 0.0439999997616 677.0
0.941999971867 0.395999997854 0.0439999997616 670.0
0.941999971867 0.389999985695 0.0430000014603 676.0
0.93900001049 0.381999999285 0.0430000014603 686.0
0.954999983311 0.381999999285 0.0439999997616 676.0
0.954999983311 0.375 0.0439999997616 648.0
0.943000018597 0.363999992609 0.0430000014603 646.0
0.945999979973 0.358999997377 0.0430000014603 659.0
0.936999976635 0.349000006914 0.0430000014603 646.0
0.947000026703 0.347000002861 0.0430000014603 647.0
0.93599998951 0.33599999547 0.0430000014603 645.0
0.949000000954 0.333999991417 0.0430000014603 642.0
0.933000028133 0.323000013828 0.0419999994338 626.0
0.934000015259 0.317000001669 0.0419999994338 623.0
0.943000018597 0.31400001049 0.0430000014603 614.0
0.935000002384 0.305000007153 0.0419999994338 615.0
0.93599998951 0.298999994993 0.0419999994338 605.0
0.93900001049 0.293999999762 0.0419999994338 597.0
0.930999994278 0.286000013351 0.0419999994338 606.0
0.925000011921 0.277999997139 0.0419999994338 589.0
0.925000011921 0.272000014782 0.0419999994338 588.0
0.930000007153 0.266999989748 0.0419999994338 586.0
0.936999976635 0.263999998569 0.0419999994338 578.0
0.925999999046 0.254999995232 0.0419999994338 584.0
0.934000015259 0.250999987125 0.0419999994338 575.0
0.917999982834 0.240999996662 0.0410000011325 577.0
0.926999986172 0.238000005484 0.0419999994338 593.0
0.934000015259 0.233999997377 0.0419999994338 596.0
0.926999986172 0.225999996066 0.0419999994338 591.0
0.919000029564 0.218999996781 0.0410000011325 585.0
0.92199999094 0.21400000155 0.0410000011325 582.0
0.917999982834 0.207000002265 0.0410000011325 580.0
0.920000016689 0.202000007033 0.0410000011325 578.0
0.910000026226 0.194000005722 0.0410000011325 571.0
0.912000000477 0.188999995589 0.0410000011325 583.0
0.898999989033 0.180999994278 0.0399999991059 583.0
0.913999974728 0.179000005126 0.0410000011325 577.0
0.915000021458 0.172999992967 0.0410000011325 579.0
0.913999974728 0.167999997735 0.0410000011325 559.0
0.917999982834 0.163000002503 0.0410000011325 564.0
0.902999997139 0.155000001192 0.0399999991059 566.0
0.907000005245 0.15000000596 0.0399999991059 571.0
0.898000001907 0.143000006676 0.0399999991059 579.0
0.908999979496 0.140000000596 0.0399999991059 566.0
0.907999992371 0.134000003338 0.0399999991059 576.0
0.90499997139 0.128999993205 0.0399999991059 574.0
0.893999993801 0.122000001371 0.0399999991059 580.0
0.90499997139 0.118000000715 0.0399999991059 561.0
0.899999976158 0.112000003457 0.0399999991059 575.0
0.896000027657 0.105999998748 0.0399999991059 580.0
0.894999980927 0.101000003517 0.0399999991059 588.0
0.896000027657 0.0960000008345 0.0399999991059 586.0
0.889999985695 0.0900000035763 0.0399999991059 585.0
0.893999993801 0.0850000008941 0.0399999991059 589.0
0.896000027657 0.0799999982119 0.0399999991059 589.0
0.89099997282 0.0750000029802 0.0399999991059 581.0
0.899999976158 0.070000000298 0.0399999991059 571.0
0.899999976158 0.0649999976158 0.0399999991059 575.0
0.896000027657 0.0599999986589 0.0399999991059 593.0
0.894999980927 0.0540000014007 0.0399999991059 593.0
0.882000029087 0.0489999987185 0.0390000008047 605.0
0.896000027657 0.0439999997616 0.0399999991059 603.0
0.894999980927 0.0390000008047 0.0399999991059 621.0
0.884000003338 0.0340000018477 0.0390000008047 629.0
0.884999990463 0.0280000008643 0.0399999991059 636.0
0.89099997282 0.0240000002086 0.0399999991059 658.0
0.897000014782 0.0189999993891 0.0399999991059 674.0
0.894999980927 0.0130000002682 0.0399999991059 676.0
0.897000014782 0.00800000037998 0.0399999991059 667.0
0.873000025749 0.00300000002608 0.0390000008047 539.0
0.924000024796 -0.189999997616 0.0430000014603 1418.0
0.899999976158 -0.189999997616 0.0419999994338 1762.0
0.898000001907 -0.194999992847 0.0419999994338 1764.0
0.896000027657 -0.20000000298 0.0419999994338 1681.0
0.899999976158 -0.206000000238 0.0419999994338 1703.0
0.888000011444 -0.209000006318 0.0419999994338 1764.0
0.893999993801 -0.216000005603 0.0419999994338 1757.0
0.889999985695 -0.221000000834 0.0419999994338 1760.0
0.89099997282 -0.225999996066 0.0419999994338 1777.0
0.89200001955 -0.231999993324 0.0419999994338 1750.0
0.884999990463 -0.236000001431 0.0419999994338 1747.0
0.887000024319 -0.241999998689 0.0419999994338 1752.0
0.884000003338 -0.24699999392 0.0419999994338 1756.0
0.880999982357 -0.250999987125 0.0419999994338 1772.0
0.879000008106 -0.256000012159 0.0419999994338 1764.0
0.884000003338 -0.263000011444 0.0419999994338 1756.0
0.882000029087 -0.268000006676 0.0419999994338 1758.0
0.879000008106 -0.273000001907 0.0419999994338 1796.0
0.871999979019 -0.275999993086 0.0419999994338 1793.0
0.875 -0.282999992371 0.0419999994338 1815.0
0.869000017643 -0.287000000477 0.0419999994338 1821.0
0.867999970913 -0.291999995708 0.0419999994338 1825.0
0.870999991894 -0.298999994993 0.0419999994338 1809.0
0.870000004768 -0.303999990225 0.0419999994338 1814.0
0.867999970913 -0.310000002384 0.0419999994338 1801.0
0.861000001431 -0.312999993563 0.0419999994338 1808.0
0.865000009537 -0.319999992847 0.0419999994338 1788.0
0.861000001431 -0.324000000954 0.0419999994338 1805.0
0.861999988556 -0.331000000238 0.0430000014603 1787.0
0.85799998045 -0.335000008345 0.0419999994338 1801.0
0.861000001431 -0.342000007629 0.0430000014603 1785.0
0.855000019073 -0.345999985933 0.0430000014603 1775.0
0.85799998045 -0.352999985218 0.0430000014603 1772.0
0.853999972343 -0.356999993324 0.0430000014603 1774.0
0.851000010967 -0.361999988556 0.0430000014603 1784.0
0.851000010967 -0.368000000715 0.0430000014603 1780.0
0.851000010967 -0.374000012875 0.0430000014603 1787.0
0.847000002861 -0.379000008106 0.0430000014603 1827.0
0.850000023842 -0.386000007391 0.0430000014603 1815.0
0.841000020504 -0.388000011444 0.0430000014603 1824.0
0.842000007629 -0.395000010729 0.0430000014603 1820.0
0.842999994755 -0.402000010014 0.0430000014603 1814.0
0.837999999523 -0.405999988317 0.0430000014603 1812.0
0.841000020504 -0.412999987602 0.0430000014603 1819.0
0.836000025272 -0.416999995708 0.0430000014603 1804.0
0.836000025272 -0.423999994993 0.0430000014603 1829.0
0.837000012398 -0.430999994278 0.0439999997616 1829.0
0.833999991417 -0.435000002384 0.0439999997616 1794.0
0.827000021935 -0.437999993563 0.0430000014603 1815.0
0.829999983311 -0.446999996901 0.0439999997616 1794.0
0.82800000906 -0.451999992132 0.0439999997616 1798.0
0.825999975204 -0.458000004292 0.0439999997616 1801.0
0.999000012875 0.573000013828 0.0419999994338 585.0
1.00600004196 0.569000005722 0.0419999994338 600.0
1.01199996471 0.56400001049 0.0419999994338 650.0
1.00899994373 0.554000020027 0.0419999994338 653.0
1.00699996948 0.545000016689 0.0419999994338 604.0
1.0 0.532999992371 0.0410000011325 487.0
1.01300001144 0.532000005245 0.0419999994338 464.0
1.02300000191 0.528999984264 0.0419999994338 443.0
1.02300000191 0.521000027657 0.0419999994338 428.0
1.02499997616 0.513999998569 0.0419999994338 418.0
1.0379999876 0.513000011444 0.0419999994338 399.0
1.04600000381 0.509000003338 0.0430000014603 362.0
1.06599998474 0.510999977589 0.0439999997616 300.0
1.08299994469 0.510999977589 0.0439999997616 281.0
1.09500002861 0.509000003338 0.0450000017881 269.0
1.10500001907 0.504999995232 0.0450000017881 262.0
1.09200000763 0.490999996662 0.0439999997616 255.0
1.11699998379 0.493999987841 0.0450000017881 236.0
1.10699999332 0.481999993324 0.0450000017881 211.0
1.04999995232 0.449000000954 0.0419999994338 241.0
1.13999998569 0.479999989271 0.0460000000894 186.0
1.14300000668 0.472999989986 0.0460000000894 180.0
1.2840000391 0.522000014782 0.0520000010729 184.0
1.38800001144 0.555000007153 0.0560000017285 178.0
1.43799996376 0.564999997616 0.0579999983311 168.0
1.43599998951 0.555000007153 0.0579999983311 166.0
1.4240000248 0.540000021458 0.0570000000298 156.0
1.18299996853 0.441000014544 0.0469999983907 163.0
1.11199998856 0.407000005245 0.0439999997616 198.0
1.2990000248 0.467000007629 0.0520000010729 141.0
1.49100005627 0.526000022888 0.0599999986589 111.0
1.05099999905 0.356000006199 0.0419999994338 133.0
1.24199998379 0.365000009537 0.0489999987185 87.0
1.01900005341 0.280000001192 0.0399999991059 78.0
1.02199995518 0.261999994516 0.0399999991059 64.0
0.675999999046 0.131999999285 0.0260000005364 59.0
4.30000019073 0.759999990463 0.172999992967 54.0
4.62699985504 0.790000021458 0.187000006437 49.0
4.3860001564 0.722999989986 0.177000001073 60.0
4.38899993896 0.697000026703 0.177000001073 55.0
0.144999995828 0.0230000000447 0.00400000018999 51.0
4.79099988937 0.703999996185 0.193000003695 46.0
4.78499984741 0.675000011921 0.193000003695 46.0
4.28999996185 0.579999983311 0.172999992967 52.0
4.61499977112 0.597000002861 0.186000004411 46.0
4.67299985886 0.577000021935 0.188999995589 47.0
4.96000003815 0.583000004292 0.20000000298 47.0
0.159999996424 0.0189999993891 0.00499999988824 55.0
4.82999992371 0.512000024319 0.194999992847 44.0
4.8060002327 0.481000006199 0.194000005722 48.0
4.79300022125 0.423999994993 0.194000005722 43.0
4.8639998436 0.402000010014 0.196999996901 46.0
4.60200023651 0.326999992132 0.186000004411 47.0
4.85300016403 0.317000001669 0.195999994874 43.0
4.65999984741 0.277000010014 0.188999995589 49.0
4.632999897 0.248999997973 0.187999993563 51.0
4.75299978256 0.228000000119 0.193000003695 48.0
4.83799982071 0.203999996185 0.195999994874 41.0
4.875 0.178000003099 0.197999998927 45.0
0.111000001431 0.00499999988824 0.00300000002608 38.0
1.05799996853 0.0280000008643 0.0419999994338 62.0
1.01800000668 0.00300000002608 0.0399999991059 69.0
0.920000016689 -0.188999995589 0.0379999987781 1434.0
0.897000014782 -0.188999995589 0.0370000004768 1795.0
0.897000014782 -0.194999992847 0.0370000004768 1823.0
0.893999993801 -0.20000000298 0.0370000004768 1744.0
0.896000027657 -0.204999998212 0.0370000004768 1749.0
0.89200001955 -0.209999993443 0.0370000004768 1801.0
0.893999993801 -0.216000005603 0.0370000004768 1788.0
0.889999985695 -0.219999998808 0.0370000004768 1767.0
0.887000024319 -0.22499999404 0.0370000004768 1788.0
0.887000024319 -0.231000006199 0.0370000004768 1784.0
0.887000024319 -0.236000001431 0.0370000004768 1781.0
0.884000003338 -0.240999996662 0.0370000004768 1793.0
0.878000020981 -0.245000004768 0.0370000004768 1783.0
0.887000024319 -0.252999991179 0.0370000004768 1788.0
0.882000029087 -0.256999999285 0.0370000004768 1790.0
0.879999995232 -0.261999994516 0.0370000004768 1765.0
0.880999982357 -0.268000006676 0.0370000004768 1786.0
0.878000020981 -0.273000001907 0.0370000004768 1802.0
0.878000020981 -0.277999997139 0.0370000004768 1804.0
0.873000025749 -0.282000005245 0.0370000004768 1851.0
0.873000025749 -0.287999987602 0.0370000004768 1867.0
0.870000004768 -0.293000012636 0.0370000004768 1851.0
0.869000017643 -0.298000007868 0.0370000004768 1855.0
0.866999983788 -0.303000003099 0.0370000004768 1853.0
0.870000004768 -0.310000002384 0.0370000004768 1839.0
0.861999988556 -0.312999993563 0.0370000004768 1847.0
0.866999983788 -0.321000009775 0.0370000004768 1835.0
0.865999996662 -0.326000005007 0.0370000004768 1838.0
0.85799998045 -0.328999996185 0.0370000004768 1824.0
0.856999993324 -0.335000008345 0.0370000004768 1836.0
0.864000022411 -0.342999994755 0.0379999987781 1815.0
0.851000010967 -0.344000011683 0.0370000004768 1788.0
0.855000019073 -0.351999998093 0.0370000004768 1790.0
0.850000023842 -0.354999989271 0.0370000004768 1791.0
0.852999985218 -0.363000005484 0.0379999987781 1802.0
0.848999977112 -0.36700001359 0.0370000004768 1792.0
0.847000002861 -0.372000008821 0.0379999987781 1787.0
0.847999989986 -0.379000008106 0.0379999987781 1837.0
0.847999989986 -0.384999990463 0.0379999987781 1848.0
0.847000002861 -0.391000002623 0.0379999987781 1834.0
0.847000002861 -0.397000014782 0.0379999987781 1823.0
0.842000007629 -0.400999993086 0.0379999987781 1837.0
0.84500002861 -0.409000009298 0.0379999987781 1805.0
0.834999978542 -0.409999996424 0.0379999987781 1841.0
0.839999973774 -0.418999999762 0.0379999987781 1824.0
0.839999973774 -0.425999999046 0.0379999987781 1847.0
0.833000004292 -0.428000003099 0.0379999987781 1854.0
0.830999970436 -0.433999985456 0.0379999987781 1844.0
0.827000021935 -0.43900001049 0.0379999987781 1846.0
0.829999983311 -0.446999996901 0.0379999987781 1826.0
0.827000021935 -0.451999992132 0.0379999987781 1798.0
0.82800000906 -0.458999991417 0.0390000008047 1791.0
1.06200003624 0.60900002718 0.0379999987781 849.0
1.06299996376 0.601000010967 0.0379999987781 981.0
1.06400001049 0.592000007629 0.0379999987781 1297.0
1.05400002003 0.57800000906 0.0370000004768 1196.0
1.04799997807 0.566999971867 0.0370000004768 892.0
1.06700003147 0.568000018597 0.0370000004768 489.0
1.07899999619 0.566999971867 0.0379999987781 453.0
1.09700000286 0.568000018597 0.0379999987781 432.0
1.09599995613 0.558000028133 0.0379999987781 420.0
1.12199997902 0.563000023365 0.0390000008047 393.0
1.14800000191 0.566999971867 0.0399999991059 380.0
1.1590000391 0.56400001049 0.0399999991059 318.0
1.44400000572 0.691999971867 0.0509999990463 137.0
1.71300005913 0.808000028133 0.0599999986589 125.0
1.70700001717 0.791999995708 0.0599999986589 134.0
1.72899997234 0.790000021458 0.0610000006855 126.0
1.76400005817 0.792999982834 0.0619999989867 105.0
1.71899998188 0.760999977589 0.0599999986589 109.0
1.80400002003 0.785000026226 0.0630000010133 86.0
1.99399995804 0.839999973774 0.070000000298 79.0
2.08400011063 0.862999975681 0.0729999989271 126.0
2.09500002861 0.851999998093 0.0729999989271 155.0
2.132999897 0.852999985218 0.0740000009537 156.0
2.12299990654 0.834999978542 0.0740000009537 154.0
2.13000011444 0.822000026703 0.0740000009537 152.0
2.10199999809 0.79699999094 0.0729999989271 146.0
2.21900010109 0.79699999094 0.0769999995828 83.0
2.19799995422 0.773999989033 0.0759999975562 88.0
4.07100009918 0.865999996662 0.140000000596 55.0
3.7650001049 0.777999997139 0.129999995232 56.0
4.26599979401 0.778999984264 0.146999999881 50.0
4.12099981308 0.727999985218 0.142000004649 66.0
4.15999984741 0.709999978542 0.143000006676 58.0
4.26499986649 0.70300000906 0.146999999881 61.0
4.22800016403 0.671000003815 0.145999997854 62.0
4.26000022888 0.651000022888 0.146999999881 60.0
4.30700016022 0.633000016212 0.149000003934 62.0
4.26999998093 0.601999998093 0.146999999881 57.0
4.20900011063 0.569000005722 0.144999995828 60.0
4.27699995041 0.552999973297 0.148000001907 54.0
4.32499980927 0.533999979496 0.149000003934 55.0
4.3140001297 0.507000029087 0.149000003934 56.0
4.257999897 0.476000010967 0.146999999881 58.0
4.23600006104 0.449000000954 0.145999997854 54.0
4.26399993896 0.426999986172 0.146999999881 53.0
4.21400022507 0.397000014782 0.145999997854 52.0
4.26900005341 0.377999991179 0.148000001907 55.0
4.242000103 0.351000010967 0.146999999881 53.0
4.30200004578 0.331000000238 0.149000003934 57.0
4.27699995041 0.303999990225 0.148000001907 55.0
4.23500013351 0.277000010014 0.146999999881 57.0
4.20499992371 0.25 0.145999997854 58.0
4.20399999619 0.225999996066 0.145999997854 61.0
4.18699979782 0.201000005007 0.144999995828 58.0
4.22499990463 0.178000003099 0.146999999881 63.0
4.21299982071 0.153999999166 0.145999997854 59.0
4.21199989319 0.128999993205 0.145999997854 52.0
0.922999978065 -0.188999995589 0.0320000015199 1432.0
0.897000014782 -0.188999995589 0.0309999994934 1780.0
0.896000027657 -0.194000005722 0.0309999994934 1814.0
0.893000006676 -0.199000000954 0.0309999994934 1788.0
0.89200001955 -0.203999996185 0.0309999994934 1806.0
0.888999998569 -0.209000006318 0.0309999994934 1818.0
0.888999998569 -0.215000003576 0.0309999994934 1806.0
0.887000024319 -0.219999998808 0.0309999994934 1775.0
0.893000006676 -0.226999998093 0.0320000015199 1800.0
0.888000011444 -0.231000006199 0.0320000015199 1787.0
0.884999990463 -0.236000001431 0.0320000015199 1766.0
0.887000024319 -0.241999998689 0.0320000015199 1786.0
0.883000016212 -0.246000006795 0.0320000015199 1774.0
0.875999987125 -0.25 0.0309999994934 1755.0
0.883000016212 -0.256999999285 0.0320000015199 1749.0
0.876999974251 -0.261000007391 0.0320000015199 1773.0
0.878000020981 -0.266999989748 0.0320000015199 1788.0
0.879000008106 -0.273000001907 0.0320000015199 1800.0
0.871999979019 -0.277000010014 0.0320000015199 1814.0
0.875 -0.282999992371 0.0320000015199 1822.0
0.875 -0.28900000453 0.0320000015199 1841.0
0.870999991894 -0.293000012636 0.0320000015199 1884.0
0.870000004768 -0.298999994993 0.0320000015199 1906.0
0.871999979019 -0.305000007153 0.0320000015199 1894.0
0.865999996662 -0.308999985456 0.0320000015199 1872.0
0.867999970913 -0.314999997616 0.0320000015199 1874.0
0.867999970913 -0.321000009775 0.0320000015199 1896.0
0.860000014305 -0.324000000954 0.0320000015199 1883.0
0.861999988556 -0.331000000238 0.0320000015199 1860.0
0.856000006199 -0.333999991417 0.0320000015199 1863.0
0.853999972343 -0.338999986649 0.0320000015199 1833.0
0.856000006199 -0.345999985933 0.0320000015199 1818.0
0.851000010967 -0.34999999404 0.0320000015199 1807.0
0.856000006199 -0.358000010252 0.0320000015199 1806.0
0.856999993324 -0.365000009537 0.0320000015199 1824.0
0.851000010967 -0.368000000715 0.0320000015199 1813.0
0.848999977112 -0.372999995947 0.0320000015199 1815.0
0.848999977112 -0.379000008106 0.0320000015199 1843.0
0.84399998188 -0.38299998641 0.0320000015199 1864.0
0.84500002861 -0.389999985695 0.0329999998212 1888.0
0.846000015736 -0.395999997854 0.0329999998212 1864.0
0.84399998188 -0.402000010014 0.0329999998212 1862.0
0.841000020504 -0.407000005245 0.0329999998212 1839.0
0.836000025272 -0.411000013351 0.0329999998212 1848.0
0.838999986649 -0.418999999762 0.0329999998212 1838.0
0.836000025272 -0.423000007868 0.0329999998212 1866.0
0.836000025272 -0.430000007153 0.0329999998212 1875.0
0.833999991417 -0.435000002384 0.0329999998212 1849.0
0.830999970436 -0.439999997616 0.0329999998212 1837.0
0.82800000906 -0.446000009775 0.0329999998212 1846.0
0.824999988079 -0.449999988079 0.0329999998212 1840.0
0.828999996185 -0.460000008345 0.0329999998212 1825.0
1.07500004768 0.615999996662 0.0309999994934 1046.0
1.07299995422 0.606000006199 0.0309999994934 1193.0
1.06799995899 0.59500002861 0.0309999994934 1562.0
1.05999994278 0.582000017166 0.0299999993294 1458.0
1.05599999428 0.570999979973 0.0299999993294 1048.0
1.07700002193 0.574000000954 0.0309999994934 570.0
1.08800005913 0.570999979973 0.0309999994934 541.0
1.10000002384 0.569000005722 0.0309999994934 512.0
1.13100004196 0.575999975204 0.0320000015199 493.0
1.15199995041 0.57800000906 0.0329999998212 479.0
1.1629999876 0.574000000954 0.0329999998212 467.0
1.17200005054 0.569999992847 0.0329999998212 376.0
1.55599999428 0.745000004768 0.0450000017881 161.0
1.71399998665 0.808000028133 0.0489999987185 160.0
1.77600002289 0.824999988079 0.0509999990463 152.0
1.77999997139 0.813000023365 0.0509999990463 150.0
1.77600002289 0.797999978065 0.0509999990463 136.0
1.85500001907 0.820999979973 0.0529999993742 142.0
2.03099989891 0.884000003338 0.0590000003576 105.0
2.13700008392 0.915000021458 0.0619999989867 124.0
2.10899996758 0.888000011444 0.0610000006855 173.0
2.1289999485 0.880999982357 0.0610000006855 220.0
2.13700008392 0.869000017643 0.0610000006855 214.0
2.13400006294 0.852999985218 0.0610000006855 214.0
2.14800000191 0.84399998188 0.0619999989867 215.0
2.15100002289 0.830999970436 0.0619999989867 218.0
2.15499997139 0.816999971867 0.0619999989867 207.0
2.17700004578 0.81099998951 0.0619999989867 91.0
2.22499990463 0.799000024796 0.0630000010133 139.0
2.31200003624 0.81400001049 0.0659999996424 131.0
2.29299998283 0.791999995708 0.0649999976158 66.0
2.7460000515 0.805999994278 0.0780000016093 67.0
3.87599992752 0.824999988079 0.111000001431 61.0
3.87599992752 0.800999999046 0.111000001431 58.0
3.93600010872 0.790000021458 0.112999998033 57.0
4.27699995041 0.754999995232 0.122000001371 65.0
4.28299999237 0.731000006199 0.123000003397 76.0
4.25699996948 0.700999975204 0.122000001371 69.0
4.25 0.675000011921 0.122000001371 66.0
4.28599977493 0.65499997139 0.123000003397 59.0
4.19500017166 0.615999996662 0.119999997318 61.0
4.21999979019 0.59500002861 0.120999999344 66.0
4.22900009155 0.570999979973 0.120999999344 57.0
4.19000005722 0.541999995708 0.119999997318 58.0
4.12599992752 0.509000003338 0.118000000715 62.0
4.24700021744 0.499000012875 0.122000001371 65.0
4.26900005341 0.476999998093 0.123000003397 62.0
4.23799991608 0.449000000954 0.122000001371 60.0
4.17999982834 0.418000012636 0.119999997318 61.0
4.28399991989 0.404000014067 0.123000003397 61.0
4.25199985504 0.375999987125 0.122000001371 59.0
4.22100019455 0.324000000954 0.122000001371 59.0
4.20800018311 0.298999994993 0.120999999344 55.0
4.21799993515 0.27500000596 0.122000001371 65.0
4.21799993515 0.250999987125 0.122000001371 66.0
4.15100002289 0.223000004888 0.119999997318 63.0
4.15600013733 0.199000000954 0.119999997318 63.0
4.22399997711 0.178000003099 0.122000001371 73.0
4.18800020218 0.152999997139 0.120999999344 68.0
0.920000016689 -0.188999995589 0.0270000007004 1444.0
0.894999980927 -0.188999995589 0.0260000005364 1790.0
0.897000014782 -0.194999992847 0.0260000005364 1829.0
0.896000027657 -0.20000000298 0.0260000005364 1790.0
0.896000027657 -0.204999998212 0.0260000005364 1795.0
0.888000011444 -0.209000006318 0.0260000005364 1834.0
0.893000006676 -0.216000005603 0.0260000005364 1793.0
0.887000024319 -0.219999998808 0.0260000005364 1755.0
0.89200001955 -0.225999996066 0.0260000005364 1796.0
0.880999982357 -0.229000002146 0.0260000005364 1801.0
0.880999982357 -0.234999999404 0.0260000005364 1744.0
0.887000024319 -0.241999998689 0.0260000005364 1763.0
0.883000016212 -0.246000006795 0.0260000005364 1751.0
0.880999982357 -0.250999987125 0.0260000005364 1747.0
0.882000029087 -0.256999999285 0.0260000005364 1739.0
0.878000020981 -0.261000007391 0.0260000005364 1756.0
0.873000025749 -0.266000002623 0.0260000005364 1759.0
0.879000008106 -0.273000001907 0.0270000007004 1763.0
0.873000025749 -0.277000010014 0.0260000005364 1757.0
0.873000025749 -0.282999992371 0.0260000005364 1786.0
0.875999987125 -0.28900000453 0.0270000007004 1830.0
0.874000012875 -0.293999999762 0.0270000007004 1866.0
0.869000017643 -0.298000007868 0.0270000007004 1886.0
0.867999970913 -0.303000003099 0.0270000007004 1862.0
0.865999996662 -0.308999985456 0.0270000007004 1864.0
0.865999996662 -0.314999997616 0.0270000007004 1883.0
0.861999988556 -0.319000005722 0.0270000007004 1885.0
0.861000001431 -0.324000000954 0.0270000007004 1866.0
0.85799998045 -0.328999996185 0.0270000007004 1860.0
0.855000019073 -0.333999991417 0.0270000007004 1876.0
0.856999993324 -0.340000003576 0.0270000007004 1854.0
0.852999985218 -0.344999998808 0.0270000007004 1846.0
0.855000019073 -0.351000010967 0.0270000007004 1854.0
0.855000019073 -0.356999993324 0.0270000007004 1841.0
0.851999998093 -0.361999988556 0.0270000007004 1827.0
0.853999972343 -0.368999987841 0.0270000007004 1810.0
0.846000015736 -0.372000008821 0.0270000007004 1829.0
0.848999977112 -0.379000008106 0.0270000007004 1853.0
0.846000015736 -0.384000003338 0.0270000007004 1852.0
0.850000023842 -0.391999989748 0.0270000007004 1895.0
0.84399998188 -0.395000010729 0.0270000007004 1907.0
0.846000015736 -0.402999997139 0.0270000007004 1911.0
0.842000007629 -0.407000005245 0.0270000007004 1890.0
0.836000025272 -0.411000013351 0.0270000007004 1888.0
0.841000020504 -0.419999986887 0.0280000008643 1856.0
0.838999986649 -0.425000011921 0.0280000008643 1892.0
0.834999978542 -0.428999990225 0.0280000008643 1893.0
0.829999983311 -0.432999998331 0.0280000008643 1887.0
0.82800000906 -0.43900001049 0.0280000008643 1862.0
0.829999983311 -0.446999996901 0.0280000008643 1881.0
0.82800000906 -0.451999992132 0.0280000008643 1879.0
0.824000000954 -0.456000000238 0.0280000008643 1848.0
1.06799995899 0.611999988556 0.0240000002086 1040.0
1.06900000572 0.603999972343 0.0240000002086 1214.0
1.07000005245 0.59500002861 0.0240000002086 1645.0
1.05499994755 0.578999996185 0.0240000002086 1455.0
1.0490000248 0.566999971867 0.0230000000447 1046.0
1.0870000124 0.578999996185 0.0240000002086 569.0
1.08800005913 0.570999979973 0.0240000002086 540.0
1.11000001431 0.574000000954 0.0250000003725 507.0
1.13100004196 0.575999975204 0.0250000003725 494.0
1.14199995995 0.573000013828 0.0250000003725 478.0
1.15499997139 0.569999992847 0.0260000005364 463.0
1.16900002956 0.568000018597 0.0260000005364 392.0
1.61000001431 0.771000027657 0.0359999984503 191.0
1.76199996471 0.830999970436 0.0399999991059 183.0
1.77999997139 0.825999975204 0.0399999991059 181.0
1.80599999428 0.824999988079 0.0410000011325 165.0
1.86399996281 0.837999999523 0.0419999994338 157.0
1.87000000477 0.827000021935 0.0419999994338 149.0
2.02999997139 0.883000016212 0.0460000000894 151.0
2.15400004387 0.92199999094 0.0489999987185 187.0
2.132999897 0.898000001907 0.0480000004172 225.0
2.14199995995 0.885999977589 0.0480000004172 238.0
2.16499996185 0.879999995232 0.0489999987185 271.0
2.17100000381 0.867999970913 0.0489999987185 290.0
2.17700004578 0.855000019073 0.0489999987185 277.0
2.17199993134 0.837999999523 0.0489999987185 279.0
2.1740000248 0.824000000954 0.0489999987185 240.0
2.18400001526 0.813000023365 0.0489999987185 105.0
2.22300004959 0.811999976635 0.0500000007451 87.0
2.23900008202 0.804000020027 0.0500000007451 169.0
2.2990000248 0.810000002384 0.0520000010729 162.0
2.33100008965 0.805000007153 0.0520000010729 81.0
2.74900007248 0.806999981403 0.0619999989867 79.0
3.37599992752 0.77999997139 0.0759999975562 76.0
3.45700001717 0.777000010014 0.0780000016093 69.0
3.91000008583 0.855000019073 0.0890000015497 65.0
3.84400010109 0.818000018597 0.0869999974966 77.0
3.81599998474 0.787999987602 0.0869999974966 95.0
3.88400006294 0.778999984264 0.0879999995232 87.0
4.0609998703 0.790000021458 0.0920000001788 64.0
4.14699983597 0.782000005245 0.0939999967813 62.0
4.32499980927 0.788999974728 0.0989999994636 59.0
4.19999980927 0.741999983788 0.0960000008345 84.0
4.20200014114 0.717000007629 0.0960000008345 97.0
4.17899990082 0.688000023365 0.0949999988079 98.0
4.1810002327 0.663999974728 0.0949999988079 87.0
4.14699983597 0.634000003338 0.0949999988079 87.0
4.22399997711 0.620000004768 0.0960000008345 82.0
4.16800022125 0.587999999523 0.0949999988079 85.0
4.21700000763 0.569999992847 0.0960000008345 83.0
4.19199991226 0.541999995708 0.0960000008345 87.0
4.15700006485 0.513000011444 0.0949999988079 86.0
4.12900018692 0.485000014305 0.0949999988079 84.0
4.16900014877 0.465999990702 0.0960000008345 87.0
4.17700004578 0.442000001669 0.0960000008345 85.0
4.20399999619 0.419999986887 0.0960000008345 82.0
4.22599983215 0.398000001907 0.097000002861 83.0
4.16499996185 0.368000000715 0.0960000008345 86.0
4.20599985123 0.347000002861 0.097000002861 81.0
4.23000001907 0.324999988079 0.097000002861 84.0
4.14599990845 0.293999999762 0.0949999988079 87.0
4.12300014496 0.268999993801 0.0949999988079 79.0
4.17899990082 0.247999995947 0.0960000008345 85.0
4.1939997673 0.22499999404 0.097000002861 98.0
4.14799976349 0.199000000954 0.0960000008345 95.0
4.15899991989 0.17499999702 0.0960000008345 109.0
4.10900020599 0.15000000596 0.0949999988079 105.0
0.920000016689 -0.188999995589 0.0209999997169 1465.0
0.893999993801 -0.188999995589 0.0209999997169 1838.0
0.894999980927 -0.194000005722 0.0209999997169 1846.0
0.889999985695 -0.199000000954 0.0209999997169 1785.0
0.89200001955 -0.204999998212 0.0209999997169 1763.0
0.89099997282 -0.209999993443 0.0209999997169 1854.0
0.885999977589 -0.21400000155 0.0209999997169 1801.0
0.893999993801 -0.221000000834 0.0209999997169 1762.0
0.889999985695 -0.225999996066 0.0209999997169 1798.0
0.888999998569 -0.231000006199 0.0209999997169 1795.0
0.884000003338 -0.234999999404 0.0209999997169 1753.0
0.884999990463 -0.240999996662 0.0209999997169 1790.0
0.880999982357 -0.246000006795 0.0209999997169 1773.0
0.871999979019 -0.248999997973 0.0209999997169 1772.0
0.879999995232 -0.256999999285 0.0209999997169 1754.0
0.878000020981 -0.261999994516 0.0209999997169 1759.0
0.875999987125 -0.266000002623 0.0209999997169 1771.0
0.873000025749 -0.270999997854 0.0209999997169 1772.0
0.876999974251 -0.277999997139 0.0209999997169 1732.0
0.871999979019 -0.282000005245 0.0209999997169 1780.0
0.869000017643 -0.287000000477 0.0209999997169 1838.0
0.870999991894 -0.293000012636 0.0209999997169 1874.0
0.870999991894 -0.298999994993 0.0209999997169 1871.0
0.869000017643 -0.303999990225 0.0209999997169 1851.0
0.861000001431 -0.307000011206 0.0209999997169 1853.0
0.862999975681 -0.312999993563 0.0209999997169 1883.0
0.85900002718 -0.317999988794 0.0209999997169 1860.0
0.85799998045 -0.323000013828 0.0209999997169 1833.0
0.860000014305 -0.330000013113 0.0209999997169 1821.0
0.860000014305 -0.33599999547 0.0219999998808 1864.0
0.861000001431 -0.342000007629 0.0219999998808 1852.0
0.856000006199 -0.345999985933 0.0219999998808 1851.0
0.856999993324 -0.351999998093 0.0219999998808 1854.0
0.852999985218 -0.356999993324 0.0219999998808 1866.0
0.851000010967 -0.361999988556 0.0219999998808 1826.0
0.851000010967 -0.368000000715 0.0219999998808 1813.0
0.850000023842 -0.374000012875 0.0219999998808 1834.0
0.84500002861 -0.377999991179 0.0219999998808 1875.0
0.842999994755 -0.38299998641 0.0219999998808 1875.0
0.84399998188 -0.388999998569 0.0219999998808 1888.0
0.84500002861 -0.395999997854 0.0219999998808 1889.0
0.84500002861 -0.402000010014 0.0219999998808 1916.0
0.837999999523 -0.405000001192 0.0219999998808 1901.0
0.838999986649 -0.412000000477 0.0219999998808 1887.0
0.837000012398 -0.416999995708 0.0219999998808 1875.0
0.838999986649 -0.425000011921 0.0219999998808 1898.0
0.832000017166 -0.428000003099 0.0219999998808 1917.0
0.834999978542 -0.43599998951 0.0219999998808 1887.0
0.834999978542 -0.442999988794 0.0219999998808 1879.0
0.832000017166 -0.448000013828 0.0219999998808 1900.0
0.829999983311 -0.45300000906 0.0230000000447 1874.0
0.825999975204 -0.458000004292 0.0230000000447 1859.0
1.06599998474 0.611000001431 0.0170000009239 1048.0
1.07000005245 0.603999972343 0.0170000009239 1221.0
1.06799995899 0.59399998188 0.0170000009239 1732.0
1.05599999428 0.578999996185 0.0170000009239 1492.0
1.05099999905 0.568000018597 0.0170000009239 1025.0
1.06799995899 0.569000005722 0.0170000009239 562.0
1.10699999332 0.580999970436 0.0179999992251 536.0
1.11399996281 0.574999988079 0.0179999992251 511.0
1.1210000515 0.570999979973 0.0179999992251 495.0
1.13300001621 0.568000018597 0.0179999992251 492.0
1.14900004864 0.566999971867 0.0179999992251 459.0
1.1740000248 0.570999979973 0.0189999993891 380.0
1.64400005341 0.787000000477 0.0270000007004 205.0
1.7990000248 0.847999989986 0.0289999991655 205.0
1.79999995232 0.834999978542 0.0289999991655 195.0
1.85199999809 0.846000015736 0.0299999993294 191.0
1.87300002575 0.842000007629 0.0309999994934 184.0
1.86500000954 0.824000000954 0.0299999993294 135.0
1.95899999142 0.851999998093 0.0320000015199 94.0
2.02099990845 0.865000009537 0.0329999998212 70.0
2.0490000248 0.861999988556 0.0340000018477 108.0
2.13499999046 0.883000016212 0.035000000149 153.0
2.15300011635 0.875999987125 0.035000000149 261.0
2.18400001526 0.873000025749 0.0359999984503 289.0
2.17199993134 0.852999985218 0.0359999984503 286.0
2.19499993324 0.847000002861 0.0359999984503 274.0
2.19400000572 0.832000017166 0.0359999984503 213.0
2.27200007439 0.846000015736 0.0370000004768 112.0
2.24699997902 0.820999979973 0.0370000004768 125.0
2.27699995041 0.816999971867 0.0370000004768 196.0
2.34699988365 0.825999975204 0.0390000008047 158.0
2.3180000782 0.800999999046 0.0379999987781 75.0
3.39499998093 0.783999979496 0.0570000000298 86.0
3.47000002861 0.77999997139 0.0579999983311 75.0
3.86400008202 0.84500002861 0.0649999976158 53.0
3.79999995232 0.808000028133 0.0640000030398 99.0
3.77699995041 0.77999997139 0.0640000030398 95.0
3.82100009918 0.76599997282 0.0640000030398 103.0
3.94799995422 0.768000006676 0.0670000016689 69.0
4.26399993896 0.804000020027 0.0719999969006 56.0
4.15199995041 0.758000016212 0.070000000298 71.0
4.15899991989 0.73400002718 0.070000000298 117.0
4.13899993896 0.705999970436 0.070000000298 129.0
4.15500020981 0.684000015259 0.070000000298 111.0
4.18499994278 0.663999974728 0.0710000023246 111.0
4.11600017548 0.629000008106 0.070000000298 112.0
4.20100021362 0.616999983788 0.0710000023246 105.0
4.14599990845 0.583999991417 0.0710000023246 109.0
4.19299983978 0.565999984741 0.0710000023246 104.0
4.14200019836 0.535000026226 0.0710000023246 110.0
4.21500015259 0.519999980927 0.0719999969006 109.0
4.17299985886 0.490000009537 0.0710000023246 112.0
4.16499996185 0.465000003576 0.0710000023246 108.0
4.08900022507 0.432999998331 0.070000000298 106.0
4.11499977112 0.411000013351 0.0710000023246 108.0
4.17000007629 0.393000006676 0.0719999969006 109.0
4.16200017929 0.368000000715 0.0719999969006 110.0
4.14400005341 0.342000007629 0.0710000023246 109.0
4.117000103 0.316000014544 0.0710000023246 108.0
4.17000007629 0.296000003815 0.0719999969006 109.0
4.17299985886 0.272000014782 0.0719999969006 111.0
4.17299985886 0.247999995947 0.0719999969006 109.0
4.14300012589 0.222000002861 0.0719999969006 116.0
4.1139998436 0.196999996901 0.0710000023246 115.0
4.1360001564 0.173999994993 0.0719999969006 128.0
4.13199996948 0.15000000596 0.0719999969006 128.0
0.917999982834 -0.187999993563 0.01600000076 1474.0
0.902000010014 -0.189999997616 0.01600000076 1876.0
0.893000006676 -0.194000005722 0.01600000076 1860.0
0.889999985695 -0.199000000954 0.01600000076 1798.0
0.893999993801 -0.204999998212 0.01600000076 1777.0
0.888999998569 -0.209000006318 0.01600000076 1874.0
0.885999977589 -0.21400000155 0.01600000076 1845.0
0.884000003338 -0.218999996781 0.01600000076 1802.0
0.883000016212 -0.224000006914 0.01600000076 1812.0
0.893999993801 -0.231999993324 0.01600000076 1795.0
0.885999977589 -0.236000001431 0.01600000076 1772.0
0.884000003338 -0.240999996662 0.01600000076 1792.0
0.878000020981 -0.245000004768 0.01600000076 1810.0
0.880999982357 -0.250999987125 0.01600000076 1798.0
0.882000029087 -0.256999999285 0.01600000076 1788.0
0.876999974251 -0.261000007391 0.01600000076 1812.0
0.875 -0.266000002623 0.01600000076 1797.0
0.876999974251 -0.272000014782 0.01600000076 1809.0
0.874000012875 -0.277000010014 0.01600000076 1774.0
0.871999979019 -0.282000005245 0.01600000076 1772.0
0.871999979019 -0.287999987602 0.01600000076 1852.0
0.867999970913 -0.291999995708 0.01600000076 1884.0
0.869000017643 -0.298000007868 0.01600000076 1881.0
0.865000009537 -0.303000003099 0.01600000076 1867.0
0.860000014305 -0.305999994278 0.01600000076 1873.0
0.862999975681 -0.312999993563 0.01600000076 1903.0
0.864000022411 -0.319999992847 0.01600000076 1873.0
0.85900002718 -0.323000013828 0.01600000076 1884.0
0.861999988556 -0.331000000238 0.01600000076 1852.0
0.85799998045 -0.335000008345 0.01600000076 1856.0
