ply
format ascii 1.0
element vertex 920
property float x
property float y
property float z
property float intensity
end_header
1.00600004196 -0.0359999984503 0.0399999991059 1187.0
1.00800001621 -0.0419999994338 0.0399999991059 1184.0
1.0 -0.0469999983907 0.0399999991059 1200.0
1.0 -0.0529999993742 0.0399999991059 1203.0
0.998000025749 -0.0590000003576 0.0399999991059 1195.0
0.996999979019 -0.0640000030398 0.0399999991059 1207.0
0.994000017643 -0.070000000298 0.0390000008047 1220.0
0.992999970913 -0.0759999975562 0.0390000008047 1215.0
0.989000022411 -0.0810000002384 0.0390000008047 1224.0
0.990000009537 -0.0869999974966 0.0390000008047 1229.0
0.990999996662 -0.0930000022054 0.0390000008047 1235.0
0.986000001431 -0.097999997437 0.0390000008047 1246.0
0.989000022411 -0.104000002146 0.0399999991059 1246.0
0.976000010967 -0.108000002801 0.0390000008047 1030.0
0.875999987125 -0.101999998093 0.035000000149 283.0
0.81400001049 -0.0989999994636 0.0320000015199 191.0
0.795000016689 -0.101000003517 0.0320000015199 193.0
0.81400001049 -0.108999997377 0.0320000015199 190.0
0.833999991417 -0.115999996662 0.0329999998212 200.0
0.778999984264 -0.112999998033 0.0309999994934 198.0
0.800999999046 -0.120999999344 0.0320000015199 201.0
0.810000002384 -0.127000004053 0.0320000015199 202.0
0.787000000477 -0.12800000608 0.0309999994934 204.0
0.809000015259 -0.136000007391 0.0320000015199 207.0
0.805000007153 -0.141000002623 0.0320000015199 210.0
0.78100001812 -0.141000002623 0.0309999994934 209.0
0.77999997139 -0.144999995828 0.0309999994934 214.0
0.815999984741 -0.157000005245 0.0329999998212 238.0
0.95300000906 -0.189999997616 0.0390000008047 995.0
0.958999991417 -0.196999996901 0.0390000008047 1377.0
0.97000002861 -0.204999998212 0.0399999991059 1414.0
0.961000025272 -0.209000006318 0.0390000008047 1395.0
0.958999991417 -0.21400000155 0.0390000008047 1403.0
0.95300000906 -0.218999996781 0.0390000008047 1405.0
0.958999991417 -0.225999996066 0.0399999991059 1406.0
0.953999996185 -0.231000006199 0.0390000008047 1417.0
0.95300000906 -0.236000001431 0.0390000008047 1423.0
0.949999988079 -0.240999996662 0.0390000008047 1438.0
0.949000000954 -0.24699999392 0.0390000008047 1445.0
0.949999988079 -0.252999991179 0.0399999991059 1444.0
0.949000000954 -0.259000003338 0.0399999991059 1458.0
0.945999979973 -0.263999998569 0.0399999991059 1441.0
0.930999994278 -0.266000002623 0.0390000008047 998.0
0.822000026703 -0.238999992609 0.0340000018477 291.0
0.773000001907 -0.230000004172 0.0320000015199 223.0
0.777000010014 -0.236000001431 0.0320000015199 222.0
0.778999984264 -0.240999996662 0.0329999998212 223.0
0.783999979496 -0.247999995947 0.0329999998212 228.0
0.771000027657 -0.248999997973 0.0320000015199 230.0
0.773999989033 -0.254999995232 0.0329999998212 227.0
0.760999977589 -0.256000012159 0.0320000015199 226.0
0.759999990463 -0.259999990463 0.0320000015199 227.0
0.76599997282 -0.268000006676 0.0329999998212 223.0
0.740999996662 -0.263000011444 0.0309999994934 235.0
0.740000009537 -0.268000006676 0.0309999994934 232.0
0.759999990463 -0.280999988317 0.0320000015199 236.0
0.869000017643 -0.326999992132 0.0379999987781 525.0
0.920000016689 -0.352999985218 0.0399999991059 1393.0
0.915000021458 -0.356999993324 0.0399999991059 1510.0
0.915000021458 -0.363999992609 0.0399999991059 1502.0
0.915000021458 -0.370000004768 0.0399999991059 1515.0
0.919000029564 -0.377999991179 0.0399999991059 1521.0
0.908999979496 -0.379999995232 0.0399999991059 1519.0
0.911000013351 -0.388000011444 0.0399999991059 1528.0
0.90600001812 -0.391999989748 0.0399999991059 1519.0
0.907999992371 -0.40000000596 0.0399999991059 1525.0
0.902000010014 -0.404000014067 0.0399999991059 1533.0
0.897000014782 -0.407999992371 0.0399999991059 1546.0
0.898999989033 -0.414999991655 0.0399999991059 1524.0
0.898999989033 -0.42199999094 0.0399999991059 1519.0
0.861000001431 -0.409999996424 0.0390000008047 752.0
0.705999970436 -0.340999990702 0.0320000015199 282.0
0.683000028133 -0.335000008345 0.0309999994934 239.0
0.67199999094 -0.333999991417 0.0299999993294 238.0
0.675999999046 -0.340999990702 0.0299999993294 237.0
0.64099997282 -0.328999996185 0.0289999991655 243.0
0.660000026226 -0.342999994755 0.0299999993294 243.0
0.638999998569 -0.337999999523 0.0289999991655 244.0
0.638000011444 -0.342000007629 0.0289999991655 242.0
0.624000012875 -0.338999986649 0.0289999991655 241.0
0.625 -0.344999998808 0.0289999991655 248.0
0.884000003338 0.505999982357 0.0309999994934 1026.0
0.887000024319 0.500999987125 0.0309999994934 1018.0
0.887000024319 0.493999987841 0.0309999994934 1030.0
0.889999985695 0.488000005484 0.0309999994934 1025.0
0.89099997282 0.481999993324 0.0309999994934 1026.0
0.89200001955 0.47499999404 0.0309999994934 1050.0
0.89200001955 0.467999994755 0.0309999994934 1067.0
0.899999976158 0.465000003576 0.0309999994934 1070.0
0.899999976158 0.458000004292 0.0309999994934 1079.0
0.899999976158 0.451000005007 0.0309999994934 1079.0
0.902999997139 0.446000009775 0.0309999994934 1086.0
0.901000022888 0.437999993563 0.0309999994934 1081.0
0.90600001812 0.433999985456 0.0309999994934 1078.0
0.90600001812 0.426999986172 0.0309999994934 1083.0
0.90600001812 0.421000003815 0.0309999994934 1103.0
0.910000026226 0.416000008583 0.0309999994934 1121.0
0.911000013351 0.409000009298 0.0309999994934 1100.0
0.907000005245 0.400999993086 0.0309999994934 1132.0
0.913999974728 0.398000001907 0.0309999994934 1141.0
0.912000000477 0.389999985695 0.0309999994934 1128.0
0.920000016689 0.386999994516 0.0309999994934 1130.0
0.916999995708 0.379000008106 0.0309999994934 1143.0
0.925999999046 0.377000004053 0.0309999994934 1141.0
0.926999986172 0.370999991894 0.0309999994934 1161.0
0.925000011921 0.363000005484 0.0309999994934 1144.0
0.925000011921 0.356999993324 0.0309999994934 1172.0
0.925000011921 0.351000010967 0.0309999994934 1186.0
0.930999994278 0.347000002861 0.0309999994934 1184.0
0.930999994278 0.340000003576 0.0309999994934 1171.0
0.930000007153 0.333999991417 0.0309999994934 1192.0
0.930999994278 0.32800000906 0.0309999994934 1169.0
0.929000020027 0.321000009775 0.0309999994934 1188.0
0.934000015259 0.317000001669 0.0309999994934 1182.0
0.93599998951 0.31099998951 0.0309999994934 1212.0
0.943000018597 0.307000011206 0.0309999994934 1236.0
0.939999997616 0.300000011921 0.0309999994934 1251.0
0.944000005722 0.294999986887 0.0309999994934 1244.0
0.940999984741 0.287999987602 0.0309999994934 1261.0
0.944000005722 0.282999992371 0.0309999994934 1270.0
0.948000013828 0.279000014067 0.0309999994934 1254.0
0.949999988079 0.273000001907 0.0320000015199 1270.0
0.949000000954 0.266999989748 0.0309999994934 1299.0
0.952000021935 0.261999994516 0.0320000015199 1303.0
0.945999979973 0.254000008106 0.0309999994934 1316.0
0.952000021935 0.25 0.0320000015199 1349.0
0.949999988079 0.243000000715 0.0309999994934 1332.0
0.955999970436 0.238999992609 0.0320000015199 1352.0
0.954999983311 0.232999995351 0.0320000015199 1365.0
0.958000004292 0.228000000119 0.0320000015199 1362.0
0.961000025272 0.222000002861 0.0320000015199 1396.0
0.958000004292 0.216000005603 0.0320000015199 1413.0
0.959999978542 0.21099999547 0.0320000015199 1450.0
0.964999973774 0.206000000238 0.0320000015199 1463.0
0.961000025272 0.199000000954 0.0320000015199 1486.0
0.962000012398 0.193000003695 0.0320000015199 1516.0
0.964999973774 0.187999993563 0.0320000015199 1508.0
0.964999973774 0.182999998331 0.0320000015199 1520.0
0.964999973774 0.177000001073 0.0320000015199 1547.0
0.96899998188 0.172000005841 0.0320000015199 1544.0
0.967999994755 0.165999993682 0.0320000015199 1557.0
0.97000002861 0.159999996424 0.0320000015199 1587.0
0.97000002861 0.155000001192 0.0320000015199 1631.0
0.972000002861 0.149000003934 0.0320000015199 1634.0
0.973999977112 0.143999993801 0.0320000015199 1622.0
0.975000023842 0.137999996543 0.0320000015199 1630.0
0.978999972343 0.133000001311 0.0320000015199 1640.0
0.978999972343 0.127000004053 0.0320000015199 1628.0
0.976000010967 0.120999999344 0.0320000015199 1584.0
0.976999998093 0.115999996662 0.0320000015199 1538.0
0.973999977112 0.109999999404 0.0320000015199 1434.0
0.981000006199 0.104999996722 0.0320000015199 1476.0
0.980000019073 0.0989999994636 0.0320000015199 1467.0
0.976000010967 0.0930000022054 0.0320000015199 1389.0
0.978999972343 0.0879999995232 0.0320000015199 1395.0
0.980000019073 0.082000002265 0.0320000015199 1384.0
0.977999985218 0.0759999975562 0.0320000015199 1352.0
0.98299998045 0.0710000023246 0.0329999998212 1336.0
0.973999977112 0.0649999976158 0.0320000015199 1108.0
0.917999982834 0.0560000017285 0.0299999993294 249.0
0.135000005364 0.00899999961257 0.00300000002608 48.0
0.303999990225 -0.00400000018999 0.00899999961257 55.0
0.985000014305 -0.0240000002086 0.0329999998212 651.0
1.00699996948 -0.0299999993294 0.0340000018477 1157.0
1.00499999523 -0.0359999984503 0.0340000018477 1158.0
0.994000017643 -0.0410000011325 0.0340000018477 1162.0
1.00300002098 -0.0469999983907 0.0340000018477 1177.0
0.998000025749 -0.0529999993742 0.0340000018477 1187.0
0.996999979019 -0.0590000003576 0.0340000018477 1192.0
0.995999991894 -0.0640000030398 0.0340000018477 1196.0
0.992999970913 -0.070000000298 0.0340000018477 1197.0
0.992999970913 -0.0759999975562 0.0340000018477 1189.0
0.991999983788 -0.0810000002384 0.0340000018477 1213.0
0.991999983788 -0.0869999974966 0.0340000018477 1213.0
0.990000009537 -0.0920000001788 0.0340000018477 1222.0
0.985000014305 -0.097999997437 0.0340000018477 1224.0
0.98400002718 -0.103000000119 0.0340000018477 1236.0
0.980000019073 -0.108999997377 0.0340000018477 1006.0
0.887000024319 -0.103000000119 0.0299999993294 285.0
0.814999997616 -0.0989999994636 0.0280000008643 201.0
0.819000005722 -0.104000002146 0.0280000008643 200.0
0.823000013828 -0.109999999404 0.0280000008643 201.0
0.814999997616 -0.11400000006 0.0280000008643 203.0
0.791999995708 -0.115000002086 0.0270000007004 206.0
0.800000011921 -0.120999999344 0.0270000007004 204.0
0.824000000954 -0.128999993205 0.0280000008643 210.0
0.79699999094 -0.129999995232 0.0270000007004 214.0
0.816999971867 -0.137999996543 0.0280000008643 213.0
0.824000000954 -0.143999993801 0.0280000008643 215.0
0.816999971867 -0.148000001907 0.0280000008643 208.0
0.805000007153 -0.15000000596 0.0280000008643 211.0
0.832000017166 -0.159999996424 0.0289999991655 242.0
0.959999978542 -0.190999999642 0.0340000018477 996.0
0.959999978542 -0.196999996901 0.0340000018477 1366.0
0.964999973774 -0.203999996185 0.0340000018477 1394.0
0.96899998188 -0.21099999547 0.0340000018477 1390.0
0.961000025272 -0.215000003576 0.0340000018477 1395.0
0.952000021935 -0.218999996781 0.0340000018477 1408.0
0.95300000906 -0.22499999404 0.0340000018477 1418.0
0.953999996185 -0.231000006199 0.0340000018477 1425.0
0.952000021935 -0.236000001431 0.0340000018477 1426.0
0.950999975204 -0.241999998689 0.0340000018477 1433.0
0.949000000954 -0.24699999392 0.0340000018477 1432.0
0.947000026703 -0.252000004053 0.0340000018477 1432.0
0.950999975204 -0.259999990463 0.0340000018477 1446.0
0.945999979973 -0.263999998569 0.0340000018477 1441.0
0.930999994278 -0.266000002623 0.0329999998212 1005.0
0.827000021935 -0.240999996662 0.0299999993294 292.0
0.777000010014 -0.231000006199 0.0280000008643 227.0
0.777000010014 -0.236000001431 0.0280000008643 229.0
0.791999995708 -0.246000006795 0.0280000008643 235.0
0.787000000477 -0.248999997973 0.0280000008643 231.0
0.764999985695 -0.24699999392 0.0280000008643 233.0
0.77999997139 -0.256999999285 0.0280000008643 231.0
0.76599997282 -0.256999999285 0.0280000008643 233.0
0.759000003338 -0.259999990463 0.0280000008643 233.0
0.741999983788 -0.259000003338 0.0270000007004 229.0
0.755999982357 -0.268999993801 0.0280000008643 235.0
0.75 -0.272000014782 0.0270000007004 237.0
0.763999998569 -0.282000005245 0.0280000008643 242.0
0.860000014305 -0.324000000954 0.0320000015199 523.0
0.913999974728 -0.351000010967 0.0340000018477 1389.0
0.917999982834 -0.358999997377 0.0340000018477 1518.0
0.912999987602 -0.363000005484 0.0340000018477 1519.0
0.913999974728 -0.370000004768 0.0340000018477 1509.0
0.912000000477 -0.375 0.0340000018477 1515.0
0.912999987602 -0.381999999285 0.035000000149 1532.0
0.90499997139 -0.384999990463 0.0340000018477 1527.0
0.908999979496 -0.393000006676 0.035000000149 1516.0
0.902999997139 -0.397000014782 0.035000000149 1514.0
0.90499997139 -0.405000001192 0.035000000149 1546.0
0.898999989033 -0.409000009298 0.035000000149 1542.0
0.896000027657 -0.41400000453 0.035000000149 1542.0
0.896000027657 -0.419999986887 0.035000000149 1522.0
0.866999983788 -0.412999987602 0.0340000018477 772.0
0.722000002861 -0.349000006914 0.0280000008643 288.0
0.662000000477 -0.324000000954 0.0250000003725 234.0
0.708000004292 -0.352999985218 0.0270000007004 240.0
0.660000026226 -0.333000004292 0.0260000005364 241.0
0.663999974728 -0.340000003576 0.0260000005364 249.0
0.634000003338 -0.330000013113 0.0250000003725 245.0
0.644999980927 -0.340999990702 0.0250000003725 242.0
0.617999970913 -0.331000000238 0.0240000002086 247.0
0.638000011444 -0.347000002861 0.0250000003725 249.0
0.648999989033 -0.358000010252 0.0260000005364 246.0
0.862999975681 0.493999987841 0.0250000003725 811.0
0.865000009537 0.488000005484 0.0250000003725 791.0
0.867999970913 0.483000010252 0.0250000003725 783.0
0.870000004768 0.476999998093 0.0250000003725 787.0
0.879000008106 0.47499999404 0.0250000003725 774.0
0.870999991894 0.463999986649 0.0250000003725 793.0
0.883000016212 0.462999999523 0.0250000003725 802.0
0.882000029087 0.456000000238 0.0250000003725 806.0
0.879999995232 0.448000013828 0.0250000003725 802.0
0.894999980927 0.449000000954 0.0250000003725 805.0
0.887000024319 0.437999993563 0.0250000003725 799.0
0.888999998569 0.432000011206 0.0250000003725 802.0
0.893000006676 0.428000003099 0.0250000003725 780.0
0.89200001955 0.421000003815 0.0250000003725 788.0
0.899999976158 0.416999995708 0.0250000003725 810.0
0.896000027657 0.409000009298 0.0250000003725 802.0
0.897000014782 0.402999997139 0.0250000003725 802.0
0.896000027657 0.395999997854 0.0250000003725 809.0
0.907000005245 0.393999993801 0.0250000003725 805.0
0.90499997139 0.386999994516 0.0250000003725 796.0
0.902999997139 0.379999995232 0.0250000003725 797.0
0.902999997139 0.374000012875 0.0250000003725 798.0
0.903999984264 0.36700001359 0.0250000003725 816.0
0.907999992371 0.363000005484 0.0250000003725 798.0
0.90499997139 0.356000006199 0.0250000003725 806.0
0.913999974728 0.352999985218 0.0250000003725 805.0
0.916000008583 0.347000002861 0.0250000003725 819.0
0.907999992371 0.337999999523 0.0250000003725 810.0
0.911000013351 0.333000004292 0.0250000003725 807.0
0.919000029564 0.330000013113 0.0250000003725 806.0
0.915000021458 0.321999996901 0.0250000003725 796.0
0.916999995708 0.317000001669 0.0250000003725 807.0
0.916999995708 0.31099998951 0.0250000003725 803.0
0.926999986172 0.307999998331 0.0250000003725 824.0
0.929000020027 0.303000003099 0.0250000003725 817.0
0.925999999046 0.296000003815 0.0250000003725 812.0
0.934000015259 0.291999995708 0.0250000003725 829.0
0.930999994278 0.284999996424 0.0250000003725 848.0
0.930999994278 0.279000014067 0.0250000003725 852.0
0.936999976635 0.27500000596 0.0260000005364 849.0
0.933000028133 0.268000006676 0.0250000003725 842.0
0.931999981403 0.261999994516 0.0250000003725 864.0
0.940999984741 0.259000003338 0.0260000005364 871.0
0.944999992847 0.254000008106 0.0260000005364 879.0
0.944000005722 0.247999995947 0.0260000005364 881.0
0.944000005722 0.241999998689 0.0260000005364 892.0
0.944999992847 0.236000001431 0.0260000005364 903.0
0.945999979973 0.231000006199 0.0260000005364 906.0
0.949000000954 0.22499999404 0.0260000005364 919.0
0.944999992847 0.218999996781 0.0260000005364 923.0
0.949999988079 0.21400000155 0.0260000005364 927.0
0.950999975204 0.209000006318 0.0260000005364 929.0
0.953999996185 0.203999996185 0.0260000005364 945.0
0.957000017166 0.197999998927 0.0260000005364 963.0
0.966000020504 0.194000005722 0.0260000005364 981.0
0.955999970436 0.187000006437 0.0260000005364 985.0
0.955999970436 0.180999994278 0.0260000005364 977.0
0.958999991417 0.175999999046 0.0260000005364 984.0
0.957000017166 0.170000001788 0.0260000005364 1001.0
0.96899998188 0.165999993682 0.0260000005364 1009.0
0.962999999523 0.158999994397 0.0260000005364 1040.0
0.964999973774 0.153999999166 0.0260000005364 1046.0
0.962000012398 0.148000001907 0.0260000005364 1055.0
0.96899998188 0.143000006676 0.0260000005364 1048.0
0.967999994755 0.136999994516 0.0260000005364 1044.0
0.966000020504 0.130999997258 0.0260000005364 1076.0
0.972000002861 0.126000002027 0.0270000007004 1033.0
0.967999994755 0.119999997318 0.0260000005364 1021.0
0.973999977112 0.115000002086 0.0270000007004 1014.0
0.971000015736 0.108999997377 0.0260000005364 979.0
0.978999972343 0.104999996722 0.0270000007004 1000.0
0.975000023842 0.097999997437 0.0270000007004 1001.0
0.978999972343 0.0930000022054 0.0270000007004 959.0
0.976000010967 0.0869999974966 0.0270000007004 958.0
0.976999998093 0.082000002265 0.0270000007004 947.0
0.980000019073 0.0759999975562 0.0270000007004 941.0
0.973999977112 0.070000000298 0.0270000007004 915.0
0.967000007629 0.0640000030398 0.0270000007004 732.0
0.799000024796 0.0489999987185 0.0219999998808 142.0
0.234999999404 -0.00200000009499 0.00499999988824 53.0
0.987999975681 -0.0240000002086 0.0280000008643 669.0
0.996999979019 -0.0299999993294 0.0280000008643 956.0
0.973999977112 -0.035000000149 0.0270000007004 618.0
0.972999989986 -0.0399999991059 0.0270000007004 601.0
0.973999977112 -0.0460000000894 0.0270000007004 624.0
0.971000015736 -0.0520000010729 0.0270000007004 630.0
0.967000007629 -0.0570000000298 0.0270000007004 645.0
0.967999994755 -0.0619999989867 0.0270000007004 651.0
0.96899998188 -0.0680000036955 0.0270000007004 660.0
0.971000015736 -0.0740000009537 0.0270000007004 681.0
0.97000002861 -0.0790000036359 0.0270000007004 690.0
0.972000002861 -0.0850000008941 0.0270000007004 693.0
0.967000007629 -0.0900000035763 0.0270000007004 711.0
0.966000020504 -0.0960000008345 0.0270000007004 725.0
0.964999973774 -0.101000003517 0.0270000007004 731.0
0.967000007629 -0.107000000775 0.0270000007004 722.0
0.957000017166 -0.112000003457 0.0270000007004 646.0
0.955999970436 -0.116999998689 0.0270000007004 636.0
0.945999979973 -0.120999999344 0.0270000007004 625.0
0.944999992847 -0.127000004053 0.0270000007004 615.0
0.950999975204 -0.133000001311 0.0270000007004 614.0
0.941999971867 -0.136999994516 0.0270000007004 604.0
0.939999997616 -0.142000004649 0.0270000007004 598.0
0.948000013828 -0.149000003934 0.0270000007004 593.0
0.941999971867 -0.153999999166 0.0270000007004 576.0
0.930000007153 -0.157000005245 0.0270000007004 566.0
0.927999973297 -0.163000002503 0.0270000007004 562.0
0.929000020027 -0.167999997735 0.0270000007004 550.0
0.931999981403 -0.173999994993 0.0270000007004 545.0
0.920000016689 -0.178000003099 0.0270000007004 543.0
0.949000000954 -0.188999995589 0.0280000008643 874.0
0.949999988079 -0.194999992847 0.0280000008643 1036.0
0.953999996185 -0.202000007033 0.0280000008643 1054.0
0.949999988079 -0.206000000238 0.0280000008643 1073.0
0.950999975204 -0.212999999523 0.0280000008643 1090.0
0.950999975204 -0.217999994755 0.0280000008643 1104.0
0.944999992847 -0.223000004888 0.0280000008643 1131.0
0.952000021935 -0.230000004172 0.0280000008643 1148.0
0.949999988079 -0.236000001431 0.0280000008643 1150.0
0.940999984741 -0.238999992609 0.0280000008643 1181.0
0.948000013828 -0.24699999392 0.0280000008643 1186.0
0.943000018597 -0.250999987125 0.0280000008643 1225.0
0.93900001049 -0.256000012159 0.0280000008643 1216.0
0.940999984741 -0.263000011444 0.0280000008643 1244.0
0.933000028133 -0.266000002623 0.0280000008643 910.0
0.885999977589 -0.25799998641 0.0270000007004 424.0
0.867999970913 -0.25799998641 0.0260000005364 371.0
0.856999993324 -0.259999990463 0.0260000005364 372.0
0.855000019073 -0.264999985695 0.0260000005364 372.0
0.861000001431 -0.273000001907 0.0260000005364 361.0
0.84500002861 -0.273000001907 0.0260000005364 360.0
0.847000002861 -0.280000001192 0.0260000005364 356.0
0.852999985218 -0.287000000477 0.0260000005364 352.0
0.839999973774 -0.287999987602 0.0260000005364 348.0
0.84500002861 -0.294999986887 0.0260000005364 343.0
0.833000004292 -0.29699999094 0.0260000005364 345.0
0.808000028133 -0.293000012636 0.0250000003725 345.0
0.815999984741 -0.301999986172 0.0250000003725 338.0
0.871999979019 -0.328999996185 0.0270000007004 594.0
0.912000000477 -0.34999999404 0.0280000008643 1321.0
0.913999974728 -0.356999993324 0.0289999991655 1403.0
0.910000026226 -0.361999988556 0.0289999991655 1407.0
0.913999974728 -0.370000004768 0.0289999991655 1419.0
0.908999979496 -0.374000012875 0.0289999991655 1425.0
0.908999979496 -0.379999995232 0.0289999991655 1442.0
0.901000022888 -0.384000003338 0.0289999991655 1432.0
0.907000005245 -0.391999989748 0.0289999991655 1434.0
0.901000022888 -0.395999997854 0.0289999991655 1441.0
0.893999993801 -0.40000000596 0.0289999991655 1467.0
0.903999984264 -0.411000013351 0.0289999991655 1462.0
0.896000027657 -0.41400000453 0.0289999991655 1463.0
0.902999997139 -0.423000007868 0.0289999991655 1477.0
0.871999979019 -0.414999991655 0.0280000008643 754.0
0.768000006676 -0.370999991894 0.0250000003725 327.0
0.717000007629 -0.351000010967 0.0230000000447 277.0
0.694000005722 -0.345999985933 0.0219999998808 279.0
0.690999984741 -0.349000006914 0.0219999998808 270.0
0.679000020027 -0.347999989986 0.0219999998808 271.0
0.702000021935 -0.365999996662 0.0230000000447 266.0
0.67199999094 -0.354999989271 0.0219999998808 264.0
0.679000020027 -0.363999992609 0.0219999998808 266.0
0.649999976158 -0.352999985218 0.0209999997169 262.0
0.644999980927 -0.356000006199 0.0209999997169 261.0
0.778999984264 0.446000009775 0.0170000009239 328.0
0.769999980927 0.433999985456 0.0170000009239 301.0
0.742999970913 0.412999987602 0.01600000076 309.0
0.739000022411 0.405000001192 0.01600000076 311.0
0.745999991894 0.402999997139 0.01600000076 296.0
0.763999998569 0.405999988317 0.01600000076 294.0
0.71899998188 0.377000004053 0.0149999996647 299.0
0.722000002861 0.372999995947 0.0149999996647 276.0
0.739000022411 0.375999987125 0.01600000076 268.0
0.748000025749 0.375 0.01600000076 273.0
0.722000002861 0.356000006199 0.0149999996647 269.0
0.721000015736 0.34999999404 0.0149999996647 262.0
0.730000019073 0.349000006914 0.01600000076 250.0
0.695999979973 0.32800000906 0.0149999996647 254.0
0.686999976635 0.317999988794 0.0140000004321 254.0
0.671000003815 0.305999994278 0.0140000004321 249.0
0.670000016689 0.300999999046 0.0140000004321 245.0
0.669000029564 0.296000003815 0.0140000004321 248.0
0.691999971867 0.300999999046 0.0149999996647 240.0
0.671000003815 0.287000000477 0.0140000004321 238.0
0.644999980927 0.270999997854 0.0130000002682 235.0
0.629000008106 0.259999990463 0.0130000002682 231.0
0.592999994755 0.240999996662 0.0120000001043 225.0
0.573000013828 0.229000002146 0.0120000001043 222.0
0.580999970436 0.228000000119 0.0120000001043 217.0
0.591000020504 0.228000000119 0.0120000001043 207.0
0.592999994755 0.22499999404 0.0120000001043 202.0
0.586000025272 0.217999994755 0.0120000001043 205.0
0.579999983311 0.211999997497 0.0120000001043 203.0
0.564999997616 0.202999994159 0.0109999999404 199.0
0.601000010967 0.211999997497 0.0120000001043 192.0
0.53100001812 0.182999998331 0.0109999999404 191.0
0.578999996185 0.195999994874 0.0120000001043 190.0
0.592000007629 0.196999996901 0.0120000001043 189.0
0.568000018597 0.185000002384 0.0109999999404 190.0
0.574999988079 0.184000000358 0.0120000001043 190.0
0.59500002861 0.186000004411 0.0120000001043 189.0
0.572000026703 0.17499999702 0.0120000001043 196.0
0.634999990463 0.190999999642 0.0130000002682 196.0
0.653999984264 0.192000001669 0.0130000002682 201.0
0.638000011444 0.182999998331 0.0130000002682 204.0
0.616999983788 0.172999992967 0.0130000002682 204.0
0.606000006199 0.166999995708 0.0120000001043 198.0
0.600000023842 0.16099999845 0.0120000001043 190.0
0.634000003338 0.165999993682 0.0130000002682 196.0
0.72000002861 0.184000000358 0.0149999996647 213.0
0.811999976635 0.202999994159 0.0170000009239 226.0
0.833000004292 0.202999994159 0.0179999992251 226.0
0.84399998188 0.201000005007 0.0179999992251 221.0
0.82800000906 0.192000001669 0.0170000009239 232.0
0.84399998188 0.189999997616 0.0179999992251 225.0
0.842999994755 0.185000002384 0.0179999992251 226.0
0.824000000954 0.175999999046 0.0170000009239 230.0
0.856000006199 0.177000001073 0.0179999992251 236.0
0.851999998093 0.171000003815 0.0179999992251 241.0
0.85799998045 0.167999997735 0.0179999992251 239.0
0.856999993324 0.162000000477 0.0179999992251 241.0
0.85799998045 0.157000005245 0.0179999992251 248.0
0.865999996662 0.153999999166 0.0179999992251 252.0
0.862999975681 0.148000001907 0.0179999992251 250.0
0.89099997282 0.146999999881 0.0189999993891 259.0
0.897000014782 0.143000006676 0.0189999993891 270.0
0.888000011444 0.136000007391 0.0189999993891 267.0
0.898000001907 0.133000001311 0.0189999993891 270.0
0.885999977589 0.126000002027 0.0189999993891 270.0
0.888999998569 0.120999999344 0.0189999993891 277.0
0.887000024319 0.115000002086 0.0189999993891 272.0
0.908999979496 0.112999998033 0.0189999993891 274.0
0.898999989033 0.105999998748 0.0189999993891 280.0
0.907999992371 0.101999998093 0.0189999993891 266.0
0.911000013351 0.097000002861 0.019999999553 273.0
0.888000011444 0.0900000035763 0.0189999993891 268.0
0.901000022888 0.0860000029206 0.0189999993891 271.0
0.915000021458 0.082000002265 0.019999999553 286.0
0.901000022888 0.0750000029802 0.0189999993891 276.0
0.911000013351 0.0710000023246 0.019999999553 283.0
0.910000026226 0.0659999996424 0.019999999553 272.0
0.882000029087 0.0590000003576 0.0189999993891 213.0
0.597000002861 0.0370000004768 0.0120000001043 75.0
0.0149999996647 0.00200000009499 0.0 47.0
0.148000001907 0.0 0.00200000009499 51.0
0.989000022411 -0.0240000002086 0.0219999998808 694.0
0.987999975681 -0.0299999993294 0.0219999998808 807.0
0.860000014305 -0.0299999993294 0.0189999993891 208.0
0.81099998951 -0.0329999998212 0.0179999992251 184.0
0.810000002384 -0.0379999987781 0.0179999992251 184.0
0.815999984741 -0.0430000014603 0.0179999992251 190.0
0.837000012398 -0.0489999987185 0.0179999992251 185.0
0.814999997616 -0.0520000010729 0.0179999992251 187.0
0.842000007629 -0.0590000003576 0.0189999993891 187.0
0.808000028133 -0.0610000006855 0.0179999992251 192.0
0.824000000954 -0.0670000016689 0.0179999992251 193.0
0.813000023365 -0.0710000023246 0.0179999992251 190.0
0.804000020027 -0.0750000029802 0.0179999992251 190.0
0.819999992847 -0.0810000002384 0.0179999992251 193.0
0.810000002384 -0.0850000008941 0.0179999992251 199.0
0.926999986172 -0.103000000119 0.0209999997169 426.0
0.98400002718 -0.115000002086 0.0219999998808 1169.0
0.981000006199 -0.119999997318 0.0219999998808 1254.0
0.977999985218 -0.126000002027 0.0219999998808 1261.0
0.977999985218 -0.130999997258 0.0219999998808 1260.0
0.972000002861 -0.136000007391 0.0219999998808 1275.0
0.976000010967 -0.142000004649 0.0219999998808 1295.0
0.973999977112 -0.148000001907 0.0219999998808 1295.0
0.971000015736 -0.152999997139 0.0219999998808 1305.0
0.96899998188 -0.158000007272 0.0219999998808 1319.0
0.964999973774 -0.16400000453 0.0219999998808 1309.0
0.966000020504 -0.168999999762 0.0219999998808 1314.0
0.964999973774 -0.17499999702 0.0219999998808 1316.0
0.966000020504 -0.180999994278 0.0219999998808 1319.0
0.958999991417 -0.185000002384 0.0219999998808 1291.0
0.922999978065 -0.184000000358 0.0209999997169 528.0
0.846000015736 -0.172999992967 0.019999999553 253.0
0.834999978542 -0.175999999046 0.0189999993891 264.0
0.837999999523 -0.181999996305 0.0189999993891 264.0
0.827000021935 -0.184000000358 0.0189999993891 277.0
0.846000015736 -0.194000005722 0.019999999553 274.0
0.84399998188 -0.197999998927 0.019999999553 288.0
0.855000019073 -0.206000000238 0.019999999553 297.0
0.867999970913 -0.215000003576 0.019999999553 300.0
0.851000010967 -0.216000005603 0.019999999553 309.0
0.856999993324 -0.223000004888 0.019999999553 320.0
0.860000014305 -0.229000002146 0.019999999553 331.0
0.865999996662 -0.236000001431 0.0209999997169 332.0
0.860000014305 -0.239999994636 0.019999999553 348.0
0.916999995708 -0.261999994516 0.0219999998808 722.0
0.933000028133 -0.272000014782 0.0230000000447 1246.0
0.931999981403 -0.277999997139 0.0230000000447 1277.0
0.927999973297 -0.282999992371 0.0230000000447 1270.0
0.927999973297 -0.28900000453 0.0230000000447 1262.0
0.926999986172 -0.293999999762 0.0230000000447 1231.0
0.927999973297 -0.300000011921 0.0230000000447 1228.0
0.922999978065 -0.305000007153 0.0230000000447 1209.0
0.92199999094 -0.31099998951 0.0230000000447 1198.0
0.921000003815 -0.316000014544 0.0230000000447 1161.0
0.917999982834 -0.321000009775 0.0230000000447 1137.0
0.916999995708 -0.326999992132 0.0230000000447 1129.0
0.913999974728 -0.331999987364 0.0230000000447 1102.0
0.912999987602 -0.337999999523 0.0230000000447 1078.0
0.907000005245 -0.342000007629 0.0230000000447 926.0
0.89099997282 -0.342000007629 0.0219999998808 702.0
0.880999982357 -0.344000011683 0.0219999998808 696.0
0.870999991894 -0.345999985933 0.0219999998808 720.0
0.883000016212 -0.356999993324 0.0219999998808 742.0
0.883000016212 -0.363000005484 0.0219999998808 764.0
0.879999995232 -0.368000000715 0.0219999998808 782.0
0.882000029087 -0.375 0.0230000000447 804.0
0.878000020981 -0.379999995232 0.0230000000447 813.0
0.884000003338 -0.388999998569 0.0230000000447 841.0
0.885999977589 -0.395999997854 0.0230000000447 863.0
0.874000012875 -0.397000014782 0.0230000000447 876.0
0.871999979019 -0.402000010014 0.0230000000447 880.0
0.879999995232 -0.412999987602 0.0230000000447 896.0
0.871999979019 -0.414999991655 0.0230000000447 839.0
0.855000019073 -0.41400000453 0.0219999998808 769.0
0.861000001431 -0.423000007868 0.0230000000447 758.0
0.856999993324 -0.428000003099 0.0230000000447 705.0
0.850000023842 -0.430999994278 0.0230000000447 679.0
0.838999986649 -0.432000011206 0.0219999998808 661.0
0.837000012398 -0.437000006437 0.0219999998808 624.0
0.827000021935 -0.437999993563 0.0219999998808 595.0
0.823000013828 -0.442000001669 0.0219999998808 598.0
0.811999976635 -0.442999988794 0.0219999998808 581.0
0.801999986172 -0.444000005722 0.0219999998808 561.0
0.035000000149 0.0189999993891 0.0 115.0
0.0299999993294 0.01600000076 0.0 94.0
4.41800022125 2.46199989319 0.0759999975562 105.0
0.0430000014603 0.0230000000447 0.0 121.0
4.44899988174 2.40799999237 0.0759999975562 97.0
4.45300006866 2.37400007248 0.0759999975562 94.0
4.49499988556 2.36100006104 0.0769999995828 117.0
4.44199991226 2.2990000248 0.0759999975562 95.0
4.38999986649 2.23699998856 0.0750000029802 94.0
4.44500017166 2.23099994659 0.0759999975562 92.0
4.48199987411 2.21499991417 0.0759999975562 97.0
4.4310002327 2.15700006485 0.0750000029802 87.0
4.51200008392 2.16199994087 0.0759999975562 96.0
4.46500015259 2.10599994659 0.0759999975562 104.0
4.48999977112 2.08500003815 0.0759999975562 108.0
4.35300016403 1.98899996281 0.0740000009537 119.0
4.35799980164 1.95899999142 0.0740000009537 126.0
4.46799993515 1.97599995136 0.0750000029802 121.0
4.52299976349 1.96800005436 0.0759999975562 120.0
4.5110001564 1.92999994755 0.0759999975562 118.0
4.53399991989 1.90799999237 0.0759999975562 122.0
4.46700000763 1.84800004959 0.0750000029802 142.0
4.48999977112 1.8259999752 0.0759999975562 137.0
4.48199987411 1.79100000858 0.0750000029802 130.0
4.51300001144 1.77300000191 0.0759999975562 137.0
4.51900005341 1.74399995804 0.0759999975562 133.0
4.53999996185 1.72099995613 0.0759999975562 133.0
4.52500009537 1.68499994278 0.0759999975562 121.0
4.58599996567 1.67599999905 0.0769999995828 121.0
4.57299995422 1.64100003242 0.0769999995828 126.0
4.58300018311 1.61399996281 0.0769999995828 117.0
4.53999996185 1.56799995899 0.0759999975562 116.0
4.53000020981 1.53499996662 0.0759999975562 114.0
4.58599996567 1.52400004864 0.0769999995828 119.0
4.57399988174 1.49000000954 0.0769999995828 121.0
4.57000017166 1.45899999142 0.0769999995828 120.0
4.61299991608 1.44200003147 0.0780000016093 115.0
4.59600019455 1.40699994564 0.0769999995828 117.0
4.58099985123 1.37300002575 0.0769999995828 115.0
4.63100004196 1.35899996758 0.0780000016093 116.0
4.61499977112 1.32500004768 0.0780000016093 118.0
4.59700012207 1.28999996185 0.0769999995828 115.0
4.62300014496 1.26900005341 0.0780000016093 114.0
4.61499977112 1.23699998856 0.0780000016093 115.0
4.69099998474 1.22800004482 0.0790000036359 98.0
0.00800000037998 0.00200000009499 -0.0010000000475 91.0
0.280000001192 0.070000000298 0.00300000002608 78.0
0.151999995112 0.0370000004768 0.0010000000475 67.0
0.118000000715 0.0280000008643 0.0 60.0
0.123999997973 0.0289999991655 0.0 63.0
0.112999998033 0.0260000005364 0.0 60.0
0.145999997854 0.0329999998212 0.0010000000475 60.0
0.11400000006 0.0250000003725 0.0 63.0
0.156000003219 0.0329999998212 0.0010000000475 60.0
0.152999997139 0.0309999994934 0.0010000000475 57.0
0.136999994516 0.0270000007004 0.0010000000475 59.0
0.145999997854 0.0280000008643 0.0010000000475 54.0
0.153999999166 0.0289999991655 0.0010000000475 63.0
0.0680000036955 0.0130000002682 0.0 53.0
0.15000000596 0.0260000005364 0.0010000000475 58.0
0.15000000596 0.0250000003725 0.0010000000475 61.0
0.181999996305 0.0299999993294 0.0010000000475 53.0
0.177000001073 0.0270000007004 0.0010000000475 63.0
0.112000003457 0.0170000009239 0.0 53.0
0.186000004411 0.0260000005364 0.00200000009499 54.0
0.180999994278 0.0240000002086 0.0010000000475 60.0
0.163000002503 0.0209999997169 0.0010000000475 58.0
0.141000002623 0.0179999992251 0.0010000000475 54.0
0.141000002623 0.0170000009239 0.0010000000475 62.0
0.20000000298 0.0219999998808 0.00200000009499 55.0
0.108000002801 0.0120000001043 0.0 57.0
0.218999996781 0.0219999998808 0.00200000009499 53.0
0.187999993563 0.0179999992251 0.00200000009499 52.0
0.144999995828 0.0130000002682 0.0010000000475 55.0
0.109999999404 0.00999999977648 0.0 55.0
0.12800000608 0.00999999977648 0.0010000000475 49.0
0.00899999961257 0.00200000009499 -0.0010000000475 51.0
0.352999985218 -0.00499999988824 0.00499999988824 56.0
0.989000022411 -0.0240000002086 0.01600000076 716.0
0.990000009537 -0.0299999993294 0.01600000076 781.0
0.842999994755 -0.0299999993294 0.0140000004321 203.0
0.819000005722 -0.0340000018477 0.0130000002682 181.0
0.787000000477 -0.0370000004768 0.0130000002682 183.0
0.81099998951 -0.0430000014603 0.0130000002682 181.0
0.805000007153 -0.0469999983907 0.0130000002682 184.0
0.805999994278 -0.0520000010729 0.0130000002682 185.0
0.814999997616 -0.0570000000298 0.0130000002682 183.0
0.782000005245 -0.0590000003576 0.0130000002682 183.0
0.799000024796 -0.0649999976158 0.0130000002682 186.0
0.799000024796 -0.0689999982715 0.0130000002682 186.0
0.805999994278 -0.0750000029802 0.0130000002682 189.0
0.795000016689 -0.0780000016093 0.0130000002682 193.0
0.822000026703 -0.0860000029206 0.0140000004321 195.0
0.930000007153 -0.103000000119 0.01600000076 432.0
0.980000019073 -0.11400000006 0.0170000009239 1195.0
0.981999993324 -0.119999997318 0.0170000009239 1268.0
0.978999972343 -0.126000002027 0.0170000009239 1280.0
0.972999989986 -0.130999997258 0.0170000009239 1287.0
0.978999972343 -0.136999994516 0.0170000009239 1306.0
0.978999972343 -0.143000006676 0.0170000009239 1315.0
0.972000002861 -0.146999999881 0.0170000009239 1310.0
0.976999998093 -0.153999999166 0.0170000009239 1324.0
0.967999994755 -0.158000007272 0.0170000009239 1332.0
0.967999994755 -0.16400000453 0.0170000009239 1351.0
0.971000015736 -0.170000001788 0.0170000009239 1352.0
0.96899998188 -0.175999999046 0.0170000009239 1364.0
0.967000007629 -0.180999994278 0.0170000009239 1365.0
0.963999986649 -0.186000004411 0.0170000009239 1330.0
0.915000021458 -0.181999996305 0.01600000076 507.0
0.811999976635 -0.165999993682 0.0140000004321 218.0
0.774999976158 -0.163000002503 0.0130000002682 222.0
0.813000023365 -0.175999999046 0.0140000004321 216.0
0.790000021458 -0.175999999046 0.0140000004321 221.0
0.800999999046 -0.182999998331 0.0140000004321 221.0
0.778999984264 -0.182999998331 0.0130000002682 221.0
0.796000003815 -0.192000001669 0.0140000004321 221.0
0.772000014782 -0.190999999642 0.0130000002682 219.0
0.77999997139 -0.197999998927 0.0140000004321 219.0
0.772000014782 -0.20000000298 0.0140000004321 224.0
0.790000021458 -0.209999993443 0.0140000004321 229.0
0.788999974728 -0.21400000155 0.0140000004321 226.0
0.77999997139 -0.216999992728 0.0140000004321 223.0
0.911000013351 -0.259999990463 0.01600000076 673.0
0.936999976635 -0.273000001907 0.0170000009239 1395.0
0.941999971867 -0.280999988317 0.0170000009239 1437.0
0.939999997616 -0.286000013351 0.0170000009239 1469.0
0.941999971867 -0.293000012636 0.0170000009239 1478.0
0.93599998951 -0.29699999094 0.0170000009239 1476.0
0.935000002384 -0.303000003099 0.0170000009239 1486.0
0.930000007153 -0.307000011206 0.0170000009239 1485.0
0.930999994278 -0.31400001049 0.0170000009239 1500.0
0.929000020027 -0.319000005722 0.0170000009239 1484.0
0.925999999046 -0.324000000954 0.0170000009239 1483.0
0.927999973297 -0.331000000238 0.0170000009239 1485.0
0.92199999094 -0.335000008345 0.0170000009239 1488.0
0.921000003815 -0.340999990702 0.0170000009239 1490.0
0.916000008583 -0.344999998808 0.0170000009239 1163.0
0.833000004292 -0.319000005722 0.01600000076 338.0
0.72000002861 -0.280000001192 0.0130000002682 239.0
0.741999983788 -0.293999999762 0.0140000004321 244.0
0.750999987125 -0.303000003099 0.0140000004321 248.0
0.717000007629 -0.293999999762 0.0130000002682 249.0
0.728999972343 -0.303999990225 0.0140000004321 249.0
0.73299998045 -0.31099998951 0.0140000004321 245.0
0.72000002861 -0.310000002384 0.0140000004321 266.0
0.737999975681 -0.324000000954 0.0140000004321 269.0
0.73299998045 -0.326999992132 0.0140000004321 272.0
0.741999983788 -0.33599999547 0.0140000004321 281.0
0.740000009537 -0.340999990702 0.0140000004321 287.0
0.745000004768 -0.349000006914 0.0149999996647 304.0
0.879999995232 -0.418999999762 0.0179999992251 969.0
0.888999998569 -0.430000007153 0.0179999992251 1414.0
0.888999998569 -0.437000006437 0.0179999992251 1458.0
0.888000011444 -0.442999988794 0.0179999992251 1446.0
0.883000016212 -0.448000013828 0.0179999992251 1435.0
0.879000008106 -0.451999992132 0.0179999992251 1410.0
0.870000004768 -0.453999996185 0.0179999992251 1391.0
0.878000020981 -0.465000003576 0.0179999992251 1386.0
0.878000020981 -0.472999989986 0.0179999992251 1383.0
0.869000017643 -0.47499999404 0.0179999992251 1361.0
0.869000017643 -0.481000006199 0.0179999992251 1349.0
4.36199998856 2.50200009346 0.0460000000894 121.0
4.33699989319 2.45199990273 0.0460000000894 95.0
4.39300012589 2.44799995422 0.0469999983907 99.0
4.40199995041 2.41700005531 0.0469999983907 115.0
4.4359998703 2.40000009537 0.0469999983907 118.0
4.42100000381 2.35700011253 0.0469999983907 115.0
4.42100000381 2.3220000267 0.0469999983907 106.0
4.36899995804 2.25999999046 0.0460000000894 97.0
4.36299991608 2.22300004959 0.0460000000894 88.0
4.47599983215 2.2460000515 0.0480000004172 108.0
4.48299980164 2.21499991417 0.0480000004172 107.0
4.26200008392 2.07399988174 0.0450000017881 94.0
4.32100009918 2.06999993324 0.0460000000894 106.0
4.42299985886 2.08599996567 0.0469999983907 114.0
4.40500020981 2.04399991035 0.0469999983907 112.0
4.28999996185 1.96000003815 0.0460000000894 131.0
4.33300018311 1.94799995422 0.0460000000894 131.0
4.42999982834 1.95899999142 0.0469999983907 123.0
4.52699995041 1.96899998188 0.0480000004172 119.0
4.51800012589 1.93299996853 0.0480000004172 116.0
4.46899986267 1.87999999523 0.0480000004172 125.0
4.4279999733 1.83200001717 0.0469999983907 145.0
4.44999980927 1.80999994278 0.0480000004172 145.0
4.45800018311 1.78199994564 0.0480000004172 145.0
4.49100017548 1.76400005817 0.0480000004172 141.0
4.47700023651 1.72800004482 0.0480000004172 136.0
4.492000103 1.70200002193 0.0480000004172 137.0
4.50500011444 1.67700004578 0.0480000004172 129.0
4.48999977112 1.64100003242 0.0480000004172 133.0
4.50400018692 1.61600005627 0.0480000004172 136.0
4.50600004196 1.58599996567 0.0480000004172 131.0
4.49599981308 1.5529999733 0.0480000004172 126.0
4.53599977493 1.53699994087 0.0489999987185 124.0
4.53900003433 1.50800001621 0.0489999987185 125.0
4.55700016022 1.48399996758 0.0489999987185 125.0
4.5560002327 1.45399999619 0.0489999987185 120.0
4.58799982071 1.43400001526 0.0500000007451 125.0
4.54699993134 1.39199995995 0.0489999987185 121.0
4.58599996567 1.375 0.0500000007451 124.0
4.58300018311 1.34399998188 0.0500000007451 124.0
4.58599996567 1.31599998474 0.0500000007451 125.0
4.5689997673 1.28199994564 0.0500000007451 121.0
4.59700012207 1.26100003719 0.0500000007451 121.0
4.54899978638 1.21899998188 0.0500000007451 126.0
4.6139998436 1.20799994469 0.0500000007451 103.0
4.89200019836 1.25 0.0540000014007 91.0
0.146999999881 0.0370000004768 0.0 76.0
0.25 0.0610000006855 0.0010000000475 62.0
0.108000002801 0.0260000005364 0.0 57.0
0.108000002801 0.0250000003725 0.0 61.0
0.00800000037998 0.00200000009499 -0.0010000000475 60.0
0.123999997973 0.0280000008643 0.0 58.0
0.0500000007451 0.0109999999404 0.0 63.0
0.127000004053 0.0270000007004 0.0 57.0
0.244000002742 0.0500000007451 0.0010000000475 52.0
0.145999997854 0.0289999991655 0.0 57.0
0.070000000298 0.0140000004321 0.0 56.0
0.195999994874 0.0370000004768 0.0010000000475 62.0
0.0469999983907 0.00899999961257 0.0 57.0
0.104000002146 0.0179999992251 0.0 54.0
0.103000000119 0.0179999992251 0.0 57.0
0.137999996543 0.0230000000447 0.0 59.0
0.206000000238 0.0320000015199 0.0010000000475 60.0
0.0640000030398 0.00999999977648 0.0 58.0
0.0509999990463 0.00800000037998 0.0 58.0
0.0270000007004 0.00400000018999 0.0 54.0
0.153999999166 0.0189999993891 0.0 54.0
0.208000004292 0.0230000000447 0.0010000000475 55.0
0.0890000015497 0.00999999977648 0.0 57.0
0.127000004053 0.0130000002682 0.0 52.0
0.0869999974966 0.00899999961257 0.0 52.0
0.123000003397 0.0109999999404 0.0 50.0
0.112999998033 0.00999999977648 0.0 48.0
0.430000007153 -0.00600000005215 0.00400000018999 61.0
0.990000009537 -0.0240000002086 0.0109999999404 728.0
0.985000014305 -0.0299999993294 0.00999999977648 760.0
0.836000025272 -0.0299999993294 0.00899999961257 198.0
0.809000015259 -0.0329999998212 0.00800000037998 176.0
0.808000028133 -0.0379999987781 0.00800000037998 186.0
0.804000020027 -0.0419999994338 0.00800000037998 182.0
0.814999997616 -0.0469999983907 0.00800000037998 181.0
0.791999995708 -0.0509999990463 0.00800000037998 185.0
0.790000021458 -0.054999999702 0.00800000037998 182.0
0.825999975204 -0.0619999989867 0.00899999961257 185.0
0.81400001049 -0.0659999996424 0.00899999961257 182.0
0.804000020027 -0.070000000298 0.00800000037998 186.0
0.810000002384 -0.0750000029802 0.00899999961257 188.0
0.800999999046 -0.0790000036359 0.00899999961257 190.0
0.832000017166 -0.0869999974966 0.00899999961257 190.0
0.921000003815 -0.101999998093 0.00999999977648 441.0
0.981000006199 -0.11400000006 0.0109999999404 1193.0
0.981999993324 -0.119999997318 0.0109999999404 1270.0
0.981000006199 -0.126000002027 0.0109999999404 1286.0
0.976000010967 -0.130999997258 0.0109999999404 1282.0
0.973999977112 -0.136000007391 0.0109999999404 1301.0
0.977999985218 -0.143000006676 0.0109999999404 1300.0
0.978999972343 -0.149000003934 0.0109999999404 1307.0
0.976999998093 -0.153999999166 0.0109999999404 1325.0
0.977999985218 -0.159999996424 0.0109999999404 1338.0
0.966000020504 -0.16400000453 0.0109999999404 1345.0
0.967999994755 -0.170000001788 0.0109999999404 1352.0
0.963999986649 -0.17499999702 0.0109999999404 1360.0
0.96899998188 -0.181999996305 0.0109999999404 1362.0
0.964999973774 -0.186000004411 0.0109999999404 1320.0
0.916999995708 -0.182999998331 0.0109999999404 498.0
0.76700001955 -0.157000005245 0.00899999961257 213.0
0.796000003815 -0.167999997735 0.00899999961257 220.0
0.777000010014 -0.167999997735 0.00899999961257 210.0
0.787000000477 -0.17499999702 0.00899999961257 217.0
0.790000021458 -0.180999994278 0.00899999961257 218.0
0.778999984264 -0.182999998331 0.00899999961257 218.0
0.799000024796 -0.193000003695 0.00899999961257 224.0
0.786000013351 -0.194000005722 0.00899999961257 224.0
0.785000026226 -0.199000000954 0.00899999961257 220.0
0.773000001907 -0.20000000298 0.00899999961257 225.0
0.764999985695 -0.202999994159 0.00899999961257 219.0
0.774999976158 -0.21099999547 0.00899999961257 228.0
0.777999997139 -0.216999992728 0.00899999961257 225.0
0.912999987602 -0.259999990463 0.0109999999404 684.0
0.941999971867 -0.27500000596 0.0120000001043 1408.0
0.940999984741 -0.280000001192 0.0120000001043 1461.0
0.945999979973 -0.287999987602 0.0120000001043 1474.0
0.935000002384 -0.291000008583 0.0120000001043 1467.0
0.934000015259 -0.296000003815 0.0120000001043 1478.0
0.93900001049 -0.303999990225 0.0120000001043 1474.0
0.933000028133 -0.307999998331 0.0120000001043 1490.0
0.930000007153 -0.312999993563 0.0120000001043 1493.0
0.927999973297 -0.319000005722 0.0120000001043 1494.0
0.926999986172 -0.324999988079 0.0120000001043 1485.0
0.927999973297 -0.331000000238 0.0120000001043 1507.0
0.925000011921 -0.33599999547 0.0120000001043 1508.0
0.924000024796 -0.342000007629 0.0120000001043 1497.0
0.912000000477 -0.344000011683 0.0120000001043 1163.0
0.813000023365 -0.31099998951 0.00999999977648 321.0
0.741999983788 -0.28900000453 0.00899999961257 245.0
0.708999991417 -0.280999988317 0.00899999961257 233.0
0.737999975681 -0.298000007868 0.00899999961257 234.0
0.717000007629 -0.293999999762 0.00899999961257 235.0
0.70300000906 -0.293000012636 0.00899999961257 240.0
0.728999972343 -0.308999985456 0.00899999961257 234.0
0.705999970436 -0.303999990225 0.00899999961257 243.0
0.697000026703 -0.305999994278 0.00899999961257 237.0
0.702000021935 -0.312999993563 0.00899999961257 240.0
0.677999973297 -0.307000011206 0.00899999961257 248.0
0.70300000906 -0.323000013828 0.00899999961257 242.0
0.702000021935 -0.32800000906 0.00899999961257 246.0
0.875999987125 -0.416999995708 0.0120000001043 968.0
0.898000001907 -0.435000002384 0.0120000001043 1498.0
0.897000014782 -0.441000014544 0.0120000001043 1551.0
0.889999985695 -0.444000005722 0.0120000001043 1536.0
0.885999977589 -0.449000000954 0.0120000001043 1543.0
0.882000029087 -0.453999996185 0.0120000001043 1552.0
0.887000024319 -0.463999986649 0.0130000002682 1535.0
0.875999987125 -0.465000003576 0.0120000001043 1532.0
0.880999982357 -0.474000006914 0.0130000002682 1534.0
0.878000020981 -0.479000002146 0.0130000002682 1534.0
0.874000012875 -0.483999997377 0.0130000002682 1545.0
4.32499980927 2.48099994659 0.0179999992251 110.0
4.18499994278 2.36599993706 0.0170000009239 92.0
4.242000103 2.36299991608 0.0179999992251 91.0
4.34800004959 2.38700008392 0.0179999992251 107.0
4.375 2.367000103 0.0179999992251 109.0
4.36800003052 2.32800006866 0.0179999992251 115.0
4.34800004959 2.28299999237 0.0179999992251 116.0
4.22300004959 2.18400001526 0.0179999992251 95.0
4.24499988556 2.16300010681 0.0179999992251 95.0
4.40700006485 2.21099996567 0.0189999993891 113.0
4.36800003052 2.15799999237 0.0189999993891 113.0
3.97099995613 1.93200004101 0.0170000009239 112.0
4.05999994278 1.94500005245 0.0179999992251 113.0
4.32000017166 2.03699994087 0.0189999993891 115.0
4.3029999733 1.99699997902 0.0189999993891 137.0
4.18300008774 1.91100001335 0.0179999992251 169.0
4.21299982071 1.89300000668 0.0189999993891 161.0
4.26300001144 1.88499999046 0.0189999993891 140.0
4.48000001907 1.94900000095 0.019999999553 118.0
4.48000001907 1.91700005531 0.019999999553 130.0
4.4439997673 1.86899995804 0.019999999553 136.0
4.36199998856 1.80400002003 0.019999999553 175.0
4.37099981308 1.77699995041 0.019999999553 163.0
4.39300012589 1.75499999523 0.019999999553 167.0
4.40799999237 1.73099994659 0.019999999553 161.0
4.40500020981 1.70000004768 0.019999999553 164.0
4.41400003433 1.67299997807 0.019999999553 156.0
4.44799995422 1.65499997139 0.0209999997169 157.0
4.44199991226 1.62300002575 0.0209999997169 156.0
4.43400001526 1.59000003338 0.0209999997169 154.0
