ply
format ascii 1.0
element vertex 903
property float x
property float y
property float z
property float intensity
end_header
0.89099997282 -0.243000000715 -0.0460000000894 1828.0
0.893000006676 -0.248999997973 -0.0460000000894 1834.0
0.888000011444 -0.254000008106 -0.0460000000894 1779.0
0.889999985695 -0.259999990463 -0.0460000000894 1737.0
0.884000003338 -0.263999998569 -0.0460000000894 1713.0
0.883000016212 -0.268999993801 -0.0460000000894 1754.0
0.89200001955 -0.277999997139 -0.0469999983907 1724.0
0.883000016212 -0.280999988317 -0.0460000000894 1768.0
0.889999985695 -0.28900000453 -0.0469999983907 1781.0
0.884999990463 -0.293000012636 -0.0460000000894 1832.0
0.884999990463 -0.298000007868 -0.0460000000894 1872.0
0.880999982357 -0.303000003099 -0.0460000000894 1871.0
0.879000008106 -0.307999998331 -0.0460000000894 1875.0
0.885999977589 -0.317000001669 -0.0469999983907 1860.0
0.884000003338 -0.321999996901 -0.0469999983907 1920.0
0.882000029087 -0.326999992132 -0.0469999983907 1883.0
0.879999995232 -0.331999987364 -0.0469999983907 1874.0
0.878000020981 -0.337999999523 -0.0469999983907 1930.0
0.879000008106 -0.344000011683 -0.0469999983907 1886.0
0.879000008106 -0.34999999404 -0.0469999983907 1827.0
0.880999982357 -0.356999993324 -0.0469999983907 1817.0
0.879000008106 -0.361999988556 -0.0469999983907 1843.0
0.879999995232 -0.368999987841 -0.0469999983907 1752.0
0.870000004768 -0.370999991894 -0.0469999983907 1764.0
0.874000012875 -0.379000008106 -0.0469999983907 1784.0
0.871999979019 -0.384000003338 -0.0469999983907 1781.0
0.875999987125 -0.391999989748 -0.0469999983907 1800.0
0.878000020981 -0.40000000596 -0.0469999983907 1772.0
0.875 -0.404000014067 -0.0469999983907 1775.0
0.874000012875 -0.409999996424 -0.0469999983907 1787.0
0.875999987125 -0.418000012636 -0.0469999983907 1740.0
0.870000004768 -0.42199999094 -0.0469999983907 1783.0
0.873000025749 -0.430000007153 -0.0469999983907 1844.0
0.870000004768 -0.435000002384 -0.0469999983907 1813.0
0.867999970913 -0.441000014544 -0.0469999983907 1780.0
0.867999970913 -0.446999996901 -0.0469999983907 1833.0
0.866999983788 -0.453999996185 -0.0480000004172 1840.0
0.870000004768 -0.462000012398 -0.0480000004172 1786.0
0.869000017643 -0.469000011683 -0.0480000004172 1691.0
0.865999996662 -0.474000006914 -0.0480000004172 1683.0
0.865000009537 -0.481000006199 -0.0480000004172 1710.0
0.950999975204 0.545000016689 -0.0640000030398 251.0
1.03999996185 0.587999999523 -0.070000000298 208.0
1.3370000124 0.745000004768 -0.0900000035763 185.0
1.35399997234 0.742999970913 -0.0900000035763 140.0
1.03199994564 0.558000028133 -0.0689999982715 173.0
3.14499998093 1.30099999905 -0.199000000954 65.0
3.83800005913 1.48199999332 -0.239999994636 62.0
3.82399988174 1.45000004768 -0.238999992609 69.0
3.98399996758 1.45700001717 -0.24699999392 69.0
4.05399990082 1.45500004292 -0.250999987125 67.0
4.13899993896 1.45799994469 -0.256000012159 79.0
4.1360001564 1.42900002003 -0.254999995232 83.0
4.16599988937 1.41199994087 -0.256000012159 81.0
4.14699983597 1.37800002098 -0.254999995232 77.0
4.18699979782 1.36399996281 -0.256000012159 74.0
4.1970000267 1.34000003338 -0.256999999285 72.0
4.14799976349 1.29700005054 -0.252999991179 82.0
4.15799999237 1.27300000191 -0.252999991179 84.0
4.21799993515 1.26499998569 -0.256000012159 86.0
4.04400014877 1.18599998951 -0.245000004768 87.0
4.10799980164 1.17900002003 -0.248999997973 91.0
4.15899991989 1.16700005531 -0.250999987125 85.0
4.08900022507 1.12199997902 -0.24699999392 86.0
4.0609998703 1.08899998665 -0.244000002742 91.0
4.09999990463 1.07299995422 -0.246000006795 96.0
4.15299987793 1.06099998951 -0.248999997973 96.0
4.08699989319 1.01900005341 -0.245000004768 90.0
4.02600002289 0.978999972343 -0.240999996662 106.0
4.10500001907 0.972999989986 -0.245000004768 111.0
4.07499980927 0.940999984741 -0.243000000715 111.0
4.11899995804 0.925999999046 -0.245000004768 120.0
4.10200023651 0.897000014782 -0.244000002742 105.0
4.117000103 0.875 -0.244000002742 111.0
4.07899999619 0.842000007629 -0.241999998689 119.0
4.07499980927 0.815999984741 -0.240999996662 100.0
4.34200000763 0.84399998188 -0.256000012159 74.0
4.5720000267 0.861000001431 -0.270000010729 64.0
4.57399988174 0.833999991417 -0.268999993801 73.0
4.58699989319 0.809000015259 -0.270000010729 78.0
4.5720000267 0.778999984264 -0.268000006676 67.0
4.58099985123 0.753000020981 -0.268999993801 73.0
4.59700012207 0.727999985218 -0.268999993801 69.0
4.66400003433 0.711000025272 -0.273000001907 63.0
4.63800001144 0.680000007153 -0.270999997854 67.0
4.66900014877 0.657000005245 -0.272000014782 71.0
4.6360001564 0.625 -0.270000010729 66.0
4.64599990845 0.598999977112 -0.270999997854 66.0
4.65700006485 0.573000013828 -0.270999997854 68.0
4.71400022507 0.551999986172 -0.273999989033 63.0
4.70599985123 0.523999989033 -0.273000001907 65.0
4.71799993515 0.497999995947 -0.273999989033 66.0
4.79799985886 0.477999985218 -0.277999997139 62.0
4.75400018692 0.446000009775 -0.27500000596 59.0
4.78999996185 0.42199999094 -0.277000010014 65.0
4.78200006485 0.393000006676 -0.275999993086 55.0
4.78800010681 0.365999996662 -0.275999993086 58.0
4.84499979019 0.342000007629 -0.279000014067 59.0
4.84700012207 0.31400001049 -0.279000014067 57.0
4.79199981689 0.282999992371 -0.275999993086 58.0
4.85599994659 0.259000003338 -0.279000014067 58.0
4.90700006485 0.232999995351 -0.282000005245 57.0
4.85599994659 0.202999994159 -0.279000014067 54.0
4.90999984741 0.148000001907 -0.282000005245 60.0
0.902000010014 -0.0329999998212 -0.0520000010729 1672.0
0.907999992371 -0.0379999987781 -0.0520000010729 1756.0
0.907999992371 -0.0430000014603 -0.0520000010729 1894.0
0.911000013351 -0.0489999987185 -0.0520000010729 1886.0
0.907999992371 -0.0540000014007 -0.0520000010729 1854.0
0.910000026226 -0.0590000003576 -0.0520000010729 1789.0
0.907999992371 -0.0640000030398 -0.0520000010729 1729.0
0.907999992371 -0.0689999982715 -0.0520000010729 1795.0
0.90600001812 -0.0740000009537 -0.0520000010729 1799.0
0.903999984264 -0.0790000036359 -0.0520000010729 1811.0
0.908999979496 -0.0850000008941 -0.0520000010729 1811.0
0.912000000477 -0.0909999981523 -0.0520000010729 1763.0
0.910000026226 -0.0960000008345 -0.0520000010729 1744.0
0.90499997139 -0.101000003517 -0.0520000010729 1751.0
0.901000022888 -0.104999996722 -0.0520000010729 1812.0
0.901000022888 -0.111000001431 -0.0520000010729 1792.0
0.907000005245 -0.116999998689 -0.0520000010729 1785.0
0.897000014782 -0.120999999344 -0.0509999990463 1755.0
0.898000001907 -0.126000002027 -0.0509999990463 1781.0
0.902999997139 -0.131999999285 -0.0520000010729 1806.0
0.898000001907 -0.136000007391 -0.0509999990463 1802.0
0.90499997139 -0.143000006676 -0.0520000010729 1793.0
0.902000010014 -0.148000001907 -0.0520000010729 1743.0
0.898000001907 -0.151999995112 -0.0520000010729 1810.0
0.902000010014 -0.158999994397 -0.0520000010729 1848.0
0.899999976158 -0.16400000453 -0.0520000010729 1912.0
0.898000001907 -0.168999999762 -0.0520000010729 1853.0
0.898000001907 -0.173999994993 -0.0520000010729 1822.0
0.897000014782 -0.179000005126 -0.0520000010729 1853.0
0.899999976158 -0.185000002384 -0.0520000010729 1823.0
0.89200001955 -0.188999995589 -0.0509999990463 1763.0
0.894999980927 -0.194999992847 -0.0520000010729 1736.0
0.893999993801 -0.20000000298 -0.0520000010729 1763.0
0.89200001955 -0.204999998212 -0.0509999990463 1837.0
0.893000006676 -0.21099999547 -0.0520000010729 1833.0
0.889999985695 -0.216000005603 -0.0509999990463 1824.0
0.888999998569 -0.221000000834 -0.0509999990463 1894.0
0.889999985695 -0.225999996066 -0.0509999990463 1854.0
0.89200001955 -0.232999995351 -0.0520000010729 1838.0
0.893000006676 -0.238999992609 -0.0520000010729 1802.0
0.893000006676 -0.244000002742 -0.0520000010729 1854.0
0.89099997282 -0.248999997973 -0.0520000010729 1842.0
0.888999998569 -0.254000008106 -0.0520000010729 1801.0
0.89099997282 -0.261000007391 -0.0520000010729 1740.0
0.885999977589 -0.264999985695 -0.0520000010729 1759.0
0.885999977589 -0.270000010729 -0.0520000010729 1793.0
0.888999998569 -0.277000010014 -0.0520000010729 1820.0
0.884000003338 -0.280999988317 -0.0520000010729 1801.0
0.885999977589 -0.287000000477 -0.0520000010729 1792.0
0.880999982357 -0.291999995708 -0.0520000010729 1798.0
0.888000011444 -0.300000011921 -0.0520000010729 1870.0
0.884999990463 -0.305000007153 -0.0520000010729 1859.0
0.878000020981 -0.307999998331 -0.0520000010729 1888.0
0.876999974251 -0.312999993563 -0.0520000010729 1885.0
0.879999995232 -0.319999992847 -0.0520000010729 1928.0
0.880999982357 -0.326999992132 -0.0520000010729 1924.0
0.884000003338 -0.333999991417 -0.0520000010729 1898.0
0.879999995232 -0.337999999523 -0.0520000010729 1916.0
0.882000029087 -0.344999998808 -0.0520000010729 1887.0
0.879000008106 -0.34999999404 -0.0520000010729 1861.0
0.878000020981 -0.356000006199 -0.0520000010729 1798.0
0.883000016212 -0.363999992609 -0.0520000010729 1795.0
0.882000029087 -0.370000004768 -0.0529999993742 1724.0
0.876999974251 -0.374000012875 -0.0520000010729 1721.0
0.875999987125 -0.379999995232 -0.0520000010729 1750.0
0.875999987125 -0.386000007391 -0.0520000010729 1787.0
0.875 -0.391999989748 -0.0520000010729 1781.0
0.875 -0.398000001907 -0.0529999993742 1786.0
0.875999987125 -0.405000001192 -0.0529999993742 1779.0
0.871999979019 -0.409999996424 -0.0529999993742 1775.0
0.878000020981 -0.418999999762 -0.0529999993742 1767.0
0.870000004768 -0.42199999094 -0.0529999993742 1812.0
0.873000025749 -0.430000007153 -0.0529999993742 1867.0
0.870999991894 -0.43599998951 -0.0529999993742 1832.0
0.869000017643 -0.441000014544 -0.0529999993742 1819.0
0.867999970913 -0.446999996901 -0.0529999993742 1827.0
0.870999991894 -0.456000000238 -0.0529999993742 1838.0
0.870000004768 -0.462000012398 -0.0529999993742 1785.0
0.862999975681 -0.465000003576 -0.0529999993742 1673.0
0.870000004768 -0.476000010967 -0.0540000014007 1685.0
0.862999975681 -0.479999989271 -0.0529999993742 1732.0
0.862999975681 0.495000004768 -0.0640000030398 886.0
0.85799998045 0.485000014305 -0.0630000010133 885.0
0.861000001431 0.479999989271 -0.0630000010133 826.0
0.866999983788 0.476000010967 -0.0640000030398 783.0
0.865999996662 0.467999994755 -0.0630000010133 742.0
0.867999970913 0.462999999523 -0.0630000010133 664.0
0.869000017643 0.456000000238 -0.0630000010133 602.0
0.888000011444 0.458999991417 -0.0640000030398 570.0
0.873000025749 0.444000005722 -0.0630000010133 537.0
0.874000012875 0.43900001049 -0.0630000010133 476.0
0.879999995232 0.435000002384 -0.0630000010133 432.0
0.888999998569 0.432000011206 -0.0640000030398 385.0
0.888999998569 0.425999999046 -0.0630000010133 324.0
0.867999970913 0.409000009298 -0.0619999989867 278.0
0.870000004768 0.404000014067 -0.0619999989867 373.0
0.875 0.40000000596 -0.0619999989867 287.0
0.879000008106 0.395000010729 -0.0619999989867 243.0
0.887000024319 0.391999989748 -0.0619999989867 174.0
0.879000008106 0.370000004768 -0.0610000006855 73.0
3.86100006104 1.49100005627 -0.264999985695 66.0
3.71000003815 1.40699994564 -0.254000008106 67.0
4.07000017166 1.48800003529 -0.277000010014 64.0
3.97799992561 1.4279999733 -0.270999997854 65.0
4.12300014496 1.45200002193 -0.280000001192 75.0
4.1859998703 1.4470000267 -0.282999992371 71.0
4.14699983597 1.40600001812 -0.280000001192 73.0
4.14300012589 1.37699997425 -0.279000014067 81.0
4.19899988174 1.36800003052 -0.282999992371 76.0
4.17100000381 1.33200001717 -0.280000001192 69.0
4.14499998093 1.29600000381 -0.277999997139 73.0
4.18800020218 1.28299999237 -0.280000001192 71.0
4.21299982071 1.26300001144 -0.280999988317 72.0
4.1859998703 1.22899997234 -0.279000014067 77.0
4.20300006866 1.20599997044 -0.279000014067 74.0
4.18800020218 1.17599999905 -0.277999997139 69.0
4.16599988937 1.14300000668 -0.275999993086 78.0
4.1779999733 1.12000000477 -0.275999993086 77.0
4.11600017548 1.07799994946 -0.272000014782 71.0
4.24100017548 1.08399999142 -0.280000001192 75.0
4.20900011063 1.04999995232 -0.277000010014 70.0
4.14099979401 1.00699996948 -0.272000014782 74.0
4.20300006866 0.995999991894 -0.275999993086 78.0
4.11299991608 0.949000000954 -0.268999993801 82.0
4.22900009155 0.949999988079 -0.277000010014 86.0
4.22700023651 0.924000024796 -0.275999993086 78.0
4.19500017166 0.89200001955 -0.273999989033 70.0
4.14300012589 0.855000019073 -0.270000010729 81.0
4.24300003052 0.850000023842 -0.275999993086 68.0
4.22800016403 0.822000026703 -0.273999989033 62.0
4.64699983597 0.847000002861 -0.300999999046 62.0
4.64499998093 0.819000005722 -0.300000011921 54.0
4.65500020981 0.792999982834 -0.300999999046 56.0
4.62300014496 0.759999990463 -0.298000007868 55.0
4.70200014114 0.745000004768 -0.303000003099 56.0
4.67899990082 0.713999986649 -0.300999999046 59.0
4.625 0.677999973297 -0.29699999094 57.0
4.65399980545 0.65499997139 -0.298999994993 64.0
4.632999897 0.625 -0.29699999094 66.0
4.70200014114 0.606000006199 -0.300999999046 64.0
4.70699977875 0.578999996185 -0.300999999046 64.0
4.69600009918 0.550000011921 -0.300000011921 63.0
4.72499990463 0.526000022888 -0.301999986172 63.0
4.70399999619 0.495999991894 -0.300000011921 63.0
4.72599983215 0.470999985933 -0.300999999046 63.0
4.72200012207 0.442999988794 -0.300999999046 58.0
4.83500003815 0.425999999046 -0.307999998331 60.0
4.84800004959 0.398999989033 -0.307999998331 59.0
4.81500005722 0.368000000715 -0.305999994278 59.0
4.82100009918 0.340000003576 -0.305999994278 62.0
4.88700008392 0.317000001669 -0.310000002384 59.0
4.84999990463 0.286000013351 -0.307000011206 57.0
4.82999992371 0.256999999285 -0.305999994278 55.0
4.90799999237 0.232999995351 -0.31099998951 62.0
4.92199993134 0.204999998212 -0.31099998951 51.0
4.94799995422 0.178000003099 -0.312999993563 51.0
4.93499994278 0.149000003934 -0.312000006437 52.0
0.90600001812 -0.0329999998212 -0.0570000000298 1681.0
0.912000000477 -0.0379999987781 -0.0579999983311 1782.0
0.907000005245 -0.0430000014603 -0.0570000000298 1935.0
0.910000026226 -0.0489999987185 -0.0570000000298 1893.0
0.912000000477 -0.0540000014007 -0.0570000000298 1853.0
0.90499997139 -0.0590000003576 -0.0570000000298 1775.0
0.912000000477 -0.0640000030398 -0.0570000000298 1696.0
0.910000026226 -0.070000000298 -0.0570000000298 1824.0
0.903999984264 -0.0740000009537 -0.0570000000298 1814.0
0.907999992371 -0.0799999982119 -0.0570000000298 1810.0
0.907000005245 -0.0850000008941 -0.0570000000298 1847.0
0.907000005245 -0.0900000035763 -0.0570000000298 1805.0
0.903999984264 -0.0949999988079 -0.0570000000298 1753.0
0.90499997139 -0.101000003517 -0.0570000000298 1786.0
0.898999989033 -0.104999996722 -0.0570000000298 1825.0
0.90600001812 -0.111000001431 -0.0570000000298 1804.0
0.902000010014 -0.115999996662 -0.0570000000298 1801.0
0.901000022888 -0.120999999344 -0.0570000000298 1776.0
0.899999976158 -0.126000002027 -0.0570000000298 1797.0
0.902999997139 -0.131999999285 -0.0570000000298 1779.0
0.898999989033 -0.136999994516 -0.0570000000298 1775.0
0.898000001907 -0.142000004649 -0.0570000000298 1801.0
0.898000001907 -0.146999999881 -0.0570000000298 1767.0
0.897000014782 -0.151999995112 -0.0570000000298 1744.0
0.901000022888 -0.158000007272 -0.0570000000298 1821.0
0.902999997139 -0.16400000453 -0.0570000000298 1918.0
0.897000014782 -0.167999997735 -0.0570000000298 1871.0
0.897000014782 -0.173999994993 -0.0570000000298 1884.0
0.898999989033 -0.180000007153 -0.0570000000298 1874.0
0.896000027657 -0.184000000358 -0.0570000000298 1899.0
0.897000014782 -0.189999997616 -0.0570000000298 1841.0
0.897000014782 -0.194999992847 -0.0570000000298 1864.0
0.896000027657 -0.201000005007 -0.0570000000298 1789.0
0.896000027657 -0.206000000238 -0.0570000000298 1854.0
0.893999993801 -0.21099999547 -0.0570000000298 1883.0
0.89200001955 -0.216000005603 -0.0570000000298 1843.0
0.889999985695 -0.221000000834 -0.0570000000298 1858.0
0.89099997282 -0.226999998093 -0.0570000000298 1883.0
0.893999993801 -0.232999995351 -0.0570000000298 1857.0
0.888000011444 -0.237000003457 -0.0570000000298 1839.0
0.896000027657 -0.245000004768 -0.0570000000298 1870.0
0.884999990463 -0.24699999392 -0.0570000000298 1874.0
0.889999985695 -0.254999995232 -0.0570000000298 1853.0
0.888999998569 -0.259999990463 -0.0570000000298 1787.0
0.884999990463 -0.263999998569 -0.0570000000298 1819.0
0.883000016212 -0.270000010729 -0.0570000000298 1839.0
0.884999990463 -0.275999993086 -0.0570000000298 1858.0
0.884000003338 -0.280999988317 -0.0570000000298 1781.0
0.887000024319 -0.287999987602 -0.0570000000298 1785.0
0.883000016212 -0.291999995708 -0.0570000000298 1775.0
0.880999982357 -0.29699999094 -0.0570000000298 1866.0
0.884000003338 -0.303999990225 -0.0570000000298 1884.0
0.879999995232 -0.308999985456 -0.0570000000298 1874.0
0.883000016212 -0.316000014544 -0.0570000000298 1868.0
0.884999990463 -0.321999996901 -0.0570000000298 1888.0
0.879999995232 -0.326999992132 -0.0570000000298 1896.0
0.876999974251 -0.331000000238 -0.0570000000298 1918.0
0.882000029087 -0.338999986649 -0.0570000000298 1875.0
0.879000008106 -0.344000011683 -0.0570000000298 1807.0
0.879999995232 -0.351000010967 -0.0579999983311 1874.0
0.879000008106 -0.356000006199 -0.0579999983311 1833.0
0.875999987125 -0.361000001431 -0.0570000000298 1781.0
0.880999982357 -0.370000004768 -0.0579999983311 1726.0
0.879000008106 -0.375 -0.0579999983311 1746.0
0.876999974251 -0.379999995232 -0.0579999983311 1797.0
0.875999987125 -0.386000007391 -0.0579999983311 1770.0
0.875999987125 -0.393000006676 -0.0579999983311 1733.0
0.875999987125 -0.398999989033 -0.0579999983311 1775.0
0.871999979019 -0.404000014067 -0.0579999983311 1776.0
0.873000025749 -0.409999996424 -0.0579999983311 1749.0
0.875 -0.418000012636 -0.0579999983311 1774.0
0.874000012875 -0.423999994993 -0.0579999983311 1798.0
0.873000025749 -0.430000007153 -0.0590000003576 1836.0
0.869000017643 -0.435000002384 -0.0579999983311 1832.0
0.864000022411 -0.43900001049 -0.0579999983311 1818.0
0.870000004768 -0.449000000954 -0.0590000003576 1821.0
0.864000022411 -0.451999992132 -0.0579999983311 1814.0
0.861999988556 -0.458000004292 -0.0579999983311 1769.0
0.870999991894 -0.469999998808 -0.0590000003576 1682.0
0.865999996662 -0.474000006914 -0.0590000003576 1685.0
0.860000014305 -0.477999985218 -0.0590000003576 1695.0
0.847000002861 0.486000001431 -0.0680000036955 1136.0
0.847999989986 0.479000002146 -0.0680000036955 1152.0
0.84500002861 0.470999985933 -0.0680000036955 1164.0
0.853999972343 0.469000011683 -0.0680000036955 1171.0
0.847000002861 0.458000004292 -0.0670000016689 1164.0
0.851000010967 0.453999996185 -0.0680000036955 1147.0
0.851000010967 0.446999996901 -0.0670000016689 1125.0
0.848999977112 0.43900001049 -0.0670000016689 1129.0
0.851999998093 0.433999985456 -0.0670000016689 1115.0
0.852999985218 0.428000003099 -0.0670000016689 1065.0
0.847000002861 0.418999999762 -0.0659999996424 1046.0
0.851999998093 0.41400000453 -0.0659999996424 1032.0
0.85900002718 0.411000013351 -0.0670000016689 1008.0
0.85799998045 0.404000014067 -0.0659999996424 980.0
0.862999975681 0.40000000596 -0.0670000016689 940.0
0.861999988556 0.393999993801 -0.0659999996424 901.0
0.851999998093 0.38299998641 -0.0649999976158 889.0
0.861000001431 0.381000012159 -0.0659999996424 853.0
0.865000009537 0.375999987125 -0.0659999996424 782.0
0.861999988556 0.368999987841 -0.0659999996424 715.0
0.865999996662 0.363999992609 -0.0659999996424 670.0
0.865000009537 0.358000010252 -0.0659999996424 613.0
0.862999975681 0.351000010967 -0.0649999976158 542.0
0.865000009537 0.345999985933 -0.0649999976158 477.0
0.85799998045 0.337000012398 -0.0649999976158 434.0
0.851000010967 0.328999996185 -0.0640000030398 376.0
0.832000017166 0.314999997616 -0.0619999989867 300.0
0.824999988079 0.307000011206 -0.0619999989867 254.0
0.861000001431 0.314999997616 -0.0640000030398 346.0
0.81400001049 0.291999995708 -0.0610000006855 284.0
0.649999976158 0.229000002146 -0.0480000004172 150.0
0.384999990463 0.133000001311 -0.0289999991655 95.0
0.109999999404 0.0370000004768 -0.00800000037998 70.0
0.0489999987185 0.01600000076 -0.00400000018999 70.0
4.6360001564 1.51100003719 -0.340000003576 62.0
4.61199998856 1.47300004959 -0.337999999523 57.0
4.35099983215 1.36099994183 -0.317999988794 68.0
4.32899999619 1.3259999752 -0.316000014544 66.0
4.18200016022 1.2539999485 -0.303999990225 67.0
4.26399993896 1.25100004673 -0.310000002384 68.0
4.24800014496 1.22000002861 -0.307999998331 68.0
4.36600017548 1.22599995136 -0.316000014544 65.0
4.32000017166 1.18599998951 -0.312000006437 68.0
4.27699995041 1.14699995518 -0.307999998331 65.0
4.19000005722 1.09700000286 -0.301999986172 70.0
4.22499990463 1.08000004292 -0.303999990225 73.0
4.25899982452 1.06200003624 -0.305999994278 63.0
4.15700006485 1.01100003719 -0.298000007868 77.0
4.18200016022 0.990999996662 -0.298999994993 76.0
4.242000103 0.978999972343 -0.303000003099 69.0
4.21299982071 0.947000026703 -0.300000011921 77.0
4.2389998436 0.926999986172 -0.301999986172 74.0
4.19600009918 0.89200001955 -0.298000007868 66.0
4.25899982452 0.879000008106 -0.301999986172 66.0
4.24900007248 0.851999998093 -0.300999999046 68.0
4.45300006866 0.865999996662 -0.314999997616 55.0
4.69799995422 0.856999993324 -0.331999987364 51.0
4.66400003433 0.823000013828 -0.328999996185 51.0
4.70800018311 0.801999986172 -0.331999987364 51.0
4.66099977493 0.711000025272 -0.326999992132 55.0
4.65600013733 0.683000028133 -0.326000005007 55.0
4.71400022507 0.662999987602 -0.330000013113 61.0
4.632999897 0.625 -0.324000000954 71.0
4.66300010681 0.601000010967 -0.326000005007 68.0
4.66900014877 0.574999988079 -0.326000005007 63.0
4.73400020599 0.555000007153 -0.330000013113 64.0
4.6970000267 0.523000001907 -0.326999992132 62.0
4.76700019836 0.503000020981 -0.331999987364 61.0
4.70100021362 0.469000011683 -0.326999992132 64.0
4.77600002289 0.448000013828 -0.331999987364 67.0
4.78700017929 0.421000003815 -0.331999987364 62.0
4.73299980164 0.388999998569 -0.32800000906 62.0
4.80499982834 0.36700001359 -0.333000004292 54.0
4.85400009155 0.342999994755 -0.33599999547 59.0
4.83199977875 0.312999993563 -0.335000008345 62.0
4.84299993515 0.286000013351 -0.335000008345 57.0
4.90299987793 0.261000007391 -0.338999986649 56.0
4.94799995422 0.234999999404 -0.342000007629 59.0
4.89300012589 0.203999996185 -0.337999999523 54.0
4.89200019836 0.175999999046 -0.337999999523 54.0
4.94799995422 0.149000003934 -0.340999990702 54.0
0.902999997139 -0.0329999998212 -0.0619999989867 1702.0
0.907000005245 -0.0379999987781 -0.0619999989867 1789.0
0.907999992371 -0.0430000014603 -0.0630000010133 1902.0
0.902000010014 -0.0480000004172 -0.0619999989867 1876.0
0.907999992371 -0.0540000014007 -0.0619999989867 1848.0
0.908999979496 -0.0590000003576 -0.0630000010133 1770.0
0.910000026226 -0.0640000030398 -0.0630000010133 1705.0
0.910000026226 -0.070000000298 -0.0630000010133 1822.0
0.907999992371 -0.0750000029802 -0.0619999989867 1838.0
0.907000005245 -0.0799999982119 -0.0619999989867 1811.0
0.903999984264 -0.0850000008941 -0.0619999989867 1856.0
0.90600001812 -0.0900000035763 -0.0619999989867 1786.0
0.902999997139 -0.0949999988079 -0.0619999989867 1728.0
0.899999976158 -0.10000000149 -0.0619999989867 1791.0
0.90600001812 -0.105999998748 -0.0619999989867 1837.0
0.903999984264 -0.111000001431 -0.0619999989867 1793.0
0.899999976158 -0.115999996662 -0.0619999989867 1808.0
0.897000014782 -0.120999999344 -0.0619999989867 1769.0
0.90499997139 -0.127000004053 -0.0619999989867 1805.0
0.898999989033 -0.130999997258 -0.0619999989867 1780.0
0.898999989033 -0.136999994516 -0.0619999989867 1757.0
0.893000006676 -0.141000002623 -0.0619999989867 1789.0
0.898000001907 -0.146999999881 -0.0619999989867 1795.0
0.898999989033 -0.152999997139 -0.0619999989867 1727.0
0.894999980927 -0.157000005245 -0.0619999989867 1828.0
0.899999976158 -0.16400000453 -0.0619999989867 1917.0
0.902000010014 -0.168999999762 -0.0619999989867 1914.0
0.894999980927 -0.172999992967 -0.0619999989867 1893.0
0.899999976158 -0.180000007153 -0.0619999989867 1912.0
0.893000006676 -0.184000000358 -0.0619999989867 1946.0
0.893999993801 -0.188999995589 -0.0619999989867 1964.0
0.893999993801 -0.194999992847 -0.0619999989867 1889.0
0.889999985695 -0.199000000954 -0.0619999989867 1843.0
0.893000006676 -0.206000000238 -0.0619999989867 1900.0
0.889999985695 -0.209999993443 -0.0619999989867 1955.0
0.896000027657 -0.216999992728 -0.0619999989867 1879.0
0.888000011444 -0.221000000834 -0.0619999989867 1854.0
0.894999980927 -0.228000000119 -0.0619999989867 1904.0
0.893000006676 -0.232999995351 -0.0619999989867 1846.0
0.887000024319 -0.237000003457 -0.0619999989867 1877.0
0.889999985695 -0.243000000715 -0.0619999989867 1869.0
0.888000011444 -0.247999995947 -0.0619999989867 1878.0
0.893000006676 -0.254999995232 -0.0619999989867 1885.0
0.887000024319 -0.259999990463 -0.0619999989867 1860.0
0.884999990463 -0.263999998569 -0.0619999989867 1847.0
0.884000003338 -0.270000010729 -0.0619999989867 1831.0
0.887000024319 -0.275999993086 -0.0619999989867 1842.0
0.884999990463 -0.282000005245 -0.0619999989867 1824.0
0.889999985695 -0.28900000453 -0.0630000010133 1774.0
0.888000011444 -0.293999999762 -0.0630000010133 1764.0
0.884999990463 -0.298999994993 -0.0619999989867 1875.0
0.884999990463 -0.305000007153 -0.0630000010133 1921.0
0.884999990463 -0.31099998951 -0.0630000010133 1905.0
0.884999990463 -0.316000014544 -0.0630000010133 1876.0
0.880999982357 -0.321000009775 -0.0630000010133 1883.0
0.887000024319 -0.328999996185 -0.0630000010133 1878.0
0.882000029087 -0.333000004292 -0.0630000010133 1905.0
0.879000008106 -0.337999999523 -0.0630000010133 1811.0
0.875 -0.342999994755 -0.0619999989867 1797.0
0.875 -0.349000006914 -0.0630000010133 1842.0
0.880999982357 -0.356999993324 -0.0630000010133 1833.0
0.876999974251 -0.361999988556 -0.0630000010133 1809.0
0.873000025749 -0.365999996662 -0.0630000010133 1765.0
0.873000025749 -0.372000008821 -0.0630000010133 1846.0
0.879999995232 -0.381999999285 -0.0640000030398 1886.0
0.875999987125 -0.386000007391 -0.0630000010133 1766.0
0.874000012875 -0.391999989748 -0.0630000010133 1728.0
0.874000012875 -0.398000001907 -0.0630000010133 1793.0
0.870999991894 -0.402999997139 -0.0630000010133 1788.0
0.873000025749 -0.411000013351 -0.0640000030398 1799.0
0.873000025749 -0.416999995708 -0.0640000030398 1814.0
0.876999974251 -0.425999999046 -0.0640000030398 1822.0
0.869000017643 -0.428000003099 -0.0640000030398 1839.0
0.871999979019 -0.437000006437 -0.0640000030398 1800.0
0.865999996662 -0.439999997616 -0.0640000030398 1859.0
0.867999970913 -0.448000013828 -0.0640000030398 1792.0
0.870000004768 -0.456000000238 -0.0640000030398 1748.0
0.866999983788 -0.46099999547 -0.0640000030398 1717.0
0.865999996662 -0.467000007629 -0.0640000030398 1698.0
0.867999970913 -0.47499999404 -0.0649999976158 1692.0
0.862999975681 -0.479999989271 -0.0649999976158 1675.0
0.851000010967 0.488000005484 -0.0740000009537 1100.0
0.842000007629 0.476000010967 -0.0729999989271 1123.0
0.84399998188 0.469999998808 -0.0729999989271 1146.0
0.84500002861 0.463999986649 -0.0729999989271 1169.0
0.848999977112 0.458999991417 -0.0729999989271 1170.0
0.850000023842 0.45300000906 -0.0729999989271 1191.0
0.848999977112 0.446000009775 -0.0729999989271 1198.0
0.856000006199 0.442999988794 -0.0729999989271 1230.0
0.846000015736 0.430999994278 -0.0719999969006 1231.0
0.847999989986 0.425000011921 -0.0719999969006 1252.0
0.846000015736 0.418000012636 -0.0710000023246 1255.0
0.847999989986 0.412999987602 -0.0710000023246 1271.0
0.847000002861 0.405999988317 -0.0710000023246 1274.0
0.846000015736 0.398999989033 -0.0710000023246 1261.0
0.84500002861 0.391999989748 -0.0710000023246 1245.0
0.846000015736 0.386999994516 -0.070000000298 1246.0
0.856000006199 0.384999990463 -0.0710000023246 1238.0
0.846000015736 0.374000012875 -0.070000000298 1229.0
0.851999998093 0.370999991894 -0.070000000298 1219.0
0.851000010967 0.363999992609 -0.070000000298 1222.0
0.855000019073 0.360000014305 -0.070000000298 1213.0
0.851000010967 0.351999998093 -0.070000000298 1214.0
0.855000019073 0.347999989986 -0.070000000298 1217.0
0.852999985218 0.340999990702 -0.070000000298 1206.0
0.851999998093 0.335000008345 -0.0689999982715 1181.0
0.861000001431 0.333000004292 -0.070000000298 1166.0
0.856000006199 0.324999988079 -0.0689999982715 1117.0
0.861999988556 0.321000009775 -0.070000000298 1078.0
0.862999975681 0.316000014544 -0.070000000298 1018.0
0.85900002718 0.307999998331 -0.0689999982715 988.0
0.856000006199 0.301999986172 -0.0689999982715 950.0
0.855000019073 0.296000003815 -0.0689999982715 905.0
0.85799998045 0.291000008583 -0.0689999982715 837.0
0.856000006199 0.284999996424 -0.0680000036955 788.0
0.856000006199 0.279000014067 -0.0680000036955 732.0
0.856999993324 0.273999989033 -0.0680000036955 652.0
0.867999970913 0.272000014782 -0.0689999982715 593.0
0.848999977112 0.259999990463 -0.0670000016689 545.0
0.847999989986 0.254999995232 -0.0670000016689 484.0
0.841000020504 0.24699999392 -0.0659999996424 427.0
0.81400001049 0.233999997377 -0.0640000030398 369.0
0.786000013351 0.221000000834 -0.0619999989867 311.0
0.776000022888 0.212999999523 -0.0610000006855 261.0
0.725000023842 0.194999992847 -0.0570000000298 210.0
0.757000029087 0.199000000954 -0.0590000003576 211.0
0.563000023365 0.143999993801 -0.0439999997616 126.0
0.541000008583 0.135000005364 -0.0419999994338 132.0
0.203999996185 0.0500000007451 -0.01600000076 80.0
0.0659999996424 0.01600000076 -0.00499999988824 70.0
4.82700014114 1.11500000954 -0.372999995947 60.0
4.61600017548 1.0379999876 -0.356000006199 60.0
4.46500015259 0.976999998093 -0.344000011683 62.0
4.35500001907 0.873000025749 -0.333999991417 59.0
4.74499988556 0.865000009537 -0.363000005484 54.0
4.67500019073 0.824999988079 -0.356999993324 52.0
4.70800018311 0.717999994755 -0.358000010252 52.0
4.64400005341 0.680999994278 -0.352999985218 53.0
4.71500015259 0.663999974728 -0.358000010252 57.0
4.73400020599 0.638000011444 -0.358999997377 66.0
4.74300003052 0.611999988556 -0.358999997377 71.0
4.6779999733 0.575999975204 -0.354000002146 59.0
4.6859998703 0.549000024796 -0.354000002146 64.0
4.69799995422 0.523000001907 -0.354999989271 61.0
4.72399997711 0.497999995947 -0.356000006199 60.0
4.75899982452 0.474000006914 -0.358999997377 63.0
4.74599981308 0.444999992847 -0.358000010252 61.0
4.77400016785 0.419999986887 -0.358999997377 57.0
4.85200023651 0.398999989033 -0.365000009537 65.0
4.76599979401 0.363999992609 -0.358000010252 62.0
4.78599977493 0.337999999523 -0.358999997377 58.0
4.84899997711 0.31400001049 -0.363999992609 59.0
4.82000017166 0.284000009298 -0.361000001431 61.0
4.85799980164 0.259000003338 -0.363999992609 57.0
4.89699983597 0.231999993324 -0.36700001359 54.0
4.8860001564 0.203999996185 -0.365999996662 54.0
4.90700006485 0.175999999046 -0.36700001359 52.0
0.902999997139 -0.0329999998212 -0.0670000016689 1714.0
0.907000005245 -0.0379999987781 -0.0680000036955 1769.0
0.907999992371 -0.0430000014603 -0.0680000036955 1832.0
0.908999979496 -0.0489999987185 -0.0680000036955 1844.0
0.910000026226 -0.0540000014007 -0.0680000036955 1843.0
0.908999979496 -0.0590000003576 -0.0680000036955 1816.0
0.910000026226 -0.0640000030398 -0.0680000036955 1712.0
0.907999992371 -0.0689999982715 -0.0680000036955 1746.0
0.90600001812 -0.0750000029802 -0.0680000036955 1826.0
0.907000005245 -0.0799999982119 -0.0680000036955 1817.0
0.90600001812 -0.0850000008941 -0.0680000036955 1834.0
0.90600001812 -0.0900000035763 -0.0680000036955 1789.0
0.907000005245 -0.0960000008345 -0.0680000036955 1743.0
0.90600001812 -0.101000003517 -0.0680000036955 1760.0
0.902999997139 -0.105999998748 -0.0670000016689 1792.0
0.898999989033 -0.111000001431 -0.0670000016689 1760.0
0.902999997139 -0.115999996662 -0.0670000016689 1739.0
0.902999997139 -0.122000001371 -0.0680000036955 1791.0
0.898999989033 -0.126000002027 -0.0670000016689 1801.0
0.90600001812 -0.133000001311 -0.0680000036955 1777.0
0.897000014782 -0.136999994516 -0.0670000016689 1770.0
0.899999976158 -0.142000004649 -0.0670000016689 1808.0
0.901000022888 -0.148000001907 -0.0670000016689 1776.0
0.903999984264 -0.153999999166 -0.0680000036955 1767.0
0.899999976158 -0.158000007272 -0.0670000016689 1777.0
0.894999980927 -0.163000002503 -0.0670000016689 1920.0
0.897000014782 -0.168999999762 -0.0670000016689 1944.0
0.899999976158 -0.17499999702 -0.0680000036955 1863.0
0.893999993801 -0.179000005126 -0.0670000016689 1893.0
0.897000014782 -0.185000002384 -0.0670000016689 1906.0
0.898000001907 -0.189999997616 -0.0670000016689 1922.0
0.894999980927 -0.194999992847 -0.0670000016689 1890.0
0.893000006676 -0.20000000298 -0.0670000016689 1889.0
0.893000006676 -0.206000000238 -0.0670000016689 1925.0
0.893000006676 -0.21099999547 -0.0670000016689 1933.0
0.896000027657 -0.216999992728 -0.0680000036955 1881.0
0.896000027657 -0.223000004888 -0.0680000036955 1849.0
0.888000011444 -0.225999996066 -0.0670000016689 1907.0
0.89099997282 -0.232999995351 -0.0670000016689 1851.0
0.887000024319 -0.237000003457 -0.0670000016689 1849.0
0.89099997282 -0.244000002742 -0.0680000036955 1845.0
0.885999977589 -0.247999995947 -0.0670000016689 1840.0
0.884999990463 -0.252999991179 -0.0670000016689 1902.0
0.887000024319 -0.259999990463 -0.0670000016689 1857.0
0.884000003338 -0.263999998569 -0.0670000016689 1838.0
0.887000024319 -0.270999997854 -0.0680000036955 1832.0
0.884000003338 -0.275999993086 -0.0670000016689 1832.0
0.883000016212 -0.280999988317 -0.0670000016689 1828.0
0.885999977589 -0.287999987602 -0.0680000036955 1813.0
0.885999977589 -0.293999999762 -0.0680000036955 1784.0
0.884000003338 -0.298999994993 -0.0680000036955 1900.0
0.882000029087 -0.303999990225 -0.0680000036955 1960.0
0.887000024319 -0.31099998951 -0.0680000036955 1892.0
0.878000020981 -0.31400001049 -0.0680000036955 1895.0
0.879000008106 -0.319999992847 -0.0680000036955 1899.0
0.879999995232 -0.326999992132 -0.0680000036955 1905.0
0.882000029087 -0.333999991417 -0.0680000036955 1848.0
0.880999982357 -0.338999986649 -0.0680000036955 1785.0
0.878000020981 -0.344000011683 -0.0680000036955 1841.0
0.879000008106 -0.34999999404 -0.0680000036955 1808.0
0.878000020981 -0.356000006199 -0.0680000036955 1800.0
0.875999987125 -0.361999988556 -0.0680000036955 1847.0
0.875 -0.36700001359 -0.0680000036955 1780.0
0.873000025749 -0.372999995947 -0.0680000036955 1857.0
0.874000012875 -0.379000008106 -0.0689999982715 1823.0
0.875 -0.386000007391 -0.0689999982715 1775.0
0.870999991894 -0.391000002623 -0.0689999982715 1793.0
0.867999970913 -0.395999997854 -0.0680000036955 1837.0
0.865999996662 -0.400999993086 -0.0680000036955 1834.0
0.865000009537 -0.407000005245 -0.0689999982715 1836.0
0.867999970913 -0.414999991655 -0.0689999982715 1828.0
0.870999991894 -0.423000007868 -0.0689999982715 1873.0
0.871999979019 -0.430000007153 -0.070000000298 1860.0
0.870999991894 -0.43599998951 -0.070000000298 1815.0
0.861999988556 -0.43900001049 -0.0689999982715 1867.0
0.869000017643 -0.449000000954 -0.070000000298 1784.0
0.867999970913 -0.455000013113 -0.070000000298 1705.0
0.866999983788 -0.46099999547 -0.070000000298 1689.0
0.867999970913 -0.469000011683 -0.070000000298 1739.0
0.864000022411 -0.474000006914 -0.070000000298 1709.0
0.864000022411 -0.481000006199 -0.070000000298 1650.0
0.862999975681 0.495000004768 -0.0810000002384 707.0
0.865999996662 0.490000009537 -0.0810000002384 759.0
0.856999993324 0.477999985218 -0.0799999982119 833.0
0.860000014305 0.472999989986 -0.0799999982119 879.0
0.850000023842 0.460000008345 -0.0790000036359 925.0
0.851999998093 0.453999996185 -0.0790000036359 971.0
0.851000010967 0.446999996901 -0.0780000016093 1011.0
0.853999972343 0.442000001669 -0.0780000016093 1066.0
0.84500002861 0.430999994278 -0.0769999995828 1093.0
0.847999989986 0.425999999046 -0.0769999995828 1120.0
0.847999989986 0.418999999762 -0.0769999995828 1148.0
0.84399998188 0.411000013351 -0.0759999975562 1198.0
0.847999989986 0.405999988317 -0.0769999995828 1220.0
0.848999977112 0.400999993086 -0.0759999975562 1214.0
0.846000015736 0.393000006676 -0.0759999975562 1253.0
0.847999989986 0.386999994516 -0.0759999975562 1289.0
0.851000010967 0.38299998641 -0.0759999975562 1307.0
0.846000015736 0.374000012875 -0.0750000029802 1331.0
0.842000007629 0.365999996662 -0.0750000029802 1339.0
0.851999998093 0.365000009537 -0.0750000029802 1364.0
0.846000015736 0.356000006199 -0.0750000029802 1386.0
0.847999989986 0.351000010967 -0.0750000029802 1388.0
0.846000015736 0.344000011683 -0.0740000009537 1388.0
0.846000015736 0.338999986649 -0.0740000009537 1383.0
0.848999977112 0.333999991417 -0.0740000009537 1396.0
0.846000015736 0.326999992132 -0.0740000009537 1422.0
0.847999989986 0.321999996901 -0.0740000009537 1409.0
0.851000010967 0.317000001669 -0.0740000009537 1385.0
0.847999989986 0.310000002384 -0.0740000009537 1385.0
0.851000010967 0.305999994278 -0.0740000009537 1392.0
0.851999998093 0.300000011921 -0.0740000009537 1392.0
0.856000006199 0.296000003815 -0.0740000009537 1378.0
0.847000002861 0.287000000477 -0.0729999989271 1384.0
0.851000010967 0.282999992371 -0.0729999989271 1358.0
0.851000010967 0.277000010014 -0.0729999989271 1350.0
0.84500002861 0.270000010729 -0.0719999969006 1335.0
0.84500002861 0.264999985695 -0.0719999969006 1309.0
0.84399998188 0.259000003338 -0.0719999969006 1293.0
0.847999989986 0.254999995232 -0.0719999969006 1298.0
0.856000006199 0.252000004053 -0.0729999989271 1300.0
0.851999998093 0.245000004768 -0.0719999969006 1249.0
0.855000019073 0.239999994636 -0.0719999969006 1214.0
0.85799998045 0.236000001431 -0.0719999969006 1171.0
0.860000014305 0.231000006199 -0.0719999969006 1126.0
0.862999975681 0.225999996066 -0.0729999989271 1067.0
0.861999988556 0.221000000834 -0.0719999969006 1005.0
0.856999993324 0.21400000155 -0.0719999969006 945.0
0.856999993324 0.209000006318 -0.0719999969006 912.0
0.861999988556 0.204999998212 -0.0719999969006 857.0
0.861999988556 0.199000000954 -0.0719999969006 782.0
0.856999993324 0.193000003695 -0.0710000023246 741.0
0.847000002861 0.186000004411 -0.070000000298 680.0
0.847000002861 0.180999994278 -0.070000000298 608.0
0.830999970436 0.172000005841 -0.0689999982715 543.0
0.842000007629 0.168999999762 -0.070000000298 480.0
0.825999975204 0.16099999845 -0.0680000036955 441.0
0.838999986649 0.158999994397 -0.0689999982715 405.0
0.824000000954 0.150999993086 -0.0680000036955 343.0
0.81400001049 0.143999993801 -0.0670000016689 286.0
0.796000003815 0.136000007391 -0.0659999996424 238.0
0.797999978065 0.131999999285 -0.0659999996424 247.0
0.730000019073 0.116999998689 -0.0599999986589 162.0
0.583000004292 0.0900000035763 -0.0480000004172 131.0
4.88999986649 0.717000007629 -0.40000000596 52.0
4.70300006866 0.662000000477 -0.384000003338 58.0
4.69199991226 0.633000016212 -0.38299998641 67.0
4.72700023651 0.610000014305 -0.386000007391 73.0
4.69999980927 0.578999996185 -0.38299998641 61.0
4.73699998856 0.555000007153 -0.386000007391 60.0
4.65899991989 0.518999993801 -0.379000008106 63.0
4.757999897 0.501999974251 -0.386999994516 64.0
4.7610001564 0.47499999404 -0.386999994516 64.0
4.73299980164 0.444000005722 -0.384000003338 57.0
4.76300001144 0.418999999762 -0.386000007391 59.0
4.7610001564 0.391000002623 -0.386000007391 57.0
4.84399986267 0.370000004768 -0.391999989748 59.0
4.78299999237 0.337999999523 -0.386999994516 63.0
4.84499979019 0.31400001049 -0.391999989748 59.0
4.84999990463 0.286000013351 -0.391999989748 56.0
4.8189997673 0.256999999285 -0.388999998569 58.0
4.91099977493 0.232999995351 -0.395999997854 53.0
4.89599990845 0.203999996185 -0.395000010729 53.0
4.89300012589 0.175999999046 -0.395000010729 54.0
4.867000103 0.146999999881 -0.391999989748 53.0
0.902000010014 -0.0329999998212 -0.0729999989271 1697.0
0.908999979496 -0.0379999987781 -0.0729999989271 1777.0
0.908999979496 -0.0430000014603 -0.0729999989271 1804.0
0.907999992371 -0.0489999987185 -0.0729999989271 1814.0
0.908999979496 -0.0540000014007 -0.0729999989271 1857.0
0.903999984264 -0.0590000003576 -0.0729999989271 1828.0
0.907000005245 -0.0640000030398 -0.0729999989271 1768.0
0.902999997139 -0.0689999982715 -0.0729999989271 1786.0
0.902999997139 -0.0740000009537 -0.0729999989271 1871.0
0.90499997139 -0.0799999982119 -0.0729999989271 1813.0
0.903999984264 -0.0850000008941 -0.0729999989271 1803.0
0.903999984264 -0.0900000035763 -0.0729999989271 1783.0
0.90600001812 -0.0960000008345 -0.0729999989271 1770.0
0.90600001812 -0.101000003517 -0.0729999989271 1742.0
0.902999997139 -0.105999998748 -0.0729999989271 1741.0
0.901000022888 -0.111000001431 -0.0719999969006 1733.0
0.903999984264 -0.115999996662 -0.0729999989271 1714.0
0.90499997139 -0.122000001371 -0.0729999989271 1791.0
0.898000001907 -0.126000002027 -0.0719999969006 1776.0
0.899999976158 -0.131999999285 -0.0729999989271 1734.0
0.899999976158 -0.136999994516 -0.0729999989271 1759.0
0.898999989033 -0.142000004649 -0.0719999969006 1797.0
0.902999997139 -0.148000001907 -0.0729999989271 1774.0
0.896000027657 -0.151999995112 -0.0719999969006 1765.0
0.902000010014 -0.158999994397 -0.0729999989271 1769.0
0.893000006676 -0.163000002503 -0.0719999969006 1877.0
0.89200001955 -0.167999997735 -0.0719999969006 1935.0
0.893999993801 -0.173999994993 -0.0719999969006 1885.0
0.89099997282 -0.178000003099 -0.0719999969006 1902.0
0.894999980927 -0.185000002384 -0.0729999989271 1900.0
0.896000027657 -0.189999997616 -0.0729999989271 1883.0
0.893999993801 -0.194999992847 -0.0729999989271 1905.0
0.888999998569 -0.199000000954 -0.0719999969006 1850.0
0.89099997282 -0.204999998212 -0.0719999969006 1881.0
0.89200001955 -0.21099999547 -0.0729999989271 1903.0
0.889999985695 -0.216000005603 -0.0719999969006 1904.0
0.888999998569 -0.221000000834 -0.0719999969006 1835.0
0.889999985695 -0.226999998093 -0.0729999989271 1879.0
0.889999985695 -0.232999995351 -0.0729999989271 1895.0
0.887000024319 -0.237000003457 -0.0719999969006 1836.0
0.893999993801 -0.245000004768 -0.0729999989271 1832.0
0.887000024319 -0.247999995947 -0.0729999989271 1827.0
0.884999990463 -0.254000008106 -0.0729999989271 1880.0
0.885999977589 -0.259000003338 -0.0729999989271 1866.0
0.888999998569 -0.266000002623 -0.0729999989271 1864.0
0.885999977589 -0.270999997854 -0.0729999989271 1829.0
0.885999977589 -0.277000010014 -0.0729999989271 1827.0
0.884999990463 -0.282000005245 -0.0729999989271 1814.0
0.884999990463 -0.287999987602 -0.0729999989271 1806.0
0.885999977589 -0.293999999762 -0.0729999989271 1780.0
0.876999974251 -0.296000003815 -0.0729999989271 1890.0
0.879999995232 -0.303000003099 -0.0729999989271 1956.0
0.879000008106 -0.308999985456 -0.0729999989271 1913.0
0.879999995232 -0.314999997616 -0.0729999989271 1916.0
0.879000008106 -0.321000009775 -0.0729999989271 1925.0
0.879999995232 -0.326999992132 -0.0729999989271 1920.0
0.879999995232 -0.333000004292 -0.0729999989271 1886.0
0.874000012875 -0.337000012398 -0.0729999989271 1890.0
0.880999982357 -0.345999985933 -0.0740000009537 1957.0
0.875999987125 -0.34999999404 -0.0740000009537 1833.0
0.875 -0.354999989271 -0.0729999989271 1813.0
0.875 -0.361000001431 -0.0740000009537 1875.0
0.875999987125 -0.368000000715 -0.0740000009537 1830.0
0.870000004768 -0.372000008821 -0.0740000009537 1820.0
0.871999979019 -0.379000008106 -0.0740000009537 1802.0
0.870999991894 -0.384999990463 -0.0740000009537 1849.0
0.871999979019 -0.391000002623 -0.0740000009537 1852.0
0.871999979019 -0.398000001907 -0.0740000009537 1866.0
0.870000004768 -0.402999997139 -0.0740000009537 1876.0
0.871999979019 -0.411000013351 -0.0750000029802 1835.0
0.871999979019 -0.416999995708 -0.0750000029802 1853.0
0.865000009537 -0.419999986887 -0.0740000009537 1871.0
0.870000004768 -0.430000007153 -0.0750000029802 1859.0
0.867999970913 -0.435000002384 -0.0750000029802 1847.0
0.865999996662 -0.439999997616 -0.0750000029802 1867.0
0.871999979019 -0.449999988079 -0.0759999975562 1800.0
0.864000022411 -0.45300000906 -0.0750000029802 1748.0
0.869000017643 -0.462999999523 -0.0759999975562 1706.0
0.865999996662 -0.467999994755 -0.0759999975562 1738.0
0.861999988556 -0.472000002861 -0.0750000029802 1729.0
0.864000022411 -0.481000006199 -0.0759999975562 1643.0
1.05400002003 0.605000019073 -0.105999998748 191.0
1.10899996758 0.628000020981 -0.111000001431 175.0
1.22200000286 0.681999981403 -0.122000001371 203.0
1.04100000858 0.572000026703 -0.103000000119 250.0
0.92199999094 0.5 -0.0909999981523 303.0
0.885999977589 0.472999989986 -0.0869999974966 366.0
0.869000017643 0.456999987364 -0.0860000029206 437.0
0.860000014305 0.444999992847 -0.0839999988675 496.0
0.867999970913 0.442999988794 -0.0850000008941 578.0
0.85900002718 0.432000011206 -0.0839999988675 648.0
0.856999993324 0.423999994993 -0.082999996841 714.0
0.85799998045 0.418000012636 -0.082999996841 778.0
0.861999988556 0.412999987602 -0.082999996841 827.0
0.851000010967 0.402000010014 -0.082000002265 888.0
0.861000001431 0.40000000596 -0.082999996841 929.0
0.853999972343 0.391000002623 -0.082000002265 997.0
0.847000002861 0.381000012159 -0.0810000002384 1021.0
0.851999998093 0.377000004053 -0.0810000002384 1067.0
0.846000015736 0.368000000715 -0.0799999982119 1139.0
0.846000015736 0.361999988556 -0.0799999982119 1186.0
0.84399998188 0.356000006199 -0.0799999982119 1218.0
0.846000015736 0.34999999404 -0.0799999982119 1259.0
0.84500002861 0.344000011683 -0.0799999982119 1261.0
0.847999989986 0.340000003576 -0.0799999982119 1301.0
0.842000007629 0.331000000238 -0.0790000036359 1341.0
0.847000002861 0.326999992132 -0.0790000036359 1375.0
0.851000010967 0.323000013828 -0.0790000036359 1411.0
0.84500002861 0.314999997616 -0.0790000036359 1413.0
0.846000015736 0.310000002384 -0.0790000036359 1432.0
0.851000010967 0.305999994278 -0.0790000036359 1444.0
0.847000002861 0.298999994993 -0.0780000016093 1444.0
0.847999989986 0.293000012636 -0.0780000016093 1474.0
0.851000010967 0.28900000453 -0.0780000016093 1464.0
0.846000015736 0.282000005245 -0.0780000016093 1492.0
0.846000015736 0.275999993086 -0.0780000016093 1481.0
0.847999989986 0.270999997854 -0.0780000016093 1526.0
0.855000019073 0.268000006676 -0.0780000016093 1516.0
0.842000007629 0.25799998641 -0.0769999995828 1527.0
0.847000002861 0.254999995232 -0.0769999995828 1522.0
0.84500002861 0.247999995947 -0.0769999995828 1556.0
0.846000015736 0.243000000715 -0.0769999995828 1597.0
0.847999989986 0.238999992609 -0.0769999995828 1599.0
0.851000010967 0.233999997377 -0.0769999995828 1603.0
0.846000015736 0.226999998093 -0.0759999975562 1595.0
0.842000007629 0.221000000834 -0.0759999975562 1597.0
0.846000015736 0.216999992728 -0.0759999975562 1593.0
0.851000010967 0.212999999523 -0.0759999975562 1562.0
0.850000023842 0.207000002265 -0.0759999975562 1521.0
0.852999985218 0.202999994159 -0.0759999975562 1518.0
0.850000023842 0.196999996901 -0.0759999975562 1537.0
0.848999977112 0.190999999642 -0.0759999975562 1494.0
0.856000006199 0.187999993563 -0.0759999975562 1455.0
0.853999972343 0.181999996305 -0.0759999975562 1430.0
0.848999977112 0.175999999046 -0.0750000029802 1427.0
0.853999972343 0.172000005841 -0.0759999975562 1392.0
0.853999972343 0.166999995708 -0.0759999975562 1367.0
0.847000002861 0.159999996424 -0.0750000029802 1346.0
0.853999972343 0.157000005245 -0.0759999975562 1313.0
0.860000014305 0.151999995112 -0.0759999975562 1237.0
0.853999972343 0.145999997854 -0.0750000029802 1161.0
0.860000014305 0.142000004649 -0.0759999975562 1137.0
0.853999972343 0.136000007391 -0.0750000029802 1100.0
0.873000025749 0.134000003338 -0.0769999995828 803.0
4.70300006866 0.662000000477 -0.412000000477 61.0
4.64499998093 0.626999974251 -0.407000005245 63.0
4.65000009537 0.600000023842 -0.407000005245 64.0
4.70200014114 0.578999996185 -0.411000013351 64.0
4.67999982834 0.549000024796 -0.407999992371 55.0
4.67000007629 0.519999980927 -0.407000005245 63.0
4.76700019836 0.503000020981 -0.414999991655 60.0
4.78700017929 0.476999998093 -0.416999995708 64.0
4.77099990845 0.448000013828 -0.414999991655 57.0
4.78100013733 0.421000003815 -0.416000008583 59.0
4.81799983978 0.395999997854 -0.418999999762 63.0
4.78700017929 0.365999996662 -0.416000008583 59.0
4.84399986267 0.342000007629 -0.419999986887 56.0
4.80399990082 0.31099998951 -0.416000008583 59.0
