ply
format ascii 1.0
element vertex 923
property float x
property float y
property float z
property float intensity
end_header
3.88499999046 1.60699999332 -0.0299999993294 143.0
3.85199999809 1.56599998474 -0.0289999991655 141.0
3.90100002289 1.55900001526 -0.0289999991655 148.0
3.91000008583 1.53499996662 -0.0289999991655 149.0
3.86999988556 1.49300003052 -0.0289999991655 150.0
3.91700005531 1.48399996758 -0.0289999991655 150.0
3.88499999046 1.44500005245 -0.0289999991655 146.0
3.89199995995 1.42200005054 -0.0280000008643 146.0
3.89199995995 1.39499998093 -0.0280000008643 152.0
3.93099999428 1.38300001621 -0.0280000008643 150.0
3.88400006294 1.3409999609 -0.0280000008643 152.0
3.93700003624 1.33299994469 -0.0280000008643 145.0
3.97000002861 1.31799995899 -0.0280000008643 164.0
3.8900001049 1.26600003242 -0.0270000007004 155.0
3.97600007057 1.26800000668 -0.0280000008643 138.0
3.91300010681 1.22300004959 -0.0270000007004 156.0
3.92300009727 1.2009999752 -0.0270000007004 125.0
4.17899990082 1.25199997425 -0.0289999991655 76.0
4.34700012207 1.27499997616 -0.0299999993294 72.0
4.39300012589 1.25999999046 -0.0299999993294 77.0
4.41699981689 1.23899996281 -0.0299999993294 72.0
4.39799976349 1.20599997044 -0.0299999993294 74.0
4.39499998093 1.1779999733 -0.0289999991655 68.0
4.4310002327 1.15999996662 -0.0289999991655 63.0
4.4470000267 1.13600003719 -0.0289999991655 60.0
4.39099979401 1.09500002861 -0.0289999991655 63.0
4.46299982071 1.08500003815 -0.0289999991655 68.0
4.50099992752 1.06599998474 -0.0289999991655 62.0
4.48799991608 1.03600001335 -0.0289999991655 66.0
4.45200014114 1.0 -0.0289999991655 60.0
4.56500005722 0.998000025749 -0.0289999991655 58.0
4.53800010681 0.963999986649 -0.0289999991655 57.0
4.57000017166 0.943000018597 -0.0289999991655 58.0
4.62099981308 0.925999999046 -0.0289999991655 55.0
4.60300016403 0.893999993801 -0.0289999991655 63.0
4.62599992752 0.870999991894 -0.0289999991655 59.0
4.66300010681 0.850000023842 -0.0289999991655 50.0
4.71400022507 0.830999970436 -0.0289999991655 59.0
4.66300010681 0.794000029564 -0.0289999991655 53.0
4.65999984741 0.76599997282 -0.0280000008643 53.0
4.72599983215 0.749000012875 -0.0289999991655 55.0
4.75299978256 0.725000023842 -0.0289999991655 55.0
4.6859998703 0.686999976635 -0.0280000008643 53.0
4.69799995422 0.661000013351 -0.0280000008643 56.0
4.8189997673 0.649999976158 -0.0289999991655 53.0
2.3900001049 -0.0759999975562 -0.0120000001043 114.0
2.37599992752 -0.0900000035763 -0.0120000001043 242.0
2.41100001335 -0.104999996722 -0.0120000001043 82.0
2.31599998474 -0.11400000006 -0.0120000001043 192.0
2.31399989128 -0.127000004053 -0.0120000001043 182.0
1.00899994373 -0.0649999976158 -0.00499999988824 107.0
0.995000004768 -0.070000000298 -0.00499999988824 146.0
0.985000014305 -0.0750000029802 -0.00499999988824 138.0
0.962000012398 -0.0790000036359 -0.00499999988824 140.0
1.00199997425 -0.0879999995232 -0.00499999988824 142.0
0.964999973774 -0.0900000035763 -0.00499999988824 141.0
0.994000017643 -0.0989999994636 -0.00499999988824 148.0
0.985000014305 -0.104000002146 -0.00499999988824 151.0
0.986000001431 -0.108999997377 -0.00499999988824 151.0
0.981999993324 -0.115000002086 -0.00499999988824 156.0
0.957000017166 -0.116999998689 -0.00499999988824 160.0
0.959999978542 -0.123000003397 -0.00499999988824 156.0
0.971000015736 -0.129999995232 -0.00499999988824 153.0
0.949999988079 -0.133000001311 -0.00499999988824 159.0
0.98400002718 -0.143999993801 -0.00499999988824 156.0
0.947000026703 -0.143999993801 -0.00499999988824 160.0
0.981999993324 -0.155000001192 -0.00499999988824 158.0
0.98299998045 -0.16099999845 -0.00499999988824 162.0
0.980000019073 -0.165999993682 -0.00499999988824 163.0
0.952000021935 -0.166999995708 -0.00499999988824 164.0
0.977999985218 -0.178000003099 -0.00499999988824 164.0
0.98400002718 -0.185000002384 -0.00499999988824 166.0
0.945999979973 -0.182999998331 -0.00499999988824 170.0
0.966000020504 -0.193000003695 -0.00499999988824 168.0
0.958999991417 -0.196999996901 -0.00499999988824 163.0
0.944000005722 -0.20000000298 -0.00499999988824 167.0
0.967999994755 -0.21099999547 -0.00499999988824 167.0
0.934000015259 -0.209000006318 -0.00400000018999 166.0
0.944000005722 -0.216999992728 -0.00400000018999 163.0
0.95300000906 -0.22499999404 -0.00400000018999 163.0
0.933000028133 -0.225999996066 -0.00400000018999 165.0
0.955999970436 -0.237000003457 -0.00400000018999 154.0
0.947000026703 -0.240999996662 -0.00400000018999 155.0
0.943000018597 -0.246000006795 -0.00400000018999 160.0
0.967999994755 -0.25799998641 -0.00400000018999 150.0
0.921000003815 -0.250999987125 -0.00400000018999 153.0
0.948000013828 -0.264999985695 -0.00400000018999 158.0
0.943000018597 -0.268999993801 -0.00400000018999 155.0
0.949999988079 -0.277000010014 -0.00400000018999 154.0
0.944000005722 -0.282000005245 -0.00400000018999 157.0
0.929000020027 -0.282999992371 -0.00400000018999 150.0
0.940999984741 -0.291999995708 -0.00400000018999 146.0
0.949000000954 -0.300999999046 -0.00400000018999 145.0
0.958000004292 -0.31099998951 -0.00400000018999 146.0
0.93900001049 -0.310000002384 -0.00400000018999 141.0
0.921000003815 -0.310000002384 -0.00400000018999 144.0
0.940999984741 -0.323000013828 -0.00400000018999 147.0
0.93900001049 -0.328999996185 -0.00400000018999 144.0
0.939999997616 -0.335000008345 -0.00400000018999 137.0
0.89099997282 -0.324000000954 -0.00400000018999 144.0
0.921000003815 -0.340999990702 -0.00400000018999 137.0
0.935000002384 -0.352999985218 -0.00400000018999 135.0
0.897000014782 -0.344000011683 -0.00400000018999 121.0
0.950999975204 -0.372000008821 -0.00400000018999 133.0
0.925999999046 -0.368000000715 -0.00400000018999 125.0
0.959999978542 -0.388999998569 -0.00400000018999 126.0
0.934000015259 -0.384999990463 -0.00400000018999 130.0
0.907999992371 -0.379999995232 -0.00400000018999 120.0
0.916000008583 -0.389999985695 -0.00400000018999 130.0
0.901000022888 -0.389999985695 -0.00400000018999 124.0
0.930999994278 -0.409999996424 -0.00400000018999 120.0
0.897000014782 -0.400999993086 -0.00400000018999 123.0
0.879000008106 -0.398999989033 -0.00400000018999 117.0
0.944000005722 -0.43599998951 -0.00400000018999 111.0
0.962999999523 -0.451999992132 -0.00400000018999 116.0
0.902999997139 -0.430000007153 -0.00400000018999 106.0
0.929000020027 -0.449999988079 -0.00400000018999 109.0
0.934000015259 -0.460000008345 -0.00400000018999 116.0
0.903999984264 -0.451000005007 -0.00300000002608 115.0
0.930999994278 -0.472000002861 -0.00400000018999 104.0
0.949000000954 -0.488999992609 -0.00400000018999 107.0
0.90600001812 -0.472999989986 -0.00300000002608 106.0
0.90499997139 -0.479999989271 -0.00300000002608 100.0
0.90600001812 -0.488000005484 -0.00300000002608 105.0
0.927999973297 -0.507000029087 -0.00300000002608 101.0
0.90600001812 -0.501999974251 -0.00300000002608 101.0
3.08800005913 1.66999995708 -0.0460000000894 122.0
3.1099998951 1.65699994564 -0.0460000000894 110.0
3.21900010109 1.69000005722 -0.0480000004172 96.0
3.48900008202 1.80400002003 -0.0509999990463 90.0
3.5490000248 1.80700004101 -0.0520000010729 124.0
3.46199989319 1.73599994183 -0.0500000007451 136.0
3.64599990845 1.80099999905 -0.0529999993742 113.0
3.77900004387 1.83800005913 -0.0540000014007 104.0
3.79500007629 1.81700003147 -0.0540000014007 111.0
3.8220000267 1.80200004578 -0.054999999702 145.0
3.82899999619 1.77699995041 -0.0540000014007 194.0
3.83200001717 1.75 -0.0540000014007 203.0
3.82299995422 1.71800005436 -0.0540000014007 153.0
3.86500000954 1.70899999142 -0.0540000014007 143.0
3.89499998093 1.69400000572 -0.0540000014007 143.0
3.86800003052 1.65400004387 -0.0540000014007 137.0
3.88000011444 1.63199996948 -0.0540000014007 146.0
3.875 1.60199999809 -0.0529999993742 141.0
3.88000011444 1.57700002193 -0.0529999993742 142.0
3.8789999485 1.54999995232 -0.0529999993742 149.0
3.92199993134 1.53999996185 -0.0529999993742 150.0
3.88499999046 1.49899995327 -0.0529999993742 152.0
3.88700008392 1.47300004959 -0.0520000010729 148.0
3.92600011826 1.46099996567 -0.0529999993742 151.0
3.90599989891 1.42700004578 -0.0520000010729 147.0
3.93899989128 1.41199994087 -0.0520000010729 151.0
3.92300009727 1.38100004196 -0.0520000010729 150.0
3.93499994278 1.35800004005 -0.0520000010729 150.0
3.94600009918 1.33599996567 -0.0520000010729 150.0
3.97900009155 1.32099997997 -0.0520000010729 161.0
3.92000007629 1.27600002289 -0.0509999990463 160.0
3.95000004768 1.25999999046 -0.0509999990463 140.0
3.98600006104 1.2460000515 -0.0520000010729 148.0
3.97300004959 1.2159999609 -0.0509999990463 126.0
4.17399978638 1.25100004673 -0.0540000014007 83.0
4.367000103 1.27999997139 -0.0560000017285 82.0
4.31799983978 1.23899996281 -0.054999999702 84.0
4.40299987793 1.23500001431 -0.0560000017285 82.0
4.44500017166 1.21899998188 -0.0560000017285 65.0
4.43699979782 1.18900001049 -0.0560000017285 75.0
4.44000005722 1.16199994087 -0.0560000017285 68.0
4.44600009918 1.13600003719 -0.0560000017285 70.0
4.41900014877 1.10099995136 -0.054999999702 69.0
4.46199989319 1.08399999142 -0.0560000017285 72.0
4.46400022507 1.05700004101 -0.054999999702 69.0
4.50899982452 1.03999996185 -0.0560000017285 67.0
4.5560002327 1.02300000191 -0.0560000017285 63.0
4.59000015259 1.00300002098 -0.0560000017285 66.0
4.55700016022 0.967999994755 -0.0560000017285 65.0
4.58199977875 0.945999979973 -0.0560000017285 59.0
4.57000017166 0.915000021458 -0.0560000017285 68.0
4.56300020218 0.887000024319 -0.054999999702 65.0
4.60400009155 0.866999983788 -0.0560000017285 61.0
4.63800001144 0.84500002861 -0.0560000017285 64.0
4.66099977493 0.822000026703 -0.0560000017285 60.0
4.65999984741 0.794000029564 -0.0560000017285 56.0
4.68400001526 0.769999980927 -0.0560000017285 59.0
4.70300006866 0.745000004768 -0.0560000017285 58.0
4.71700000763 0.72000002861 -0.0560000017285 59.0
4.68800020218 0.686999976635 -0.054999999702 63.0
4.64900016785 0.653999984264 -0.054999999702 51.0
4.73500013351 0.638999998569 -0.0560000017285 54.0
4.73600006104 0.611000001431 -0.054999999702 56.0
2.55399990082 0.240999996662 -0.0299999993294 48.0
2.38599991798 -0.0759999975562 -0.0260000005364 124.0
2.38800001144 -0.0900000035763 -0.0260000005364 245.0
2.39199995995 -0.104000002146 -0.0260000005364 84.0
2.31999993324 -0.11400000006 -0.0250000003725 216.0
2.31299996376 -0.127000004053 -0.0250000003725 186.0
1.00899994373 -0.0649999976158 -0.0109999999404 112.0
0.986000001431 -0.070000000298 -0.0109999999404 137.0
0.995999991894 -0.0759999975562 -0.0109999999404 139.0
0.999000012875 -0.082000002265 -0.0109999999404 135.0
0.994000017643 -0.0869999974966 -0.0109999999404 145.0
0.975000023842 -0.0909999981523 -0.0109999999404 146.0
0.967000007629 -0.0960000008345 -0.0109999999404 145.0
0.966000020504 -0.101999998093 -0.0109999999404 147.0
0.98400002718 -0.108999997377 -0.0109999999404 154.0
0.966000020504 -0.112999998033 -0.0109999999404 158.0
0.963999986649 -0.118000000715 -0.0109999999404 149.0
0.973999977112 -0.125 -0.0109999999404 150.0
0.967000007629 -0.129999995232 -0.0109999999404 157.0
0.967999994755 -0.136000007391 -0.0109999999404 157.0
0.985000014305 -0.143999993801 -0.0109999999404 161.0
0.961000025272 -0.145999997854 -0.00999999977648 163.0
0.975000023842 -0.153999999166 -0.0109999999404 165.0
0.981999993324 -0.16099999845 -0.0109999999404 169.0
0.963999986649 -0.163000002503 -0.00999999977648 165.0
0.958999991417 -0.167999997735 -0.00999999977648 168.0
0.96899998188 -0.175999999046 -0.00999999977648 167.0
0.976000010967 -0.182999998331 -0.00999999977648 164.0
0.972000002861 -0.187999993563 -0.00999999977648 163.0
0.96899998188 -0.193000003695 -0.00999999977648 166.0
0.97000002861 -0.199000000954 -0.00999999977648 162.0
0.967999994755 -0.204999998212 -0.00999999977648 162.0
0.940999984741 -0.204999998212 -0.00999999977648 169.0
0.944999992847 -0.21099999547 -0.00999999977648 170.0
0.962999999523 -0.221000000834 -0.00999999977648 166.0
0.954999983311 -0.22499999404 -0.00999999977648 168.0
0.950999975204 -0.230000004172 -0.00999999977648 168.0
0.935000002384 -0.231999993324 -0.00999999977648 162.0
0.941999971867 -0.239999994636 -0.00999999977648 158.0
0.925999999046 -0.240999996662 -0.00999999977648 162.0
0.940999984741 -0.250999987125 -0.00999999977648 158.0
0.947000026703 -0.25799998641 -0.00999999977648 156.0
0.948000013828 -0.264999985695 -0.00999999977648 153.0
0.958000004292 -0.273999989033 -0.00999999977648 153.0
0.950999975204 -0.277999997139 -0.00999999977648 153.0
0.955999970436 -0.284999996424 -0.00999999977648 156.0
0.930000007153 -0.282999992371 -0.00999999977648 153.0
0.944000005722 -0.293999999762 -0.00999999977648 146.0
0.949999988079 -0.301999986172 -0.00999999977648 148.0
0.949999988079 -0.307999998331 -0.00999999977648 144.0
0.958999991417 -0.317000001669 -0.00999999977648 143.0
0.925000011921 -0.312000006437 -0.00999999977648 141.0
0.903999984264 -0.31099998951 -0.00899999961257 144.0
0.924000024796 -0.324000000954 -0.00999999977648 137.0
0.933000028133 -0.333000004292 -0.00999999977648 141.0
0.917999982834 -0.333999991417 -0.00899999961257 143.0
0.930999994278 -0.344999998808 -0.00999999977648 136.0
0.926999986172 -0.349000006914 -0.00999999977648 133.0
0.901000022888 -0.345999985933 -0.00899999961257 130.0
0.916000008583 -0.358000010252 -0.00899999961257 133.0
0.929000020027 -0.370000004768 -0.00999999977648 130.0
0.916999995708 -0.370999991894 -0.00899999961257 126.0
0.911000013351 -0.375 -0.00899999961257 130.0
0.910000026226 -0.381000012159 -0.00899999961257 123.0
0.958000004292 -0.407999992371 -0.00999999977648 126.0
0.866999983788 -0.375 -0.00899999961257 117.0
0.92199999094 -0.405999988317 -0.00899999961257 115.0
0.930000007153 -0.416000008583 -0.00899999961257 121.0
0.93599998951 -0.425000011921 -0.00999999977648 112.0
0.879999995232 -0.405999988317 -0.00899999961257 118.0
0.935000002384 -0.43900001049 -0.00999999977648 120.0
0.89099997282 -0.425000011921 -0.00899999961257 113.0
0.938000023365 -0.453999996185 -0.00999999977648 107.0
0.902000010014 -0.444000005722 -0.00899999961257 112.0
0.902999997139 -0.451000005007 -0.00899999961257 114.0
0.90499997139 -0.458999991417 -0.00899999961257 107.0
0.925999999046 -0.476999998093 -0.00899999961257 105.0
0.936999976635 -0.490000009537 -0.00999999977648 106.0
0.884999990463 -0.469000011683 -0.00899999961257 103.0
0.921000003815 -0.495999991894 -0.00899999961257 100.0
0.90499997139 -0.495000004768 -0.00899999961257 100.0
0.896000027657 -0.497000008821 -0.00899999961257 105.0
3.03299999237 1.63999998569 -0.0649999976158 142.0
3.09100008011 1.64699995518 -0.0659999996424 111.0
3.2460000515 1.70399999619 -0.0689999982715 96.0
3.4430000782 1.77999997139 -0.0729999989271 83.0
3.49000000954 1.77699995041 -0.0729999989271 126.0
3.49300003052 1.75199997425 -0.0729999989271 126.0
3.57399988174 1.76499998569 -0.0740000009537 113.0
3.77600002289 1.8370000124 -0.0780000016093 104.0
3.78900003433 1.81500005722 -0.0780000016093 95.0
3.80500006676 1.79400002956 -0.0780000016093 135.0
3.83299994469 1.77799999714 -0.0780000016093 191.0
3.8259999752 1.74699997902 -0.0780000016093 190.0
3.86599993706 1.73699998856 -0.0790000036359 156.0
3.8710000515 1.71099996567 -0.0780000016093 143.0
3.8710000515 1.68299996853 -0.0780000016093 139.0
3.89700007439 1.66700005531 -0.0780000016093 139.0
3.86999988556 1.62800002098 -0.0769999995828 146.0
3.8789999485 1.60399997234 -0.0769999995828 146.0
3.84599995613 1.56299996376 -0.0759999975562 143.0
3.84400010109 1.53600001335 -0.0759999975562 144.0
3.88499999046 1.52499997616 -0.0769999995828 150.0
3.85599994659 1.48699998856 -0.0759999975562 145.0
3.92899990082 1.48899996281 -0.0769999995828 148.0
3.91100001335 1.45500004292 -0.0759999975562 145.0
3.94099998474 1.44000005722 -0.0769999995828 148.0
3.92000007629 1.40499997139 -0.0759999975562 145.0
3.92700004578 1.38199996948 -0.0759999975562 157.0
3.91400003433 1.35099995136 -0.0750000029802 157.0
3.95300006866 1.33800005913 -0.0759999975562 148.0
3.93499994278 1.30599999428 -0.0750000029802 157.0
3.94400000572 1.2840000391 -0.0750000029802 149.0
3.93700003624 1.25600004196 -0.0750000029802 134.0
3.97300004959 1.24100005627 -0.0750000029802 147.0
3.94000005722 1.20599997044 -0.0740000009537 126.0
4.21299982071 1.26199996471 -0.0790000036359 74.0
4.40199995041 1.29100000858 -0.082999996841 78.0
4.37200021744 1.2539999485 -0.082000002265 77.0
4.43699979782 1.24500000477 -0.082999996841 81.0
4.36299991608 1.19599997997 -0.0810000002384 74.0
4.4359998703 1.18900001049 -0.082000002265 71.0
4.47399997711 1.17100000381 -0.082999996841 65.0
4.41800022125 1.12800002098 -0.082000002265 76.0
4.46600008011 1.11300003529 -0.082000002265 75.0
4.46400022507 1.08500003815 -0.082000002265 75.0
4.52400016785 1.0720000267 -0.082999996841 74.0
4.49100017548 1.03600001335 -0.082000002265 72.0
4.52600002289 1.01699995995 -0.082000002265 72.0
4.48799991608 0.981000006199 -0.082000002265 69.0
4.54799985886 0.966000020504 -0.082000002265 63.0
4.53200006485 0.935000002384 -0.082000002265 70.0
4.56799983978 0.915000021458 -0.082000002265 62.0
4.54600000381 0.883000016212 -0.082000002265 60.0
4.5529999733 0.856999993324 -0.082000002265 64.0
4.62799978256 0.842999994755 -0.082999996841 61.0
4.68300008774 0.825999975204 -0.0839999988675 59.0
4.67199993134 0.796000003815 -0.082999996841 61.0
4.73400020599 0.777999997139 -0.0839999988675 62.0
4.70699977875 0.745999991894 -0.082999996841 56.0
4.71000003815 0.717999994755 -0.082999996841 57.0
4.72399997711 0.693000018597 -0.082999996841 55.0
4.68699979782 0.660000026226 -0.082000002265 55.0
4.76800012589 0.643000006676 -0.0839999988675 56.0
4.91099977493 0.633000016212 -0.0860000029206 52.0
2.47199988365 0.232999995351 -0.0430000014603 47.0
2.40000009537 -0.0769999995828 -0.0399999991059 128.0
2.3789999485 -0.0900000035763 -0.0399999991059 232.0
2.39800000191 -0.104000002146 -0.0399999991059 87.0
2.29800009727 -0.112999998033 -0.0379999987781 229.0
2.3220000267 -0.12800000608 -0.0390000008047 188.0
0.989000022411 -0.0640000030398 -0.0170000009239 116.0
0.977999985218 -0.0689999982715 -0.0170000009239 145.0
0.975000023842 -0.0740000009537 -0.01600000076 138.0
0.98299998045 -0.0810000002384 -0.0170000009239 145.0
0.981999993324 -0.0860000029206 -0.0170000009239 139.0
0.98299998045 -0.0920000001788 -0.0170000009239 150.0
0.957000017166 -0.0949999988079 -0.01600000076 151.0
0.962999999523 -0.101000003517 -0.01600000076 149.0
0.962999999523 -0.107000000775 -0.01600000076 156.0
0.981000006199 -0.115000002086 -0.01600000076 160.0
0.972999989986 -0.119000002742 -0.01600000076 158.0
0.972000002861 -0.125 -0.01600000076 159.0
0.977999985218 -0.130999997258 -0.01600000076 160.0
0.972999989986 -0.136000007391 -0.01600000076 165.0
0.963999986649 -0.141000002623 -0.01600000076 161.0
0.953999996185 -0.144999995828 -0.01600000076 160.0
0.991999983788 -0.157000005245 -0.01600000076 169.0
0.972999989986 -0.158999994397 -0.01600000076 169.0
0.976999998093 -0.165999993682 -0.01600000076 167.0
0.954999983311 -0.167999997735 -0.01600000076 167.0
0.962999999523 -0.17499999702 -0.01600000076 167.0
0.978999972343 -0.184000000358 -0.01600000076 171.0
0.976999998093 -0.188999995589 -0.01600000076 168.0
0.955999970436 -0.190999999642 -0.01600000076 170.0
0.961000025272 -0.196999996901 -0.01600000076 165.0
0.964999973774 -0.203999996185 -0.01600000076 167.0
0.95300000906 -0.207000002265 -0.01600000076 168.0
0.966000020504 -0.216000005603 -0.01600000076 167.0
0.959999978542 -0.219999998808 -0.01600000076 165.0
0.958999991417 -0.225999996066 -0.01600000076 166.0
0.943000018597 -0.228000000119 -0.01600000076 164.0
0.955999970436 -0.237000003457 -0.01600000076 162.0
0.935000002384 -0.238000005484 -0.0149999996647 161.0
0.971000015736 -0.252999991179 -0.01600000076 158.0
0.926999986172 -0.24699999392 -0.0149999996647 164.0
0.958000004292 -0.261999994516 -0.01600000076 160.0
0.945999979973 -0.263999998569 -0.01600000076 161.0
0.954999983311 -0.273000001907 -0.01600000076 158.0
0.919000029564 -0.268000006676 -0.0149999996647 153.0
0.953999996185 -0.284999996424 -0.01600000076 154.0
0.935000002384 -0.284999996424 -0.0149999996647 151.0
0.949999988079 -0.294999986887 -0.01600000076 152.0
0.930000007153 -0.294999986887 -0.0149999996647 150.0
0.90499997139 -0.293000012636 -0.0149999996647 143.0
0.925000011921 -0.305999994278 -0.0149999996647 149.0
0.940999984741 -0.317000001669 -0.0149999996647 148.0
0.939999997616 -0.323000013828 -0.0149999996647 144.0
0.954999983311 -0.335000008345 -0.01600000076 142.0
0.941999971867 -0.33599999547 -0.0149999996647 138.0
0.938000023365 -0.340999990702 -0.0149999996647 141.0
0.927999973297 -0.344000011683 -0.0149999996647 137.0
0.931999981403 -0.351999998093 -0.0149999996647 139.0
0.933000028133 -0.358000010252 -0.0149999996647 130.0
0.922999978065 -0.361000001431 -0.0149999996647 130.0
0.888999998569 -0.352999985218 -0.0149999996647 129.0
0.924000024796 -0.374000012875 -0.0149999996647 125.0
0.926999986172 -0.381999999285 -0.0149999996647 128.0
0.898000001907 -0.375999987125 -0.0149999996647 121.0
0.933000028133 -0.397000014782 -0.0149999996647 119.0
0.925000011921 -0.400999993086 -0.0149999996647 120.0
0.92199999094 -0.405999988317 -0.0149999996647 114.0
0.939999997616 -0.419999986887 -0.0149999996647 113.0
0.936999976635 -0.425999999046 -0.0149999996647 117.0
0.949999988079 -0.43900001049 -0.01600000076 113.0
0.930000007153 -0.437000006437 -0.0149999996647 119.0
0.907999992371 -0.432999998331 -0.0149999996647 110.0
0.912000000477 -0.442000001669 -0.0149999996647 115.0
0.949000000954 -0.467000007629 -0.01600000076 108.0
0.936999976635 -0.467999994755 -0.0149999996647 110.0
0.907000005245 -0.460000008345 -0.0149999996647 104.0
0.896000027657 -0.46099999547 -0.0149999996647 109.0
0.908999979496 -0.47499999404 -0.0149999996647 105.0
0.924000024796 -0.490000009537 -0.0149999996647 101.0
0.922999978065 -0.497000008821 -0.0149999996647 97.0
0.889999985695 -0.486000001431 -0.0149999996647 102.0
0.902000010014 -0.5 -0.0149999996647 100.0
3.125 1.69000005722 -0.0869999974966 121.0
3.09100008011 1.64699995518 -0.0860000029206 104.0
3.14700007439 1.65199995041 -0.0869999974966 99.0
3.46499991417 1.79200005531 -0.0949999988079 86.0
3.44899988174 1.75699996948 -0.0939999967813 125.0
3.53800010681 1.77499997616 -0.0960000008345 133.0
3.53299999237 1.74500000477 -0.0960000008345 108.0
3.67899990082 1.78900003433 -0.0989999994636 115.0
3.73000001907 1.78600001335 -0.10000000149 100.0
3.88499999046 1.83099997044 -0.104000002146 137.0
3.83699989319 1.77999997139 -0.103000000119 163.0
3.84599995613 1.75600004196 -0.101999998093 160.0
3.85299992561 1.73099994659 -0.101999998093 156.0
3.85599994659 1.70500004292 -0.101999998093 146.0
3.867000103 1.68099999428 -0.101999998093 123.0
3.83599996567 1.64100003242 -0.101000003517 128.0
3.84100008011 1.61500000954 -0.101000003517 125.0
3.85199999809 1.59300005436 -0.101000003517 130.0
3.84699988365 1.56400001049 -0.10000000149 127.0
3.8789999485 1.54999995232 -0.101000003517 132.0
3.86999988556 1.51900005341 -0.10000000149 131.0
3.91300010681 1.50899994373 -0.101000003517 132.0
3.89700007439 1.47599995136 -0.10000000149 132.0
3.90000009537 1.4509999752 -0.10000000149 135.0
3.92199993134 1.43299996853 -0.10000000149 131.0
3.90199995041 1.39900004864 -0.0989999994636 138.0
3.97000002861 1.39699995518 -0.101000003517 151.0
3.93799996376 1.36000001431 -0.10000000149 152.0
3.93899989128 1.33399999142 -0.0989999994636 148.0
3.90100002289 1.29499995708 -0.097999997437 161.0
3.94799995422 1.28499996662 -0.0989999994636 145.0
3.92600011826 1.25199997425 -0.097999997437 133.0
3.9509999752 1.23500001431 -0.0989999994636 151.0
3.97699999809 1.21700000763 -0.0989999994636 122.0
4.16499996185 1.24800002575 -0.103000000119 85.0
4.42299985886 1.29700005054 -0.108999997377 78.0
4.37799978256 1.25600004196 -0.108000002801 83.0
4.36999988556 1.22599995136 -0.108000002801 71.0
4.37900018692 1.2009999752 -0.108000002801 76.0
4.45100021362 1.19299995899 -0.108999997377 74.0
4.39200019836 1.14900004864 -0.107000000775 67.0
4.48600006104 1.14600002766 -0.108999997377 77.0
4.48600006104 1.11800003052 -0.108999997377 70.0
4.47900009155 1.08800005913 -0.108999997377 72.0
4.53900003433 1.07500004768 -0.109999999404 72.0
4.51499986649 1.04200005531 -0.108999997377 69.0
4.49900007248 1.01100003719 -0.108000002801 67.0
4.49300003052 0.981999993324 -0.108000002801 71.0
4.59000015259 0.975000023842 -0.109999999404 63.0
4.5560002327 0.939999997616 -0.108999997377 66.0
4.58699989319 0.919000029564 -0.109999999404 65.0
4.59100008011 0.89200001955 -0.108999997377 63.0
4.60500001907 0.866999983788 -0.109999999404 68.0
4.62799978256 0.842999994755 -0.109999999404 65.0
4.69000005722 0.827000021935 -0.111000001431 59.0
4.65299987793 0.792999982834 -0.109999999404 62.0
4.68300008774 0.769999980927 -0.109999999404 56.0
4.74800014496 0.751999974251 -0.112000003457 61.0
4.67700004578 0.68599998951 -0.109999999404 52.0
4.757999897 0.669000029564 -0.111000001431 59.0
4.80000019073 0.647000014782 -0.112000003457 54.0
4.74300003052 0.611999988556 -0.111000001431 57.0
4.67899990082 0.575999975204 -0.108999997377 50.0
2.40499997139 -0.0769999995828 -0.0540000014007 135.0
2.38800001144 -0.0900000035763 -0.0540000014007 245.0
2.42600011826 -0.105999998748 -0.0540000014007 86.0
2.29699993134 -0.112999998033 -0.0520000010729 234.0
2.31599998474 -0.12800000608 -0.0520000010729 186.0
0.972999989986 -0.0630000010133 -0.0219999998808 117.0
0.975000023842 -0.0689999982715 -0.0219999998808 139.0
0.990999996662 -0.0759999975562 -0.0219999998808 146.0
0.986999988556 -0.0810000002384 -0.0219999998808 139.0
0.992999970913 -0.0869999974966 -0.0219999998808 145.0
0.962999999523 -0.0900000035763 -0.0219999998808 145.0
0.976000010967 -0.097000002861 -0.0219999998808 152.0
0.959999978542 -0.101000003517 -0.0219999998808 151.0
0.950999975204 -0.105999998748 -0.0209999997169 155.0
0.964999973774 -0.112999998033 -0.0219999998808 156.0
0.991999983788 -0.122000001371 -0.0219999998808 160.0
0.963999986649 -0.123999997973 -0.0219999998808 160.0
0.973999977112 -0.130999997258 -0.0219999998808 156.0
0.966000020504 -0.135000005364 -0.0219999998808 163.0
0.986000001431 -0.143999993801 -0.0219999998808 162.0
0.964999973774 -0.146999999881 -0.0219999998808 156.0
0.954999983311 -0.150999993086 -0.0209999997169 167.0
0.952000021935 -0.156000003219 -0.0209999997169 171.0
0.973999977112 -0.165000006557 -0.0219999998808 166.0
0.957000017166 -0.167999997735 -0.0209999997169 167.0
0.98299998045 -0.179000005126 -0.0219999998808 175.0
0.958000004292 -0.180000007153 -0.0209999997169 168.0
0.952000021935 -0.184000000358 -0.0209999997169 172.0
0.958000004292 -0.190999999642 -0.0209999997169 171.0
0.958000004292 -0.196999996901 -0.0209999997169 174.0
0.981000006199 -0.208000004292 -0.0219999998808 167.0
0.949000000954 -0.207000002265 -0.0209999997169 171.0
0.955999970436 -0.21400000155 -0.0209999997169 164.0
0.959999978542 -0.221000000834 -0.0209999997169 169.0
0.972000002861 -0.229000002146 -0.0219999998808 163.0
0.929000020027 -0.22499999404 -0.0209999997169 165.0
0.939999997616 -0.232999995351 -0.0209999997169 159.0
0.935000002384 -0.238000005484 -0.0209999997169 159.0
0.981999993324 -0.256000012159 -0.0219999998808 163.0
0.966000020504 -0.25799998641 -0.0219999998808 158.0
0.945999979973 -0.25799998641 -0.0209999997169 158.0
0.943000018597 -0.263000011444 -0.0209999997169 153.0
0.935000002384 -0.266999989748 -0.0209999997169 156.0
0.958000004292 -0.280000001192 -0.0209999997169 159.0
0.953999996185 -0.284999996424 -0.0209999997169 158.0
0.925000011921 -0.282000005245 -0.0209999997169 149.0
0.954999983311 -0.29699999094 -0.0209999997169 149.0
0.939999997616 -0.298999994993 -0.0209999997169 150.0
0.934000015259 -0.303000003099 -0.0209999997169 149.0
0.949999988079 -0.31400001049 -0.0209999997169 140.0
0.950999975204 -0.321000009775 -0.0209999997169 148.0
0.927999973297 -0.319000005722 -0.0209999997169 148.0
0.926999986172 -0.324999988079 -0.0209999997169 142.0
0.939999997616 -0.33599999547 -0.0209999997169 135.0
0.913999974728 -0.331999987364 -0.0209999997169 139.0
0.934000015259 -0.345999985933 -0.0209999997169 136.0
0.912999987602 -0.344000011683 -0.0209999997169 137.0
0.945999979973 -0.363000005484 -0.0209999997169 129.0
0.930999994278 -0.363999992609 -0.0209999997169 130.0
0.925000011921 -0.368000000715 -0.0209999997169 124.0
0.922999978065 -0.372999995947 -0.0209999997169 128.0
0.927999973297 -0.381999999285 -0.0209999997169 128.0
0.924000024796 -0.386999994516 -0.0209999997169 134.0
0.933000028133 -0.397000014782 -0.0209999997169 127.0
0.911000013351 -0.393999993801 -0.0209999997169 122.0
0.925000011921 -0.407000005245 -0.0209999997169 114.0
0.934000015259 -0.418000012636 -0.0209999997169 120.0
0.911000013351 -0.41400000453 -0.0209999997169 116.0
0.955999970436 -0.442000001669 -0.0219999998808 117.0
0.917999982834 -0.430999994278 -0.0209999997169 115.0
0.924000024796 -0.441000014544 -0.0209999997169 110.0
0.902999997139 -0.437000006437 -0.0209999997169 116.0
0.888000011444 -0.43599998951 -0.019999999553 103.0
0.893999993801 -0.446000009775 -0.019999999553 110.0
0.897000014782 -0.455000013113 -0.019999999553 105.0
0.950999975204 -0.490000009537 -0.0219999998808 105.0
0.865000009537 -0.451999992132 -0.019999999553 106.0
0.939999997616 -0.499000012875 -0.0219999998808 110.0
0.961000025272 -0.518000006676 -0.0219999998808 102.0
0.93900001049 -0.513999998569 -0.0219999998808 101.0
0.93599998951 -0.519999980927 -0.0219999998808 108.0
3.06399989128 1.65699994564 -0.104999996722 118.0
3.11299991608 1.6590000391 -0.105999998748 102.0
3.24499988556 1.70399999619 -0.109999999404 91.0
3.36899995804 1.74199998379 -0.11400000006 84.0
3.50500011444 1.78600001335 -0.118000000715 121.0
3.49900007248 1.75499999523 -0.118000000715 128.0
3.57100009918 1.76400005817 -0.119999997318 99.0
3.59599995613 1.74899995327 -0.119999997318 130.0
3.77099990845 1.80599999428 -0.125 117.0
3.78900003433 1.78600001335 -0.125 136.0
3.81900000572 1.77199995518 -0.126000002027 146.0
3.86800003052 1.76600003242 -0.127000004053 147.0
3.8710000515 1.74000000954 -0.127000004053 142.0
3.82800006866 1.69299995899 -0.125 135.0
3.87700009346 1.68599998951 -0.126000002027 120.0
3.91100001335 1.67299997807 -0.127000004053 132.0
3.89800000191 1.63999998569 -0.126000002027 130.0
3.88499999046 1.60699999332 -0.125 124.0
3.85800004005 1.56799995899 -0.123999997973 129.0
3.89100003242 1.55499994755 -0.125 130.0
3.92700004578 1.54200005531 -0.126000002027 126.0
3.92600011826 1.51499998569 -0.125 122.0
3.8789999485 1.47000002861 -0.123000003397 135.0
3.85199999809 1.43299996853 -0.122000001371 134.0
3.90100002289 1.42499995232 -0.123000003397 129.0
3.91499996185 1.40400004387 -0.123000003397 134.0
3.92199993134 1.37999999523 -0.123000003397 155.0
3.9240000248 1.35500001907 -0.123000003397 153.0
3.95799994469 1.34000003338 -0.123999997973 147.0
3.93600010872 1.30700004101 -0.123000003397 159.0
3.90499997139 1.27100002766 -0.122000001371 154.0
3.92600011826 1.25199997425 -0.122000001371 124.0
3.94499993324 1.23300004005 -0.122000001371 150.0
3.97199988365 1.2159999609 -0.123000003397 122.0
4.23099994659 1.26800000668 -0.129999995232 80.0
4.32399988174 1.26800000668 -0.133000001311 80.0
4.38000011444 1.25600004196 -0.134000003338 87.0
4.34299993515 1.21800005436 -0.133000001311 77.0
4.42899990082 1.21500003338 -0.135000005364 75.0
4.45599985123 1.19400000572 -0.136000007391 76.0
4.43800020218 1.16100001335 -0.135000005364 69.0
4.48400020599 1.14499998093 -0.136000007391 73.0
4.47300004959 1.11500000954 -0.135000005364 74.0
4.46899986267 1.08599996567 -0.135000005364 73.0
4.54300022125 1.0759999752 -0.136999994516 69.0
4.46500015259 1.02999997139 -0.134000003338 69.0
4.51399993896 1.01400005817 -0.135000005364 68.0
4.51000022888 0.985000014305 -0.135000005364 67.0
4.59499979019 0.976000010967 -0.136999994516 63.0
4.56699991226 0.941999971867 -0.136000007391 65.0
4.60599994659 0.92199999094 -0.136999994516 65.0
4.58699989319 0.89099997282 -0.136000007391 63.0
4.57000017166 0.860000014305 -0.135000005364 64.0
4.64099979401 0.846000015736 -0.136999994516 64.0
4.60799980164 0.811999976635 -0.136000007391 60.0
4.65700006485 0.792999982834 -0.136999994516 62.0
4.71600008011 0.774999976158 -0.138999998569 60.0
4.70800018311 0.745999991894 -0.137999996543 60.0
4.75600004196 0.725000023842 -0.138999998569 53.0
4.757999897 0.697000026703 -0.138999998569 56.0
4.75099992752 0.669000029564 -0.138999998569 57.0
4.76399993896 0.64200001955 -0.138999998569 52.0
4.72700023651 0.610000014305 -0.137999996543 51.0
2.52399992943 0.282000005245 -0.0729999989271 48.0
2.47199988365 0.217999994755 -0.0719999969006 47.0
2.45199990273 0.0469999983907 -0.070000000298 46.0
2.54800009727 0.0189999993891 -0.0719999969006 46.0
2.40199995041 -0.0769999995828 -0.0680000036955 140.0
2.38199996948 -0.0900000035763 -0.0670000016689 243.0
2.38000011444 -0.104000002146 -0.0670000016689 86.0
2.31599998474 -0.11400000006 -0.0649999976158 250.0
2.3069999218 -0.127000004053 -0.0649999976158 183.0
0.987999975681 -0.0640000030398 -0.0280000008643 118.0
0.964999973774 -0.0680000036955 -0.0270000007004 144.0
0.976000010967 -0.0750000029802 -0.0280000008643 147.0
0.97000002861 -0.0799999982119 -0.0280000008643 148.0
0.966000020504 -0.0850000008941 -0.0270000007004 146.0
0.981999993324 -0.0920000001788 -0.0280000008643 150.0
0.98400002718 -0.097999997437 -0.0280000008643 143.0
0.967999994755 -0.101999998093 -0.0270000007004 148.0
0.990000009537 -0.109999999404 -0.0280000008643 156.0
0.976999998093 -0.11400000006 -0.0280000008643 153.0
0.972999989986 -0.119000002742 -0.0280000008643 164.0
0.985000014305 -0.127000004053 -0.0280000008643 151.0
0.962000012398 -0.128999993205 -0.0270000007004 158.0
0.977999985218 -0.136999994516 -0.0280000008643 162.0
0.975000023842 -0.142000004649 -0.0280000008643 167.0
0.97000002861 -0.146999999881 -0.0270000007004 161.0
0.963999986649 -0.151999995112 -0.0270000007004 164.0
0.961000025272 -0.157000005245 -0.0270000007004 167.0
0.967999994755 -0.16400000453 -0.0270000007004 169.0
0.949999988079 -0.166999995708 -0.0270000007004 169.0
0.966000020504 -0.17499999702 -0.0270000007004 175.0
0.962000012398 -0.180999994278 -0.0270000007004 176.0
0.944000005722 -0.182999998331 -0.0270000007004 166.0
0.967000007629 -0.193000003695 -0.0270000007004 167.0
0.978999972343 -0.201000005007 -0.0280000008643 169.0
0.93900001049 -0.199000000954 -0.0260000005364 165.0
0.954999983311 -0.208000004292 -0.0270000007004 175.0
0.967999994755 -0.216999992728 -0.0270000007004 164.0
0.981000006199 -0.225999996066 -0.0280000008643 168.0
0.96899998188 -0.229000002146 -0.0270000007004 160.0
0.963999986649 -0.233999997377 -0.0270000007004 163.0
0.958000004292 -0.238000005484 -0.0270000007004 164.0
0.959999978542 -0.244000002742 -0.0270000007004 157.0
0.950999975204 -0.247999995947 -0.0270000007004 160.0
0.958000004292 -0.256000012159 -0.0270000007004 156.0
0.949999988079 -0.259999990463 -0.0270000007004 159.0
0.959999978542 -0.268000006676 -0.0270000007004 158.0
0.961000025272 -0.27500000596 -0.0270000007004 157.0
0.93900001049 -0.273999989033 -0.0270000007004 156.0
0.944999992847 -0.282000005245 -0.0270000007004 150.0
0.949999988079 -0.289999991655 -0.0270000007004 148.0
0.957000017166 -0.298000007868 -0.0270000007004 148.0
0.93599998951 -0.29699999094 -0.0270000007004 143.0
0.961000025272 -0.312000006437 -0.0270000007004 151.0
0.941999971867 -0.312000006437 -0.0270000007004 141.0
0.93900001049 -0.317000001669 -0.0270000007004 151.0
0.938000023365 -0.323000013828 -0.0270000007004 148.0
0.944000005722 -0.331000000238 -0.0270000007004 137.0
0.95300000906 -0.340000003576 -0.0270000007004 138.0
0.929000020027 -0.337999999523 -0.0260000005364 139.0
0.915000021458 -0.338999986649 -0.0260000005364 134.0
0.916999995708 -0.345999985933 -0.0260000005364 137.0
0.950999975204 -0.365000009537 -0.0270000007004 126.0
0.898999989033 -0.351000010967 -0.0260000005364 123.0
0.93599998951 -0.372000008821 -0.0270000007004 129.0
0.89200001955 -0.361000001431 -0.0260000005364 122.0
0.925000011921 -0.381000012159 -0.0270000007004 125.0
0.90499997139 -0.379000008106 -0.0260000005364 128.0
0.927999973297 -0.395000010729 -0.0270000007004 116.0
0.941999971867 -0.407999992371 -0.0270000007004 125.0
0.920000016689 -0.405000001192 -0.0270000007004 119.0
0.929000020027 -0.416000008583 -0.0270000007004 120.0
0.887000024319 -0.402999997139 -0.0260000005364 120.0
0.898000001907 -0.414999991655 -0.0260000005364 117.0
0.93900001049 -0.441000014544 -0.0270000007004 105.0
0.931999981403 -0.444000005722 -0.0270000007004 115.0
0.921000003815 -0.446000009775 -0.0270000007004 113.0
0.921000003815 -0.45300000906 -0.0270000007004 112.0
0.903999984264 -0.451999992132 -0.0260000005364 105.0
0.898000001907 -0.456000000238 -0.0260000005364 110.0
0.879999995232 -0.45300000906 -0.0260000005364 106.0
0.894999980927 -0.467999994755 -0.0260000005364 112.0
0.929000020027 -0.493000000715 -0.0270000007004 102.0
0.875 -0.470999985933 -0.0260000005364 105.0
0.907999992371 -0.495999991894 -0.0270000007004 106.0
0.901000022888 -0.5 -0.0270000007004 104.0
2.98799991608 1.61699998379 -0.122000001371 123.0
3.14899992943 1.6779999733 -0.12800000608 108.0
3.26600003242 1.71500003338 -0.131999999285 95.0
3.492000103 1.80599999428 -0.140000000596 82.0
3.50200009346 1.7840000391 -0.140000000596 129.0
3.51399993896 1.76300001144 -0.140000000596 121.0
3.52500009537 1.74199998379 -0.140000000596 103.0
3.65400004387 1.77799999714 -0.144999995828 136.0
3.66000008583 1.75300002098 -0.144999995828 128.0
3.80200004578 1.79299998283 -0.15000000596 132.0
3.83699989319 1.78100001812 -0.150999993086 143.0
3.86100006104 1.76300001144 -0.150999993086 145.0
3.85899996758 1.73399996758 -0.150999993086 143.0
3.82999992371 1.69299995899 -0.149000003934 140.0
3.87299990654 1.68499994278 -0.15000000596 127.0
3.86500000954 1.65299999714 -0.149000003934 145.0
3.92000007629 1.64900004864 -0.150999993086 141.0
3.85800004005 1.59500002861 -0.148000001907 150.0
3.91799998283 1.59300005436 -0.15000000596 144.0
3.91300010681 1.56400001049 -0.15000000596 142.0
3.88599991798 1.52600002289 -0.148000001907 135.0
3.92100000381 1.51300001144 -0.149000003934 148.0
3.91700005531 1.48399996758 -0.148000001907 144.0
3.86999988556 1.44000005722 -0.145999997854 151.0
3.90000009537 1.42499995232 -0.146999999881 145.0
3.87700009346 1.38999998569 -0.145999997854 134.0
3.92499995232 1.38100004196 -0.146999999881 149.0
3.95700001717 1.36600005627 -0.148000001907 149.0
3.93600010872 1.33299994469 -0.146999999881 150.0
3.93899989128 1.30799996853 -0.146999999881 154.0
3.92300009727 1.27699995041 -0.145999997854 140.0
3.9470000267 1.25899994373 -0.145999997854 133.0
3.9430000782 1.23199999332 -0.145999997854 143.0
3.9509999752 1.20899999142 -0.145999997854 119.0
4.21000003815 1.26199996471 -0.155000001192 80.0
4.32999992371 1.26999998093 -0.158999994397 79.0
4.37099981308 1.2539999485 -0.159999996424 82.0
4.36600017548 1.22500002384 -0.159999996424 82.0
4.40199995041 1.20700001717 -0.159999996424 80.0
4.50099992752 1.20599997044 -0.16400000453 73.0
4.47499990463 1.17100000381 -0.162000000477 74.0
4.47200012207 1.14199995995 -0.162000000477 72.0
4.51000022888 1.12399995327 -0.163000002503 72.0
4.48600006104 1.09000003338 -0.162000000477 75.0
4.54300022125 1.0759999752 -0.16400000453 69.0
4.54199981689 1.04799997807 -0.163000002503 68.0
4.55100011826 1.02199995518 -0.163000002503 70.0
4.55999994278 0.995999991894 -0.163000002503 72.0
4.57000017166 0.971000015736 -0.163000002503 61.0
4.51499986649 0.931999981403 -0.16099999845 65.0
4.60400009155 0.92199999094 -0.16400000453 61.0
4.64900016785 0.902999997139 -0.165000006557 66.0
4.58799982071 0.864000022411 -0.163000002503 60.0
4.64400005341 0.846000015736 -0.165000006557 66.0
4.62699985504 0.815999984741 -0.16400000453 63.0
4.64699983597 0.791000008583 -0.16400000453 62.0
4.68300008774 0.769999980927 -0.165000006557 60.0
4.72200012207 0.748000025749 -0.165999993682 56.0
4.69299983978 0.716000020504 -0.165000006557 58.0
4.71099996567 0.689999997616 -0.165000006557 55.0
4.75500011444 0.669000029564 -0.166999995708 54.0
4.71999979019 0.635999977589 -0.165000006557 57.0
4.78499984741 0.616999983788 -0.166999995708 51.0
2.5720000267 0.287000000477 -0.0900000035763 50.0
2.39199995995 -0.0769999995828 -0.0810000002384 143.0
2.40000009537 -0.0909999981523 -0.082000002265 236.0
2.36899995804 -0.103000000119 -0.0810000002384 86.0
2.30599999428 -0.11400000006 -0.0780000016093 246.0
2.32899999619 -0.12800000608 -0.0790000036359 176.0
1.02199995518 -0.0659999996424 -0.035000000149 122.0
0.96899998188 -0.0680000036955 -0.0329999998212 141.0
0.98400002718 -0.0750000029802 -0.0340000018477 144.0
0.935000002384 -0.0769999995828 -0.0320000015199 147.0
0.971000015736 -0.0850000008941 -0.0329999998212 144.0
0.972999989986 -0.0909999981523 -0.0329999998212 153.0
0.981999993324 -0.097999997437 -0.0329999998212 154.0
0.958999991417 -0.101000003517 -0.0329999998212 145.0
0.986000001431 -0.109999999404 -0.0340000018477 153.0
0.952000021935 -0.111000001431 -0.0320000015199 158.0
0.973999977112 -0.119999997318 -0.0329999998212 160.0
0.973999977112 -0.125 -0.0329999998212 160.0
0.972999989986 -0.130999997258 -0.0329999998212 160.0
0.959999978542 -0.135000005364 -0.0329999998212 164.0
0.985000014305 -0.143999993801 -0.0340000018477 164.0
0.972000002861 -0.148000001907 -0.0329999998212 163.0
0.966000020504 -0.152999997139 -0.0329999998212 161.0
0.981000006199 -0.16099999845 -0.0329999998212 163.0
0.958000004292 -0.163000002503 -0.0329999998212 171.0
0.940999984741 -0.165000006557 -0.0320000015199 166.0
0.962000012398 -0.17499999702 -0.0329999998212 170.0
0.976000010967 -0.182999998331 -0.0329999998212 168.0
0.958000004292 -0.186000004411 -0.0329999998212 168.0
0.955999970436 -0.190999999642 -0.0329999998212 168.0
0.966000020504 -0.199000000954 -0.0329999998212 170.0
0.954999983311 -0.202000007033 -0.0329999998212 161.0
0.952000021935 -0.207000002265 -0.0320000015199 169.0
0.939999997616 -0.209999993443 -0.0320000015199 167.0
0.93900001049 -0.216000005603 -0.0320000015199 160.0
0.957000017166 -0.225999996066 -0.0329999998212 170.0
0.947000026703 -0.229000002146 -0.0320000015199 165.0
0.96899998188 -0.240999996662 -0.0329999998212 164.0
0.947000026703 -0.240999996662 -0.0320000015199 161.0
0.945999979973 -0.24699999392 -0.0320000015199 168.0
0.953999996185 -0.254999995232 -0.0329999998212 161.0
0.939999997616 -0.256999999285 -0.0320000015199 157.0
0.948000013828 -0.264999985695 -0.0320000015199 160.0
0.940999984741 -0.268999993801 -0.0320000015199 159.0
0.945999979973 -0.275999993086 -0.0320000015199 160.0
0.921000003815 -0.27500000596 -0.0320000015199 154.0
0.971000015736 -0.296000003815 -0.0329999998212 153.0
0.933000028133 -0.289999991655 -0.0320000015199 156.0
0.945999979973 -0.300999999046 -0.0320000015199 145.0
0.926999986172 -0.300999999046 -0.0320000015199 145.0
0.947000026703 -0.312999993563 -0.0329999998212 143.0
0.973999977112 -0.328999996185 -0.0340000018477 149.0
0.95300000906 -0.32800000906 -0.0329999998212 140.0
0.95300000906 -0.333999991417 -0.0329999998212 144.0
0.944999992847 -0.337999999523 -0.0329999998212 143.0
0.919000029564 -0.333999991417 -0.0320000015199 138.0
0.943000018597 -0.34999999404 -0.0329999998212 137.0
0.930999994278 -0.351999998093 -0.0320000015199 143.0
0.944999992847 -0.363000005484 -0.0329999998212 134.0
0.949999988079 -0.372000008821 -0.0329999998212 129.0
0.931999981403 -0.370999991894 -0.0320000015199 125.0
0.916000008583 -0.370999991894 -0.0320000015199 126.0
0.943000018597 -0.388000011444 -0.0329999998212 132.0
0.944000005722 -0.395999997854 -0.0329999998212 128.0
0.949000000954 -0.404000014067 -0.0329999998212 122.0
0.940999984741 -0.407999992371 -0.0329999998212 119.0
0.941999971867 -0.414999991655 -0.0329999998212 123.0
0.936999976635 -0.419999986887 -0.0329999998212 118.0
0.916999995708 -0.416999995708 -0.0320000015199 119.0
0.935000002384 -0.432000011206 -0.0329999998212 113.0
0.89200001955 -0.418999999762 -0.0309999994934 115.0
0.93599998951 -0.446999996901 -0.0329999998212 113.0
0.911000013351 -0.441000014544 -0.0320000015199 111.0
0.919000029564 -0.451999992132 -0.0329999998212 112.0
0.916000008583 -0.458000004292 -0.0320000015199 109.0
0.952000021935 -0.483000010252 -0.0340000018477 104.0
0.936999976635 -0.483000010252 -0.0329999998212 104.0
0.908999979496 -0.476000010967 -0.0320000015199 111.0
0.933000028133 -0.495000004768 -0.0329999998212 107.0
0.885999977589 -0.476999998093 -0.0320000015199 97.0
0.885999977589 -0.485000014305 -0.0320000015199 104.0
0.929000020027 -0.51599997282 -0.0329999998212 105.0
3.09599995613 1.67499995232 -0.145999997854 92.0
3.14199995995 1.67499995232 -0.148000001907 80.0
3.19099998474 1.67599999905 -0.149000003934 77.0
3.51200008392 1.76199996471 -0.163000002503 96.0
3.53099989891 1.74500000477 -0.163000002503 86.0
3.72099995613 1.81099998951 -0.171000003815 105.0
3.68700003624 1.76600003242 -0.168999999762 106.0
3.84599995613 1.81400001049 -0.175999999046 104.0
3.90400004387 1.81200003624 -0.178000003099 119.0
3.83699989319 1.75300002098 -0.173999994993 114.0
3.88000011444 1.74399995804 -0.175999999046 115.0
3.90100002289 1.72500002384 -0.175999999046 117.0
3.87800002098 1.68700003624 -0.17499999702 106.0
3.83699989319 1.64100003242 -0.172000005841 125.0
3.83500003815 1.61300003529 -0.172000005841 127.0
3.89299988747 1.61000001431 -0.173999994993 128.0
3.882999897 1.57899999619 -0.172999992967 127.0
3.91499996185 1.56400001049 -0.173999994993 129.0
3.91499996185 1.53699994087 -0.172999992967 133.0
3.86599993706 1.49100005627 -0.171000003815 135.0
3.93400001526 1.49100005627 -0.172999992967 140.0
3.88499999046 1.44599997997 -0.171000003815 141.0
3.94799995422 1.44299995899 -0.172999992967 134.0
3.88400006294 1.39300000668 -0.170000001788 137.0
3.90799999237 1.37600004673 -0.170000001788 143.0
3.93600010872 1.35899996758 -0.171000003815 142.0
3.97699999809 1.34700000286 -0.172000005841 141.0
3.93499994278 1.30700004101 -0.170000001788 146.0
3.88599991798 1.26499998569 -0.167999997735 127.0
3.91400003433 1.24899995327 -0.168999999762 129.0
3.94600009918 1.23300004005 -0.170000001788 137.0
3.96700000763 1.21399998665 -0.170000001788 113.0
4.29500007629 1.28699994087 -0.184000000358 70.0
4.3639998436 1.27999997139 -0.186000004411 74.0
4.44999980927 1.27699995041 -0.189999997616 83.0
4.4279999733 1.24199998379 -0.187999993563 81.0
4.4310002327 1.21500003338 -0.187999993563 75.0
4.44199991226 1.19000005722 -0.187999993563 70.0
4.43400001526 1.15999996662 -0.187000006437 67.0
4.51599979401 1.15400004387 -0.189999997616 73.0
4.45100021362 1.10899996758 -0.187000006437 78.0
4.49300003052 1.09200000763 -0.188999995589 74.0
4.46400022507 1.05700004101 -0.187000006437 69.0
4.48999977112 1.03600001335 -0.187999993563 77.0
4.5689997673 1.02600002289 -0.190999999642 73.0
4.60900020599 1.00699996948 -0.192000001669 67.0
4.58300018311 0.973999977112 -0.190999999642 69.0
4.63100004196 0.955999970436 -0.192000001669 64.0
4.62699985504 0.926999986172 -0.192000001669 63.0
4.60900020599 0.894999980927 -0.190999999642 59.0
4.64900016785 0.875 -0.192000001669 65.0
4.62599992752 0.842999994755 -0.190999999642 63.0
4.69799995422 0.82800000906 -0.194000005722 59.0
4.71799993515 0.802999973297 -0.194000005722 62.0
4.68800020218 0.769999980927 -0.193000003695 60.0
4.6859998703 0.741999983788 -0.192000001669 61.0
4.75500011444 0.725000023842 -0.194999992847 61.0
4.69299983978 0.688000023365 -0.192000001669 58.0
4.7610001564 0.670000016689 -0.194999992847 55.0
4.73799991608 0.638999998569 -0.193000003695 52.0
4.84000015259 0.624000012875 -0.196999996901 51.0
2.50699996948 0.178000003099 -0.101000003517 47.0
2.47699999809 -0.0230000000447 -0.0989999994636 49.0
2.38100004196 -0.0769999995828 -0.0949999988079 145.0
2.37700009346 -0.0900000035763 -0.0949999988079 220.0
2.35700011253 -0.103000000119 -0.0939999967813 90.0
2.29699993134 -0.11400000006 -0.0909999981523 249.0
2.30900001526 -0.127000004053 -0.0920000001788 169.0
0.989000022411 -0.0640000030398 -0.0399999991059 123.0
0.986999988556 -0.070000000298 -0.0390000008047 147.0
