ply
format ascii 1.0
element vertex 926
property float x
property float y
property float z
property float intensity
end_header
0.871999979019 -0.259999990463 0.0209999997169 1834.0
0.870000004768 -0.264999985695 0.0209999997169 1820.0
0.865999996662 -0.268999993801 0.0209999997169 1804.0
0.866999983788 -0.27500000596 0.0209999997169 1810.0
0.864000022411 -0.280000001192 0.0209999997169 1817.0
0.85799998045 -0.282999992371 0.0209999997169 1792.0
0.869000017643 -0.291999995708 0.0209999997169 1821.0
0.865999996662 -0.29699999094 0.0209999997169 1794.0
0.861999988556 -0.301999986172 0.0209999997169 1779.0
0.853999972343 -0.303999990225 0.0209999997169 1787.0
0.860000014305 -0.312000006437 0.0209999997169 1811.0
0.851999998093 -0.314999997616 0.0209999997169 1839.0
0.85900002718 -0.323000013828 0.0209999997169 1839.0
0.853999972343 -0.32800000906 0.0209999997169 1841.0
0.855000019073 -0.333999991417 0.0209999997169 1864.0
0.855000019073 -0.340000003576 0.0219999998808 1879.0
0.855000019073 -0.344999998808 0.0219999998808 1847.0
0.852999985218 -0.351000010967 0.0219999998808 1854.0
0.851000010967 -0.356000006199 0.0219999998808 1869.0
0.851000010967 -0.361999988556 0.0219999998808 1848.0
0.850000023842 -0.36700001359 0.0219999998808 1848.0
0.846000015736 -0.372000008821 0.0219999998808 1839.0
0.847999989986 -0.379000008106 0.0219999998808 1850.0
0.851999998093 -0.386999994516 0.0219999998808 1864.0
0.842999994755 -0.388999998569 0.0219999998808 1823.0
0.84399998188 -0.395999997854 0.0219999998808 1828.0
0.84399998188 -0.402000010014 0.0219999998808 1826.0
0.837999999523 -0.405000001192 0.0219999998808 1797.0
0.839999973774 -0.412999987602 0.0219999998808 1817.0
0.841000020504 -0.418999999762 0.0219999998808 1812.0
0.842999994755 -0.426999986172 0.0219999998808 1805.0
0.836000025272 -0.430000007153 0.0219999998808 1827.0
0.832000017166 -0.433999985456 0.0219999998808 1852.0
0.832000017166 -0.441000014544 0.0219999998808 1852.0
0.837999999523 -0.451000005007 0.0230000000447 1796.0
0.827000021935 -0.451999992132 0.0219999998808 1831.0
0.833000004292 -0.46099999547 0.0230000000447 1830.0
1.68700003624 0.967000007629 0.0280000008643 233.0
1.73699998856 0.981999993324 0.0289999991655 237.0
1.74899995327 0.973999977112 0.0289999991655 223.0
1.80799996853 0.991999983788 0.0299999993294 224.0
1.82299995422 0.986000001431 0.0299999993294 199.0
1.99000000954 1.05999994278 0.0329999998212 113.0
2.00300002098 1.05200004578 0.0329999998212 134.0
2.05399990082 1.06200003624 0.0340000018477 163.0
2.09100008011 1.06500005722 0.035000000149 270.0
2.07800006866 1.04299998283 0.0340000018477 328.0
2.07699990273 1.02600002289 0.0340000018477 309.0
2.09200000763 1.01800000668 0.035000000149 301.0
2.08299994469 0.998000025749 0.0340000018477 303.0
2.125 1.00199997425 0.035000000149 203.0
2.14100003242 0.992999970913 0.035000000149 123.0
2.17199993134 0.991999983788 0.0359999984503 204.0
2.20600008965 0.990999996662 0.0359999984503 360.0
2.22399997711 0.98299998045 0.0370000004768 246.0
2.28299999237 0.992999970913 0.0379999987781 100.0
3.30399990082 1.05499994755 0.054999999702 83.0
3.32299995422 1.03900003433 0.054999999702 93.0
3.32699990273 1.01900005341 0.054999999702 90.0
3.77999997139 1.13300001621 0.0630000010133 61.0
3.71900010109 1.0909999609 0.0619999989867 97.0
3.72000002861 1.06799995899 0.0619999989867 112.0
3.75699996948 1.05499994755 0.0630000010133 103.0
3.87700009346 1.06400001049 0.0649999976158 81.0
4.11199998856 1.10199999809 0.0689999982715 69.0
4.09499979019 1.0720000267 0.0689999982715 88.0
4.07800006866 1.04200005531 0.0680000036955 133.0
4.11800003052 1.02699995041 0.0689999982715 146.0
4.09399986267 0.995999991894 0.0689999982715 140.0
4.1360001564 0.981000006199 0.070000000298 123.0
4.12799978256 0.95300000906 0.0689999982715 118.0
4.17600011826 0.93900001049 0.070000000298 113.0
4.0609998703 0.888000011444 0.0680000036955 110.0
4.14599990845 0.882000029087 0.070000000298 114.0
4.06199979782 0.838999986649 0.0689999982715 116.0
4.11899995804 0.825999975204 0.070000000298 119.0
4.1139998436 0.800000011921 0.0689999982715 110.0
4.13000011444 0.777999997139 0.070000000298 115.0
4.08199977875 0.745000004768 0.0689999982715 117.0
4.12200021744 0.726999998093 0.070000000298 116.0
4.132999897 0.704999983311 0.070000000298 114.0
4.14499998093 0.681999981403 0.070000000298 115.0
4.132999897 0.65600001812 0.070000000298 118.0
4.08900022507 0.625 0.0689999982715 114.0
4.14599990845 0.60900002718 0.0710000023246 112.0
4.1360001564 0.583000004292 0.070000000298 112.0
4.11499977112 0.555999994278 0.070000000298 117.0
4.10900020599 0.53100001812 0.070000000298 122.0
4.10900020599 0.507000029087 0.070000000298 121.0
4.09499979019 0.481000006199 0.070000000298 138.0
4.09299993515 0.456999987364 0.070000000298 129.0
4.132999897 0.437000006437 0.0710000023246 83.0
0.907000005245 -0.115999996662 0.0149999996647 882.0
0.894999980927 -0.119999997318 0.0149999996647 1761.0
0.89099997282 -0.123999997973 0.0149999996647 1838.0
0.89200001955 -0.129999995232 0.0149999996647 1842.0
0.888999998569 -0.135000005364 0.0149999996647 1774.0
0.89099997282 -0.140000000596 0.0149999996647 1768.0
0.887000024319 -0.144999995828 0.0149999996647 1866.0
0.888000011444 -0.15000000596 0.0149999996647 1830.0
0.888999998569 -0.156000003219 0.0149999996647 1808.0
0.888999998569 -0.16099999845 0.0149999996647 1791.0
0.884999990463 -0.165000006557 0.0149999996647 1767.0
0.884999990463 -0.171000003815 0.0149999996647 1757.0
0.887000024319 -0.175999999046 0.0149999996647 1755.0
0.883000016212 -0.180999994278 0.0149999996647 1763.0
0.884000003338 -0.187000006437 0.0149999996647 1775.0
0.880999982357 -0.190999999642 0.0149999996647 1791.0
0.879999995232 -0.195999994874 0.0149999996647 1795.0
0.878000020981 -0.201000005007 0.0149999996647 1781.0
0.878000020981 -0.207000002265 0.0149999996647 1808.0
0.878000020981 -0.211999997497 0.0149999996647 1791.0
0.875999987125 -0.216999992728 0.0149999996647 1766.0
0.876999974251 -0.223000004888 0.01600000076 1836.0
0.875 -0.226999998093 0.01600000076 1881.0
0.874000012875 -0.232999995351 0.01600000076 1850.0
0.873000025749 -0.238000005484 0.01600000076 1857.0
0.866999983788 -0.241999998689 0.01600000076 1839.0
0.871999979019 -0.247999995947 0.01600000076 1870.0
0.869000017643 -0.252999991179 0.01600000076 1827.0
0.865000009537 -0.256999999285 0.01600000076 1852.0
0.869000017643 -0.263999998569 0.01600000076 1829.0
0.869000017643 -0.270000010729 0.01600000076 1866.0
0.864000022411 -0.273999989033 0.01600000076 1823.0
0.861000001431 -0.279000014067 0.01600000076 1834.0
0.862999975681 -0.284999996424 0.01600000076 1810.0
0.861999988556 -0.289999991655 0.01600000076 1821.0
0.865000009537 -0.29699999094 0.01600000076 1799.0
0.860000014305 -0.300999999046 0.01600000076 1814.0
0.861000001431 -0.307000011206 0.01600000076 1799.0
0.856000006199 -0.31099998951 0.01600000076 1819.0
0.85799998045 -0.317000001669 0.01600000076 1861.0
0.851999998093 -0.321000009775 0.01600000076 1847.0
0.856000006199 -0.32800000906 0.01600000076 1846.0
0.850000023842 -0.331999987364 0.01600000076 1877.0
0.851999998093 -0.337999999523 0.01600000076 1904.0
0.852999985218 -0.344999998808 0.01600000076 1875.0
0.853999972343 -0.351000010967 0.01600000076 1873.0
0.851000010967 -0.356000006199 0.01600000076 1880.0
0.851999998093 -0.361999988556 0.01600000076 1879.0
0.84399998188 -0.365000009537 0.01600000076 1867.0
0.84500002861 -0.370999991894 0.01600000076 1881.0
0.852999985218 -0.381000012159 0.0170000009239 1875.0
0.842999994755 -0.38299998641 0.0170000009239 1876.0
0.84399998188 -0.388999998569 0.0170000009239 1845.0
0.842999994755 -0.395000010729 0.0170000009239 1856.0
0.84399998188 -0.402000010014 0.0170000009239 1878.0
0.838999986649 -0.405999988317 0.0170000009239 1823.0
0.839999973774 -0.412999987602 0.0170000009239 1833.0
0.838999986649 -0.418999999762 0.0170000009239 1815.0
0.838999986649 -0.425000011921 0.0170000009239 1797.0
0.837000012398 -0.430999994278 0.0170000009239 1819.0
0.837000012398 -0.437000006437 0.0170000009239 1856.0
0.833000004292 -0.442000001669 0.0170000009239 1851.0
0.832000017166 -0.448000013828 0.0170000009239 1822.0
0.833000004292 -0.455000013113 0.0170000009239 1836.0
0.833000004292 -0.46099999547 0.0170000009239 1819.0
1.68400001526 0.964999973774 0.0170000009239 229.0
1.70200002193 0.961000025272 0.0170000009239 224.0
1.76499998569 0.98299998045 0.0179999992251 218.0
1.7539999485 0.962000012398 0.0179999992251 223.0
1.83899998665 0.994000017643 0.0189999993891 206.0
2.01799988747 1.07500004768 0.0209999997169 201.0
2.0680000782 1.08500003815 0.0209999997169 211.0
2.06200003624 1.06599998474 0.0209999997169 235.0
2.08100008965 1.05999994278 0.0209999997169 274.0
2.09800004959 1.05200004578 0.0209999997169 291.0
2.09400010109 1.0340000391 0.0209999997169 302.0
2.08599996567 1.01499998569 0.0209999997169 301.0
2.08999991417 1.00100004673 0.0209999997169 298.0
2.12400007248 1.00100004673 0.0219999998808 192.0
2.14299988747 0.995000004768 0.0219999998808 115.0
2.21900010109 1.01300001144 0.0230000000447 206.0
2.21399998665 0.995000004768 0.0230000000447 379.0
2.21399998665 0.978999972343 0.0230000000447 231.0
2.27900004387 0.990999996662 0.0230000000447 91.0
3.27800011635 1.04600000381 0.035000000149 106.0
3.33400011063 1.04200005531 0.0359999984503 99.0
3.40100002289 1.04100000858 0.0359999984503 89.0
3.94199991226 1.18200004101 0.0419999994338 67.0
3.7650001049 1.10500001907 0.0410000011325 101.0
3.72000002861 1.06799995899 0.0399999991059 113.0
3.79200005531 1.06400001049 0.0410000011325 107.0
4.05700016022 1.11300003529 0.0439999997616 86.0
4.0640001297 1.08899998665 0.0439999997616 87.0
4.15000009537 1.0870000124 0.0450000017881 103.0
4.08900022507 1.04499995708 0.0439999997616 172.0
4.08900022507 1.01999998093 0.0450000017881 182.0
4.08900022507 0.994000017643 0.0450000017881 165.0
4.15299987793 0.98400002718 0.0450000017881 128.0
4.12699985504 0.95300000906 0.0450000017881 123.0
4.10500001907 0.922999978065 0.0450000017881 125.0
4.15500020981 0.907999992371 0.0460000000894 127.0
4.11000013351 0.874000012875 0.0450000017881 130.0
4.12300014496 0.851000010967 0.0450000017881 129.0
4.11100006104 0.824000000954 0.0450000017881 136.0
4.11999988556 0.800999999046 0.0450000017881 134.0
4.09800004959 0.772000014782 0.0450000017881 131.0
4.15999984741 0.759000003338 0.0460000000894 132.0
4.12599992752 0.727999985218 0.0460000000894 137.0
4.12400007248 0.70300000906 0.0460000000894 136.0
4.12599992752 0.679000020027 0.0460000000894 136.0
4.10799980164 0.652000010014 0.0460000000894 138.0
4.09499979019 0.625 0.0460000000894 135.0
4.13500022888 0.606999993324 0.0460000000894 137.0
4.117000103 0.579999983311 0.0460000000894 139.0
4.11899995804 0.555999994278 0.0460000000894 145.0
4.11800003052 0.532000005245 0.0460000000894 141.0
4.1139998436 0.507000029087 0.0460000000894 122.0
4.06599998474 0.477999985218 0.0460000000894 142.0
4.07899999619 0.455000013113 0.0460000000894 140.0
4.17299985886 0.441000014544 0.0469999983907 88.0
4.62099981308 0.462000012398 0.0529999993742 57.0
4.58799982071 0.432000011206 0.0520000010729 56.0
4.60200023651 0.405999988317 0.0529999993742 56.0
4.53700017929 0.374000012875 0.0520000010729 58.0
4.64699983597 0.356000006199 0.0529999993742 56.0
4.65899991989 0.330000013113 0.0540000014007 65.0
4.54899978638 0.296000003815 0.0520000010729 52.0
4.59899997711 0.273000001907 0.0529999993742 53.0
4.69899988174 0.252000004053 0.0540000014007 57.0
4.57000017166 0.218999996781 0.0529999993742 49.0
4.66400003433 0.195999994874 0.0540000014007 52.0
4.52799987793 0.16400000453 0.0529999993742 51.0
4.64599990845 0.142000004649 0.0540000014007 49.0
4.88999986649 0.0649999976158 0.0579999983311 49.0
4.68200016022 0.035000000149 0.054999999702 50.0
4.91300010681 0.00899999961257 0.0579999983311 52.0
4.84299993515 -0.0179999992251 0.0570000000298 48.0
4.80399990082 -0.0460000000894 0.0570000000298 49.0
4.74499988556 -0.0719999969006 0.0570000000298 46.0
4.70900011063 -0.0989999994636 0.0560000017285 46.0
0.903999984264 -0.115999996662 0.00999999977648 913.0
0.893000006676 -0.119000002742 0.00999999977648 1698.0
0.898000001907 -0.125 0.00999999977648 1800.0
0.889999985695 -0.128999993205 0.00999999977648 1846.0
0.89099997282 -0.135000005364 0.00999999977648 1797.0
0.888000011444 -0.140000000596 0.00999999977648 1785.0
0.888000011444 -0.144999995828 0.00999999977648 1908.0
0.887000024319 -0.15000000596 0.00999999977648 1881.0
0.887000024319 -0.155000001192 0.00999999977648 1811.0
0.889999985695 -0.16099999845 0.00999999977648 1816.0
0.884000003338 -0.165000006557 0.00999999977648 1771.0
0.888000011444 -0.171000003815 0.00999999977648 1790.0
0.883000016212 -0.175999999046 0.00999999977648 1763.0
0.884000003338 -0.180999994278 0.00999999977648 1777.0
0.884999990463 -0.187000006437 0.00999999977648 1797.0
0.882000029087 -0.190999999642 0.00999999977648 1809.0
0.879999995232 -0.195999994874 0.00999999977648 1829.0
0.882000029087 -0.202000007033 0.00999999977648 1817.0
0.878000020981 -0.207000002265 0.00999999977648 1844.0
0.875999987125 -0.211999997497 0.00999999977648 1834.0
0.875 -0.216999992728 0.00999999977648 1811.0
0.878000020981 -0.223000004888 0.00999999977648 1863.0
0.875999987125 -0.228000000119 0.00999999977648 1883.0
0.870000004768 -0.231999993324 0.00999999977648 1845.0
0.873000025749 -0.238000005484 0.00999999977648 1884.0
0.873000025749 -0.243000000715 0.00999999977648 1862.0
0.867999970913 -0.24699999392 0.00999999977648 1876.0
0.874000012875 -0.254999995232 0.0109999999404 1867.0
0.865999996662 -0.25799998641 0.0109999999404 1850.0
0.865000009537 -0.263000011444 0.0109999999404 1856.0
0.869000017643 -0.270000010729 0.0109999999404 1863.0
0.865000009537 -0.273999989033 0.0109999999404 1831.0
0.866999983788 -0.280999988317 0.0109999999404 1837.0
0.862999975681 -0.284999996424 0.0109999999404 1852.0
0.861000001431 -0.289999991655 0.0109999999404 1849.0
0.860000014305 -0.294999986887 0.0109999999404 1831.0
0.85900002718 -0.300000011921 0.0109999999404 1804.0
0.856000006199 -0.305000007153 0.0109999999404 1809.0
0.861000001431 -0.312999993563 0.0109999999404 1832.0
0.861999988556 -0.319000005722 0.0109999999404 1843.0
0.853999972343 -0.321000009775 0.0109999999404 1838.0
0.856999993324 -0.32800000906 0.0109999999404 1846.0
0.851999998093 -0.331999987364 0.0109999999404 1852.0
0.856999993324 -0.340000003576 0.0109999999404 1878.0
0.852999985218 -0.344999998808 0.0109999999404 1893.0
0.855000019073 -0.351999998093 0.0109999999404 1886.0
0.850000023842 -0.354999989271 0.0109999999404 1883.0
0.850000023842 -0.361999988556 0.0109999999404 1875.0
0.84500002861 -0.365000009537 0.0109999999404 1892.0
0.847999989986 -0.372999995947 0.0109999999404 1882.0
0.84500002861 -0.377999991179 0.0109999999404 1885.0
0.84500002861 -0.38299998641 0.0109999999404 1882.0
0.847000002861 -0.391000002623 0.0109999999404 1849.0
0.842000007629 -0.395000010729 0.0109999999404 1882.0
0.846000015736 -0.402999997139 0.0120000001043 1880.0
0.837999999523 -0.405000001192 0.0109999999404 1858.0
0.842999994755 -0.41400000453 0.0120000001043 1848.0
0.841000020504 -0.419999986887 0.0120000001043 1829.0
0.841000020504 -0.425999999046 0.0120000001043 1840.0
0.839999973774 -0.432000011206 0.0120000001043 1831.0
0.839999973774 -0.43900001049 0.0120000001043 1836.0
0.833000004292 -0.441000014544 0.0120000001043 1836.0
0.832000017166 -0.446999996901 0.0120000001043 1804.0
0.828999996185 -0.451999992132 0.0120000001043 1807.0
0.82800000906 -0.458999991417 0.0120000001043 1820.0
1.69599997997 0.972000002861 0.00600000005215 230.0
1.71500003338 0.96899998188 0.00600000005215 227.0
1.73300004005 0.964999973774 0.00600000005215 219.0
1.77699995041 0.975000023842 0.00600000005215 219.0
1.75499999523 0.949000000954 0.00600000005215 190.0
1.91999995708 1.02300000191 0.00700000021607 96.0
2.05900001526 1.06500005722 0.00800000037998 115.0
2.05500006676 1.04600000381 0.00800000037998 150.0
2.08400011063 1.04499995708 0.00800000037998 237.0
2.1099998951 1.04200005531 0.00800000037998 310.0
2.08299994469 1.01300001144 0.00800000037998 305.0
2.08999991417 1.00100004673 0.00800000037998 300.0
2.09699988365 0.987999975681 0.00800000037998 184.0
2.18099999428 1.01199996471 0.00899999961257 115.0
2.1970000267 1.00300002098 0.00899999961257 209.0
2.20199990273 0.989000022411 0.00899999961257 388.0
2.21499991417 0.978999972343 0.00899999961257 225.0
2.257999897 0.981999993324 0.00899999961257 91.0
3.24300003052 1.03499996662 0.0149999996647 110.0
3.33599996567 1.04299998283 0.01600000076 93.0
3.38499999046 1.03600001335 0.01600000076 82.0
3.69000005722 1.10599994659 0.0179999992251 80.0
3.742000103 1.09800004959 0.0179999992251 101.0
3.69400000572 1.05999994278 0.0179999992251 111.0
3.79999995232 1.06599998474 0.0179999992251 102.0
4.06699991226 1.11600005627 0.019999999553 86.0
4.12200021744 1.10500001907 0.019999999553 90.0
4.19099998474 1.09700000286 0.0209999997169 104.0
4.05999994278 1.03699994087 0.019999999553 164.0
4.11299991608 1.02600002289 0.019999999553 178.0
4.08599996567 0.994000017643 0.019999999553 162.0
4.17600011826 0.990000009537 0.0209999997169 128.0
4.11499977112 0.949999988079 0.0209999997169 123.0
4.12699985504 0.926999986172 0.0209999997169 122.0
4.15999984741 0.908999979496 0.0209999997169 126.0
4.15100002289 0.882000029087 0.0209999997169 127.0
4.11600017548 0.850000023842 0.0209999997169 133.0
4.10799980164 0.823000013828 0.0209999997169 132.0
4.10099983215 0.79699999094 0.0209999997169 131.0
4.09800004959 0.772000014782 0.0209999997169 133.0
4.09700012207 0.746999979019 0.0209999997169 135.0
4.13899993896 0.730000019073 0.0219999998808 133.0
4.09399986267 0.698000013828 0.0219999998808 138.0
4.09399986267 0.674000024796 0.0219999998808 140.0
4.08500003815 0.648000001907 0.0219999998808 140.0
4.11100006104 0.628000020981 0.0219999998808 140.0
4.09999990463 0.601999998093 0.0219999998808 139.0
4.1139998436 0.579999983311 0.0219999998808 140.0
4.11000013351 0.555000007153 0.0219999998808 141.0
4.10400009155 0.52999997139 0.0219999998808 145.0
4.09700012207 0.504999995232 0.0219999998808 122.0
4.08199977875 0.479000002146 0.0219999998808 142.0
4.08300018311 0.455000013113 0.0230000000447 132.0
4.17600011826 0.441000014544 0.0230000000447 82.0
4.49599981308 0.449000000954 0.0250000003725 67.0
4.58300018311 0.430999994278 0.0260000005364 74.0
4.58099985123 0.404000014067 0.0260000005364 70.0
4.58599996567 0.377999991179 0.0260000005364 65.0
4.59000015259 0.351999998093 0.0260000005364 65.0
4.60400009155 0.326000005007 0.0260000005364 63.0
4.63100004196 0.300999999046 0.0270000007004 63.0
4.62900018692 0.27500000596 0.0270000007004 61.0
4.57000017166 0.245000004768 0.0270000007004 68.0
4.58300018311 0.218999996781 0.0270000007004 61.0
4.632999897 0.194999992847 0.0270000007004 59.0
4.63899993896 0.167999997735 0.0270000007004 52.0
4.71400022507 0.143999993801 0.0280000008643 60.0
4.73500013351 0.116999998689 0.0280000008643 59.0
4.70800018311 0.0890000015497 0.0280000008643 60.0
4.757999897 0.0630000010133 0.0289999991655 58.0
4.72100019455 0.035000000149 0.0280000008643 59.0
4.7610001564 0.00800000037998 0.0289999991655 61.0
4.68499994278 -0.0179999992251 0.0289999991655 62.0
4.77899980545 -0.0460000000894 0.0289999991655 57.0
4.75199985504 -0.0729999989271 0.0289999991655 56.0
4.77400016785 -0.10000000149 0.0289999991655 54.0
4.80399990082 -0.128999993205 0.0299999993294 56.0
4.75899982452 -0.155000001192 0.0299999993294 55.0
4.87699985504 -0.187000006437 0.0309999994934 55.0
4.87699985504 -0.215000003576 0.0309999994934 55.0
4.88800001144 -0.244000002742 0.0309999994934 58.0
4.81300020218 -0.268000006676 0.0309999994934 51.0
4.92899990082 -0.303000003099 0.0320000015199 48.0
2.46300005913 -0.192000001669 0.0149999996647 52.0
0.89099997282 -0.11400000006 0.00499999988824 940.0
0.897000014782 -0.119999997318 0.00499999988824 1684.0
0.893000006676 -0.125 0.00499999988824 1809.0
0.896000027657 -0.129999995232 0.00499999988824 1895.0
0.89200001955 -0.135000005364 0.00499999988824 1840.0
0.883000016212 -0.138999998569 0.00499999988824 1754.0
0.888999998569 -0.144999995828 0.00499999988824 1940.0
0.89099997282 -0.150999993086 0.00499999988824 1910.0
0.884999990463 -0.155000001192 0.00499999988824 1837.0
0.888000011444 -0.16099999845 0.00499999988824 1867.0
0.888999998569 -0.165999993682 0.00499999988824 1818.0
0.884999990463 -0.171000003815 0.00499999988824 1800.0
0.884000003338 -0.175999999046 0.00499999988824 1765.0
0.879999995232 -0.180000007153 0.00499999988824 1824.0
0.879000008106 -0.186000004411 0.00499999988824 1833.0
0.879999995232 -0.190999999642 0.00499999988824 1835.0
0.875999987125 -0.195999994874 0.00499999988824 1838.0
0.880999982357 -0.202000007033 0.00499999988824 1835.0
0.880999982357 -0.207000002265 0.00499999988824 1859.0
0.876999974251 -0.211999997497 0.00499999988824 1848.0
0.875 -0.216999992728 0.00499999988824 1818.0
0.878000020981 -0.223000004888 0.00499999988824 1862.0
0.879000008106 -0.228000000119 0.00499999988824 1920.0
0.870999991894 -0.231999993324 0.00499999988824 1894.0
0.870999991894 -0.237000003457 0.00499999988824 1916.0
0.870999991894 -0.243000000715 0.00499999988824 1888.0
0.869000017643 -0.247999995947 0.00499999988824 1923.0
0.870000004768 -0.254000008106 0.00499999988824 1909.0
0.866999983788 -0.25799998641 0.00499999988824 1862.0
0.865000009537 -0.263000011444 0.00499999988824 1872.0
0.870000004768 -0.270000010729 0.00499999988824 1851.0
0.865000009537 -0.273999989033 0.00499999988824 1832.0
0.862999975681 -0.279000014067 0.00499999988824 1854.0
0.865000009537 -0.286000013351 0.00600000005215 1835.0
0.862999975681 -0.291000008583 0.00600000005215 1847.0
0.860000014305 -0.294999986887 0.00600000005215 1851.0
0.861999988556 -0.300999999046 0.00600000005215 1826.0
0.856999993324 -0.305999994278 0.00600000005215 1829.0
0.85900002718 -0.312000006437 0.00600000005215 1872.0
0.856999993324 -0.317000001669 0.00600000005215 1855.0
0.852999985218 -0.321000009775 0.00600000005215 1851.0
0.852999985218 -0.326999992132 0.00600000005215 1853.0
0.856999993324 -0.333999991417 0.00600000005215 1890.0
0.850000023842 -0.337000012398 0.00600000005215 1883.0
0.851000010967 -0.344000011683 0.00600000005215 1883.0
0.850000023842 -0.34999999404 0.00600000005215 1891.0
0.852999985218 -0.356999993324 0.00600000005215 1884.0
0.852999985218 -0.363000005484 0.00600000005215 1888.0
0.84399998188 -0.365000009537 0.00600000005215 1883.0
0.846000015736 -0.372000008821 0.00600000005215 1913.0
0.846000015736 -0.377999991179 0.00600000005215 1896.0
0.841000020504 -0.381999999285 0.00600000005215 1901.0
0.847999989986 -0.391000002623 0.00600000005215 1913.0
0.841000020504 -0.393999993801 0.00600000005215 1885.0
0.842999994755 -0.400999993086 0.00600000005215 1897.0
0.838999986649 -0.405999988317 0.00600000005215 1877.0
0.841000020504 -0.412999987602 0.00600000005215 1880.0
0.841000020504 -0.419999986887 0.00600000005215 1878.0
0.838999986649 -0.425000011921 0.00600000005215 1851.0
0.836000025272 -0.430000007153 0.00600000005215 1860.0
0.827000021935 -0.432000011206 0.00600000005215 1822.0
0.836000025272 -0.442999988794 0.00600000005215 1802.0
0.837000012398 -0.449999988079 0.00700000021607 1776.0
0.832000017166 -0.453999996185 0.00700000021607 1794.0
0.825999975204 -0.458000004292 0.00700000021607 1843.0
1.6970000267 0.972999989986 -0.00400000018999 236.0
1.74000000954 0.98299998045 -0.00400000018999 225.0
1.74800002575 0.972999989986 -0.00400000018999 223.0
1.75800001621 0.963999986649 -0.00400000018999 224.0
1.82799994946 0.987999975681 -0.00400000018999 191.0
1.93700003624 1.03199994564 -0.00400000018999 92.0
2.00999999046 1.05499994755 -0.00400000018999 103.0
2.0720000267 1.07099997997 -0.00400000018999 127.0
2.07299995422 1.05499994755 -0.00400000018999 244.0
2.08800005913 1.04700005054 -0.00400000018999 326.0
2.09699988365 1.03600001335 -0.00400000018999 308.0
2.09800004959 1.01999998093 -0.00400000018999 306.0
2.08599996567 0.999000012875 -0.00400000018999 296.0
2.09200000763 0.986000001431 -0.00400000018999 173.0
2.13000011444 0.987999975681 -0.00400000018999 117.0
2.1970000267 1.00300002098 -0.00400000018999 211.0
2.21199989319 0.994000017643 -0.00400000018999 377.0
2.23699998856 0.989000022411 -0.00400000018999 238.0
2.27699995041 0.990000009537 -0.00400000018999 86.0
3.36400008202 1.07299995422 -0.00300000002608 92.0
3.34500002861 1.04499995708 -0.00300000002608 91.0
3.39299988747 1.03900003433 -0.00300000002608 89.0
3.7539999485 1.125 -0.00300000002608 65.0
3.76900005341 1.10500001907 -0.00300000002608 117.0
3.757999897 1.07799994946 -0.00300000002608 107.0
3.86899995804 1.08599996567 -0.00300000002608 109.0
4.03299999237 1.10599994659 -0.00300000002608 92.0
4.08199977875 1.09399998188 -0.00300000002608 91.0
4.17199993134 1.09200000763 -0.00300000002608 106.0
4.07499980927 1.04100000858 -0.00300000002608 165.0
4.10400009155 1.02300000191 -0.00300000002608 177.0
4.07700014114 0.990999996662 -0.00300000002608 160.0
4.13399982452 0.980000019073 -0.00300000002608 128.0
4.1360001564 0.954999983311 -0.00200000009499 130.0
4.117000103 0.925000011921 -0.00200000009499 120.0
4.11299991608 0.898999989033 -0.00200000009499 126.0
4.10500001907 0.871999979019 -0.00200000009499 132.0
4.12699985504 0.851999998093 -0.00200000009499 130.0
4.11999988556 0.825999975204 -0.00200000009499 135.0
4.08599996567 0.794000029564 -0.00200000009499 131.0
4.11600017548 0.774999976158 -0.00200000009499 132.0
4.12099981308 0.751999974251 -0.00200000009499 136.0
4.13999986649 0.730000019073 -0.0010000000475 133.0
4.09100008011 0.697000026703 -0.0010000000475 137.0
4.15199995041 0.683000028133 -0.0010000000475 135.0
4.09800004959 0.649999976158 -0.0010000000475 131.0
4.14900016785 0.633000016212 -0.0010000000475 136.0
4.09899997711 0.601000010967 -0.0010000000475 139.0
4.12099981308 0.579999983311 -0.0010000000475 139.0
4.132999897 0.558000028133 -0.0010000000475 143.0
4.13199996948 0.532999992371 0.0 133.0
4.08799982071 0.504000008106 0.0 123.0
4.11000013351 0.481999993324 0.0 131.0
4.07499980927 0.453999996185 0.0 129.0
4.23500013351 0.448000013828 0.0 85.0
4.52099990845 0.451000005007 0.0 65.0
4.51900005341 0.425000011921 0.0 81.0
4.58400011063 0.404000014067 0.0 78.0
4.67100000381 0.384999990463 0.0 67.0
4.60099983215 0.352999985218 0.0 65.0
4.58900022507 0.324999988079 0.0 65.0
4.54899978638 0.296000003815 0.0 64.0
4.69199991226 0.277999997139 0.0 65.0
4.60799980164 0.24699999392 0.0 65.0
4.62900018692 0.221000000834 0.0 64.0
4.67199993134 0.195999994874 0.0 63.0
4.66499996185 0.168999999762 0.0010000000475 62.0
4.61499977112 0.141000002623 0.0010000000475 64.0
4.6810002327 0.115999996662 0.0010000000475 60.0
4.70499992371 0.0890000015497 0.0010000000475 56.0
4.69899988174 0.0619999989867 0.0010000000475 63.0
4.72599983215 0.035000000149 0.0010000000475 60.0
4.70900011063 0.00800000037998 0.0010000000475 61.0
4.74900007248 -0.0179999992251 0.00200000009499 59.0
4.72800016403 -0.0450000017881 0.00200000009499 55.0
4.76900005341 -0.0729999989271 0.00200000009499 58.0
4.75899982452 -0.10000000149 0.00200000009499 55.0
4.75500011444 -0.12800000608 0.00200000009499 58.0
4.77799987793 -0.156000003219 0.00200000009499 60.0
4.77899980545 -0.182999998331 0.00200000009499 55.0
4.82499980927 -0.212999999523 0.00300000002608 57.0
4.86000013351 -0.241999998689 0.00300000002608 55.0
4.82700014114 -0.268999993801 0.00300000002608 54.0
4.87200021744 -0.298999994993 0.00300000002608 52.0
2.36199998856 -0.211999997497 0.0010000000475 50.0
0.896000027657 -0.115000002086 0.0 968.0
0.897000014782 -0.119999997318 0.0 1724.0
0.888999998569 -0.123999997973 0.0 1821.0
0.893000006676 -0.129999995232 0.0 1889.0
0.887000024319 -0.134000003338 0.0 1859.0
0.889999985695 -0.140000000596 0.0 1793.0
0.89099997282 -0.145999997854 0.0 1926.0
0.884999990463 -0.15000000596 0.0 1932.0
0.888999998569 -0.156000003219 0.0 1849.0
0.89099997282 -0.16099999845 0.0 1891.0
0.884000003338 -0.165000006557 0.0 1858.0
0.885999977589 -0.171000003815 0.0 1812.0
0.880999982357 -0.17499999702 0.0 1815.0
0.883000016212 -0.180999994278 0.0 1845.0
0.880999982357 -0.186000004411 0.0 1845.0
0.878000020981 -0.190999999642 0.0 1820.0
0.874000012875 -0.194999992847 0.0 1826.0
0.875999987125 -0.201000005007 0.0 1835.0
0.879999995232 -0.207000002265 0.0 1882.0
0.876999974251 -0.211999997497 0.0 1824.0
0.870999991894 -0.216000005603 0.0 1823.0
0.873000025749 -0.222000002861 0.0 1842.0
0.871999979019 -0.226999998093 0.0 1956.0
0.867999970913 -0.231000006199 0.0 1922.0
0.866999983788 -0.236000001431 0.0 1911.0
0.870999991894 -0.243000000715 0.0 1912.0
0.866999983788 -0.24699999392 0.0 1935.0
0.870000004768 -0.254000008106 0.0 1929.0
0.867999970913 -0.25799998641 0.0 1909.0
0.870000004768 -0.264999985695 0.0 1885.0
0.870000004768 -0.270000010729 0.0 1885.0
0.865999996662 -0.27500000596 0.0 1900.0
0.865000009537 -0.280000001192 0.0 1898.0
0.865000009537 -0.284999996424 0.0 1861.0
0.861999988556 -0.289999991655 0.0 1863.0
0.85900002718 -0.294999986887 0.0 1898.0
0.855000019073 -0.298999994993 0.0 1846.0
0.85900002718 -0.305999994278 0.0 1864.0
0.856999993324 -0.31099998951 0.0 1854.0
0.85799998045 -0.317000001669 0.0010000000475 1839.0
0.856999993324 -0.323000013828 0.0010000000475 1833.0
0.855000019073 -0.32800000906 0.0010000000475 1884.0
0.851999998093 -0.333000004292 0.0010000000475 1906.0
0.851999998093 -0.337999999523 0.0010000000475 1879.0
0.853999972343 -0.344999998808 0.0010000000475 1850.0
0.847999989986 -0.349000006914 0.0010000000475 1880.0
0.847000002861 -0.354000002146 0.0010000000475 1872.0
0.848999977112 -0.361000001431 0.0010000000475 1888.0
0.846000015736 -0.365000009537 0.0010000000475 1920.0
0.847999989986 -0.372999995947 0.0010000000475 1916.0
0.842999994755 -0.377000004053 0.0010000000475 1927.0
0.846000015736 -0.384000003338 0.0010000000475 1928.0
0.84500002861 -0.389999985695 0.0010000000475 1936.0
0.842999994755 -0.395000010729 0.0010000000475 1942.0
0.837999999523 -0.398999989033 0.0010000000475 1945.0
0.839999973774 -0.405999988317 0.0010000000475 1898.0
0.842000007629 -0.41400000453 0.0010000000475 1872.0
0.837999999523 -0.418000012636 0.0010000000475 1844.0
0.839999973774 -0.425999999046 0.0010000000475 1841.0
0.833000004292 -0.428000003099 0.0010000000475 1865.0
0.828999996185 -0.432999998331 0.0010000000475 1872.0
0.834999978542 -0.442999988794 0.0010000000475 1840.0
0.834999978542 -0.449000000954 0.0010000000475 1801.0
0.837000012398 -0.456999987364 0.0010000000475 1816.0
0.828999996185 -0.458999991417 0.0010000000475 1867.0
1.66799998283 0.955999970436 -0.0149999996647 231.0
1.71300005913 0.967999994755 -0.0149999996647 224.0
1.76499998569 0.981999993324 -0.0149999996647 228.0
1.78299999237 0.977999985218 -0.0149999996647 227.0
1.81400001049 0.981000006199 -0.01600000076 206.0
2.04399991035 1.08899998665 -0.0170000009239 200.0
2.06599998474 1.08399999142 -0.0179999992251 226.0
2.06399989128 1.06700003147 -0.0170000009239 268.0
2.08500003815 1.06200003624 -0.0170000009239 298.0
2.09500002861 1.04999995232 -0.0170000009239 304.0
2.08800005913 1.03100001812 -0.0170000009239 310.0
2.10599994659 1.02400004864 -0.0170000009239 304.0
2.0680000782 0.990000009537 -0.0170000009239 290.0
2.1099998951 0.994000017643 -0.0170000009239 182.0
2.15199995041 0.998000025749 -0.0170000009239 112.0
2.19499993324 1.00199997425 -0.0179999992251 215.0
2.21099996567 0.992999970913 -0.0179999992251 378.0
2.23300004005 0.986999988556 -0.0179999992251 228.0
2.27999997139 0.990999996662 -0.0179999992251 86.0
3.26200008392 1.04100000858 -0.0230000000447 111.0
3.33500003815 1.04200005531 -0.0230000000447 88.0
3.39599990845 1.03900003433 -0.0240000002086 90.0
3.63199996948 1.08800005913 -0.0250000003725 66.0
3.76799988747 1.08099997044 -0.0260000005364 114.0
3.77099990845 1.05799996853 -0.0260000005364 107.0
4.04899978638 1.11000001431 -0.0270000007004 88.0
4.09600019455 1.09800004959 -0.0270000007004 86.0
4.10599994659 1.07500004768 -0.0270000007004 103.0
4.117000103 1.05200004578 -0.0270000007004 166.0
4.0689997673 1.01400005817 -0.0270000007004 181.0
4.06300020218 0.987999975681 -0.0270000007004 155.0
4.07299995422 0.964999973774 -0.0270000007004 131.0
4.13999986649 0.954999983311 -0.0270000007004 127.0
4.09800004959 0.921000003815 -0.0260000005364 123.0
4.12099981308 0.901000022888 -0.0260000005364 122.0
4.11000013351 0.873000025749 -0.0260000005364 133.0
4.11999988556 0.850000023842 -0.0260000005364 134.0
4.08799982071 0.819000005722 -0.0260000005364 131.0
4.125 0.801999986172 -0.0260000005364 132.0
4.10200023651 0.773000001907 -0.0260000005364 133.0
4.12699985504 0.751999974251 -0.0260000005364 133.0
4.132999897 0.728999972343 -0.0260000005364 139.0
4.10099983215 0.699000000954 -0.0250000003725 127.0
4.08599996567 0.67199999094 -0.0250000003725 133.0
4.14099979401 0.65600001812 -0.0250000003725 130.0
4.10699987411 0.626999974251 -0.0250000003725 138.0
4.08900022507 0.600000023842 -0.0250000003725 136.0
4.09499979019 0.577000021935 -0.0250000003725 136.0
4.06199979782 0.547999978065 -0.0240000002086 143.0
4.13000011444 0.532999992371 -0.0240000002086 136.0
4.07700014114 0.501999974251 -0.0240000002086 125.0
4.07600021362 0.477999985218 -0.0240000002086 135.0
4.08099985123 0.455000013113 -0.0240000002086 134.0
4.20699977875 0.444999992847 -0.0240000002086 88.0
4.5689997673 0.456000000238 -0.0260000005364 61.0
4.5560002327 0.428000003099 -0.0260000005364 71.0
4.56199979782 0.402000010014 -0.0260000005364 79.0
4.60300016403 0.379000008106 -0.0260000005364 67.0
4.59600019455 0.351999998093 -0.0260000005364 67.0
4.60799980164 0.326000005007 -0.0260000005364 62.0
4.60099983215 0.298999994993 -0.0260000005364 62.0
4.68699979782 0.277999997139 -0.0260000005364 68.0
4.64699983597 0.248999997973 -0.0260000005364 65.0
4.6970000267 0.224000006914 -0.0260000005364 65.0
4.66699981689 0.195999994874 -0.0250000003725 68.0
4.61299991608 0.166999995708 -0.0250000003725 66.0
4.62799978256 0.141000002623 -0.0250000003725 59.0
4.64099979401 0.115000002086 -0.0250000003725 64.0
4.66800022125 0.0879999995232 -0.0250000003725 66.0
4.69500017166 0.0619999989867 -0.0250000003725 63.0
4.71500015259 0.035000000149 -0.0250000003725 64.0
4.78100013733 0.00800000037998 -0.0250000003725 55.0
4.78200006485 -0.0179999992251 -0.0250000003725 61.0
4.75400018692 -0.0460000000894 -0.0250000003725 61.0
4.72499990463 -0.0729999989271 -0.0240000002086 59.0
4.76200008392 -0.10000000149 -0.0250000003725 57.0
4.83500003815 -0.129999995232 -0.0250000003725 59.0
4.78499984741 -0.156000003219 -0.0240000002086 57.0
4.83799982071 -0.186000004411 -0.0250000003725 52.0
4.8060002327 -0.211999997497 -0.0240000002086 56.0
4.84000015259 -0.240999996662 -0.0240000002086 56.0
4.81799983978 -0.268000006676 -0.0240000002086 55.0
4.85200023651 -0.298000007868 -0.0240000002086 51.0
4.92199993134 -0.331000000238 -0.0240000002086 49.0
0.897000014782 -0.115000002086 -0.00499999988824 1008.0
0.893000006676 -0.119999997318 -0.00499999988824 1762.0
0.893000006676 -0.125 -0.00499999988824 1803.0
0.893000006676 -0.129999995232 -0.00499999988824 1861.0
0.887000024319 -0.134000003338 -0.00499999988824 1851.0
0.889999985695 -0.140000000596 -0.00499999988824 1828.0
0.887000024319 -0.144999995828 -0.00400000018999 1920.0
0.888999998569 -0.150999993086 -0.00400000018999 1926.0
0.885999977589 -0.155000001192 -0.00400000018999 1917.0
0.885999977589 -0.159999996424 -0.00400000018999 1926.0
0.880999982357 -0.165000006557 -0.00400000018999 1866.0
0.884999990463 -0.171000003815 -0.00400000018999 1857.0
0.884000003338 -0.175999999046 -0.00400000018999 1851.0
0.879000008106 -0.180000007153 -0.00400000018999 1859.0
0.883000016212 -0.186000004411 -0.00400000018999 1880.0
0.879999995232 -0.190999999642 -0.00400000018999 1839.0
0.878000020981 -0.195999994874 -0.00400000018999 1822.0
0.879999995232 -0.202000007033 -0.00400000018999 1867.0
0.879999995232 -0.207000002265 -0.00400000018999 1922.0
0.874000012875 -0.21099999547 -0.00400000018999 1847.0
0.875 -0.216999992728 -0.00400000018999 1822.0
0.873000025749 -0.222000002861 -0.00400000018999 1871.0
0.869000017643 -0.225999996066 -0.00400000018999 1959.0
0.870999991894 -0.231999993324 -0.00400000018999 1966.0
0.875 -0.238000005484 -0.00400000018999 1954.0
0.871999979019 -0.243000000715 -0.00400000018999 1938.0
0.870999991894 -0.247999995947 -0.00400000018999 1970.0
0.871999979019 -0.254000008106 -0.00400000018999 1943.0
0.866999983788 -0.25799998641 -0.00400000018999 1964.0
0.867999970913 -0.263999998569 -0.00400000018999 1912.0
0.865000009537 -0.268999993801 -0.00400000018999 1949.0
0.865000009537 -0.273999989033 -0.00400000018999 1978.0
0.865999996662 -0.280000001192 -0.00400000018999 1970.0
0.862999975681 -0.284999996424 -0.00400000018999 1907.0
0.85900002718 -0.28900000453 -0.00400000018999 1893.0
0.861000001431 -0.294999986887 -0.00400000018999 1920.0
0.861000001431 -0.300999999046 -0.00400000018999 1890.0
0.860000014305 -0.307000011206 -0.00400000018999 1887.0
0.85900002718 -0.312000006437 -0.00400000018999 1857.0
0.860000014305 -0.317999988794 -0.00400000018999 1849.0
0.853999972343 -0.321000009775 -0.00400000018999 1849.0
0.852999985218 -0.326999992132 -0.00400000018999 1897.0
0.851999998093 -0.333000004292 -0.00400000018999 1897.0
0.848999977112 -0.337000012398 -0.00400000018999 1897.0
0.851999998093 -0.344000011683 -0.00400000018999 1882.0
0.850000023842 -0.349000006914 -0.00400000018999 1865.0
0.852999985218 -0.356999993324 -0.00400000018999 1902.0
0.847999989986 -0.361000001431 -0.00400000018999 1880.0
0.84500002861 -0.365000009537 -0.00300000002608 1921.0
0.84399998188 -0.370999991894 -0.00300000002608 1937.0
0.847999989986 -0.379000008106 -0.00300000002608 1955.0
0.841000020504 -0.381999999285 -0.00300000002608 1945.0
0.841000020504 -0.388000011444 -0.00300000002608 1947.0
0.837999999523 -0.393000006676 -0.00300000002608 1972.0
0.838999986649 -0.40000000596 -0.00300000002608 1987.0
0.839999973774 -0.405999988317 -0.00300000002608 1915.0
0.837999999523 -0.411000013351 -0.00300000002608 1858.0
0.834999978542 -0.416000008583 -0.00300000002608 1862.0
0.837000012398 -0.423999994993 -0.00300000002608 1859.0
0.834999978542 -0.428999990225 -0.00300000002608 1878.0
0.833999991417 -0.435000002384 -0.00300000002608 1898.0
0.833999991417 -0.442000001669 -0.00300000002608 1870.0
0.834999978542 -0.449000000954 -0.00300000002608 1813.0
0.829999983311 -0.45300000906 -0.00300000002608 1815.0
0.828999996185 -0.458999991417 -0.00300000002608 1865.0
1.70599997044 0.976999998093 -0.0260000005364 228.0
1.72699999809 0.976000010967 -0.0260000005364 226.0
1.73000001907 0.962999999523 -0.0260000005364 225.0
1.79799997807 0.986000001431 -0.0270000007004 219.0
1.80900001526 0.977999985218 -0.0270000007004 205.0
1.98899996281 1.05900001526 -0.0299999993294 148.0
2.08899998665 1.09599995613 -0.0309999994934 154.0
2.07100009918 1.07099997997 -0.0309999994934 172.0
2.08299994469 1.06099998951 -0.0309999994934 194.0
2.06500005722 1.03600001335 -0.0299999993294 242.0
2.06999993324 1.02199995518 -0.0299999993294 307.0
2.09800004959 1.01999998093 -0.0299999993294 302.0
2.08999991417 1.00100004673 -0.0299999993294 300.0
2.11400008202 0.995999991894 -0.0299999993294 178.0
2.117000103 0.981999993324 -0.0299999993294 110.0
2.17700004578 0.994000017643 -0.0309999994934 212.0
2.20700001717 0.990999996662 -0.0309999994934 370.0
2.24699997902 0.992999970913 -0.0320000015199 216.0
2.30599999428 1.00300002098 -0.0320000015199 91.0
3.33599996567 1.04299998283 -0.0430000014603 97.0
3.37400007248 1.03299999237 -0.0439999997616 90.0
3.7349998951 1.11899995804 -0.0480000004172 66.0
3.78399991989 1.08500003815 -0.0480000004172 117.0
3.77099990845 1.05799996853 -0.0480000004172 105.0
4.06599998474 1.11500000954 -0.0520000010729 87.0
4.00699996948 1.07400000095 -0.0509999990463 97.0
4.06300020218 1.06299996376 -0.0509999990463 91.0
4.09399986267 1.04600000381 -0.0509999990463 145.0
4.11299991608 1.02499997616 -0.0509999990463 142.0
4.11600017548 1.0 -0.0509999990463 136.0
4.14300012589 0.981000006199 -0.0509999990463 137.0
4.11999988556 0.950999975204 -0.0509999990463 113.0
4.12200021744 0.925999999046 -0.0509999990463 112.0
4.17000007629 0.911000013351 -0.0509999990463 111.0
4.09200000763 0.869000017643 -0.0500000007451 111.0
4.12900018692 0.851999998093 -0.0500000007451 114.0
4.08599996567 0.819000005722 -0.0500000007451 113.0
4.14099979401 0.805000007153 -0.0500000007451 114.0
4.17299985886 0.786000013351 -0.0500000007451 115.0
4.11499977112 0.75 -0.0500000007451 121.0
4.08799982071 0.721000015736 -0.0489999987185 118.0
4.09499979019 0.698000013828 -0.0489999987185 113.0
4.10799980164 0.675999999046 -0.0489999987185 121.0
4.09000015259 0.648000001907 -0.0489999987185 120.0
4.11999988556 0.629000008106 -0.0489999987185 144.0
4.15999984741 0.610000014305 -0.0489999987185 145.0
4.14200019836 0.583000004292 -0.0489999987185 139.0
4.10300016403 0.552999973297 -0.0480000004172 147.0
4.1139998436 0.53100001812 -0.0480000004172 131.0
4.13700008392 0.509999990463 -0.0480000004172 124.0
4.05800008774 0.476000010967 -0.0469999983907 134.0
4.12200021744 0.460000008345 -0.0480000004172 126.0
4.25099992752 0.449000000954 -0.0489999987185 91.0
4.50500011444 0.449999988079 -0.0520000010729 68.0
4.53700017929 0.425999999046 -0.0520000010729 75.0
4.5560002327 0.402000010014 -0.0520000010729 71.0
4.58699989319 0.377999991179 -0.0529999993742 68.0
4.59000015259 0.351999998093 -0.0520000010729 63.0
4.60599994659 0.326000005007 -0.0520000010729 67.0
4.60699987411 0.298999994993 -0.0520000010729 67.0
4.62900018692 0.273999989033 -0.0520000010729 66.0
4.64900016785 0.248999997973 -0.0520000010729 70.0
4.61999988556 0.219999998808 -0.0520000010729 62.0
4.632999897 0.194000005722 -0.0520000010729 70.0
4.66800022125 0.168999999762 -0.0520000010729 66.0
4.71400022507 0.143000006676 -0.0529999993742 62.0
4.68699979782 0.115999996662 -0.0520000010729 64.0
4.68800020218 0.0890000015497 -0.0520000010729 59.0
4.68300008774 0.0619999989867 -0.0520000010729 64.0
4.70599985123 0.035000000149 -0.0520000010729 65.0
4.68200016022 0.00800000037998 -0.0520000010729 64.0
4.72800016403 -0.0179999992251 -0.0520000010729 60.0
4.73099994659 -0.0460000000894 -0.0520000010729 62.0
4.73699998856 -0.0729999989271 -0.0520000010729 60.0
4.78100013733 -0.101000003517 -0.0520000010729 56.0
4.75199985504 -0.12800000608 -0.0520000010729 64.0
4.81699991226 -0.157000005245 -0.0520000010729 62.0
4.80100011826 -0.184000000358 -0.0520000010729 55.0
4.8060002327 -0.211999997497 -0.0520000010729 64.0
4.86299991608 -0.243000000715 -0.0520000010729 55.0
4.88199996948 -0.272000014782 -0.0529999993742 57.0
4.96899986267 -0.305000007153 -0.0529999993742 51.0
1.13300001621 -0.138999998569 -0.0120000001043 58.0
0.902999997139 -0.115999996662 -0.00999999977648 1058.0
0.89099997282 -0.119000002742 -0.00999999977648 1792.0
0.89200001955 -0.125 -0.00999999977648 1864.0
0.888000011444 -0.128999993205 -0.00999999977648 1869.0
0.89200001955 -0.135000005364 -0.00999999977648 1902.0
0.888000011444 -0.140000000596 -0.00999999977648 1831.0
0.885999977589 -0.144999995828 -0.00999999977648 1933.0
0.887000024319 -0.15000000596 -0.00999999977648 1943.0
0.884000003338 -0.155000001192 -0.00999999977648 1973.0
0.885999977589 -0.159999996424 -0.00999999977648 1950.0
0.888999998569 -0.165999993682 -0.00999999977648 1911.0
0.884999990463 -0.171000003815 -0.00999999977648 1888.0
0.879000008106 -0.17499999702 -0.00899999961257 1845.0
0.884999990463 -0.180999994278 -0.00899999961257 1858.0
0.879999995232 -0.186000004411 -0.00899999961257 1894.0
0.876999974251 -0.189999997616 -0.00899999961257 1875.0
0.879000008106 -0.195999994874 -0.00899999961257 1846.0
0.882000029087 -0.202000007033 -0.00899999961257 1849.0
0.878000020981 -0.207000002265 -0.00899999961257 1919.0
0.871999979019 -0.21099999547 -0.00899999961257 1852.0
0.875 -0.216999992728 -0.00899999961257 1854.0
0.874000012875 -0.222000002861 -0.00899999961257 1914.0
0.869000017643 -0.225999996066 -0.00899999961257 1974.0
0.870000004768 -0.231999993324 -0.00899999961257 2011.0
0.870999991894 -0.237000003457 -0.00899999961257 2013.0
0.866999983788 -0.241999998689 -0.00899999961257 1952.0
0.867999970913 -0.247999995947 -0.00899999961257 1982.0
0.867999970913 -0.252999991179 -0.00899999961257 1970.0
0.870000004768 -0.259000003338 -0.00899999961257 2004.0
0.865000009537 -0.263000011444 -0.00899999961257 1979.0
0.867999970913 -0.270000010729 -0.00899999961257 1980.0
0.864000022411 -0.273999989033 -0.00899999961257 2004.0
0.866999983788 -0.280000001192 -0.00899999961257 1991.0
0.866999983788 -0.286000013351 -0.00899999961257 1945.0
0.861999988556 -0.289999991655 -0.00899999961257 1905.0
0.85900002718 -0.294999986887 -0.00899999961257 1924.0
0.861000001431 -0.300999999046 -0.00899999961257 1933.0
0.85799998045 -0.305999994278 -0.00899999961257 1920.0
0.860000014305 -0.312000006437 -0.00899999961257 1915.0
0.860000014305 -0.317999988794 -0.00899999961257 1841.0
0.853999972343 -0.321999996901 -0.00899999961257 1845.0
0.853999972343 -0.32800000906 -0.00899999961257 1869.0
0.855000019073 -0.333999991417 -0.00899999961257 1888.0
0.851999998093 -0.338999986649 -0.00899999961257 1926.0
0.853999972343 -0.344999998808 -0.00899999961257 1892.0
0.850000023842 -0.349000006914 -0.00899999961257 1886.0
0.847999989986 -0.354999989271 -0.00899999961257 1899.0
0.84500002861 -0.358999997377 -0.00899999961257 1891.0
0.842999994755 -0.363999992609 -0.00899999961257 1912.0
0.846000015736 -0.372000008821 -0.00899999961257 1955.0
0.84399998188 -0.377000004053 -0.00899999961257 1969.0
0.84500002861 -0.384000003338 -0.00899999961257 1967.0
0.842000007629 -0.388000011444 -0.00899999961257 1989.0
0.842999994755 -0.395000010729 -0.00899999961257 1981.0
0.838999986649 -0.398999989033 -0.00899999961257 1974.0
0.837999999523 -0.405000001192 -0.00899999961257 2001.0
0.834999978542 -0.409999996424 -0.00899999961257 1906.0
0.838999986649 -0.418999999762 -0.00899999961257 1899.0
0.832000017166 -0.421000003815 -0.00899999961257 1917.0
0.833999991417 -0.428999990225 -0.00899999961257 1871.0
0.834999978542 -0.43599998951 -0.00899999961257 1886.0
0.833999991417 -0.442000001669 -0.00899999961257 1867.0
0.825999975204 -0.444000005722 -0.00800000037998 1822.0
0.830999970436 -0.453999996185 -0.00800000037998 1844.0
0.830999970436 -0.460000008345 -0.00800000037998 1867.0
1.68099999428 0.963999986649 -0.0370000004768 238.0
1.70399999619 0.962000012398 -0.0370000004768 230.0
1.74899995327 0.973999977112 -0.0379999987781 218.0
1.78699994087 0.980000019073 -0.0390000008047 220.0
1.82500004768 0.986000001431 -0.0390000008047 182.0
1.94599997997 1.02100002766 -0.0410000011325 89.0
2.02200007439 1.04499995708 -0.0430000014603 101.0
2.0569999218 1.04700005054 -0.0430000014603 192.0
2.09200000763 1.0490000248 -0.0439999997616 287.0
2.09599995613 1.03499996662 -0.0439999997616 307.0
2.09299993515 1.01800000668 -0.0439999997616 301.0
2.11299991608 1.01199996471 -0.0439999997616 297.0
2.10100007057 0.990000009537 -0.0430000014603 182.0
2.10500001907 0.976000010967 -0.0430000014603 103.0
2.20700001717 1.00800001621 -0.0450000017881 209.0
2.20799994469 0.991999983788 -0.0450000017881 374.0
2.21199989319 0.977999985218 -0.0450000017881 217.0
2.2349998951 0.972000002861 -0.0450000017881 85.0
3.2650001049 1.04200005531 -0.0619999989867 113.0
3.36199998856 1.05099999905 -0.0640000030398 93.0
3.39700007439 1.03999996185 -0.0640000030398 82.0
3.75699996948 1.12600004673 -0.0710000023246 67.0
3.76600003242 1.10399997234 -0.0710000023246 93.0
3.75 1.0759999752 -0.070000000298 104.0
3.74699997902 1.05099999905 -0.070000000298 99.0
3.84400010109 1.05400002003 -0.0719999969006 94.0
3.91499996185 1.0490000248 -0.0729999989271 114.0
4.07000017166 1.06500005722 -0.0750000029802 110.0
4.10799980164 1.0490000248 -0.0759999975562 139.0
4.08400011063 1.01800000668 -0.0750000029802 123.0
4.10500001907 0.998000025749 -0.0750000029802 131.0
4.09600019455 0.97000002861 -0.0750000029802 120.0
4.14900016785 0.957000017166 -0.0759999975562 116.0
