ply
format ascii 1.0
element vertex 940
property float x
property float y
property float z
property float intensity
end_header
4.117000103 1.65100002289 1.19200003147 143.0
4.14699983597 1.63399994373 1.19900000095 136.0
4.15600013733 1.60800004005 1.19900000095 145.0
4.16699981689 1.58200001717 1.20000004768 133.0
4.16300010681 1.55200004578 1.19599997997 138.0
4.13399982452 1.51199996471 1.18599998951 137.0
4.11100006104 1.47500002384 1.17700004578 135.0
4.13800001144 1.45599997044 1.18200004101 138.0
4.16099977493 1.43599998951 1.18700003624 137.0
4.10099983215 1.38699996471 1.16799998283 125.0
0.958000004292 0.0379999987781 0.259999990463 71.0
0.927999973297 0.0320000015199 0.250999987125 90.0
0.962000012398 0.0270000007004 0.261000007391 125.0
0.954999983311 0.0209999997169 0.259000003338 127.0
0.945999979973 0.01600000076 0.256000012159 145.0
0.98299998045 0.00999999977648 0.266999989748 147.0
0.96899998188 0.00400000018999 0.263000011444 152.0
1.00600004196 -0.00600000005215 0.273000001907 186.0
0.949999988079 -0.0109999999404 0.25799998641 129.0
0.986999988556 -0.0179999992251 0.268000006676 141.0
0.934000015259 -0.0219999998808 0.252999991179 147.0
0.955999970436 -0.0280000008643 0.259000003338 162.0
0.967000007629 -0.0340000018477 0.261999994516 172.0
0.93900001049 -0.0390000008047 0.254999995232 170.0
0.976999998093 -0.0460000000894 0.264999985695 171.0
0.977999985218 -0.0520000010729 0.266000002623 182.0
0.981999993324 -0.0579999983311 0.266999989748 200.0
0.981999993324 -0.0640000030398 0.266999989748 217.0
0.950999975204 -0.0680000036955 0.259000003338 230.0
0.976999998093 -0.0750000029802 0.266000002623 241.0
0.976999998093 -0.0810000002384 0.266000002623 247.0
0.962999999523 -0.0860000029206 0.261999994516 253.0
0.990999996662 -0.0939999967813 0.270000010729 250.0
0.962999999523 -0.097000002861 0.263000011444 260.0
0.962000012398 -0.103000000119 0.263000011444 268.0
0.959999978542 -0.108000002801 0.261999994516 270.0
0.963999986649 -0.115000002086 0.263000011444 277.0
0.961000025272 -0.119999997318 0.263000011444 289.0
0.959999978542 -0.126000002027 0.263000011444 284.0
0.961000025272 -0.131999999285 0.263000011444 282.0
0.957000017166 -0.136999994516 0.261999994516 291.0
0.939999997616 -0.140000000596 0.25799998641 284.0
0.950999975204 -0.148000001907 0.261000007391 302.0
0.961000025272 -0.155000001192 0.263999998569 314.0
0.963999986649 -0.16099999845 0.264999985695 314.0
0.972000002861 -0.168999999762 0.268000006676 313.0
0.962000012398 -0.172999992967 0.264999985695 307.0
0.958000004292 -0.178000003099 0.264999985695 314.0
0.961000025272 -0.184000000358 0.266000002623 314.0
0.959999978542 -0.189999997616 0.266000002623 315.0
0.957000017166 -0.194999992847 0.264999985695 304.0
0.966000020504 -0.202999994159 0.268000006676 325.0
0.948000013828 -0.204999998212 0.263000011444 334.0
0.941999971867 -0.209999993443 0.261999994516 328.0
0.931999981403 -0.21400000155 0.259000003338 299.0
0.930000007153 -0.218999996781 0.259000003338 280.0
0.935000002384 -0.225999996066 0.261000007391 285.0
0.933000028133 -0.231999993324 0.261000007391 275.0
0.938000023365 -0.238999992609 0.261999994516 301.0
0.941999971867 -0.246000006795 0.263999998569 358.0
0.981999993324 -0.263000011444 0.275999993086 595.0
0.964999973774 -0.263999998569 0.270999997854 1163.0
0.93900001049 -0.263000011444 0.263999998569 658.0
0.925000011921 -0.264999985695 0.261000007391 391.0
0.920000016689 -0.270000010729 0.259999990463 321.0
0.916000008583 -0.27500000596 0.259000003338 277.0
0.907999992371 -0.277999997139 0.256999999285 248.0
0.893000006676 -0.280000001192 0.252999991179 235.0
0.899999976158 -0.287999987602 0.256000012159 227.0
0.870999991894 -0.284000009298 0.247999995947 211.0
0.867999970913 -0.28900000453 0.247999995947 201.0
0.887000024319 -0.301999986172 0.254000008106 173.0
0.869000017643 -0.301999986172 0.248999997973 176.0
0.880999982357 -0.312000006437 0.252999991179 168.0
0.833000004292 -0.300000011921 0.238999992609 153.0
0.85799998045 -0.314999997616 0.24699999392 134.0
0.861999988556 -0.323000013828 0.248999997973 143.0
0.799000024796 -0.303999990225 0.231000006199 136.0
0.916999995708 -0.356999993324 0.266000002623 105.0
0.903999984264 -0.358000010252 0.263000011444 78.0
0.952000021935 -0.384000003338 0.277999997139 94.0
1.02199995518 -0.419999986887 0.298999994993 114.0
1.01400005817 -0.423999994993 0.29699999094 112.0
1.12000000477 -0.476999998093 0.330000013113 204.0
1.1970000267 -0.518999993801 0.352999985218 336.0
1.20500004292 -0.532000005245 0.356999993324 505.0
1.21099996567 -0.542999982834 0.358999997377 586.0
1.21399998665 -0.554000020027 0.361000001431 559.0
0.171000003815 -0.0790000036359 0.0489999987185 87.0
0.173999994993 -0.0810000002384 0.0500000007451 92.0
0.202000007033 -0.097000002861 0.0579999983311 94.0
1.24199998379 -0.653999984264 0.379000008106 617.0
1.19000005722 -0.635999977589 0.363999992609 471.0
0.150999993086 -0.0810000002384 0.0439999997616 99.0
0.240999996662 -0.134000003338 0.0719999969006 128.0
3.8180000782 2.21300005913 1.14499998093 90.0
3.38000011444 1.92999994755 1.00999999046 112.0
3.58699989319 2.01799988747 1.06900000572 92.0
3.82899999619 2.12199997902 1.13800001144 100.0
3.82800006866 2.08999991417 1.13399994373 148.0
3.75300002098 2.01900005341 1.10899996758 146.0
3.87299990654 2.05100011826 1.14100003242 137.0
4.00600004196 2.08899998665 1.17700004578 102.0
4.03999996185 2.07500004768 1.18400001526 108.0
4.07100009918 2.05900001526 1.19000005722 99.0
4.01999998093 2.00099992752 1.17200005054 146.0
4.0110001564 1.96500003338 1.16600000858 154.0
4.02899980545 1.94299995899 1.16799998283 145.0
4.02400016785 1.9090000391 1.16400003433 143.0
4.09299993515 1.91100001335 1.18099999428 160.0
4.06199979782 1.86500000954 1.16900002956 146.0
4.07899999619 1.84300005436 1.17100000381 149.0
4.12200021744 1.83099997044 1.18099999428 141.0
4.08900022507 1.78600001335 1.16900002956 145.0
4.07600021362 1.75 1.1629999876 140.0
4.10300016403 1.73199999332 1.16799998283 144.0
4.11100006104 1.70500004292 1.16700005531 143.0
4.14400005341 1.68900001049 1.1740000248 138.0
4.14400005341 1.6590000391 1.17200005054 144.0
4.11600017548 1.61899995804 1.16199994087 138.0
4.14300012589 1.60000002384 1.16700005531 144.0
4.09399986267 1.55200004578 1.15100002289 142.0
4.11600017548 1.53199994564 1.15499997139 137.0
4.13399982452 1.50899994373 1.15799999237 142.0
4.13399982452 1.48099994659 1.15600001812 141.0
4.08799982071 1.43599998951 1.14100003242 135.0
4.06699991226 1.40100002289 1.13300001621 140.0
4.1939997673 1.41600000858 1.16600000858 116.0
4.28399991989 1.41799998283 1.19000005722 71.0
1.02199995518 0.0410000011325 0.270999997854 566.0
1.01199996471 0.0340000018477 0.268000006676 700.0
1.00899994373 0.0280000008643 0.266999989748 745.0
1.00800001621 0.0219999998808 0.266999989748 783.0
1.00499999523 0.01600000076 0.266000002623 804.0
1.01199996471 0.0109999999404 0.268000006676 847.0
1.00600004196 0.00499999988824 0.266000002623 874.0
1.0039999485 0.0 0.266000002623 924.0
1.00100004673 -0.00600000005215 0.264999985695 955.0
1.00499999523 -0.0120000001043 0.266000002623 983.0
0.998000025749 -0.0179999992251 0.263999998569 1010.0
1.00300002098 -0.0240000002086 0.266000002623 1036.0
0.992999970913 -0.0299999993294 0.263000011444 1045.0
0.995999991894 -0.0359999984503 0.263999998569 1063.0
1.0 -0.0419999994338 0.264999985695 1058.0
0.995000004768 -0.0469999983907 0.263999998569 1056.0
0.995000004768 -0.0529999993742 0.263999998569 1068.0
0.995999991894 -0.0590000003576 0.264999985695 1086.0
0.992999970913 -0.0649999976158 0.263999998569 1105.0
0.990000009537 -0.070000000298 0.263000011444 1128.0
0.994000017643 -0.0769999995828 0.263999998569 1137.0
0.981999993324 -0.082000002265 0.261000007391 1134.0
0.995999991894 -0.0890000015497 0.264999985695 1138.0
0.991999983788 -0.0939999967813 0.263999998569 1159.0
0.986999988556 -0.10000000149 0.263000011444 1157.0
0.989000022411 -0.105999998748 0.263999998569 1152.0
0.98299998045 -0.111000001431 0.261999994516 1151.0
0.976999998093 -0.115999996662 0.261000007391 1174.0
0.978999972343 -0.122000001371 0.261999994516 1179.0
0.981999993324 -0.128999993205 0.263000011444 1182.0
0.976000010967 -0.134000003338 0.261000007391 1191.0
0.980000019073 -0.140000000596 0.263000011444 1189.0
0.976000010967 -0.144999995828 0.261999994516 1199.0
0.976999998093 -0.151999995112 0.261999994516 1188.0
0.975000023842 -0.157000005245 0.261999994516 1199.0
0.976999998093 -0.163000002503 0.263000011444 1203.0
0.972000002861 -0.167999997735 0.261999994516 1193.0
0.976000010967 -0.17499999702 0.263000011444 1179.0
0.973999977112 -0.180999994278 0.263000011444 1167.0
0.966000020504 -0.185000002384 0.261000007391 1168.0
0.967000007629 -0.190999999642 0.261000007391 1146.0
0.96899998188 -0.197999998927 0.261999994516 1137.0
0.967999994755 -0.203999996185 0.261999994516 1130.0
0.972000002861 -0.209999993443 0.263999998569 1148.0
0.961000025272 -0.21400000155 0.261000007391 1131.0
0.966000020504 -0.221000000834 0.263000011444 1103.0
0.964999973774 -0.226999998093 0.263000011444 1082.0
0.957000017166 -0.231000006199 0.261000007391 1085.0
0.962999999523 -0.238999992609 0.263000011444 1060.0
0.958999991417 -0.244000002742 0.261999994516 1045.0
0.954999983311 -0.248999997973 0.261000007391 1036.0
0.952000021935 -0.254000008106 0.261000007391 1030.0
0.957000017166 -0.261999994516 0.263000011444 1044.0
0.949999988079 -0.266000002623 0.261000007391 990.0
0.950999975204 -0.273000001907 0.261999994516 925.0
0.949000000954 -0.277999997139 0.261999994516 883.0
0.944999992847 -0.282999992371 0.261000007391 846.0
0.936999976635 -0.287000000477 0.259000003338 788.0
0.943000018597 -0.294999986887 0.261999994516 743.0
0.939999997616 -0.300000011921 0.261000007391 722.0
0.93900001049 -0.305999994278 0.261000007391 680.0
0.939999997616 -0.312999993563 0.261999994516 632.0
0.922999978065 -0.31400001049 0.25799998641 562.0
0.933000028133 -0.324000000954 0.261000007391 536.0
0.925000011921 -0.326999992132 0.259000003338 487.0
0.924000024796 -0.333000004292 0.259999990463 441.0
0.911000013351 -0.335000008345 0.256999999285 394.0
0.915000021458 -0.342999994755 0.25799998641 366.0
0.908999979496 -0.347000002861 0.256999999285 324.0
0.93900001049 -0.365000009537 0.266000002623 290.0
0.930999994278 -0.368000000715 0.263999998569 249.0
0.948000013828 -0.381999999285 0.270000010729 230.0
0.922999978065 -0.377999991179 0.263000011444 204.0
0.933000028133 -0.388999998569 0.266999989748 174.0
1.10000002384 -0.467999994755 0.316000014544 300.0
1.14900004864 -0.497000008821 0.331000000238 398.0
1.18400001526 -0.521000027657 0.342000007629 480.0
1.17299997807 -0.524999976158 0.340000003576 527.0
1.19400000572 -0.542999982834 0.347000002861 521.0
0.319000005722 -0.150999993086 0.0909999981523 84.0
0.226999998093 -0.108000002801 0.0640000030398 85.0
0.178000003099 -0.0850000008941 0.0500000007451 80.0
1.25300002098 -0.658999979496 0.372999995947 584.0
1.21399998665 -0.648000001907 0.363000005484 509.0
0.972000002861 -0.526000022888 0.291000008583 129.0
0.240999996662 -0.131999999285 0.070000000298 94.0
0.224000006914 -0.123999997973 0.0649999976158 102.0
4.07100009918 2.3900001049 1.19500005245 87.0
3.6930000782 2.13700008392 1.08099997044 85.0
3.3710000515 1.92200005054 0.98299998045 109.0
3.60899996758 2.02699995041 1.0490000248 104.0
3.78399991989 2.09400010109 1.09700000286 114.0
3.75999999046 2.04999995232 1.0870000124 147.0
3.78600001335 2.03299999237 1.09200000763 154.0
3.87700009346 2.04999995232 1.11500000954 132.0
4.09899997711 2.13499999046 1.17599999905 104.0
4.05499982834 2.07899999619 1.15999996662 106.0
4.09800004959 2.06900000572 1.16900002956 111.0
4.03499984741 2.00500011444 1.14800000191 145.0
4.03700017929 1.97399997711 1.14499998093 159.0
4.05000019073 1.95000004768 1.14600002766 148.0
4.0689997673 1.92700004578 1.14900004864 147.0
4.05800008774 1.89100003242 1.14300000668 151.0
4.0640001297 1.86300003529 1.14199995995 148.0
4.04400014877 1.82400000095 1.13300001621 143.0
4.05100011826 1.79700005054 1.13300001621 146.0
4.05399990082 1.76800000668 1.13100004196 143.0
4.05800008774 1.74000000954 1.12999999523 142.0
4.08500003815 1.72099995613 1.13499999046 141.0
4.11000013351 1.70200002193 1.13900005817 138.0
4.13500022888 1.68299996853 1.14400005341 145.0
4.08799982071 1.63399994373 1.1289999485 142.0
4.10400009155 1.61099994183 1.13100004196 143.0
4.10099983215 1.58099997044 1.12800002098 136.0
4.13899993896 1.56700003147 1.13600003719 136.0
4.13999986649 1.5379999876 1.13399994373 139.0
4.13899993896 1.50899994373 1.13199996948 134.0
4.14400005341 1.48199999332 1.13100004196 135.0
4.13399982452 1.45000004768 1.12600004673 132.0
4.15299987793 1.4279999733 1.12999999523 128.0
4.13399982452 1.39400005341 1.12199997902 112.0
1.01699995995 0.0399999991059 0.263000011444 1070.0
1.00300002098 0.0340000018477 0.259000003338 1012.0
1.01199996471 0.0280000008643 0.261999994516 907.0
1.02199995518 0.0230000000447 0.263999998569 1068.0
1.00999999046 0.01600000076 0.261000007391 1125.0
1.01199996471 0.00999999977648 0.261999994516 1134.0
1.00800001621 0.00499999988824 0.261000007391 1127.0
1.00899994373 0.0 0.261000007391 1146.0
1.00499999523 -0.00600000005215 0.259999990463 1146.0
1.00100004673 -0.0120000001043 0.259000003338 1152.0
1.00699996948 -0.0179999992251 0.261000007391 1166.0
1.00100004673 -0.0240000002086 0.259000003338 1162.0
0.995000004768 -0.0299999993294 0.25799998641 1167.0
0.996999979019 -0.0359999984503 0.25799998641 1172.0
1.0 -0.0419999994338 0.259000003338 1177.0
0.999000012875 -0.0469999983907 0.259000003338 1181.0
1.00199997425 -0.0540000014007 0.259999990463 1176.0
1.0 -0.0590000003576 0.259000003338 1191.0
0.995999991894 -0.0649999976158 0.259000003338 1197.0
0.995999991894 -0.0710000023246 0.259000003338 1200.0
0.994000017643 -0.0769999995828 0.25799998641 1207.0
0.987999975681 -0.082000002265 0.256999999285 1201.0
0.986999988556 -0.0879999995232 0.256999999285 1207.0
0.990000009537 -0.0939999967813 0.25799998641 1212.0
0.990000009537 -0.10000000149 0.25799998641 1200.0
0.986000001431 -0.104999996722 0.256999999285 1210.0
0.986000001431 -0.111000001431 0.256999999285 1221.0
0.990999996662 -0.118000000715 0.25799998641 1244.0
0.976999998093 -0.122000001371 0.254999995232 1232.0
0.987999975681 -0.128999993205 0.25799998641 1241.0
0.980000019073 -0.134000003338 0.256000012159 1237.0
0.980000019073 -0.140000000596 0.256000012159 1258.0
0.98400002718 -0.145999997854 0.25799998641 1256.0
0.978999972343 -0.151999995112 0.256999999285 1261.0
0.977999985218 -0.157000005245 0.256000012159 1261.0
0.975000023842 -0.163000002503 0.256000012159 1277.0
0.975000023842 -0.168999999762 0.256000012159 1275.0
0.976999998093 -0.17499999702 0.256999999285 1282.0
0.971000015736 -0.180000007153 0.256000012159 1278.0
0.973999977112 -0.186000004411 0.256999999285 1285.0
0.971000015736 -0.192000001669 0.256000012159 1277.0
0.97000002861 -0.197999998927 0.256000012159 1275.0
0.972999989986 -0.203999996185 0.256999999285 1283.0
0.971000015736 -0.209999993443 0.256999999285 1300.0
0.97000002861 -0.216000005603 0.256999999285 1303.0
0.971000015736 -0.222000002861 0.25799998641 1302.0
0.963999986649 -0.226999998093 0.256000012159 1303.0
0.96899998188 -0.233999997377 0.25799998641 1317.0
0.964999973774 -0.238999992609 0.256999999285 1315.0
0.957000017166 -0.243000000715 0.256000012159 1304.0
0.963999986649 -0.250999987125 0.25799998641 1311.0
0.962000012398 -0.256999999285 0.256999999285 1320.0
0.958999991417 -0.261999994516 0.256999999285 1317.0
0.954999983311 -0.266999989748 0.256999999285 1307.0
0.957000017166 -0.273999989033 0.256999999285 1317.0
0.954999983311 -0.280000001192 0.256999999285 1324.0
0.953999996185 -0.286000013351 0.256999999285 1328.0
0.949999988079 -0.291000008583 0.256999999285 1320.0
0.953999996185 -0.298000007868 0.25799998641 1320.0
0.948000013828 -0.303000003099 0.256999999285 1313.0
0.949999988079 -0.310000002384 0.25799998641 1315.0
0.943000018597 -0.31400001049 0.256999999285 1305.0
0.947000026703 -0.321000009775 0.25799998641 1304.0
0.941999971867 -0.326000005007 0.256999999285 1283.0
0.945999979973 -0.333999991417 0.259000003338 1257.0
0.938000023365 -0.337999999523 0.256999999285 1231.0
0.93599998951 -0.344000011683 0.25799998641 1213.0
0.931999981403 -0.347999989986 0.256999999285 1172.0
0.93599998951 -0.356999993324 0.259000003338 1123.0
0.936999976635 -0.363000005484 0.259000003338 1064.0
0.930000007153 -0.36700001359 0.25799998641 1000.0
0.929000020027 -0.372999995947 0.25799998641 958.0
0.927999973297 -0.379999995232 0.259000003338 901.0
0.927999973297 -0.386999994516 0.259000003338 812.0
0.945999979973 -0.400999993086 0.264999985695 806.0
0.964999973774 -0.416000008583 0.270999997854 798.0
0.980000019073 -0.430000007153 0.275999993086 772.0
0.999000012875 -0.446000009775 0.282000005245 734.0
1.00899994373 -0.458000004292 0.286000013351 688.0
0.977999985218 -0.451000005007 0.277999997139 544.0
0.943000018597 -0.442000001669 0.268000006676 356.0
0.856000006199 -0.407000005245 0.244000002742 337.0
0.84399998188 -0.407999992371 0.240999996662 311.0
0.809000015259 -0.397000014782 0.231999993324 283.0
0.783999979496 -0.391000002623 0.22499999404 242.0
0.851999998093 -0.432000011206 0.245000004768 201.0
1.1779999733 -0.617999970913 0.342999994755 505.0
1.17900002003 -0.628000020981 0.344000011683 512.0
0.963999986649 -0.521000027657 0.282000005245 179.0
0.144999995828 -0.0780000016093 0.0399999991059 103.0
4.16099977493 2.43899989128 1.19200003147 85.0
3.49799990654 2.02099990845 0.998000025749 91.0
3.48200011253 1.98199999332 0.990999996662 108.0
3.57100009918 2.00200009346 1.01300001144 95.0
3.76900005341 2.08200001717 1.06599998474 125.0
3.73399996758 2.03200006485 1.0529999733 140.0
3.78999996185 2.03200006485 1.06599998474 156.0
3.83299994469 2.02399992943 1.07500004768 126.0
4.06799983978 2.11500000954 1.13800001144 90.0
4.07600021362 2.08699989319 1.13699996471 97.0
4.07700014114 2.05500006676 1.13499999046 118.0
4.03599977493 2.00200009346 1.12000000477 148.0
4.03499984741 1.97000002861 1.11699998379 159.0
4.07100009918 1.95700001717 1.12399995327 155.0
4.05499982834 1.91799998283 1.11699998379 152.0
4.09899997711 1.90699994564 1.12600004673 145.0
4.0689997673 1.86199998856 1.11500000954 146.0
4.05000019073 1.82299995422 1.10699999332 146.0
4.09899997711 1.81500005722 1.11800003052 143.0
4.06699991226 1.77100002766 1.10699999332 139.0
4.09200000763 1.75199997425 1.11199998856 144.0
4.1139998436 1.73099994659 1.11500000954 137.0
4.11299991608 1.7009999752 1.11199998856 141.0
4.07800006866 1.65699994564 1.10099995136 137.0
4.08900022507 1.63199996948 1.10099995136 135.0
4.15999984741 1.63100004196 1.11800003052 144.0
4.15600013733 1.60000002384 1.11500000954 131.0
4.12799978256 1.55999994278 1.10500001907 135.0
4.11199998856 1.52600002289 1.09899997711 133.0
4.17899990082 1.52100002766 1.11500000954 144.0
4.10799980164 1.46700000763 1.09399998188 139.0
4.11000013351 1.44000005722 1.09300005436 140.0
4.16900014877 1.43200004101 1.10599994659 133.0
4.17199993134 1.40400004387 1.10500001907 109.0
1.00300002098 0.0399999991059 0.252999991179 962.0
0.989000022411 0.0329999998212 0.25 575.0
1.0039999485 0.0280000008643 0.252999991179 261.0
1.02400004864 0.0230000000447 0.259000003338 831.0
1.01400005817 0.01600000076 0.256000012159 1116.0
1.00999999046 0.00999999977648 0.254999995232 1152.0
1.00499999523 0.00400000018999 0.254000008106 1141.0
1.00699996948 0.0 0.254000008106 1152.0
1.00300002098 -0.00600000005215 0.252999991179 1154.0
1.00699996948 -0.0120000001043 0.254000008106 1148.0
1.00300002098 -0.0179999992251 0.252999991179 1167.0
0.999000012875 -0.0240000002086 0.252999991179 1171.0
1.00199997425 -0.0299999993294 0.252999991179 1160.0
1.00199997425 -0.0359999984503 0.252999991179 1180.0
0.995000004768 -0.0410000011325 0.252000004053 1171.0
0.992999970913 -0.0469999983907 0.250999987125 1191.0
0.996999979019 -0.0529999993742 0.252000004053 1190.0
0.998000025749 -0.0590000003576 0.252999991179 1187.0
0.992999970913 -0.0649999976158 0.252000004053 1194.0
1.0 -0.0710000023246 0.252999991179 1223.0
0.990000009537 -0.0759999975562 0.250999987125 1208.0
0.990999996662 -0.082000002265 0.250999987125 1200.0
0.991999983788 -0.0879999995232 0.252000004053 1203.0
0.987999975681 -0.0939999967813 0.250999987125 1223.0
0.985000014305 -0.0989999994636 0.25 1236.0
0.986999988556 -0.104999996722 0.250999987125 1220.0
0.987999975681 -0.111000001431 0.250999987125 1227.0
0.98400002718 -0.116999998689 0.25 1237.0
0.985000014305 -0.123000003397 0.250999987125 1246.0
0.98299998045 -0.12800000608 0.250999987125 1246.0
0.980000019073 -0.134000003338 0.25 1237.0
0.986000001431 -0.141000002623 0.252000004053 1259.0
0.980000019073 -0.145999997854 0.25 1258.0
0.978999972343 -0.150999993086 0.25 1252.0
0.981000006199 -0.158000007272 0.250999987125 1256.0
0.978999972343 -0.163000002503 0.250999987125 1274.0
0.981999993324 -0.170000001788 0.252000004053 1276.0
0.973999977112 -0.173999994993 0.25 1275.0
0.976000010967 -0.180999994278 0.250999987125 1279.0
0.981000006199 -0.187999993563 0.252000004053 1294.0
0.972999989986 -0.192000001669 0.250999987125 1297.0
0.973999977112 -0.197999998927 0.250999987125 1294.0
0.971000015736 -0.203999996185 0.250999987125 1297.0
0.967999994755 -0.209000006318 0.25 1306.0
0.964999973774 -0.21400000155 0.25 1302.0
0.967999994755 -0.221000000834 0.250999987125 1303.0
0.963999986649 -0.225999996066 0.25 1321.0
0.962000012398 -0.231999993324 0.25 1319.0
0.963999986649 -0.238000005484 0.250999987125 1314.0
0.961000025272 -0.244000002742 0.25 1305.0
0.959999978542 -0.25 0.25 1317.0
0.958999991417 -0.256000012159 0.250999987125 1338.0
0.958000004292 -0.261999994516 0.250999987125 1325.0
0.953999996185 -0.266999989748 0.25 1324.0
0.959999978542 -0.27500000596 0.252000004053 1326.0
0.955999970436 -0.280000001192 0.250999987125 1332.0
0.952000021935 -0.284999996424 0.250999987125 1333.0
0.952000021935 -0.291000008583 0.250999987125 1326.0
0.949999988079 -0.29699999094 0.250999987125 1329.0
0.953999996185 -0.303999990225 0.252999991179 1347.0
0.945999979973 -0.307999998331 0.250999987125 1349.0
0.944000005722 -0.31400001049 0.250999987125 1330.0
0.952000021935 -0.323000013828 0.252999991179 1346.0
0.944999992847 -0.326999992132 0.252000004053 1353.0
0.939999997616 -0.331000000238 0.250999987125 1335.0
0.93900001049 -0.337000012398 0.250999987125 1328.0
0.944000005722 -0.345999985933 0.252999991179 1331.0
0.944999992847 -0.352999985218 0.254000008106 1346.0
0.938000023365 -0.356999993324 0.252999991179 1339.0
0.938000023365 -0.363000005484 0.252999991179 1324.0
0.935000002384 -0.368999987841 0.252999991179 1345.0
0.93599998951 -0.375999987125 0.254000008106 1332.0
0.931999981403 -0.381000012159 0.252999991179 1327.0
0.938000023365 -0.389999985695 0.256000012159 1318.0
0.934000015259 -0.395000010729 0.254999995232 1329.0
0.926999986172 -0.398999989033 0.254000008106 1325.0
0.924000024796 -0.405000001192 0.254000008106 1287.0
0.926999986172 -0.412999987602 0.254999995232 1290.0
0.930999994278 -0.42199999094 0.256999999285 1257.0
0.925000011921 -0.425999999046 0.256000012159 1236.0
0.919000029564 -0.430000007153 0.254999995232 1178.0
0.903999984264 -0.430000007153 0.252000004053 1130.0
0.908999979496 -0.43900001049 0.254000008106 1081.0
0.912999987602 -0.448000013828 0.254999995232 1007.0
0.89099997282 -0.444000005722 0.25 935.0
0.901000022888 -0.456000000238 0.254000008106 859.0
0.913999974728 -0.469999998808 0.25799998641 783.0
0.962999999523 -0.504000008106 0.273000001907 813.0
0.990000009537 -0.526000022888 0.280999988317 785.0
0.924000024796 -0.497999995947 0.263000011444 592.0
0.876999974251 -0.479999989271 0.25 452.0
0.897000014782 -0.497999995947 0.256999999285 364.0
0.827000021935 -0.465000003576 0.237000003457 350.0
0.791000008583 -0.451999992132 0.228000000119 317.0
4.06699991226 2.38100004196 1.13600003719 89.0
3.45799994469 1.99399995804 0.962000012398 99.0
3.5490000248 2.01699995995 0.985000014305 102.0
3.69400000572 2.0680000782 1.02199995518 93.0
3.88899993896 2.14499998093 1.07299995422 118.0
3.84299993515 2.08800005913 1.05700004101 145.0
3.80399990082 2.03600001335 1.04299998283 148.0
3.875 2.04200005531 1.05999994278 121.0
4.05900001526 2.10700011253 1.10699999332 96.0
4.05800008774 2.07399988174 1.10399997234 100.0
4.05700016022 2.04099988937 1.10099995136 115.0
4.03100013733 1.9960000515 1.0909999609 152.0
4.03499984741 1.96700000763 1.08899998665 163.0
4.03200006485 1.93499994278 1.08599996567 148.0
4.09499979019 1.93400001526 1.10000002384 145.0
4.0720000267 1.89199995995 1.0909999609 144.0
4.08400011063 1.86699998379 1.09200000763 142.0
4.07299995422 1.83099997044 1.08599996567 143.0
4.06599998474 1.79700005054 1.08200001717 150.0
4.09700012207 1.78100001812 1.08800005913 143.0
4.0689997673 1.73899996281 1.07799994946 141.0
4.1139998436 1.72800004482 1.0870000124 142.0
4.08400011063 1.68599998951 1.07700002193 140.0
4.16099977493 1.68799996376 1.09500002861 139.0
4.08300018311 1.62699997425 1.07299995422 144.0
4.13000011444 1.61699998379 1.08299994469 132.0
4.09800004959 1.57500004768 1.0720000267 133.0
4.13500022888 1.56099998951 1.08000004292 140.0
4.13199996948 1.53100001812 1.07700002193 136.0
4.17199993134 1.51600003242 1.08500003815 139.0
4.15600013733 1.48199999332 1.07899999619 134.0
4.11999988556 1.44099998474 1.06799995899 133.0
4.14900016785 1.42299997807 1.07400000095 130.0
4.19799995422 1.41100001335 1.08500003815 109.0
1.00499999523 0.0399999991059 0.247999995947 961.0
0.989000022411 0.0329999998212 0.243000000715 434.0
1.02499997616 0.0289999991655 0.252000004053 867.0
1.01100003719 0.0219999998808 0.248999997973 1057.0
1.00999999046 0.01600000076 0.248999997973 1131.0
1.01100003719 0.00999999977648 0.248999997973 1144.0
1.00999999046 0.00400000018999 0.248999997973 1152.0
1.00800001621 0.0 0.247999995947 1155.0
1.00100004673 -0.00600000005215 0.24699999392 1147.0
1.00800001621 -0.0120000001043 0.247999995947 1146.0
1.00199997425 -0.0179999992251 0.24699999392 1168.0
1.0039999485 -0.0240000002086 0.24699999392 1179.0
1.00600004196 -0.0299999993294 0.247999995947 1165.0
1.0 -0.0359999984503 0.24699999392 1181.0
1.0 -0.0419999994338 0.24699999392 1175.0
1.00499999523 -0.0480000004172 0.247999995947 1205.0
0.998000025749 -0.0529999993742 0.246000006795 1184.0
1.0 -0.0590000003576 0.24699999392 1190.0
0.996999979019 -0.0649999976158 0.246000006795 1198.0
0.991999983788 -0.070000000298 0.245000004768 1217.0
0.998000025749 -0.0769999995828 0.24699999392 1215.0
0.995999991894 -0.082000002265 0.246000006795 1223.0
0.989000022411 -0.0879999995232 0.245000004768 1210.0
0.989000022411 -0.0939999967813 0.245000004768 1230.0
0.992999970913 -0.10000000149 0.246000006795 1231.0
0.990000009537 -0.105999998748 0.246000006795 1227.0
0.98299998045 -0.111000001431 0.244000002742 1242.0
0.986999988556 -0.116999998689 0.245000004768 1245.0
0.986000001431 -0.123000003397 0.245000004768 1246.0
0.98299998045 -0.12800000608 0.245000004768 1246.0
0.98299998045 -0.134000003338 0.245000004768 1247.0
0.98400002718 -0.140000000596 0.245000004768 1257.0
0.976000010967 -0.144999995828 0.243000000715 1268.0
0.978999972343 -0.150999993086 0.244000002742 1260.0
0.981000006199 -0.157000005245 0.245000004768 1277.0
0.976000010967 -0.163000002503 0.244000002742 1275.0
0.976999998093 -0.168999999762 0.245000004768 1277.0
0.972999989986 -0.173999994993 0.244000002742 1285.0
0.980000019073 -0.180999994278 0.246000006795 1279.0
0.971000015736 -0.186000004411 0.244000002742 1304.0
0.972000002861 -0.192000001669 0.244000002742 1300.0
0.971000015736 -0.197999998927 0.244000002742 1301.0
0.967999994755 -0.202999994159 0.244000002742 1304.0
0.966000020504 -0.208000004292 0.244000002742 1322.0
0.97000002861 -0.215000003576 0.245000004768 1316.0
0.963999986649 -0.219999998808 0.244000002742 1308.0
0.966000020504 -0.226999998093 0.245000004768 1316.0
0.963999986649 -0.231999993324 0.244000002742 1330.0
0.964999973774 -0.238000005484 0.245000004768 1326.0
0.961000025272 -0.244000002742 0.244000002742 1316.0
0.957000017166 -0.248999997973 0.244000002742 1317.0
0.962999999523 -0.256000012159 0.245000004768 1344.0
0.962999999523 -0.263000011444 0.246000006795 1319.0
0.954999983311 -0.266999989748 0.244000002742 1333.0
0.957000017166 -0.273000001907 0.245000004768 1313.0
0.952000021935 -0.277999997139 0.244000002742 1345.0
0.950999975204 -0.284000009298 0.244000002742 1355.0
0.950999975204 -0.289999991655 0.245000004768 1327.0
0.948000013828 -0.296000003815 0.244000002742 1349.0
0.952000021935 -0.303000003099 0.246000006795 1347.0
0.950999975204 -0.308999985456 0.246000006795 1344.0
0.943000018597 -0.312999993563 0.244000002742 1344.0
0.948000013828 -0.321000009775 0.246000006795 1359.0
0.939999997616 -0.324000000954 0.245000004768 1359.0
0.944000005722 -0.331999987364 0.246000006795 1341.0
0.944000005722 -0.338999986649 0.24699999392 1341.0
0.944999992847 -0.345999985933 0.247999995947 1347.0
0.939999997616 -0.34999999404 0.24699999392 1349.0
0.93900001049 -0.356999993324 0.24699999392 1350.0
0.936999976635 -0.361999988556 0.24699999392 1345.0
0.936999976635 -0.368999987841 0.24699999392 1336.0
0.936999976635 -0.375999987125 0.247999995947 1350.0
0.941999971867 -0.384999990463 0.25 1340.0
0.933000028133 -0.388000011444 0.247999995947 1334.0
0.934000015259 -0.395000010729 0.248999997973 1337.0
0.929000020027 -0.398999989033 0.247999995947 1335.0
0.930000007153 -0.407000005245 0.248999997973 1340.0
0.929000020027 -0.412999987602 0.248999997973 1340.0
0.925000011921 -0.418000012636 0.248999997973 1326.0
0.930000007153 -0.428000003099 0.250999987125 1332.0
0.925999999046 -0.432999998331 0.250999987125 1343.0
0.922999978065 -0.437999993563 0.250999987125 1325.0
0.921000003815 -0.444000005722 0.250999987125 1330.0
0.919000029564 -0.451000005007 0.250999987125 1316.0
0.919000029564 -0.458000004292 0.252000004053 1333.0
0.917999982834 -0.465000003576 0.252000004053 1332.0
0.912000000477 -0.467999994755 0.250999987125 1294.0
0.912999987602 -0.476999998093 0.252000004053 1296.0
0.916999995708 -0.486000001431 0.254000008106 1267.0
0.907000005245 -0.488000005484 0.252000004053 1233.0
0.899999976158 -0.49200001359 0.250999987125 1181.0
0.896000027657 -0.497000008821 0.250999987125 1120.0
0.899999976158 -0.505999982357 0.252000004053 1050.0
0.889999985695 -0.508000016212 0.25 973.0
3.29800009727 1.89900004864 0.893999993801 125.0
3.47600007057 1.97200000286 0.939999997616 92.0
3.77099990845 2.10800004005 1.01699995995 96.0
3.82100009918 2.10400009155 1.02699995041 133.0
3.74399995804 2.03099989891 1.00300002098 152.0
3.78500008583 2.02200007439 1.01199996471 138.0
3.95900011063 2.08400011063 1.05499994755 109.0
4.05100011826 2.09899997711 1.07700002193 98.0
4.0640001297 2.07399988174 1.07700002193 96.0
4.08599996567 2.0529999733 1.08099997044 120.0
4.04300022125 2.0 1.06599998474 153.0
4.06300020218 1.97800004482 1.06900000572 158.0
4.06500005722 1.94799995422 1.06700003147 145.0
4.07899999619 1.92299997807 1.06799995899 149.0
4.09600019455 1.89999997616 1.07000005245 142.0
4.08300018311 1.86300003529 1.06400001049 145.0
4.09800004959 1.83899998665 1.06500005722 146.0
4.07399988174 1.79799997807 1.05599999428 145.0
4.0560002327 1.75999999046 1.0490000248 137.0
4.07499980927 1.73899996281 1.05200004578 138.0
4.10799980164 1.72300004959 1.05799996853 142.0
4.10200023651 1.69099998474 1.05499994755 144.0
4.09299993515 1.65799999237 1.04999995232 135.0
4.18300008774 1.66499996185 1.07099997997 146.0
4.13700008392 1.61699998379 1.05700004101 132.0
4.07399988174 1.56400001049 1.03900003433 137.0
4.15199995041 1.56500005722 1.05700004101 137.0
4.15500020981 1.53699994087 1.05599999428 132.0
4.09200000763 1.48500001431 1.0379999876 139.0
4.13000011444 1.47000002861 1.04499995708 139.0
4.11999988556 1.43900001049 1.04100000858 121.0
4.13999986649 1.41799998283 1.04499995708 130.0
4.19199991226 1.40699994564 1.05599999428 100.0
1.01699995995 0.0399999991059 0.244000002742 1105.0
1.00999999046 0.0340000018477 0.241999998689 1054.0
1.00699996948 0.0280000008643 0.241999998689 1134.0
1.00800001621 0.0219999998808 0.241999998689 1134.0
1.00499999523 0.01600000076 0.240999996662 1144.0
1.00899994373 0.00999999977648 0.241999998689 1156.0
1.00999999046 0.00400000018999 0.241999998689 1144.0
1.00699996948 0.0 0.241999998689 1164.0
1.00699996948 -0.00600000005215 0.241999998689 1158.0
1.00199997425 -0.0120000001043 0.240999996662 1165.0
1.0 -0.0179999992251 0.239999994636 1166.0
0.998000025749 -0.0240000002086 0.239999994636 1182.0
0.999000012875 -0.0299999993294 0.239999994636 1169.0
1.00300002098 -0.0359999984503 0.240999996662 1182.0
0.998000025749 -0.0410000011325 0.239999994636 1184.0
0.995999991894 -0.0469999983907 0.239999994636 1205.0
0.996999979019 -0.0529999993742 0.239999994636 1202.0
0.994000017643 -0.0590000003576 0.238999992609 1197.0
0.992999970913 -0.0649999976158 0.238999992609 1209.0
0.990000009537 -0.070000000298 0.238000005484 1222.0
0.999000012875 -0.0769999995828 0.240999996662 1222.0
0.990999996662 -0.082000002265 0.238999992609 1212.0
0.990000009537 -0.0879999995232 0.238999992609 1231.0
0.990999996662 -0.0939999967813 0.238999992609 1223.0
0.987999975681 -0.0989999994636 0.238999992609 1226.0
0.990999996662 -0.104999996722 0.239999994636 1228.0
0.989000022411 -0.111000001431 0.238999992609 1246.0
0.981999993324 -0.115999996662 0.238000005484 1250.0
0.986000001431 -0.123000003397 0.238999992609 1254.0
0.98299998045 -0.12800000608 0.238000005484 1264.0
0.977999985218 -0.133000001311 0.237000003457 1249.0
0.98299998045 -0.140000000596 0.238999992609 1263.0
0.98299998045 -0.145999997854 0.238999992609 1261.0
0.985000014305 -0.151999995112 0.239999994636 1270.0
0.976999998093 -0.157000005245 0.238000005484 1283.0
0.976999998093 -0.163000002503 0.238000005484 1281.0
0.976999998093 -0.168999999762 0.238000005484 1278.0
0.975000023842 -0.173999994993 0.238000005484 1292.0
0.96899998188 -0.179000005126 0.237000003457 1292.0
0.972999989986 -0.186000004411 0.238000005484 1298.0
0.971000015736 -0.190999999642 0.238000005484 1301.0
0.978999972343 -0.199000000954 0.239999994636 1302.0
0.972999989986 -0.203999996185 0.238999992609 1298.0
0.967999994755 -0.209000006318 0.238000005484 1315.0
0.966000020504 -0.21400000155 0.238000005484 1315.0
0.97000002861 -0.221000000834 0.238999992609 1322.0
0.963999986649 -0.225999996066 0.238000005484 1321.0
0.959999978542 -0.231000006199 0.237000003457 1334.0
0.967000007629 -0.238999992609 0.238999992609 1340.0
0.963999986649 -0.244000002742 0.238999992609 1325.0
0.963999986649 -0.25 0.238999992609 1328.0
0.959999978542 -0.254999995232 0.238999992609 1335.0
0.962000012398 -0.261999994516 0.238999992609 1337.0
0.958000004292 -0.266999989748 0.238999992609 1328.0
0.958000004292 -0.273000001907 0.238999992609 1347.0
0.961000025272 -0.280999988317 0.239999994636 1344.0
0.957000017166 -0.284999996424 0.239999994636 1346.0
0.954999983311 -0.291000008583 0.239999994636 1343.0
0.949999988079 -0.296000003815 0.238999992609 1348.0
0.95300000906 -0.303000003099 0.239999994636 1357.0
0.952000021935 -0.308999985456 0.239999994636 1342.0
0.944999992847 -0.312999993563 0.238999992609 1357.0
0.949999988079 -0.321000009775 0.239999994636 1353.0
0.952000021935 -0.32800000906 0.240999996662 1352.0
0.939999997616 -0.331000000238 0.238999992609 1351.0
0.940999984741 -0.337000012398 0.239999994636 1345.0
0.93900001049 -0.342999994755 0.239999994636 1341.0
0.943000018597 -0.351000010967 0.240999996662 1364.0
0.938000023365 -0.356000006199 0.239999994636 1362.0
0.93900001049 -0.363000005484 0.240999996662 1338.0
0.936999976635 -0.368999987841 0.240999996662 1348.0
0.933000028133 -0.374000012875 0.240999996662 1346.0
0.929000020027 -0.379000008106 0.239999994636 1351.0
0.936999976635 -0.388000011444 0.243000000715 1338.0
0.936999976635 -0.395000010729 0.243000000715 1344.0
0.929000020027 -0.398999989033 0.241999998689 1343.0
0.930999994278 -0.407000005245 0.243000000715 1345.0
0.929000020027 -0.412999987602 0.243000000715 1342.0
0.925999999046 -0.418000012636 0.243000000715 1327.0
0.921000003815 -0.423000007868 0.241999998689 1348.0
0.921000003815 -0.428999990225 0.243000000715 1330.0
0.925000011921 -0.437999993563 0.245000004768 1342.0
0.920000016689 -0.442999988794 0.244000002742 1341.0
0.916000008583 -0.448000013828 0.244000002742 1337.0
0.92199999094 -0.458999991417 0.246000006795 1335.0
0.921000003815 -0.465000003576 0.246000006795 1334.0
0.913999974728 -0.469000011683 0.245000004768 1329.0
0.913999974728 -0.476000010967 0.246000006795 1340.0
0.911000013351 -0.481999993324 0.246000006795 1318.0
0.912999987602 -0.490000009537 0.24699999392 1322.0
0.908999979496 -0.495999991894 0.24699999392 1317.0
0.910000026226 -0.504000008106 0.247999995947 1315.0
0.907999992371 -0.510999977589 0.247999995947 1304.0
0.893999993801 -0.509999990463 0.245000004768 1135.0
4.0689997673 2.40899991989 1.08200001717 86.0
3.41599988937 1.96399998665 0.902000010014 103.0
3.51900005341 1.99300003052 0.925999999046 95.0
3.65700006485 2.04099988937 0.959999978542 92.0
3.83899998665 2.11100006104 1.00499999523 135.0
3.72699999809 2.01900005341 0.972999989986 147.0
3.83299994469 2.04500007629 0.998000025749 142.0
3.93700003624 2.06900000572 1.02199995518 101.0
4.09399986267 2.11800003052 1.05999994278 100.0
4.09899997711 2.08800005913 1.05799996853 104.0
4.08300018311 2.04800009727 1.05200004578 125.0
4.00099992752 1.97599995136 1.02799999714 163.0
4.06699991226 1.97699999809 1.04200005531 162.0
4.03499984741 1.92999994755 1.03100001812 148.0
4.04600000381 1.90499997139 1.03199994564 149.0
4.02199983597 1.86300003529 1.02300000191 141.0
4.06799983978 1.85399997234 1.03199994564 148.0
4.11100006104 1.84300005436 1.04100000858 147.0
4.10500001907 1.80900001526 1.03699994087 146.0
4.09200000763 1.77400004864 1.03100001812 138.0
4.02199983597 1.71399998665 1.01100003719 144.0
4.11999988556 1.72500002384 1.0340000391 138.0
4.11000013351 1.69200003147 1.02900004387 142.0
4.13000011444 1.66999995708 1.03199994564 141.0
4.08500003815 1.62300002575 1.01900005341 137.0
4.13999986649 1.61600005627 1.03100001812 144.0
4.16099977493 1.59500002861 1.0340000391 141.0
4.09200000763 1.53999996185 1.01499998569 137.0
4.08199977875 1.50800001621 1.00999999046 138.0
4.11800003052 1.49199998379 1.01699995995 135.0
4.13999986649 1.47200000286 1.02100002766 131.0
4.14799976349 1.4470000267 1.02100002766 132.0
4.15600013733 1.42100000381 1.02100002766 127.0
4.21400022507 1.4129999876 1.0340000391 95.0
1.01600003242 0.0399999991059 0.238000005484 1113.0
1.01100003719 0.0340000018477 0.237000003457 1142.0
1.01600003242 0.0280000008643 0.238000005484 1136.0
1.01100003719 0.0219999998808 0.237000003457 1141.0
1.01199996471 0.01600000076 0.237000003457 1140.0
1.00600004196 0.00999999977648 0.234999999404 1149.0
1.00600004196 0.00400000018999 0.234999999404 1148.0
1.00800001621 -0.0010000000475 0.236000001431 1175.0
1.00499999523 -0.00600000005215 0.234999999404 1169.0
1.00899994373 -0.0120000001043 0.236000001431 1161.0
1.00499999523 -0.0179999992251 0.234999999404 1176.0
1.00600004196 -0.0240000002086 0.234999999404 1195.0
1.0 -0.0299999993294 0.233999997377 1192.0
1.00300002098 -0.0359999984503 0.234999999404 1187.0
0.994000017643 -0.0410000011325 0.232999995351 1188.0
0.999000012875 -0.0469999983907 0.233999997377 1203.0
0.998000025749 -0.0529999993742 0.233999997377 1216.0
0.998000025749 -0.0590000003576 0.233999997377 1207.0
0.994000017643 -0.0649999976158 0.232999995351 1211.0
0.995000004768 -0.0710000023246 0.233999997377 1225.0
0.999000012875 -0.0769999995828 0.234999999404 1213.0
0.990000009537 -0.082000002265 0.232999995351 1225.0
0.992999970913 -0.0879999995232 0.232999995351 1236.0
0.990000009537 -0.0939999967813 0.232999995351 1242.0
0.986999988556 -0.0989999994636 0.231999993324 1233.0
0.990000009537 -0.104999996722 0.232999995351 1252.0
0.987999975681 -0.111000001431 0.232999995351 1255.0
0.986999988556 -0.116999998689 0.232999995351 1252.0
0.989000022411 -0.123000003397 0.232999995351 1253.0
0.989000022411 -0.128999993205 0.233999997377 1269.0
0.981999993324 -0.134000003338 0.231999993324 1263.0
0.98400002718 -0.140000000596 0.232999995351 1280.0
0.98299998045 -0.145999997854 0.232999995351 1281.0
0.978999972343 -0.150999993086 0.231999993324 1278.0
0.977999985218 -0.157000005245 0.231999993324 1282.0
0.981000006199 -0.163000002503 0.232999995351 1287.0
0.976999998093 -0.167999997735 0.231999993324 1285.0
0.976000010967 -0.173999994993 0.231999993324 1287.0
0.972999989986 -0.180000007153 0.231999993324 1298.0
0.973999977112 -0.186000004411 0.231999993324 1313.0
0.976000010967 -0.192000001669 0.232999995351 1311.0
0.973999977112 -0.197999998927 0.232999995351 1308.0
0.97000002861 -0.202999994159 0.231999993324 1311.0
0.972000002861 -0.209000006318 0.232999995351 1326.0
0.962999999523 -0.212999999523 0.231000006199 1327.0
0.963999986649 -0.219999998808 0.231999993324 1319.0
0.962999999523 -0.22499999404 0.231999993324 1332.0
0.967000007629 -0.231999993324 0.232999995351 1344.0
0.964999973774 -0.238000005484 0.232999995351 1338.0
0.962999999523 -0.243000000715 0.231999993324 1331.0
0.961000025272 -0.248999997973 0.231999993324 1341.0
0.961000025272 -0.254999995232 0.232999995351 1350.0
0.961000025272 -0.261999994516 0.232999995351 1336.0
0.955999970436 -0.266000002623 0.231999993324 1335.0
0.954999983311 -0.272000014782 0.231999993324 1357.0
0.957000017166 -0.279000014067 0.232999995351 1357.0
0.958000004292 -0.284999996424 0.233999997377 1359.0
0.950999975204 -0.289999991655 0.232999995351 1334.0
0.955999970436 -0.298000007868 0.233999997377 1341.0
0.95300000906 -0.303000003099 0.233999997377 1362.0
0.947000026703 -0.307000011206 0.232999995351 1359.0
0.945999979973 -0.312999993563 0.232999995351 1348.0
0.949999988079 -0.321000009775 0.233999997377 1362.0
0.940999984741 -0.324000000954 0.232999995351 1360.0
0.947000026703 -0.333000004292 0.234999999404 1368.0
0.944999992847 -0.338999986649 0.234999999404 1357.0
0.944999992847 -0.344999998808 0.234999999404 1367.0
0.941999971867 -0.34999999404 0.234999999404 1365.0
0.93900001049 -0.356000006199 0.234999999404 1359.0
0.939999997616 -0.363000005484 0.234999999404 1353.0
0.933000028133 -0.365999996662 0.233999997377 1355.0
0.93900001049 -0.375 0.236000001431 1348.0
0.930000007153 -0.377999991179 0.233999997377 1358.0
0.938000023365 -0.388999998569 0.237000003457 1346.0
0.933000028133 -0.393000006676 0.236000001431 1351.0
0.930000007153 -0.398999989033 0.236000001431 1356.0
0.922999978065 -0.402999997139 0.234999999404 1343.0
0.925000011921 -0.409999996424 0.236000001431 1344.0
0.930999994278 -0.419999986887 0.238000005484 1347.0
0.930000007153 -0.425999999046 0.238000005484 1354.0
0.92199999094 -0.428999990225 0.237000003457 1345.0
0.916999995708 -0.433999985456 0.236000001431 1335.0
0.917999982834 -0.442000001669 0.237000003457 1331.0
0.919000029564 -0.449000000954 0.238000005484 1363.0
0.913999974728 -0.453999996185 0.238000005484 1342.0
0.913999974728 -0.46099999547 0.238000005484 1349.0
0.912999987602 -0.467999994755 0.238999992609 1335.0
0.915000021458 -0.476000010967 0.239999994636 1338.0
0.908999979496 -0.479999989271 0.238999992609 1333.0
0.908999979496 -0.488000005484 0.239999994636 1333.0
0.907999992371 -0.495000004768 0.239999994636 1326.0
0.912000000477 -0.504000008106 0.241999998689 1332.0
0.899999976158 -0.504999995232 0.239999994636 1325.0
0.888999998569 -0.507000029087 0.238000005484 1124.0
3.73300004005 2.17499995232 0.962999999523 84.0
3.43300008774 1.97000002861 0.882000029087 104.0
3.55999994278 2.01399993896 0.912000000477 98.0
3.81999993324 2.1289999485 0.976000010967 95.0
3.77099990845 2.07100009918 0.961000025272 135.0
3.82100009918 2.06699991226 0.971000015736 149.0
3.80900001526 2.02900004387 0.964999973774 140.0
3.98600006104 2.09100008011 1.00699996948 98.0
4.05800008774 2.09699988365 1.02300000191 96.0
4.10500001907 2.08899998665 1.03199994564 95.0
4.03999996185 2.02300000191 1.01300001144 130.0
4.02199983597 1.98300004005 1.00600004196 153.0
4.07800006866 1.97899997234 1.01699995995 162.0
4.05100011826 1.93499994278 1.00800001621 147.0
4.08400011063 1.91999995708 1.01400005817 137.0
4.06199979782 1.8789999485 1.00600004196 144.0
4.07100009918 1.85199999809 1.00600004196 142.0
4.12699985504 1.84700000286 1.01699995995 143.0
4.06799983978 1.79100000858 1.0 145.0
4.08099985123 1.76600003242 1.00100004673 141.0
4.07299995422 1.73300004005 0.996999979019 143.0
4.11800003052 1.72200000286 1.00600004196 135.0
4.1360001564 1.70000004768 1.00800001621 142.0
4.09800004959 1.65499997139 0.996999979019 140.0
4.08300018311 1.62000000477 0.990999996662 132.0
4.09399986267 1.59500002861 0.991999983788 138.0
4.09800004959 1.56799995899 0.990999996662 133.0
4.16200017929 1.56400001049 1.00499999523 131.0
4.10500001907 1.51400005817 0.989000022411 138.0
4.12599992752 1.49300003052 0.991999983788 143.0
4.14900016785 1.47300004959 0.995999991894 134.0
4.13000011444 1.43799996376 0.990000009537 138.0
4.11800003052 1.40600001812 0.985000014305 127.0
4.242000103 1.41999995708 1.01300001144 85.0
1.01199996471 0.0399999991059 0.231000006199 1129.0
1.00999999046 0.0340000018477 0.230000004172 1130.0
1.00699996948 0.0280000008643 0.229000002146 1143.0
1.00999999046 0.0219999998808 0.230000004172 1148.0
1.00800001621 0.01600000076 0.230000004172 1148.0
1.01400005817 0.00999999977648 0.231000006199 1149.0
1.00999999046 0.00400000018999 0.230000004172 1162.0
1.01199996471 -0.0010000000475 0.231000006199 1166.0
1.00499999523 -0.00600000005215 0.229000002146 1177.0
1.00300002098 -0.0120000001043 0.228000000119 1180.0
1.00699996948 -0.0179999992251 0.229000002146 1172.0
1.00300002098 -0.0240000002086 0.229000002146 1181.0
1.00199997425 -0.0299999993294 0.229000002146 1193.0
0.999000012875 -0.0359999984503 0.228000000119 1185.0
1.00300002098 -0.0419999994338 0.229000002146 1201.0
0.999000012875 -0.0469999983907 0.228000000119 1216.0
0.990999996662 -0.0529999993742 0.225999996066 1206.0
0.996999979019 -0.0590000003576 0.228000000119 1207.0
0.995999991894 -0.0649999976158 0.228000000119 1220.0
0.995000004768 -0.070000000298 0.226999998093 1228.0
0.992999970913 -0.0759999975562 0.226999998093 1227.0
0.992999970913 -0.082000002265 0.226999998093 1223.0
0.989000022411 -0.0879999995232 0.225999996066 1230.0
0.987999975681 -0.0930000022054 0.225999996066 1245.0
0.985000014305 -0.0989999994636 0.225999996066 1242.0
0.985000014305 -0.104999996722 0.225999996066 1245.0
0.987999975681 -0.111000001431 0.226999998093 1259.0
0.98299998045 -0.115999996662 0.225999996066 1264.0
0.98299998045 -0.122000001371 0.225999996066 1259.0
0.986999988556 -0.12800000608 0.226999998093 1263.0
0.986000001431 -0.134000003338 0.226999998093 1256.0
0.98299998045 -0.140000000596 0.226999998093 1280.0
0.98299998045 -0.145999997854 0.226999998093 1275.0
0.976999998093 -0.15000000596 0.22499999404 1282.0
0.976999998093 -0.156000003219 0.225999996066 1293.0
0.977999985218 -0.162000000477 0.225999996066 1296.0
0.981000006199 -0.168999999762 0.226999998093 1292.0
0.972000002861 -0.172999992967 0.22499999404 1296.0
0.971000015736 -0.179000005126 0.22499999404 1295.0
0.980000019073 -0.187000006437 0.226999998093 1317.0
0.972000002861 -0.190999999642 0.225999996066 1312.0
0.972999989986 -0.196999996901 0.226999998093 1306.0
0.971000015736 -0.202999994159 0.225999996066 1321.0
0.967000007629 -0.208000004292 0.22499999404 1328.0
0.967000007629 -0.21400000155 0.225999996066 1329.0
0.97000002861 -0.221000000834 0.226999998093 1313.0
0.967999994755 -0.225999996066 0.226999998093 1328.0
0.962999999523 -0.231000006199 0.225999996066 1335.0
0.961000025272 -0.237000003457 0.225999996066 1341.0
0.963999986649 -0.243000000715 0.226999998093 1339.0
0.961000025272 -0.248999997973 0.225999996066 1337.0
0.963999986649 -0.256000012159 0.226999998093 1352.0
0.957000017166 -0.259999990463 0.225999996066 1353.0
0.958999991417 -0.266999989748 0.226999998093 1356.0
0.958000004292 -0.273000001907 0.226999998093 1349.0
