ply
format ascii 1.0
element vertex 909
property float x
property float y
property float z
property float intensity
end_header
0.964999973774 0.218999996781 -0.166999995708 523.0
0.941999971867 0.208000004292 -0.163000002503 456.0
0.930000007153 0.20000000298 -0.16099999845 415.0
0.927999973297 0.194000005722 -0.159999996424 382.0
0.929000020027 0.187999993563 -0.159999996424 332.0
0.934000015259 0.182999998331 -0.16099999845 317.0
0.961000025272 0.182999998331 -0.165000006557 284.0
0.931999981403 0.172000005841 -0.159999996424 252.0
0.888000011444 0.158000007272 -0.151999995112 219.0
0.884000003338 0.151999995112 -0.150999993086 190.0
0.944999992847 0.157000005245 -0.162000000477 300.0
0.98400002718 0.158000007272 -0.167999997735 287.0
0.975000023842 0.15000000596 -0.166999995708 269.0
0.963999986649 0.143000006676 -0.16400000453 317.0
0.964999973774 0.136999994516 -0.165000006557 255.0
0.943000018597 0.123000003397 -0.16099999845 166.0
0.925999999046 0.109999999404 -0.157000005245 85.0
0.90499997139 0.101999998093 -0.153999999166 76.0
0.763999998569 0.0729999989271 -0.129999995232 53.0
0.0930000022054 0.00499999988824 -0.01600000076 49.0
0.987999975681 -0.0599999986589 -0.165999993682 507.0
1.00100004673 -0.0659999996424 -0.168999999762 956.0
0.967999994755 -0.070000000298 -0.163000002503 232.0
0.954999983311 -0.0740000009537 -0.16099999845 157.0
0.961000025272 -0.0799999982119 -0.162000000477 153.0
0.93900001049 -0.0839999988675 -0.158000007272 162.0
0.950999975204 -0.0909999981523 -0.159999996424 157.0
0.938000023365 -0.0949999988079 -0.158000007272 169.0
0.950999975204 -0.101999998093 -0.159999996424 157.0
0.934000015259 -0.104999996722 -0.158000007272 163.0
0.95300000906 -0.112999998033 -0.16099999845 168.0
0.943000018597 -0.118000000715 -0.158999994397 166.0
0.955999970436 -0.125 -0.162000000477 163.0
0.934000015259 -0.127000004053 -0.158000007272 173.0
0.913999974728 -0.129999995232 -0.155000001192 175.0
0.947000026703 -0.141000002623 -0.159999996424 255.0
0.976000010967 -0.150999993086 -0.165000006557 1101.0
0.96899998188 -0.155000001192 -0.16400000453 1336.0
0.96899998188 -0.16099999845 -0.16400000453 1374.0
0.97000002861 -0.166999995708 -0.165000006557 1368.0
0.967000007629 -0.172999992967 -0.16400000453 1383.0
0.96899998188 -0.179000005126 -0.165000006557 1389.0
0.967999994755 -0.184000000358 -0.165000006557 1394.0
0.962999999523 -0.188999995589 -0.16400000453 1398.0
0.962999999523 -0.194999992847 -0.16400000453 1410.0
0.958999991417 -0.20000000298 -0.163000002503 1417.0
0.961000025272 -0.207000002265 -0.16400000453 1420.0
0.958999991417 -0.211999997497 -0.16400000453 1427.0
0.954999983311 -0.216999992728 -0.163000002503 1430.0
0.950999975204 -0.222000002861 -0.163000002503 1425.0
0.948000013828 -0.226999998093 -0.162000000477 978.0
0.915000021458 -0.22499999404 -0.157000005245 244.0
0.910000026226 -0.229000002146 -0.156000003219 199.0
0.913999974728 -0.236000001431 -0.157000005245 200.0
0.912000000477 -0.240999996662 -0.157000005245 190.0
0.894999980927 -0.241999998689 -0.153999999166 193.0
0.901000022888 -0.248999997973 -0.155000001192 200.0
0.899999976158 -0.254999995232 -0.155000001192 194.0
0.897000014782 -0.259999990463 -0.155000001192 193.0
0.869000017643 -0.256999999285 -0.15000000596 198.0
0.89099997282 -0.270000010729 -0.153999999166 203.0
0.879999995232 -0.272000014782 -0.152999997139 207.0
0.883000016212 -0.279000014067 -0.152999997139 209.0
0.893000006676 -0.287999987602 -0.155000001192 207.0
0.89200001955 -0.293000012636 -0.155000001192 232.0
0.921000003815 -0.308999985456 -0.16099999845 1131.0
0.917999982834 -0.31400001049 -0.159999996424 1552.0
0.920000016689 -0.321000009775 -0.16099999845 1554.0
0.917999982834 -0.326000005007 -0.16099999845 1553.0
0.912999987602 -0.331000000238 -0.159999996424 1563.0
0.916999995708 -0.337999999523 -0.16099999845 1568.0
0.907000005245 -0.340999990702 -0.159999996424 1575.0
0.902999997139 -0.345999985933 -0.158999994397 1581.0
0.90600001812 -0.352999985218 -0.159999996424 1581.0
0.903999984264 -0.358999997377 -0.159999996424 1595.0
0.90499997139 -0.365000009537 -0.16099999845 1607.0
0.902000010014 -0.370999991894 -0.16099999845 1588.0
0.898999989033 -0.375999987125 -0.159999996424 1596.0
0.898999989033 -0.381999999285 -0.16099999845 1615.0
0.897000014782 -0.388000011444 -0.16099999845 970.0
0.870000004768 -0.381999999285 -0.156000003219 272.0
0.847999989986 -0.379000008106 -0.152999997139 219.0
0.833999991417 -0.377999991179 -0.15000000596 226.0
0.834999978542 -0.384999990463 -0.150999993086 215.0
0.864000022411 -0.405000001192 -0.156000003219 218.0
0.82800000906 -0.393999993801 -0.15000000596 220.0
0.839999973774 -0.407000005245 -0.152999997139 215.0
0.828999996185 -0.407999992371 -0.150999993086 224.0
0.82800000906 -0.412999987602 -0.150999993086 216.0
0.833000004292 -0.423000007868 -0.152999997139 219.0
0.814999997616 -0.418999999762 -0.15000000596 215.0
0.819999992847 -0.428000003099 -0.150999993086 217.0
0.832000017166 -0.441000014544 -0.153999999166 246.0
0.865999996662 -0.467000007629 -0.16099999845 1158.0
0.866999983788 -0.474000006914 -0.16099999845 1626.0
0.861999988556 -0.479000002146 -0.16099999845 1647.0
0.861999988556 -0.486000001431 -0.16099999845 1654.0
2.20600008965 1.28299999237 -0.442999988794 142.0
2.18099999428 1.25 -0.43599998951 168.0
2.20600008965 1.2460000515 -0.439999997616 91.0
0.943000018597 0.472000002861 -0.182999998331 84.0
0.945999979973 0.430000007153 -0.180999994278 250.0
0.971000015736 0.433999985456 -0.185000002384 248.0
0.949000000954 0.418000012636 -0.180999994278 299.0
0.954999983311 0.412999987602 -0.180999994278 353.0
0.962999999523 0.409999996424 -0.181999996305 409.0
0.959999978542 0.400999993086 -0.180999994278 461.0
0.958999991417 0.393999993801 -0.180999994278 532.0
0.962000012398 0.388999998569 -0.180999994278 595.0
0.954999983311 0.379000008106 -0.179000005126 647.0
0.963999986649 0.375999987125 -0.180000007153 720.0
0.962999999523 0.368999987841 -0.180000007153 756.0
0.959999978542 0.361000001431 -0.179000005126 820.0
0.962000012398 0.354999989271 -0.179000005126 876.0
0.967000007629 0.351000010967 -0.179000005126 918.0
0.964999973774 0.342999994755 -0.179000005126 935.0
0.958999991417 0.335000008345 -0.177000001073 976.0
0.962000012398 0.330000013113 -0.177000001073 1020.0
0.962000012398 0.323000013828 -0.177000001073 1057.0
0.966000020504 0.317999988794 -0.177000001073 1075.0
0.961000025272 0.310000002384 -0.175999999046 1108.0
0.963999986649 0.305000007153 -0.175999999046 1141.0
0.972000002861 0.300999999046 -0.178000003099 1180.0
0.966000020504 0.293000012636 -0.175999999046 1185.0
0.967999994755 0.287000000477 -0.175999999046 1203.0
0.97000002861 0.280999988317 -0.175999999046 1201.0
0.962000012398 0.273000001907 -0.17499999702 1221.0
0.973999977112 0.270000010729 -0.175999999046 1223.0
0.97000002861 0.263000011444 -0.17499999702 1226.0
0.972000002861 0.256999999285 -0.17499999702 1237.0
0.975000023842 0.252000004053 -0.175999999046 1224.0
0.971000015736 0.245000004768 -0.17499999702 1219.0
0.971000015736 0.238999992609 -0.17499999702 1230.0
0.971000015736 0.232999995351 -0.173999994993 1211.0
0.97000002861 0.225999996066 -0.173999994993 1225.0
0.972999989986 0.221000000834 -0.173999994993 1203.0
0.977999985218 0.216000005603 -0.17499999702 1193.0
0.972999989986 0.209000006318 -0.173999994993 1161.0
0.976999998093 0.203999996185 -0.173999994993 1155.0
0.973999977112 0.196999996901 -0.173999994993 1137.0
0.976000010967 0.192000001669 -0.173999994993 1123.0
0.978999972343 0.186000004411 -0.173999994993 1076.0
0.976999998093 0.180000007153 -0.173999994993 1064.0
0.981999993324 0.17499999702 -0.173999994993 1033.0
0.980000019073 0.168999999762 -0.173999994993 995.0
0.981999993324 0.163000002503 -0.173999994993 985.0
0.980000019073 0.157000005245 -0.172999992967 967.0
0.981999993324 0.151999995112 -0.173999994993 970.0
0.980000019073 0.144999995828 -0.172999992967 1031.0
0.980000019073 0.140000000596 -0.172999992967 1000.0
0.981000006199 0.134000003338 -0.172999992967 1009.0
0.976000010967 0.127000004053 -0.172000005841 940.0
0.98299998045 0.123000003397 -0.172999992967 812.0
0.975000023842 0.115999996662 -0.172000005841 748.0
0.980000019073 0.111000001431 -0.172000005841 745.0
0.980000019073 0.104999996722 -0.172000005841 751.0
0.977999985218 0.0989999994636 -0.172000005841 713.0
0.972000002861 0.0930000022054 -0.171000003815 723.0
0.973999977112 0.0869999974966 -0.171000003815 729.0
0.977999985218 0.082000002265 -0.171000003815 646.0
0.976999998093 0.0759999975562 -0.171000003815 612.0
0.976000010967 0.070000000298 -0.171000003815 568.0
0.978999972343 0.0649999976158 -0.171000003815 542.0
0.98400002718 0.0590000003576 -0.172000005841 524.0
0.986000001431 0.0540000014007 -0.172000005841 476.0
0.972000002861 0.0469999983907 -0.170000001788 460.0
0.972999989986 0.0419999994338 -0.170000001788 437.0
0.957000017166 0.035000000149 -0.166999995708 432.0
0.976000010967 0.0299999993294 -0.170000001788 402.0
0.977999985218 0.0250000003725 -0.171000003815 367.0
0.963999986649 0.0189999993891 -0.167999997735 195.0
1.0039999485 -0.0610000006855 -0.17499999702 549.0
1.00100004673 -0.0670000016689 -0.17499999702 927.0
0.952000021935 -0.0689999982715 -0.165999993682 214.0
0.936999976635 -0.0729999989271 -0.163000002503 153.0
0.953999996185 -0.0799999982119 -0.165999993682 152.0
0.975000023842 -0.0869999974966 -0.170000001788 164.0
0.952000021935 -0.0909999981523 -0.165999993682 161.0
0.938000023365 -0.0949999988079 -0.16400000453 165.0
0.93599998951 -0.10000000149 -0.163000002503 161.0
0.938000023365 -0.105999998748 -0.16400000453 159.0
0.92199999094 -0.109999999404 -0.16099999845 163.0
0.95300000906 -0.119000002742 -0.166999995708 169.0
0.950999975204 -0.123999997973 -0.165999993682 167.0
0.947000026703 -0.129999995232 -0.165999993682 170.0
0.93900001049 -0.134000003338 -0.16400000453 174.0
0.954999983311 -0.142000004649 -0.166999995708 266.0
0.976000010967 -0.150999993086 -0.171000003815 1131.0
0.973999977112 -0.156000003219 -0.171000003815 1342.0
0.967000007629 -0.16099999845 -0.170000001788 1372.0
0.966000020504 -0.166999995708 -0.170000001788 1376.0
0.964999973774 -0.172000005841 -0.170000001788 1383.0
0.966000020504 -0.178000003099 -0.170000001788 1375.0
0.967000007629 -0.184000000358 -0.170000001788 1389.0
0.963999986649 -0.189999997616 -0.170000001788 1393.0
0.962000012398 -0.194999992847 -0.170000001788 1408.0
0.958000004292 -0.20000000298 -0.168999999762 1411.0
0.955999970436 -0.206000000238 -0.168999999762 1436.0
0.955999970436 -0.211999997497 -0.168999999762 1430.0
0.957000017166 -0.217999994755 -0.168999999762 1435.0
0.949999988079 -0.222000002861 -0.167999997735 1441.0
0.947000026703 -0.226999998093 -0.167999997735 932.0
0.925999999046 -0.228000000119 -0.16400000453 240.0
0.902999997139 -0.228000000119 -0.159999996424 189.0
0.884999990463 -0.229000002146 -0.157000005245 198.0
0.912000000477 -0.240999996662 -0.162000000477 191.0
0.907000005245 -0.246000006795 -0.162000000477 203.0
0.887000024319 -0.246000006795 -0.158000007272 203.0
0.910000026226 -0.25799998641 -0.163000002503 197.0
0.907000005245 -0.263000011444 -0.162000000477 198.0
0.907000005245 -0.268999993801 -0.163000002503 205.0
0.89099997282 -0.270000010729 -0.159999996424 208.0
0.862999975681 -0.266999989748 -0.155000001192 198.0
0.875 -0.275999993086 -0.157000005245 207.0
0.883000016212 -0.284999996424 -0.158999994397 207.0
0.912999987602 -0.300000011921 -0.165000006557 252.0
0.916000008583 -0.307999998331 -0.165999993682 1203.0
0.92199999094 -0.316000014544 -0.166999995708 1554.0
0.915000021458 -0.319000005722 -0.165999993682 1543.0
0.919000029564 -0.326999992132 -0.166999995708 1568.0
0.913999974728 -0.331999987364 -0.165999993682 1548.0
0.915000021458 -0.337999999523 -0.166999995708 1570.0
0.912999987602 -0.344000011683 -0.166999995708 1579.0
0.910000026226 -0.349000006914 -0.166999995708 1567.0
0.90499997139 -0.352999985218 -0.165999993682 1581.0
0.907999992371 -0.361000001431 -0.166999995708 1595.0
0.902999997139 -0.365000009537 -0.165999993682 1596.0
0.902999997139 -0.372000008821 -0.166999995708 1599.0
0.898999989033 -0.375999987125 -0.165999993682 1599.0
0.902000010014 -0.384000003338 -0.166999995708 1605.0
0.89200001955 -0.386000007391 -0.165999993682 878.0
0.865999996662 -0.381000012159 -0.16099999845 260.0
0.824999988079 -0.368999987841 -0.153999999166 223.0
0.84500002861 -0.384000003338 -0.158000007272 219.0
0.824999988079 -0.381000012159 -0.153999999166 221.0
0.833999991417 -0.391000002623 -0.156000003219 219.0
0.825999975204 -0.393999993801 -0.155000001192 208.0
0.84399998188 -0.409000009298 -0.158999994397 222.0
0.836000025272 -0.411000013351 -0.158000007272 219.0
0.824999988079 -0.412000000477 -0.156000003219 218.0
0.82800000906 -0.419999986887 -0.157000005245 219.0
0.818000018597 -0.42199999094 -0.156000003219 212.0
0.820999979973 -0.430000007153 -0.157000005245 216.0
0.841000020504 -0.446999996901 -0.16099999845 261.0
0.864000022411 -0.465999990702 -0.165999993682 1230.0
0.867999970913 -0.47499999404 -0.166999995708 1641.0
0.869000017643 -0.483000010252 -0.167999997735 1659.0
0.861999988556 -0.486000001431 -0.166999995708 1652.0
2.1930000782 1.27699995041 -0.455000013113 191.0
2.22099995613 1.27400004864 -0.458999991417 253.0
2.22600007057 1.25800001621 -0.458999991417 143.0
2.27800011635 1.26900005341 -0.467999994755 99.0
0.65499997139 0.259999990463 -0.127000004053 79.0
0.919000029564 0.358999997377 -0.178000003099 116.0
0.893000006676 0.342000007629 -0.172000005841 153.0
0.925000011921 0.347999989986 -0.178000003099 197.0
0.929000020027 0.337000012398 -0.178000003099 317.0
0.917999982834 0.326999992132 -0.175999999046 265.0
0.93599998951 0.326999992132 -0.179000005126 315.0
0.941999971867 0.323000013828 -0.180000007153 290.0
0.947000026703 0.317999988794 -0.180000007153 354.0
0.958000004292 0.314999997616 -0.181999996305 406.0
0.959999978542 0.310000002384 -0.181999996305 446.0
0.958999991417 0.303000003099 -0.180999994278 511.0
0.967999994755 0.300000011921 -0.182999998331 561.0
0.963999986649 0.291999995708 -0.181999996305 622.0
0.964999973774 0.286000013351 -0.181999996305 666.0
0.967000007629 0.280999988317 -0.181999996305 711.0
0.967000007629 0.27500000596 -0.181999996305 769.0
0.96899998188 0.268999993801 -0.181999996305 815.0
0.972000002861 0.263999998569 -0.181999996305 868.0
0.971000015736 0.256999999285 -0.180999994278 915.0
0.967000007629 0.25 -0.180000007153 958.0
0.972000002861 0.245000004768 -0.180999994278 1005.0
0.972999989986 0.238999992609 -0.180999994278 1037.0
0.964999973774 0.231000006199 -0.179000005126 1070.0
0.973999977112 0.226999998093 -0.180999994278 1084.0
0.963999986649 0.218999996781 -0.179000005126 1109.0
0.972999989986 0.215000003576 -0.180000007153 1125.0
0.972999989986 0.209000006318 -0.180000007153 1144.0
0.973999977112 0.202999994159 -0.180000007153 1181.0
0.976999998093 0.197999998927 -0.180000007153 1188.0
0.972999989986 0.190999999642 -0.179000005126 1195.0
0.96899998188 0.185000002384 -0.178000003099 1195.0
0.978999972343 0.180999994278 -0.180000007153 1215.0
0.976999998093 0.173999994993 -0.179000005126 1214.0
0.976999998093 0.167999997735 -0.179000005126 1194.0
0.977999985218 0.163000002503 -0.179000005126 1230.0
0.977999985218 0.157000005245 -0.179000005126 1227.0
0.975000023842 0.150999993086 -0.178000003099 1243.0
0.980000019073 0.145999997854 -0.179000005126 1265.0
0.977999985218 0.138999998569 -0.179000005126 1279.0
0.976999998093 0.133000001311 -0.178000003099 1352.0
0.977999985218 0.12800000608 -0.178000003099 1366.0
0.97000002861 0.120999999344 -0.177000001073 1319.0
0.98299998045 0.116999998689 -0.179000005126 1314.0
0.978999972343 0.111000001431 -0.178000003099 1369.0
0.977999985218 0.104999996722 -0.178000003099 1408.0
0.975000023842 0.0989999994636 -0.177000001073 1347.0
0.976999998093 0.0930000022054 -0.177000001073 1360.0
0.976000010967 0.0869999974966 -0.177000001073 1430.0
0.975000023842 0.082000002265 -0.177000001073 1425.0
0.978999972343 0.0759999975562 -0.177000001073 1453.0
0.973999977112 0.070000000298 -0.175999999046 1442.0
0.981000006199 0.0649999976158 -0.177000001073 1442.0
0.976999998093 0.0590000003576 -0.177000001073 1407.0
0.98299998045 0.0540000014007 -0.178000003099 1368.0
0.976000010967 0.0469999983907 -0.175999999046 1402.0
0.981000006199 0.0419999994338 -0.177000001073 1441.0
0.981000006199 0.0359999984503 -0.177000001073 1405.0
0.986999988556 0.0309999994934 -0.178000003099 1340.0
0.981000006199 0.0250000003725 -0.177000001073 1232.0
0.981000006199 0.0189999993891 -0.177000001073 489.0
0.990999996662 -0.0599999986589 -0.179000005126 581.0
1.0 -0.0670000016689 -0.180000007153 904.0
0.967000007629 -0.070000000298 -0.173999994993 206.0
0.944999992847 -0.0740000009537 -0.171000003815 155.0
0.952000021935 -0.0799999982119 -0.172000005841 156.0
0.948000013828 -0.0850000008941 -0.171000003815 154.0
0.944999992847 -0.0900000035763 -0.171000003815 155.0
0.935000002384 -0.0949999988079 -0.168999999762 154.0
0.958999991417 -0.103000000119 -0.172999992967 160.0
0.936999976635 -0.105999998748 -0.168999999762 170.0
0.958000004292 -0.11400000006 -0.172999992967 166.0
0.958999991417 -0.119999997318 -0.172999992967 169.0
0.943000018597 -0.123000003397 -0.171000003815 165.0
0.952000021935 -0.129999995232 -0.172000005841 170.0
0.927999973297 -0.131999999285 -0.167999997735 177.0
0.949999988079 -0.141000002623 -0.172000005841 294.0
0.972000002861 -0.150999993086 -0.175999999046 1164.0
0.971000015736 -0.156000003219 -0.175999999046 1343.0
0.967999994755 -0.16099999845 -0.175999999046 1360.0
0.966000020504 -0.166999995708 -0.175999999046 1374.0
0.967999994755 -0.172999992967 -0.175999999046 1373.0
0.96899998188 -0.179000005126 -0.175999999046 1389.0
0.967999994755 -0.185000002384 -0.175999999046 1391.0
0.962000012398 -0.189999997616 -0.17499999702 1406.0
0.964999973774 -0.195999994874 -0.175999999046 1394.0
0.958000004292 -0.20000000298 -0.17499999702 1407.0
0.957000017166 -0.206000000238 -0.17499999702 1424.0
0.955999970436 -0.211999997497 -0.17499999702 1418.0
0.955999970436 -0.217999994755 -0.17499999702 1430.0
0.953999996185 -0.223000004888 -0.17499999702 1438.0
0.950999975204 -0.228000000119 -0.17499999702 869.0
0.929000020027 -0.229000002146 -0.171000003815 229.0
0.888999998569 -0.224000006914 -0.163000002503 196.0
0.912999987602 -0.236000001431 -0.167999997735 202.0
0.90600001812 -0.239999994636 -0.166999995708 205.0
0.90600001812 -0.246000006795 -0.166999995708 197.0
0.873000025749 -0.241999998689 -0.16099999845 198.0
0.883000016212 -0.250999987125 -0.163000002503 198.0
0.888999998569 -0.25799998641 -0.165000006557 193.0
0.880999982357 -0.261000007391 -0.163000002503 201.0
0.862999975681 -0.261999994516 -0.159999996424 204.0
0.89099997282 -0.275999993086 -0.165999993682 208.0
0.89099997282 -0.282000005245 -0.165999993682 203.0
0.871999979019 -0.280999988317 -0.162000000477 205.0
0.887000024319 -0.291999995708 -0.165999993682 280.0
0.915000021458 -0.307999998331 -0.171000003815 1255.0
0.917999982834 -0.314999997616 -0.172000005841 1546.0
0.917999982834 -0.321000009775 -0.172000005841 1552.0
0.915000021458 -0.326000005007 -0.172000005841 1561.0
0.916999995708 -0.333000004292 -0.172999992967 1564.0
0.915000021458 -0.338999986649 -0.172999992967 1578.0
0.913999974728 -0.344000011683 -0.172999992967 1573.0
0.908999979496 -0.349000006914 -0.172000005841 1575.0
0.90600001812 -0.354000002146 -0.172000005841 1581.0
0.902000010014 -0.358999997377 -0.171000003815 1603.0
0.90600001812 -0.36700001359 -0.172000005841 1598.0
0.902999997139 -0.372000008821 -0.172000005841 1589.0
0.898000001907 -0.375999987125 -0.172000005841 1579.0
0.901000022888 -0.384000003338 -0.172999992967 1588.0
0.879999995232 -0.381000012159 -0.168999999762 789.0
0.876999974251 -0.386000007391 -0.168999999762 254.0
0.865000009537 -0.386999994516 -0.166999995708 215.0
0.833999991417 -0.379000008106 -0.16099999845 214.0
0.850000023842 -0.393000006676 -0.165000006557 218.0
0.824000000954 -0.386999994516 -0.159999996424 215.0
0.82800000906 -0.395000010729 -0.16099999845 211.0
0.836000025272 -0.405000001192 -0.163000002503 214.0
0.830999970436 -0.409000009298 -0.162000000477 222.0
0.816999971867 -0.407999992371 -0.159999996424 218.0
0.838999986649 -0.425999999046 -0.165000006557 214.0
0.824000000954 -0.425000011921 -0.162000000477 216.0
0.851999998093 -0.446999996901 -0.168999999762 228.0
0.84399998188 -0.449000000954 -0.166999995708 303.0
0.861999988556 -0.465999990702 -0.171000003815 1289.0
0.867999970913 -0.476000010967 -0.172999992967 1627.0
0.861999988556 -0.479999989271 -0.172000005841 1651.0
0.85799998045 -0.483999997377 -0.172000005841 1645.0
2.19899988174 1.28100001812 -0.470999985933 191.0
2.21499991417 1.27199995518 -0.472999989986 297.0
2.23600006104 1.26600003242 -0.476000010967 167.0
2.28299999237 1.27300000191 -0.485000014305 105.0
3.36500000954 1.41199994087 -0.680000007153 75.0
3.56999993324 1.47200000286 -0.71899998188 71.0
0.839999973774 0.238999992609 -0.163000002503 91.0
0.944999992847 0.238999992609 -0.181999996305 315.0
0.957000017166 0.236000001431 -0.184000000358 382.0
0.962000012398 0.22499999404 -0.184000000358 343.0
0.926999986172 0.21099999547 -0.177000001073 304.0
0.927999973297 0.204999998212 -0.177000001073 344.0
0.926999986172 0.199000000954 -0.177000001073 384.0
0.934000015259 0.194999992847 -0.178000003099 431.0
0.949000000954 0.193000003695 -0.180999994278 478.0
0.959999978542 0.188999995589 -0.182999998331 530.0
0.98299998045 0.187999993563 -0.187000006437 568.0
0.980000019073 0.180999994278 -0.186000004411 613.0
0.978999972343 0.17499999702 -0.186000004411 649.0
0.976000010967 0.167999997735 -0.185000002384 676.0
0.981999993324 0.16400000453 -0.186000004411 720.0
0.978999972343 0.157000005245 -0.185000002384 758.0
0.976999998093 0.150999993086 -0.185000002384 790.0
0.973999977112 0.144999995828 -0.184000000358 814.0
0.96899998188 0.137999996543 -0.182999998331 850.0
0.973999977112 0.133000001311 -0.184000000358 927.0
0.96899998188 0.127000004053 -0.181999996305 987.0
0.980000019073 0.122000001371 -0.184000000358 1046.0
0.981000006199 0.116999998689 -0.184000000358 1071.0
0.976000010967 0.109999999404 -0.182999998331 1128.0
0.976000010967 0.104999996722 -0.182999998331 1190.0
0.972000002861 0.097999997437 -0.181999996305 1194.0
0.976999998093 0.0930000022054 -0.182999998331 1215.0
0.977999985218 0.0879999995232 -0.182999998331 1286.0
0.977999985218 0.082000002265 -0.182999998331 1314.0
0.971000015736 0.0759999975562 -0.181999996305 1362.0
0.978999972343 0.070000000298 -0.182999998331 1399.0
0.973999977112 0.0640000030398 -0.181999996305 1429.0
0.976999998093 0.0590000003576 -0.181999996305 1444.0
0.977999985218 0.0529999993742 -0.182999998331 1441.0
0.975000023842 0.0469999983907 -0.181999996305 1468.0
0.975000023842 0.0419999994338 -0.181999996305 1498.0
0.972999989986 0.0359999984503 -0.180999994278 1488.0
0.978999972343 0.0309999994934 -0.182999998331 1424.0
0.975000023842 0.0250000003725 -0.181999996305 1392.0
0.972999989986 0.0189999993891 -0.180999994278 549.0
1.00100004673 -0.0610000006855 -0.186000004411 598.0
1.00300002098 -0.0670000016689 -0.187000006437 877.0
0.962999999523 -0.070000000298 -0.179000005126 196.0
0.947000026703 -0.0740000009537 -0.175999999046 158.0
0.933000028133 -0.0780000016093 -0.173999994993 157.0
0.972999989986 -0.0879999995232 -0.180999994278 151.0
0.957000017166 -0.0920000001788 -0.178000003099 160.0
0.93599998951 -0.0949999988079 -0.17499999702 158.0
0.926999986172 -0.10000000149 -0.172999992967 162.0
0.920000016689 -0.104000002146 -0.172000005841 163.0
0.93599998951 -0.112000003457 -0.17499999702 164.0
0.941999971867 -0.118000000715 -0.175999999046 165.0
0.921000003815 -0.120999999344 -0.172000005841 168.0
0.936999976635 -0.12800000608 -0.17499999702 171.0
0.912000000477 -0.129999995232 -0.171000003815 176.0
0.954999983311 -0.142000004649 -0.179000005126 310.0
0.975000023842 -0.150999993086 -0.182999998331 1175.0
0.976999998093 -0.157000005245 -0.182999998331 1353.0
0.967999994755 -0.162000000477 -0.181999996305 1367.0
0.971000015736 -0.167999997735 -0.181999996305 1358.0
0.967999994755 -0.172999992967 -0.181999996305 1388.0
0.963999986649 -0.178000003099 -0.180999994278 1394.0
0.962999999523 -0.184000000358 -0.180999994278 1398.0
0.964999973774 -0.189999997616 -0.181999996305 1401.0
0.959999978542 -0.194999992847 -0.180999994278 1405.0
0.959999978542 -0.201000005007 -0.180999994278 1417.0
0.959999978542 -0.207000002265 -0.180999994278 1426.0
0.949000000954 -0.209999993443 -0.179000005126 1430.0
0.949000000954 -0.216000005603 -0.180000007153 1432.0
0.949999988079 -0.222000002861 -0.180000007153 1433.0
0.945999979973 -0.226999998093 -0.179000005126 803.0
0.930000007153 -0.229000002146 -0.175999999046 221.0
0.870999991894 -0.219999998808 -0.165000006557 194.0
0.916000008583 -0.237000003457 -0.173999994993 198.0
0.894999980927 -0.237000003457 -0.170000001788 196.0
0.907000005245 -0.246000006795 -0.172999992967 197.0
0.896000027657 -0.248999997973 -0.171000003815 201.0
0.875999987125 -0.248999997973 -0.166999995708 204.0
0.879999995232 -0.256000012159 -0.167999997735 202.0
0.896000027657 -0.266000002623 -0.172000005841 199.0
0.901000022888 -0.273999989033 -0.172999992967 200.0
0.883000016212 -0.273999989033 -0.170000001788 203.0
0.880999982357 -0.279000014067 -0.170000001788 205.0
0.879000008106 -0.284000009298 -0.168999999762 204.0
0.902999997139 -0.298000007868 -0.173999994993 318.0
0.916000008583 -0.307999998331 -0.177000001073 1306.0
0.92199999094 -0.317000001669 -0.179000005126 1552.0
0.920000016689 -0.321999996901 -0.178000003099 1548.0
0.913999974728 -0.326000005007 -0.178000003099 1553.0
0.912999987602 -0.331999987364 -0.178000003099 1569.0
0.916000008583 -0.338999986649 -0.179000005126 1568.0
0.908999979496 -0.342999994755 -0.178000003099 1571.0
0.90600001812 -0.347999989986 -0.177000001073 1581.0
0.90499997139 -0.354000002146 -0.177000001073 1571.0
0.902999997139 -0.360000014305 -0.177000001073 1601.0
0.903999984264 -0.365999996662 -0.178000003099 1608.0
0.898999989033 -0.370999991894 -0.177000001073 1582.0
0.898999989033 -0.377000004053 -0.178000003099 1595.0
0.897000014782 -0.38299998641 -0.178000003099 1591.0
0.884000003338 -0.38299998641 -0.17499999702 715.0
0.873000025749 -0.384999990463 -0.173999994993 248.0
0.830999970436 -0.372000008821 -0.165999993682 220.0
0.85799998045 -0.391000002623 -0.171000003815 218.0
0.852999985218 -0.395000010729 -0.171000003815 210.0
0.836000025272 -0.393000006676 -0.167999997735 213.0
0.834999978542 -0.398999989033 -0.167999997735 214.0
0.824999988079 -0.400999993086 -0.165999993682 214.0
0.813000023365 -0.400999993086 -0.16400000453 211.0
0.82800000906 -0.414999991655 -0.167999997735 217.0
0.824000000954 -0.418999999762 -0.166999995708 213.0
0.825999975204 -0.426999986172 -0.167999997735 214.0
0.809000015259 -0.423999994993 -0.165000006557 222.0
0.838999986649 -0.446999996901 -0.172000005841 357.0
0.869000017643 -0.469999998808 -0.179000005126 1365.0
0.864000022411 -0.474000006914 -0.178000003099 1643.0
0.865999996662 -0.481999993324 -0.179000005126 1646.0
0.862999975681 -0.488000005484 -0.179000005126 1643.0
2.19099998474 1.27799999714 -0.485000014305 190.0
2.20499992371 1.26800000668 -0.486000001431 288.0
2.23300004005 1.26499998569 -0.490999996662 178.0
2.26099991798 1.26300001144 -0.495000004768 112.0
2.54999995232 1.32000005245 -0.550000011921 74.0
3.39700007439 1.42599999905 -0.708000004292 100.0
3.41000008583 1.40699994564 -0.708999991417 84.0
4.33900022507 0.986000001431 -0.85799998045 73.0
4.25 0.93900001049 -0.839999973774 82.0
4.19000005722 0.899999976158 -0.827000021935 74.0
4.24300003052 0.884999990463 -0.836000025272 80.0
4.32800006866 0.876999974251 -0.851999998093 81.0
4.30999994278 0.847000002861 -0.847000002861 59.0
0.675000011921 0.120999999344 -0.131999999285 63.0
0.801999986172 0.138999998569 -0.157000005245 63.0
0.916000008583 0.146999999881 -0.179000005126 99.0
0.944999992847 0.145999997854 -0.184000000358 131.0
0.967000007629 0.137999996543 -0.187999993563 171.0
0.949000000954 0.129999995232 -0.184000000358 213.0
0.973999977112 0.12800000608 -0.188999995589 248.0
0.975000023842 0.122000001371 -0.188999995589 323.0
0.961000025272 0.108999997377 -0.186000004411 288.0
0.949000000954 0.101999998093 -0.184000000358 269.0
0.955999970436 0.097000002861 -0.185000002384 301.0
0.967000007629 0.0920000001788 -0.187000006437 333.0
0.953999996185 0.0860000029206 -0.184000000358 358.0
0.976000010967 0.082000002265 -0.188999995589 385.0
0.978999972343 0.0759999975562 -0.188999995589 404.0
0.972000002861 0.070000000298 -0.187999993563 446.0
0.975000023842 0.0649999976158 -0.187999993563 486.0
0.967999994755 0.0579999983311 -0.187000006437 530.0
0.977999985218 0.0529999993742 -0.188999995589 547.0
0.971000015736 0.0469999983907 -0.187000006437 578.0
0.967999994755 0.0419999994338 -0.186000004411 629.0
0.972000002861 0.0359999984503 -0.187000006437 667.0
0.977999985218 0.0309999994934 -0.187999993563 671.0
0.973999977112 0.0250000003725 -0.187000006437 626.0
0.967999994755 0.0189999993891 -0.186000004411 233.0
0.998000025749 -0.0610000006855 -0.192000001669 650.0
0.998000025749 -0.0670000016689 -0.192000001669 835.0
0.980000019073 -0.0710000023246 -0.187999993563 198.0
0.947000026703 -0.0740000009537 -0.181999996305 157.0
0.954999983311 -0.0799999982119 -0.184000000358 159.0
0.931999981403 -0.0839999988675 -0.179000005126 154.0
0.93900001049 -0.0900000035763 -0.180999994278 163.0
0.93900001049 -0.0949999988079 -0.180999994278 157.0
0.930999994278 -0.10000000149 -0.179000005126 160.0
0.941999971867 -0.107000000775 -0.180999994278 166.0
0.961000025272 -0.115000002086 -0.185000002384 163.0
0.919000029564 -0.115000002086 -0.177000001073 169.0
0.929000020027 -0.122000001371 -0.179000005126 171.0
0.939999997616 -0.128999993205 -0.181999996305 171.0
0.930999994278 -0.133000001311 -0.180000007153 173.0
0.938000023365 -0.140000000596 -0.180999994278 346.0
0.971000015736 -0.150999993086 -0.187999993563 1195.0
0.967999994755 -0.156000003219 -0.187000006437 1351.0
0.972999989986 -0.163000002503 -0.187999993563 1358.0
0.97000002861 -0.167999997735 -0.187999993563 1370.0
0.967000007629 -0.172999992967 -0.187999993563 1376.0
0.963999986649 -0.179000005126 -0.187000006437 1389.0
0.962999999523 -0.184000000358 -0.187000006437 1386.0
0.958999991417 -0.188999995589 -0.186000004411 1402.0
0.962000012398 -0.195999994874 -0.187000006437 1414.0
0.961000025272 -0.201000005007 -0.187000006437 1418.0
0.958999991417 -0.207000002265 -0.187000006437 1428.0
0.957000017166 -0.211999997497 -0.187000006437 1425.0
0.95300000906 -0.216999992728 -0.186000004411 1423.0
0.948000013828 -0.222000002861 -0.185000002384 1424.0
0.949999988079 -0.229000002146 -0.186000004411 746.0
0.917999982834 -0.225999996066 -0.180000007153 213.0
0.893000006676 -0.225999996066 -0.17499999702 198.0
0.899999976158 -0.232999995351 -0.177000001073 197.0
0.898999989033 -0.238999992609 -0.177000001073 192.0
0.884000003338 -0.239999994636 -0.173999994993 198.0
0.907000005245 -0.252000004053 -0.179000005126 197.0
0.885999977589 -0.252000004053 -0.17499999702 197.0
0.893999993801 -0.259999990463 -0.177000001073 198.0
0.888000011444 -0.263999998569 -0.175999999046 198.0
0.89099997282 -0.270999997854 -0.175999999046 205.0
0.898000001907 -0.279000014067 -0.178000003099 206.0
0.89099997282 -0.282000005245 -0.177000001073 220.0
0.898999989033 -0.291000008583 -0.179000005126 216.0
0.897000014782 -0.296000003815 -0.179000005126 362.0
0.919000029564 -0.310000002384 -0.182999998331 1329.0
0.915000021458 -0.31400001049 -0.182999998331 1541.0
0.921000003815 -0.323000013828 -0.184000000358 1552.0
0.912000000477 -0.326000005007 -0.182999998331 1544.0
0.912000000477 -0.331999987364 -0.182999998331 1558.0
0.912999987602 -0.338999986649 -0.184000000358 1566.0
0.908999979496 -0.342999994755 -0.182999998331 1564.0
0.907000005245 -0.349000006914 -0.182999998331 1574.0
0.907999992371 -0.356000006199 -0.184000000358 1575.0
0.90600001812 -0.361000001431 -0.184000000358 1582.0
0.901000022888 -0.365999996662 -0.182999998331 1608.0
0.899999976158 -0.372000008821 -0.182999998331 1593.0
0.903999984264 -0.379000008106 -0.184000000358 1588.0
0.898999989033 -0.384000003338 -0.184000000358 1567.0
0.894999980927 -0.388999998569 -0.184000000358 648.0
0.838999986649 -0.370000004768 -0.172000005841 236.0
0.851999998093 -0.381999999285 -0.17499999702 213.0
0.85799998045 -0.391000002623 -0.177000001073 218.0
0.820999979973 -0.381000012159 -0.170000001788 217.0
0.81400001049 -0.38299998641 -0.168999999762 211.0
0.828999996185 -0.397000014782 -0.172000005841 214.0
0.810000002384 -0.393999993801 -0.168999999762 217.0
0.819999992847 -0.405000001192 -0.171000003815 211.0
0.805999994278 -0.404000014067 -0.168999999762 217.0
0.816999971867 -0.416000008583 -0.171000003815 216.0
0.814999997616 -0.42199999094 -0.172000005841 222.0
0.810000002384 -0.425000011921 -0.171000003815 218.0
0.838999986649 -0.446999996901 -0.178000003099 426.0
0.865999996662 -0.469000011683 -0.184000000358 1418.0
0.869000017643 -0.476999998093 -0.185000002384 1649.0
0.865999996662 -0.483000010252 -0.185000002384 1643.0
0.860000014305 -0.486999988556 -0.184000000358 1644.0
2.18600010872 1.27699995041 -0.499000012875 177.0
2.2349998951 1.28600001335 -0.508000016212 297.0
2.2349998951 1.26800000668 -0.507000029087 182.0
2.28099989891 1.27499997616 -0.514999985695 102.0
3.36599993706 1.41499996185 -0.723999977112 118.0
3.4279999733 1.41600000858 -0.735000014305 101.0
3.4849998951 1.41499996185 -0.745999991894 79.0
4.23099994659 0.962000012398 -0.862999975681 71.0
4.18400001526 0.925999999046 -0.851999998093 86.0
4.1890001297 0.901000022888 -0.851999998093 84.0
4.22100019455 0.882000029087 -0.85799998045 85.0
4.21600008011 0.855000019073 -0.856000006199 83.0
4.30499982834 0.846000015736 -0.873000025749 60.0
1.00300002098 -0.0610000006855 -0.199000000954 693.0
0.996999979019 -0.0670000016689 -0.197999998927 810.0
0.949999988079 -0.0689999982715 -0.187999993563 184.0
0.954999983311 -0.0750000029802 -0.188999995589 159.0
0.940999984741 -0.0790000036359 -0.187000006437 160.0
0.962999999523 -0.0869999974966 -0.190999999642 159.0
0.931999981403 -0.0890000015497 -0.185000002384 159.0
0.95300000906 -0.097000002861 -0.188999995589 158.0
0.949999988079 -0.101999998093 -0.188999995589 159.0
0.943000018597 -0.107000000775 -0.187000006437 165.0
0.949000000954 -0.112999998033 -0.188999995589 163.0
0.950999975204 -0.119000002742 -0.188999995589 167.0
0.931999981403 -0.122000001371 -0.186000004411 172.0
0.939999997616 -0.128999993205 -0.187000006437 167.0
0.922999978065 -0.131999999285 -0.184000000358 171.0
0.959999978542 -0.143000006676 -0.190999999642 372.0
0.97000002861 -0.150999993086 -0.193000003695 1223.0
0.96899998188 -0.156000003219 -0.193000003695 1347.0
0.967999994755 -0.162000000477 -0.193000003695 1358.0
0.97000002861 -0.167999997735 -0.194000005722 1362.0
0.972999989986 -0.17499999702 -0.194999992847 1371.0
0.96899998188 -0.180000007153 -0.194000005722 1383.0
0.966000020504 -0.185000002384 -0.193000003695 1401.0
0.964999973774 -0.190999999642 -0.194000005722 1403.0
0.958000004292 -0.194999992847 -0.192000001669 1396.0
0.959999978542 -0.202000007033 -0.193000003695 1403.0
0.953999996185 -0.206000000238 -0.192000001669 1429.0
0.955999970436 -0.211999997497 -0.192000001669 1432.0
0.953999996185 -0.217999994755 -0.192000001669 1426.0
0.949000000954 -0.223000004888 -0.190999999642 1424.0
0.954999983311 -0.230000004172 -0.193000003695 701.0
0.907999992371 -0.224000006914 -0.184000000358 216.0
0.896000027657 -0.226999998093 -0.180999994278 195.0
0.911000013351 -0.236000001431 -0.185000002384 198.0
0.915000021458 -0.243000000715 -0.186000004411 203.0
0.876999974251 -0.238999992609 -0.178000003099 194.0
0.893000006676 -0.248999997973 -0.181999996305 199.0
0.902000010014 -0.256999999285 -0.184000000358 189.0
0.896000027657 -0.261000007391 -0.182999998331 199.0
0.884000003338 -0.263000011444 -0.180000007153 196.0
0.89099997282 -0.270999997854 -0.181999996305 192.0
0.875999987125 -0.272000014782 -0.179000005126 202.0
0.902000010014 -0.286000013351 -0.185000002384 195.0
0.884000003338 -0.286000013351 -0.181999996305 213.0
0.912999987602 -0.301999986172 -0.187999993563 409.0
0.919000029564 -0.310000002384 -0.188999995589 1380.0
0.920000016689 -0.317000001669 -0.189999997616 1536.0
0.916999995708 -0.321999996901 -0.188999995589 1561.0
0.915000021458 -0.326999992132 -0.188999995589 1549.0
0.912000000477 -0.331999987364 -0.188999995589 1555.0
0.911000013351 -0.337999999523 -0.188999995589 1568.0
0.903999984264 -0.342000007629 -0.187999993563 1575.0
0.902000010014 -0.347000002861 -0.187999993563 1570.0
0.902000010014 -0.354000002146 -0.187999993563 1579.0
0.902000010014 -0.360000014305 -0.188999995589 1578.0
0.901000022888 -0.365999996662 -0.188999995589 1587.0
0.897000014782 -0.370999991894 -0.188999995589 1575.0
0.901000022888 -0.379000008106 -0.189999997616 1581.0
0.897000014782 -0.38299998641 -0.188999995589 1539.0
0.884000003338 -0.384000003338 -0.187000006437 561.0
0.851999998093 -0.375999987125 -0.180999994278 223.0
0.850000023842 -0.381999999285 -0.180999994278 217.0
0.833999991417 -0.381000012159 -0.178000003099 215.0
0.824000000954 -0.381999999285 -0.175999999046 217.0
0.839999973774 -0.395999997854 -0.180000007153 213.0
0.84500002861 -0.405000001192 -0.180999994278 214.0
0.823000013828 -0.400999993086 -0.177000001073 208.0
0.822000026703 -0.405999988317 -0.177000001073 213.0
0.84399998188 -0.423999994993 -0.181999996305 207.0
0.833000004292 -0.425000011921 -0.180000007153 218.0
0.813000023365 -0.421000003815 -0.177000001073 216.0
0.824999988079 -0.433999985456 -0.180000007153 230.0
0.861000001431 -0.460000008345 -0.187999993563 503.0
0.867999970913 -0.469999998808 -0.189999997616 1471.0
0.866999983788 -0.476999998093 -0.189999997616 1647.0
0.865000009537 -0.483000010252 -0.190999999642 1629.0
0.860000014305 -0.488000005484 -0.189999997616 1642.0
2.23200011253 1.30499994755 -0.524999976158 166.0
2.23300004005 1.28699994087 -0.523000001907 308.0
2.23699998856 1.26999998093 -0.522000014782 183.0
2.26799988747 1.26900005341 -0.527999997139 109.0
3.35199999809 1.40999996662 -0.741999983788 122.0
3.39299988747 1.40299999714 -0.75 100.0
3.43000006676 1.39400005341 -0.755999982357 105.0
3.95799994469 1.25600004196 -0.850000023842 60.0
3.83200001717 1.11600005627 -0.816999971867 61.0
3.91700005531 1.11500000954 -0.833999991417 59.0
3.76699995995 1.04799997807 -0.800999999046 63.0
4.21000003815 0.958000004292 -0.884999990463 89.0
4.10099983215 0.907999992371 -0.861000001431 101.0
4.1779999733 0.898999989033 -0.875999987125 105.0
4.14699983597 0.866999983788 -0.867999970913 97.0
4.25600004196 0.862999975681 -0.889999985695 97.0
0.996999979019 -0.0610000006855 -0.203999996185 729.0
0.998000025749 -0.0670000016689 -0.203999996185 784.0
0.958999991417 -0.070000000298 -0.195999994874 181.0
0.939999997616 -0.0740000009537 -0.192000001669 159.0
0.947000026703 -0.0799999982119 -0.194000005722 156.0
0.95300000906 -0.0860000029206 -0.194999992847 158.0
0.944999992847 -0.0909999981523 -0.193000003695 161.0
0.93900001049 -0.0960000008345 -0.192000001669 155.0
0.930000007153 -0.10000000149 -0.189999997616 161.0
0.927999973297 -0.105999998748 -0.189999997616 164.0
0.926999986172 -0.111000001431 -0.189999997616 164.0
0.938000023365 -0.118000000715 -0.192000001669 163.0
0.912999987602 -0.119999997318 -0.187000006437 167.0
0.913999974728 -0.126000002027 -0.187999993563 167.0
0.943000018597 -0.135000005364 -0.194000005722 173.0
0.961000025272 -0.143999993801 -0.197999998927 412.0
0.973999977112 -0.151999995112 -0.20000000298 1239.0
0.972999989986 -0.157000005245 -0.20000000298 1339.0
0.972000002861 -0.163000002503 -0.20000000298 1363.0
0.967999994755 -0.167999997735 -0.199000000954 1366.0
0.967999994755 -0.173999994993 -0.20000000298 1377.0
0.964999973774 -0.179000005126 -0.199000000954 1381.0
0.962999999523 -0.185000002384 -0.199000000954 1400.0
0.961000025272 -0.189999997616 -0.199000000954 1398.0
0.959999978542 -0.195999994874 -0.199000000954 1400.0
0.959999978542 -0.202000007033 -0.199000000954 1418.0
0.950999975204 -0.206000000238 -0.196999996901 1440.0
0.958000004292 -0.212999999523 -0.199000000954 1419.0
0.954999983311 -0.217999994755 -0.197999998927 1428.0
0.95300000906 -0.224000006914 -0.197999998927 1426.0
0.939999997616 -0.226999998093 -0.195999994874 628.0
0.925000011921 -0.229000002146 -0.193000003695 207.0
0.912999987602 -0.231000006199 -0.189999997616 191.0
0.912999987602 -0.237000003457 -0.190999999642 195.0
0.894999980927 -0.238000005484 -0.187000006437 190.0
0.901000022888 -0.245000004768 -0.187999993563 193.0
0.898000001907 -0.25 -0.187999993563 201.0
0.896000027657 -0.256000012159 -0.187999993563 195.0
0.884999990463 -0.25799998641 -0.186000004411 195.0
0.870999991894 -0.259000003338 -0.182999998331 207.0
0.864000022411 -0.263000011444 -0.181999996305 201.0
0.870999991894 -0.270999997854 -0.184000000358 204.0
0.880999982357 -0.280000001192 -0.186000004411 206.0
0.870000004768 -0.282000005245 -0.184000000358 211.0
0.908999979496 -0.300999999046 -0.193000003695 462.0
0.921000003815 -0.31099998951 -0.194999992847 1395.0
0.920000016689 -0.317000001669 -0.195999994874 1541.0
0.915000021458 -0.321000009775 -0.194999992847 1556.0
0.919000029564 -0.328999996185 -0.195999994874 1548.0
0.916000008583 -0.333999991417 -0.195999994874 1560.0
0.913999974728 -0.340000003576 -0.195999994874 1557.0
0.907000005245 -0.344000011683 -0.194999992847 1559.0
0.910000026226 -0.351000010967 -0.194999992847 1564.0
0.902000010014 -0.354000002146 -0.194000005722 1586.0
0.907999992371 -0.363000005484 -0.195999994874 1576.0
0.899999976158 -0.365999996662 -0.194000005722 1576.0
0.898999989033 -0.372000008821 -0.194999992847 1570.0
0.893999993801 -0.375999987125 -0.194000005722 1596.0
0.893999993801 -0.38299998641 -0.194000005722 1492.0
0.887000024319 -0.386000007391 -0.193000003695 492.0
0.842000007629 -0.372000008821 -0.184000000358 221.0
0.830999970436 -0.374000012875 -0.181999996305 214.0
0.827000021935 -0.377999991179 -0.180999994278 208.0
0.811999976635 -0.377000004053 -0.179000005126 213.0
0.842000007629 -0.398000001907 -0.186000004411 225.0
0.810000002384 -0.388000011444 -0.179000005126 222.0
0.837000012398 -0.407999992371 -0.185000002384 213.0
0.819000005722 -0.405000001192 -0.181999996305 216.0
0.820999979973 -0.412999987602 -0.182999998331 209.0
0.823000013828 -0.419999986887 -0.184000000358 210.0
0.811999976635 -0.421000003815 -0.181999996305 216.0
0.808000028133 -0.425000011921 -0.180999994278 218.0
0.85799998045 -0.458999991417 -0.193000003695 568.0
0.861000001431 -0.467000007629 -0.194000005722 1497.0
0.864000022411 -0.476000010967 -0.195999994874 1642.0
0.861999988556 -0.481999993324 -0.195999994874 1646.0
0.860000014305 -0.488000005484 -0.195999994874 1630.0
2.23300004005 1.30799996853 -0.541000008583 162.0
2.19899988174 1.26900005341 -0.53100001812 300.0
2.23600006104 1.27100002766 -0.537999987602 195.0
2.24399995804 1.25699996948 -0.537999987602 109.0
3.3259999752 1.40100002289 -0.759000003338 113.0
3.41400003433 1.4129999876 -0.777000010014 96.0
3.46399998665 1.40999996662 -0.786000013351 85.0
3.89599990845 1.26400005817 -0.862999975681 66.0
3.95300006866 1.1779999733 -0.869000017643 60.0
3.76900005341 1.07400000095 -0.825999975204 65.0
3.80800008774 1.06099998951 -0.833000004292 66.0
3.9849998951 1.05900001526 -0.869000017643 61.0
4.32399988174 0.985000014305 -0.93599998951 79.0
4.22800016403 0.936999976635 -0.913999974728 73.0
4.20699977875 0.90600001812 -0.907999992371 65.0
4.28499984741 0.897000014782 -0.924000024796 71.0
4.35799980164 0.884999990463 -0.938000023365 67.0
4.08500003815 0.435000002384 -0.866999983788 59.0
1.0 -0.0610000006855 -0.209999993443 766.0
0.990000009537 -0.0659999996424 -0.208000004292 750.0
0.953999996185 -0.0689999982715 -0.201000005007 175.0
0.92199999094 -0.0719999969006 -0.194000005722 155.0
0.940999984741 -0.0790000036359 -0.197999998927 157.0
0.959999978542 -0.0869999974966 -0.202000007033 157.0
0.933000028133 -0.0900000035763 -0.196999996901 157.0
0.949000000954 -0.097000002861 -0.20000000298 164.0
0.945999979973 -0.101999998093 -0.199000000954 165.0
0.933000028133 -0.105999998748 -0.196999996901 164.0
0.947000026703 -0.112999998033 -0.20000000298 162.0
0.93900001049 -0.118000000715 -0.197999998927 167.0
0.924000024796 -0.122000001371 -0.194999992847 169.0
0.953999996185 -0.130999997258 -0.202000007033 167.0
0.930999994278 -0.134000003338 -0.196999996901 171.0
0.963999986649 -0.143999993801 -0.203999996185 452.0
0.971000015736 -0.150999993086 -0.204999998212 1251.0
0.972999989986 -0.157000005245 -0.206000000238 1355.0
0.96899998188 -0.162000000477 -0.204999998212 1360.0
0.97000002861 -0.168999999762 -0.206000000238 1360.0
0.967999994755 -0.173999994993 -0.204999998212 1380.0
0.962999999523 -0.179000005126 -0.204999998212 1372.0
0.963999986649 -0.185000002384 -0.204999998212 1393.0
0.955999970436 -0.188999995589 -0.203999996185 1389.0
0.957000017166 -0.194999992847 -0.203999996185 1397.0
0.958000004292 -0.202000007033 -0.203999996185 1408.0
0.958999991417 -0.208000004292 -0.204999998212 1426.0
0.959999978542 -0.21400000155 -0.204999998212 1425.0
0.953999996185 -0.217999994755 -0.203999996185 1423.0
0.948000013828 -0.223000004888 -0.202999994159 1406.0
0.943000018597 -0.226999998093 -0.202000007033 569.0
0.903999984264 -0.224000006914 -0.194000005722 206.0
0.908999979496 -0.231000006199 -0.194999992847 196.0
0.910000026226 -0.237000003457 -0.195999994874 200.0
0.893000006676 -0.238000005484 -0.192000001669 196.0
0.917999982834 -0.25 -0.197999998927 202.0
0.879999995232 -0.246000006795 -0.189999997616 198.0
0.89099997282 -0.254999995232 -0.193000003695 201.0
0.89200001955 -0.259999990463 -0.193000003695 201.0
0.888999998569 -0.264999985695 -0.193000003695 207.0
0.870999991894 -0.264999985695 -0.188999995589 204.0
0.875 -0.273000001907 -0.189999997616 206.0
0.878000020981 -0.279000014067 -0.190999999642 205.0
0.888999998569 -0.28900000453 -0.194000005722 206.0
0.907000005245 -0.300999999046 -0.197999998927 524.0
0.916999995708 -0.310000002384 -0.201000005007 1431.0
0.916000008583 -0.316000014544 -0.201000005007 1544.0
0.915000021458 -0.321999996901 -0.201000005007 1546.0
0.919000029564 -0.328999996185 -0.202000007033 1544.0
0.916999995708 -0.335000008345 -0.202000007033 1559.0
0.910000026226 -0.338999986649 -0.201000005007 1574.0
0.911000013351 -0.345999985933 -0.201000005007 1569.0
0.907000005245 -0.34999999404 -0.201000005007 1556.0
0.901000022888 -0.354000002146 -0.20000000298 1572.0
0.902999997139 -0.361000001431 -0.201000005007 1583.0
0.902999997139 -0.368000000715 -0.201000005007 1594.0
0.898000001907 -0.372000008821 -0.20000000298 1585.0
0.893000006676 -0.375999987125 -0.20000000298 1579.0
0.894999980927 -0.384000003338 -0.201000005007 1446.0
0.884000003338 -0.384999990463 -0.197999998927 445.0
0.841000020504 -0.372000008821 -0.188999995589 219.0
0.839999973774 -0.377999991179 -0.188999995589 209.0
0.833000004292 -0.381000012159 -0.187999993563 206.0
0.834999978542 -0.388000011444 -0.188999995589 220.0
0.823000013828 -0.388999998569 -0.187000006437 211.0
0.833000004292 -0.40000000596 -0.189999997616 213.0
0.851000010967 -0.416000008583 -0.194000005722 217.0
0.838999986649 -0.416000008583 -0.192000001669 218.0
0.801999986172 -0.402999997139 -0.184000000358 216.0
0.811999976635 -0.414999991655 -0.187000006437 218.0
0.795000016689 -0.412999987602 -0.182999998331 210.0
0.832000017166 -0.43900001049 -0.192000001669 215.0
0.856000006199 -0.458000004292 -0.197999998927 659.0
0.861000001431 -0.467999994755 -0.20000000298 1525.0
0.865000009537 -0.476999998093 -0.202000007033 1636.0
0.861000001431 -0.481999993324 -0.201000005007 1643.0
0.861000001431 -0.488999992609 -0.202000007033 1625.0
2.22399997711 1.30400002003 -0.554000020027 155.0
2.22300004959 1.2840000391 -0.551999986172 294.0
2.20600008965 1.25600004196 -0.546000003815 205.0
