ply
format ascii 1.0
element vertex 940
property float x
property float y
property float z
property float intensity
end_header
0.915000021458 -0.263000011444 0.25799998641 1275.0
0.916999995708 -0.268999993801 0.259000003338 1313.0
0.915000021458 -0.27500000596 0.259000003338 1288.0
0.912000000477 -0.280000001192 0.25799998641 1291.0
0.915000021458 -0.287000000477 0.259999990463 1297.0
0.912000000477 -0.291999995708 0.259000003338 1300.0
0.90600001812 -0.296000003815 0.25799998641 1275.0
0.907999992371 -0.303000003099 0.259000003338 1246.0
0.912999987602 -0.31099998951 0.261000007391 1269.0
0.908999979496 -0.314999997616 0.259999990463 1265.0
0.907999992371 -0.321000009775 0.261000007391 1299.0
0.907000005245 -0.326999992132 0.261000007391 1271.0
0.899999976158 -0.331000000238 0.259999990463 1270.0
0.902000010014 -0.337999999523 0.261000007391 1278.0
0.910000026226 -0.347999989986 0.263999998569 1263.0
0.902000010014 -0.351000010967 0.261999994516 1261.0
0.902999997139 -0.358000010252 0.263000011444 1246.0
0.902000010014 -0.363999992609 0.263000011444 1246.0
0.899999976158 -0.368999987841 0.263000011444 1269.0
0.897000014782 -0.375 0.263000011444 1214.0
0.90499997139 -0.384000003338 0.266000002623 1241.0
0.898999989033 -0.388999998569 0.264999985695 1213.0
0.90499997139 -0.398000001907 0.266999989748 1226.0
0.893000006676 -0.398999989033 0.263999998569 1241.0
0.896000027657 -0.407000005245 0.266000002623 1248.0
0.894999980927 -0.41400000453 0.266000002623 1263.0
0.889999985695 -0.418000012636 0.264999985695 1229.0
0.898000001907 -0.428999990225 0.268000006676 1209.0
0.894999980927 -0.433999985456 0.268000006676 1244.0
0.897000014782 -0.442000001669 0.270000010729 1269.0
0.889999985695 -0.446000009775 0.268000006676 1235.0
0.893000006676 -0.453999996185 0.270000010729 1222.0
0.887000024319 -0.458000004292 0.268999993801 1204.0
0.894999980927 -0.469999998808 0.272000014782 1232.0
0.89099997282 -0.47499999404 0.272000014782 1252.0
0.885999977589 -0.479000002146 0.270999997854 1221.0
0.884000003338 -0.486000001431 0.270999997854 1194.0
0.885999977589 -0.493999987841 0.273000001907 1203.0
0.89200001955 -0.504999995232 0.275999993086 1199.0
0.882000029087 -0.507000029087 0.273000001907 1187.0
1.98599994183 1.16700005531 0.596000015736 135.0
2.04600000381 1.18599998951 0.611999988556 203.0
2.06999993324 1.18200004101 0.616999983788 287.0
2.07299995422 1.16600000858 0.615999996662 299.0
2.06100010872 1.14199995995 0.611000001431 296.0
2.06699991226 1.12800002098 0.611000001431 286.0
2.05800008774 1.10599994659 0.606999993324 156.0
2.10800004005 1.11600005627 0.620000004768 123.0
2.12299990654 1.10699999332 0.621999979019 204.0
2.1779999733 1.11800003052 0.637000024319 257.0
2.22399997711 1.12399995327 0.648000001907 130.0
3.22499990463 1.22300004959 0.90600001812 94.0
3.31699991226 1.23399996758 0.930000007153 74.0
3.38499999046 1.23599994183 0.948000013828 75.0
3.7009999752 1.3259999752 1.03499996662 104.0
3.75200009346 1.31799995899 1.04700005054 110.0
3.70000004768 1.27499997616 1.02999997139 98.0
3.75 1.26600003242 1.04299998283 68.0
3.99099993706 1.32099997997 1.10800004005 70.0
3.99900007248 1.29600000381 1.10800004005 66.0
4.12200021744 1.30900001526 1.14100003242 95.0
4.04300022125 1.25600004196 1.11699998379 116.0
4.07800006866 1.24000000954 1.125 111.0
4.05999994278 1.20799994469 1.11899995804 107.0
4.08500003815 1.18900001049 1.12399995327 102.0
4.06599998474 1.15699994564 1.11699998379 103.0
4.08799982071 1.13600003719 1.12199997902 106.0
4.07499980927 1.10599994659 1.11699998379 108.0
4.10300016403 1.0870000124 1.12300002575 111.0
4.05700016022 1.0490000248 1.10899996758 107.0
4.06699991226 1.02499997616 1.11000001431 112.0
4.09999990463 1.00800001621 1.11800003052 113.0
4.08099985123 0.976999998093 1.11099994183 106.0
4.11100006104 0.958000004292 1.11800003052 104.0
4.09800004959 0.929000020027 1.11399996281 107.0
4.04699993134 0.89200001955 1.09899997711 107.0
4.08699989319 0.875 1.10899996758 109.0
4.07399988174 0.847000002861 1.10399997234 107.0
4.0720000267 0.820999979973 1.10199999809 114.0
4.125 0.806999981403 1.11600005627 109.0
4.15299987793 0.786000013351 1.12199997902 108.0
4.08300018311 0.748000025749 1.10300004482 103.0
4.03800010681 0.714999973774 1.08899998665 99.0
4.11999988556 0.703999996185 1.11099994183 101.0
4.07000017166 0.670000016689 1.09599995613 74.0
0.98400002718 -0.0529999993742 0.261000007391 446.0
0.938000023365 -0.054999999702 0.248999997973 1151.0
0.933000028133 -0.0610000006855 0.247999995947 1218.0
0.93599998951 -0.0659999996424 0.248999997973 1229.0
0.938000023365 -0.0719999969006 0.248999997973 1203.0
0.936999976635 -0.0780000016093 0.248999997973 1252.0
0.931999981403 -0.082999996841 0.247999995947 1242.0
0.931999981403 -0.0879999995232 0.247999995947 1232.0
0.93599998951 -0.0939999967813 0.248999997973 1251.0
0.926999986172 -0.0989999994636 0.24699999392 1210.0
0.930000007153 -0.104999996722 0.247999995947 1227.0
0.933000028133 -0.111000001431 0.248999997973 1220.0
0.929000020027 -0.115999996662 0.247999995947 1237.0
0.925999999046 -0.120999999344 0.247999995947 1229.0
0.929000020027 -0.127000004053 0.248999997973 1213.0
0.925000011921 -0.131999999285 0.247999995947 1248.0
0.925000011921 -0.137999996543 0.247999995947 1250.0
0.927999973297 -0.143999993801 0.248999997973 1250.0
0.925000011921 -0.149000003934 0.247999995947 1272.0
0.927999973297 -0.155000001192 0.248999997973 1246.0
0.927999973297 -0.16099999845 0.25 1229.0
0.924000024796 -0.165999993682 0.248999997973 1235.0
0.925999999046 -0.172000005841 0.25 1240.0
0.922999978065 -0.177000001073 0.248999997973 1225.0
0.924000024796 -0.182999998331 0.25 1207.0
0.92199999094 -0.187999993563 0.248999997973 1213.0
0.924000024796 -0.194000005722 0.25 1234.0
0.920000016689 -0.199000000954 0.248999997973 1280.0
0.921000003815 -0.204999998212 0.25 1258.0
0.919000029564 -0.209999993443 0.25 1245.0
0.916000008583 -0.215000003576 0.248999997973 1264.0
0.917999982834 -0.222000002861 0.25 1275.0
0.920000016689 -0.228000000119 0.250999987125 1256.0
0.920000016689 -0.233999997377 0.250999987125 1272.0
0.912999987602 -0.238000005484 0.25 1286.0
0.908999979496 -0.243000000715 0.248999997973 1272.0
0.911000013351 -0.248999997973 0.25 1272.0
0.916000008583 -0.256000012159 0.252000004053 1278.0
0.908999979496 -0.259999990463 0.25 1299.0
0.920000016689 -0.270000010729 0.254000008106 1326.0
0.90499997139 -0.270999997854 0.25 1295.0
0.911000013351 -0.279000014067 0.252000004053 1290.0
0.912000000477 -0.284999996424 0.252999991179 1295.0
0.912000000477 -0.291999995708 0.252999991179 1311.0
0.908999979496 -0.29699999094 0.252999991179 1294.0
0.912000000477 -0.303999990225 0.254000008106 1254.0
0.907999992371 -0.308999985456 0.254000008106 1236.0
0.910000026226 -0.316000014544 0.254999995232 1271.0
0.90600001812 -0.319999992847 0.254000008106 1289.0
0.898999989033 -0.324000000954 0.252999991179 1318.0
0.903999984264 -0.331999987364 0.254999995232 1290.0
0.902000010014 -0.337000012398 0.254000008106 1319.0
0.90600001812 -0.344999998808 0.256000012159 1283.0
0.902999997139 -0.351000010967 0.256000012159 1237.0
0.898000001907 -0.354999989271 0.254999995232 1231.0
0.903999984264 -0.363999992609 0.256999999285 1256.0
0.898999989033 -0.368000000715 0.256000012159 1270.0
0.903999984264 -0.377000004053 0.25799998641 1248.0
0.897000014782 -0.381000012159 0.256999999285 1248.0
0.899999976158 -0.388000011444 0.259000003338 1234.0
0.897000014782 -0.393999993801 0.25799998641 1214.0
0.898999989033 -0.400999993086 0.259999990463 1241.0
0.89200001955 -0.405000001192 0.25799998641 1239.0
0.89099997282 -0.411000013351 0.259000003338 1239.0
0.89099997282 -0.418000012636 0.259000003338 1217.0
0.899999976158 -0.428999990225 0.263000011444 1220.0
0.896000027657 -0.433999985456 0.261999994516 1271.0
0.894999980927 -0.439999997616 0.263000011444 1244.0
0.889999985695 -0.444999992847 0.261999994516 1244.0
0.89099997282 -0.451999992132 0.263000011444 1216.0
0.888000011444 -0.458000004292 0.263000011444 1201.0
0.893999993801 -0.469000011683 0.266000002623 1236.0
0.888000011444 -0.472999989986 0.264999985695 1240.0
0.888999998569 -0.481000006199 0.266000002623 1200.0
0.888000011444 -0.486999988556 0.266000002623 1188.0
0.885999977589 -0.493000000715 0.266000002623 1195.0
0.885999977589 -0.500999987125 0.266999989748 1194.0
0.879000008106 -0.504999995232 0.266000002623 1204.0
2.01099991798 1.17999994755 0.588999986649 111.0
2.01900005341 1.16799998283 0.588999986649 194.0
2.05599999428 1.17200005054 0.597999989986 296.0
2.0680000782 1.16100001335 0.600000023842 300.0
2.06599998474 1.14300000668 0.597999989986 294.0
2.06399989128 1.12399995327 0.59500002861 269.0
2.06999993324 1.11099994183 0.59500002861 140.0
2.11500000954 1.11800003052 0.606999993324 125.0
2.16700005531 1.12800002098 0.620000004768 225.0
2.18099999428 1.11800003052 0.621999979019 256.0
2.20700001717 1.11399996281 0.628000020981 113.0
3.27099990845 1.21500003338 0.896000027657 75.0
3.61100006104 1.31700003147 0.986999988556 70.0
3.7650001049 1.34700000286 1.02699995041 112.0
3.68400001526 1.29200005531 1.00300002098 112.0
3.66100001335 1.25899994373 0.995000004768 91.0
3.81999993324 1.2879999876 1.03699994087 72.0
4.07600021362 1.31900000572 1.10300004482 70.0
4.04199981689 1.28100001812 1.09200000763 100.0
4.07399988174 1.26400005817 1.09899997711 116.0
4.07399988174 1.23699998856 1.09700000286 112.0
4.07899999619 1.2120000124 1.09700000286 107.0
4.09100008011 1.18900001049 1.09899997711 107.0
4.09399986267 1.1629999876 1.09800004959 110.0
4.11000013351 1.13999998569 1.10099995136 112.0
4.04199981689 1.09599995613 1.08099997044 113.0
4.01999998093 1.06299996376 1.07400000095 110.0
4.0560002327 1.04700005054 1.08200001717 108.0
4.10400009155 1.03299999237 1.09399998188 110.0
4.12200021744 1.01100003719 1.09700000286 112.0
4.09700012207 0.978999972343 1.08899998665 110.0
4.0609998703 0.944999992847 1.07899999619 102.0
4.132999897 0.93599998951 1.09700000286 110.0
4.10799980164 0.903999984264 1.08899998665 105.0
4.11199998856 0.879000008106 1.08899998665 104.0
4.14499998093 0.861000001431 1.09700000286 103.0
4.09299993515 0.824000000954 1.08200001717 106.0
4.16400003433 0.813000023365 1.10000002384 107.0
4.09899997711 0.774999976158 1.08099997044 110.0
4.04400014877 0.739000022411 1.06599998474 101.0
4.14200019836 0.731999993324 1.0909999609 104.0
4.09299993515 0.698000013828 1.07799994946 105.0
4.07299995422 0.670000016689 1.07099997997 83.0
0.967000007629 -0.0520000010729 0.250999987125 442.0
0.939999997616 -0.0560000017285 0.244000002742 1149.0
0.936999976635 -0.0610000006855 0.243000000715 1232.0
0.934000015259 -0.0659999996424 0.241999998689 1263.0
0.936999976635 -0.0719999969006 0.243000000715 1193.0
0.938000023365 -0.0780000016093 0.244000002742 1223.0
0.929000020027 -0.082000002265 0.240999996662 1227.0
0.929000020027 -0.0879999995232 0.241999998689 1229.0
0.925999999046 -0.0930000022054 0.240999996662 1255.0
0.931999981403 -0.0989999994636 0.243000000715 1220.0
0.933000028133 -0.104999996722 0.243000000715 1218.0
0.938000023365 -0.111000001431 0.245000004768 1237.0
0.929000020027 -0.115999996662 0.241999998689 1214.0
0.931999981403 -0.122000001371 0.243000000715 1231.0
0.933000028133 -0.127000004053 0.244000002742 1207.0
0.925000011921 -0.131999999285 0.241999998689 1235.0
0.929000020027 -0.137999996543 0.243000000715 1261.0
0.924000024796 -0.143000006676 0.241999998689 1238.0
0.926999986172 -0.149000003934 0.243000000715 1261.0
0.924000024796 -0.153999999166 0.243000000715 1266.0
0.925000011921 -0.159999996424 0.243000000715 1247.0
0.92199999094 -0.165000006557 0.241999998689 1260.0
0.920000016689 -0.170000001788 0.241999998689 1262.0
0.922999978065 -0.177000001073 0.243000000715 1252.0
0.919000029564 -0.180999994278 0.241999998689 1234.0
0.921000003815 -0.187000006437 0.243000000715 1253.0
0.916999995708 -0.192000001669 0.241999998689 1264.0
0.916999995708 -0.197999998927 0.243000000715 1261.0
0.917999982834 -0.203999996185 0.243000000715 1257.0
0.921000003815 -0.21099999547 0.244000002742 1270.0
0.916999995708 -0.215000003576 0.244000002742 1278.0
0.917999982834 -0.221000000834 0.244000002742 1283.0
0.917999982834 -0.226999998093 0.245000004768 1280.0
0.916000008583 -0.232999995351 0.244000002742 1242.0
0.917999982834 -0.238999992609 0.245000004768 1292.0
0.917999982834 -0.245000004768 0.246000006795 1307.0
0.916999995708 -0.25 0.246000006795 1300.0
0.915000021458 -0.256000012159 0.246000006795 1293.0
0.912999987602 -0.261000007391 0.245000004768 1306.0
0.913999974728 -0.268000006676 0.246000006795 1313.0
0.910000026226 -0.272000014782 0.246000006795 1302.0
0.912000000477 -0.279000014067 0.246000006795 1308.0
0.912999987602 -0.284999996424 0.24699999392 1302.0
0.907999992371 -0.289999991655 0.246000006795 1326.0
0.911000013351 -0.29699999094 0.24699999392 1305.0
0.899999976158 -0.298999994993 0.245000004768 1272.0
0.908999979496 -0.308999985456 0.247999995947 1270.0
0.907000005245 -0.31400001049 0.247999995947 1281.0
0.903999984264 -0.319000005722 0.247999995947 1274.0
0.90499997139 -0.326000005007 0.247999995947 1298.0
0.902999997139 -0.331000000238 0.247999995947 1311.0
0.901000022888 -0.337000012398 0.247999995947 1294.0
0.902999997139 -0.344000011683 0.248999997973 1299.0
0.902000010014 -0.34999999404 0.25 1256.0
0.897000014782 -0.354000002146 0.248999997973 1232.0
0.903999984264 -0.363000005484 0.250999987125 1250.0
0.896000027657 -0.365999996662 0.248999997973 1246.0
0.894999980927 -0.372999995947 0.25 1262.0
0.897000014782 -0.379999995232 0.250999987125 1257.0
0.901000022888 -0.388000011444 0.252999991179 1227.0
0.898000001907 -0.393000006676 0.252000004053 1208.0
0.896000027657 -0.398999989033 0.252999991179 1243.0
0.897000014782 -0.407000005245 0.254000008106 1226.0
0.89200001955 -0.411000013351 0.252999991179 1230.0
0.893999993801 -0.418999999762 0.254000008106 1225.0
0.896000027657 -0.425999999046 0.254999995232 1260.0
0.89200001955 -0.430999994278 0.254999995232 1264.0
0.893000006676 -0.43900001049 0.256000012159 1252.0
0.889999985695 -0.444000005722 0.256000012159 1240.0
0.889999985695 -0.451000005007 0.256999999285 1223.0
0.884000003338 -0.455000013113 0.256000012159 1240.0
0.89099997282 -0.465999990702 0.25799998641 1260.0
0.889999985695 -0.472999989986 0.259000003338 1234.0
0.887000024319 -0.479000002146 0.259000003338 1208.0
0.888000011444 -0.486000001431 0.259999990463 1192.0
0.887000024319 -0.493000000715 0.259999990463 1194.0
0.884000003338 -0.499000012875 0.259999990463 1205.0
0.888999998569 -0.509000003338 0.263000011444 1193.0
2.03099989891 1.19000005722 0.579999983311 181.0
2.04999995232 1.18400001526 0.583999991417 291.0
2.05399990082 1.16900002956 0.583000004292 307.0
2.06399989128 1.15699994564 0.583999991417 302.0
2.05599999428 1.13600003719 0.579999983311 287.0
2.07699990273 1.12999999523 0.584999978542 267.0
2.05999994278 1.10399997234 0.57800000906 127.0
2.1400001049 1.1289999485 0.598999977112 129.0
2.15499997139 1.12000000477 0.601000010967 251.0
2.19199991226 1.12199997902 0.610000014305 238.0
2.23399996758 1.12600004673 0.620000004768 116.0
3.27200007439 1.23599994183 0.875 90.0
3.35599994659 1.24500000477 0.896000027657 72.0
3.69400000572 1.34500002861 0.985000014305 70.0
3.6970000267 1.32000005245 0.98400002718 113.0
3.69199991226 1.29299998283 0.981000006199 117.0
3.77200007439 1.29499995708 1.00100004673 97.0
4.12099981308 1.38699996471 1.09200000763 64.0
4.07499980927 1.31700003147 1.0759999752 66.0
4.03800010681 1.27799999714 1.06500005722 109.0
4.05900001526 1.25800001621 1.06900000572 113.0
4.08400011063 1.23800003529 1.07299995422 110.0
3.97300004959 1.17900002003 1.04299998283 106.0
4.03299999237 1.16999995708 1.05700004101 108.0
4.08400011063 1.15799999237 1.06900000572 105.0
3.96499991417 1.09899997711 1.03600001335 101.0
4.04600000381 1.09500002861 1.05599999428 105.0
4.08199977875 1.07799994946 1.06400001049 109.0
4.03999996185 1.04100000858 1.05200004578 108.0
4.05800008774 1.01999998093 1.05599999428 105.0
4.05900001526 0.995000004768 1.05499994755 105.0
4.08500003815 0.975000023842 1.05999994278 113.0
4.10799980164 0.954999983311 1.06500005722 108.0
4.14599990845 0.936999976635 1.07400000095 109.0
4.07899999619 0.896000027657 1.05499994755 111.0
4.14300012589 0.884999990463 1.07099997997 109.0
4.11600017548 0.852999985218 1.06299996376 106.0
4.09600019455 0.824000000954 1.05700004101 102.0
4.11999988556 0.802999973297 1.06200003624 103.0
4.13999986649 0.78100001812 1.06599998474 108.0
4.09000015259 0.746999979019 1.05200004578 110.0
4.09899997711 0.722999989986 1.05400002003 108.0
4.07000017166 0.693000018597 1.04600000381 97.0
4.11100006104 0.675000011921 1.05499994755 70.0
0.98299998045 -0.0520000010729 0.248999997973 449.0
0.936999976635 -0.054999999702 0.237000003457 1150.0
0.938000023365 -0.0610000006855 0.237000003457 1232.0
0.934000015259 -0.0659999996424 0.236000001431 1261.0
0.93599998951 -0.0719999969006 0.237000003457 1205.0
0.931999981403 -0.0769999995828 0.236000001431 1211.0
0.929000020027 -0.082000002265 0.236000001431 1237.0
0.926999986172 -0.0879999995232 0.234999999404 1242.0
0.926999986172 -0.0930000022054 0.234999999404 1257.0
0.930000007153 -0.0989999994636 0.236000001431 1242.0
0.933000028133 -0.104999996722 0.237000003457 1226.0
0.930999994278 -0.109999999404 0.237000003457 1245.0
0.925999999046 -0.115000002086 0.236000001431 1239.0
0.930000007153 -0.120999999344 0.237000003457 1246.0
0.925999999046 -0.126000002027 0.236000001431 1209.0
0.925000011921 -0.131999999285 0.236000001431 1244.0
0.926999986172 -0.137999996543 0.237000003457 1265.0
0.924000024796 -0.143000006676 0.236000001431 1249.0
0.930999994278 -0.149000003934 0.238000005484 1260.0
0.929000020027 -0.155000001192 0.238000005484 1294.0
0.92199999094 -0.158999994397 0.236000001431 1254.0
0.925999999046 -0.165999993682 0.238000005484 1257.0
0.925000011921 -0.171000003815 0.238000005484 1253.0
0.916999995708 -0.17499999702 0.236000001431 1264.0
0.919000029564 -0.180999994278 0.236000001431 1269.0
0.927999973297 -0.188999995589 0.238999992609 1285.0
0.925000011921 -0.194000005722 0.238999992609 1275.0
0.919000029564 -0.197999998927 0.237000003457 1285.0
0.921000003815 -0.204999998212 0.238000005484 1270.0
0.916000008583 -0.209000006318 0.237000003457 1295.0
0.920000016689 -0.216000005603 0.238999992609 1281.0
0.919000029564 -0.222000002861 0.238999992609 1271.0
0.920000016689 -0.226999998093 0.238999992609 1300.0
0.919000029564 -0.232999995351 0.238999992609 1246.0
0.917999982834 -0.238999992609 0.238999992609 1285.0
0.913999974728 -0.243000000715 0.238999992609 1335.0
0.913999974728 -0.248999997973 0.238999992609 1311.0
0.908999979496 -0.254000008106 0.238000005484 1285.0
0.907999992371 -0.259999990463 0.238000005484 1287.0
0.915000021458 -0.266999989748 0.239999994636 1310.0
0.915000021458 -0.273000001907 0.240999996662 1303.0
0.912000000477 -0.277999997139 0.239999994636 1311.0
0.911000013351 -0.284000009298 0.240999996662 1289.0
0.908999979496 -0.289999991655 0.240999996662 1301.0
0.90499997139 -0.294999986887 0.239999994636 1316.0
0.913999974728 -0.303999990225 0.243000000715 1291.0
0.902000010014 -0.305999994278 0.239999994636 1267.0
0.908999979496 -0.31400001049 0.241999998689 1275.0
0.911000013351 -0.321000009775 0.243000000715 1270.0
0.910000026226 -0.326999992132 0.244000002742 1253.0
0.907000005245 -0.331999987364 0.243000000715 1281.0
0.90499997139 -0.337999999523 0.243000000715 1289.0
0.902999997139 -0.342999994755 0.243000000715 1291.0
0.902000010014 -0.349000006914 0.244000002742 1292.0
0.90499997139 -0.356999993324 0.245000004768 1251.0
0.903999984264 -0.363000005484 0.245000004768 1278.0
0.901000022888 -0.368000000715 0.245000004768 1243.0
0.898999989033 -0.374000012875 0.245000004768 1222.0
0.898000001907 -0.379999995232 0.245000004768 1248.0
0.898999989033 -0.386999994516 0.246000006795 1257.0
0.898999989033 -0.393000006676 0.24699999392 1220.0
0.898000001907 -0.40000000596 0.24699999392 1227.0
0.897000014782 -0.405999988317 0.247999995947 1231.0
0.893999993801 -0.411000013351 0.24699999392 1247.0
0.896000027657 -0.418999999762 0.247999995947 1248.0
0.887000024319 -0.421000003815 0.24699999392 1266.0
0.893000006676 -0.430999994278 0.248999997973 1240.0
0.894999980927 -0.43900001049 0.25 1253.0
0.888000011444 -0.442999988794 0.248999997973 1253.0
0.894999980927 -0.45300000906 0.252000004053 1251.0
0.884999990463 -0.455000013113 0.25 1259.0
0.89099997282 -0.465999990702 0.252000004053 1289.0
0.887000024319 -0.469999998808 0.252000004053 1239.0
0.884000003338 -0.476000010967 0.252000004053 1203.0
0.888000011444 -0.486000001431 0.254000008106 1199.0
0.883000016212 -0.490000009537 0.252999991179 1227.0
0.883000016212 -0.497000008821 0.254000008106 1216.0
0.884000003338 -0.504999995232 0.254999995232 1215.0
1.98899996281 1.1629999876 0.554000020027 146.0
2.0529999733 1.18299996853 0.569999992847 238.0
2.04500007629 1.16100001335 0.565999984741 291.0
2.04600000381 1.14499998093 0.56400001049 289.0
2.05800008774 1.13399994373 0.565999984741 292.0
2.04699993134 1.11199998856 0.561999976635 237.0
2.07899999619 1.11199998856 0.569000005722 131.0
2.07999992371 1.09599995613 0.568000018597 139.0
2.14800000191 1.11500000954 0.584999978542 262.0
2.19600009918 1.12199997902 0.596000015736 207.0
2.20700001717 1.11000001431 0.597999989986 119.0
3.28900003433 1.26400005817 0.860000014305 68.0
3.23300004005 1.22000002861 0.84399998188 94.0
3.34599995613 1.23899996281 0.871999979019 78.0
3.66000008583 1.33000004292 0.952000021935 70.0
3.66599988937 1.30700004101 0.952000021935 105.0
3.65000009537 1.27600002289 0.945999979973 111.0
3.83699989319 1.31599998474 0.992999970913 91.0
4.08099985123 1.34399998188 1.0529999733 66.0
4.08900022507 1.32000005245 1.0529999733 78.0
4.06699991226 1.28499996662 1.04600000381 108.0
4.10099983215 1.26900005341 1.0529999733 115.0
4.05499982834 1.22800004482 1.03999996185 114.0
4.10300016403 1.21500003338 1.04999995232 106.0
4.03000020981 1.16700005531 1.02999997139 108.0
4.13199996948 1.16999995708 1.05499994755 108.0
4.0529999733 1.1210000515 1.03299999237 103.0
4.09399986267 1.10599994659 1.04200005531 111.0
4.12699985504 1.08899998665 1.04999995232 105.0
4.06699991226 1.04700005054 1.03299999237 110.0
4.09000015259 1.02699995041 1.0379999876 112.0
4.03800010681 0.987999975681 1.02300000191 108.0
4.07700014114 0.972000002861 1.03199994564 115.0
4.10900020599 0.95300000906 1.03900003433 107.0
4.09700012207 0.925000011921 1.03499996662 101.0
4.09200000763 0.898000001907 1.03199994564 111.0
4.1139998436 0.876999974251 1.03699994087 104.0
4.06599998474 0.842000007629 1.02400004864 111.0
4.12599992752 0.82800000906 1.0379999876 109.0
4.10200023651 0.797999978065 1.03100001812 104.0
4.11100006104 0.774999976158 1.03299999237 112.0
4.04199981689 0.736999988556 1.01499998569 108.0
4.09000015259 0.721000015736 1.02600002289 104.0
4.0689997673 0.691999971867 1.01999998093 94.0
4.14300012589 0.679000020027 1.03699994087 77.0
0.973999977112 -0.0520000010729 0.239999994636 436.0
0.93599998951 -0.054999999702 0.231000006199 1167.0
0.934000015259 -0.0610000006855 0.231000006199 1232.0
0.93599998951 -0.0659999996424 0.231000006199 1275.0
0.933000028133 -0.0719999969006 0.231000006199 1208.0
0.934000015259 -0.0769999995828 0.231000006199 1212.0
0.934000015259 -0.082999996841 0.231000006199 1238.0
0.935000002384 -0.0879999995232 0.231000006199 1257.0
0.931999981403 -0.0939999967813 0.231000006199 1257.0
0.931999981403 -0.0989999994636 0.231000006199 1258.0
0.934000015259 -0.104999996722 0.231999993324 1245.0
0.925999999046 -0.108999997377 0.230000004172 1255.0
0.933000028133 -0.115999996662 0.231999993324 1250.0
0.924000024796 -0.119999997318 0.229000002146 1253.0
0.927999973297 -0.126000002027 0.231000006199 1229.0
0.926999986172 -0.131999999285 0.231000006199 1257.0
0.925000011921 -0.136999994516 0.230000004172 1277.0
0.922999978065 -0.142000004649 0.230000004172 1270.0
0.929000020027 -0.149000003934 0.231999993324 1269.0
0.922999978065 -0.153999999166 0.231000006199 1299.0
0.926999986172 -0.159999996424 0.231999993324 1271.0
0.925000011921 -0.165000006557 0.231999993324 1255.0
0.92199999094 -0.170000001788 0.231000006199 1266.0
0.92199999094 -0.175999999046 0.231000006199 1277.0
0.925000011921 -0.181999996305 0.231999993324 1292.0
0.916999995708 -0.186000004411 0.230000004172 1293.0
0.916000008583 -0.192000001669 0.231000006199 1291.0
0.919000029564 -0.197999998927 0.231000006199 1276.0
0.919000029564 -0.203999996185 0.231999993324 1270.0
0.92199999094 -0.209999993443 0.232999995351 1309.0
0.921000003815 -0.216000005603 0.232999995351 1310.0
0.919000029564 -0.221000000834 0.232999995351 1287.0
0.919000029564 -0.226999998093 0.232999995351 1293.0
0.916999995708 -0.231999993324 0.232999995351 1273.0
0.917999982834 -0.238000005484 0.233999997377 1285.0
0.916999995708 -0.244000002742 0.233999997377 1315.0
0.916000008583 -0.25 0.233999997377 1316.0
0.912999987602 -0.254999995232 0.232999995351 1307.0
0.916999995708 -0.261999994516 0.234999999404 1297.0
0.908999979496 -0.264999985695 0.232999995351 1320.0
0.908999979496 -0.270999997854 0.232999995351 1343.0
0.912999987602 -0.277999997139 0.234999999404 1317.0
0.907999992371 -0.282999992371 0.233999997377 1319.0
0.902000010014 -0.287000000477 0.232999995351 1298.0
0.907000005245 -0.294999986887 0.234999999404 1303.0
0.907999992371 -0.300999999046 0.234999999404 1311.0
0.901000022888 -0.305000007153 0.233999997377 1301.0
0.90499997139 -0.312000006437 0.234999999404 1273.0
0.910000026226 -0.319999992847 0.237000003457 1309.0
0.910000026226 -0.326000005007 0.238000005484 1288.0
0.913999974728 -0.333999991417 0.238999992609 1279.0
0.90600001812 -0.337000012398 0.237000003457 1328.0
0.898000001907 -0.340999990702 0.236000001431 1318.0
0.901000022888 -0.347999989986 0.237000003457 1309.0
0.903999984264 -0.356000006199 0.238999992609 1305.0
0.898000001907 -0.360000014305 0.238000005484 1299.0
0.898999989033 -0.36700001359 0.238000005484 1284.0
0.899999976158 -0.374000012875 0.238999992609 1253.0
0.898999989033 -0.379999995232 0.238999992609 1248.0
0.901000022888 -0.386999994516 0.240999996662 1256.0
0.896000027657 -0.391999989748 0.239999994636 1236.0
0.897000014782 -0.398999989033 0.240999996662 1242.0
0.894999980927 -0.405000001192 0.240999996662 1234.0
0.893000006676 -0.409999996424 0.240999996662 1251.0
0.896000027657 -0.418999999762 0.243000000715 1272.0
0.898000001907 -0.425999999046 0.244000002742 1260.0
0.893999993801 -0.430999994278 0.243000000715 1262.0
0.894999980927 -0.43900001049 0.244000002742 1263.0
0.89099997282 -0.444000005722 0.244000002742 1258.0
0.888999998569 -0.449999988079 0.244000002742 1279.0
0.884000003338 -0.453999996185 0.243000000715 1299.0
0.888000011444 -0.462999999523 0.245000004768 1283.0
0.888999998569 -0.470999985933 0.246000006795 1258.0
0.884000003338 -0.47499999404 0.245000004768 1224.0
0.884000003338 -0.483000010252 0.246000006795 1223.0
0.879999995232 -0.488000005484 0.246000006795 1239.0
0.885999977589 -0.497999995947 0.247999995947 1226.0
0.888000011444 -0.507000029087 0.25 1211.0
1.98899996281 1.16199994087 0.540000021458 105.0
2.05399990082 1.18200004101 0.555999994278 250.0
2.05100011826 1.1629999876 0.552999973297 309.0
2.06200003624 1.15199995041 0.554000020027 297.0
2.04299998283 1.125 0.547999978065 295.0
2.05800008774 1.11600005627 0.550000011921 227.0
2.11299991608 1.12800002098 0.563000023365 117.0
2.13800001144 1.125 0.568000018597 152.0
2.16100001335 1.12000000477 0.573000013828 265.0
2.19099998474 1.11699998379 0.578999996185 199.0
3.2650001049 1.25300002098 0.832000017166 69.0
3.23699998856 1.22000002861 0.823000013828 89.0
3.31999993324 1.22800004482 0.842999994755 77.0
3.73699998856 1.35599994659 0.947000026703 78.0
3.70300006866 1.31799995899 0.936999976635 109.0
3.69000005722 1.28900003433 0.931999981403 110.0
3.7539999485 1.28499996662 0.947000026703 85.0
3.93799996376 1.3220000267 0.991999983788 63.0
4.03900003433 1.32899999619 1.01600003242 69.0
4.01700019836 1.29400002956 1.00800001621 74.0
4.03100013733 1.27199995518 1.01100003719 113.0
4.03200006485 1.2460000515 1.00899994373 111.0
4.01999998093 1.21500003338 1.00499999523 107.0
4.07299995422 1.20500004292 1.01600003242 105.0
4.10099983215 1.18599998951 1.02199995518 108.0
4.09700012207 1.1590000391 1.01999998093 108.0
4.10300016403 1.13399994373 1.01999998093 106.0
4.07399988174 1.09899997711 1.01100003719 106.0
4.04300022125 1.06500005722 1.00199997425 106.0
4.10300016403 1.05400002003 1.01600003242 109.0
4.09899997711 1.02699995041 1.01400005817 108.0
4.10400009155 1.00300002098 1.01400005817 108.0
4.16200017929 0.990000009537 1.02699995041 104.0
4.05800008774 0.939999997616 1.0 112.0
4.10099983215 0.924000024796 1.00999999046 109.0
4.10799980164 0.899999976158 1.01100003719 111.0
4.12099981308 0.876999974251 1.01300001144 107.0
4.10400009155 0.847999989986 1.00800001621 108.0
4.08799982071 0.819999992847 1.00300002098 108.0
4.13000011444 0.802999973297 1.01199996471 112.0
4.09399986267 0.769999980927 1.00199997425 101.0
4.07800006866 0.741999983788 0.998000025749 110.0
4.10599994659 0.722000002861 1.0039999485 96.0
4.08500003815 0.694000005722 0.998000025749 94.0
0.976000010967 -0.0520000010729 0.234999999404 440.0
0.935000002384 -0.054999999702 0.22499999404 1171.0
0.933000028133 -0.0599999986589 0.224000006914 1219.0
0.936999976635 -0.0659999996424 0.225999996066 1273.0
0.934000015259 -0.0719999969006 0.22499999404 1238.0
0.927999973297 -0.0769999995828 0.224000006914 1226.0
0.934000015259 -0.082999996841 0.22499999404 1253.0
0.924000024796 -0.0869999974966 0.223000004888 1298.0
0.934000015259 -0.0939999967813 0.22499999404 1277.0
0.930000007153 -0.0989999994636 0.22499999404 1261.0
0.933000028133 -0.104999996722 0.22499999404 1257.0
0.924000024796 -0.108999997377 0.223000004888 1268.0
0.929000020027 -0.115000002086 0.22499999404 1277.0
0.933000028133 -0.120999999344 0.225999996066 1267.0
0.926999986172 -0.126000002027 0.22499999404 1282.0
0.924000024796 -0.130999997258 0.224000006914 1275.0
0.924000024796 -0.136999994516 0.22499999404 1291.0
0.925000011921 -0.143000006676 0.22499999404 1289.0
0.925000011921 -0.148000001907 0.22499999404 1265.0
0.924000024796 -0.153999999166 0.22499999404 1295.0
0.922999978065 -0.158999994397 0.22499999404 1292.0
0.929000020027 -0.165999993682 0.226999998093 1251.0
0.925999999046 -0.171000003815 0.225999996066 1273.0
0.916999995708 -0.17499999702 0.224000006914 1275.0
0.925000011921 -0.181999996305 0.225999996066 1301.0
0.921000003815 -0.187000006437 0.225999996066 1285.0
0.922999978065 -0.193000003695 0.225999996066 1288.0
0.916999995708 -0.196999996901 0.22499999404 1279.0
0.916999995708 -0.202999994159 0.225999996066 1301.0
0.916999995708 -0.209000006318 0.225999996066 1298.0
0.919000029564 -0.215000003576 0.226999998093 1297.0
0.922999978065 -0.222000002861 0.228000000119 1310.0
0.911000013351 -0.22499999404 0.22499999404 1292.0
0.915000021458 -0.231000006199 0.225999996066 1310.0
0.916999995708 -0.238000005484 0.226999998093 1291.0
0.911000013351 -0.241999998689 0.225999996066 1311.0
0.915000021458 -0.248999997973 0.228000000119 1322.0
0.92199999094 -0.256999999285 0.230000004172 1316.0
0.912000000477 -0.259999990463 0.228000000119 1302.0
0.912999987602 -0.266000002623 0.228000000119 1325.0
0.913999974728 -0.272000014782 0.229000002146 1350.0
0.912000000477 -0.277999997139 0.229000002146 1328.0
0.907999992371 -0.282999992371 0.228000000119 1354.0
0.907999992371 -0.28900000453 0.228000000119 1344.0
0.907000005245 -0.293999999762 0.229000002146 1356.0
0.907000005245 -0.300999999046 0.229000002146 1354.0
0.908999979496 -0.307000011206 0.230000004172 1349.0
0.907999992371 -0.312999993563 0.230000004172 1308.0
0.902000010014 -0.317000001669 0.229000002146 1326.0
0.90499997139 -0.324000000954 0.231000006199 1308.0
0.907000005245 -0.331000000238 0.231000006199 1310.0
0.90499997139 -0.337000012398 0.231000006199 1312.0
0.902999997139 -0.342000007629 0.231000006199 1352.0
0.90499997139 -0.34999999404 0.231999993324 1340.0
0.899999976158 -0.354000002146 0.231000006199 1337.0
0.897000014782 -0.358999997377 0.231000006199 1337.0
0.901000022888 -0.36700001359 0.232999995351 1326.0
0.901000022888 -0.374000012875 0.233999997377 1288.0
0.894999980927 -0.377000004053 0.231999993324 1262.0
0.897000014782 -0.384999990463 0.233999997377 1257.0
0.898999989033 -0.391999989748 0.234999999404 1238.0
0.894999980927 -0.397000014782 0.233999997377 1281.0
0.899999976158 -0.405999988317 0.236000001431 1269.0
0.897000014782 -0.411000013351 0.236000001431 1290.0
0.89200001955 -0.416000008583 0.234999999404 1284.0
0.896000027657 -0.425000011921 0.237000003457 1265.0
0.89099997282 -0.428999990225 0.236000001431 1253.0
0.884000003338 -0.432999998331 0.234999999404 1279.0
0.888000011444 -0.441000014544 0.237000003457 1277.0
0.885999977589 -0.446999996901 0.237000003457 1320.0
0.887000024319 -0.455000013113 0.238000005484 1305.0
0.885999977589 -0.46099999547 0.238000005484 1295.0
0.888000011444 -0.469999998808 0.239999994636 1260.0
0.884999990463 -0.47499999404 0.238999992609 1262.0
0.887000024319 -0.483999997377 0.240999996662 1255.0
0.884000003338 -0.488999992609 0.240999996662 1252.0
0.888000011444 -0.499000012875 0.243000000715 1215.0
0.885999977589 -0.504999995232 0.243000000715 1213.0
2.02099990845 1.17900002003 0.533999979496 231.0
2.04699993134 1.17599999905 0.538999974728 298.0
2.06500005722 1.16900002956 0.541999995708 310.0
2.05200004578 1.14499998093 0.537000000477 293.0
2.06699991226 1.13600003719 0.540000021458 289.0
2.08599996567 1.1289999485 0.542999982834 205.0
2.0490000248 1.09300005436 0.532000005245 119.0
2.1400001049 1.12399995327 0.554000020027 159.0
2.15100002289 1.11300003529 0.555999994278 280.0
2.16100001335 1.10099995136 0.556999981403 183.0
2.28500008583 1.14600002766 0.587000012398 91.0
3.25 1.22300004959 0.805000007153 89.0
3.35100007057 1.23699998856 0.828999996185 74.0
3.7009999752 1.31599998474 0.912000000477 105.0
3.72099995613 1.29799997807 0.916000008583 105.0
3.77600002289 1.29100000858 0.927999973297 82.0
4.06699991226 1.30900001526 0.995000004768 75.0
4.10500001907 1.29400002956 1.00300002098 116.0
4.05200004578 1.25 0.987999975681 119.0
4.0529999733 1.22399997711 0.986999988556 107.0
4.04199981689 1.19400000572 0.98299998045 108.0
4.08400011063 1.17999994755 0.991999983788 111.0
4.08500003815 1.15400004387 0.990999996662 103.0
4.09999990463 1.13100004196 0.992999970913 109.0
4.09200000763 1.10300004482 0.990000009537 113.0
4.09700012207 1.07799994946 0.990000009537 107.0
4.1139998436 1.05599999428 0.992999970913 112.0
4.09299993515 1.02499997616 0.986000001431 104.0
4.04899978638 0.987999975681 0.975000023842 110.0
4.09200000763 0.972000002861 0.98400002718 104.0
4.08199977875 0.944000005722 0.980000019073 113.0
4.10599994659 0.924000024796 0.985000014305 110.0
4.0720000267 0.89099997282 0.976000010967 100.0
4.08699989319 0.869000017643 0.978999972343 110.0
4.06500005722 0.838999986649 0.972000002861 106.0
4.09499979019 0.819999992847 0.978999972343 108.0
4.12300014496 0.800000011921 0.985000014305 109.0
4.08900022507 0.768999993801 0.976000010967 111.0
4.12699985504 0.75 0.98400002718 102.0
4.04099988937 0.709999978542 0.962999999523 102.0
4.08099985123 0.691999971867 0.972000002861 98.0
0.966000020504 -0.0509999990463 0.225999996066 462.0
0.938000023365 -0.054999999702 0.219999998808 1174.0
0.93599998951 -0.0610000006855 0.218999996781 1230.0
0.936999976635 -0.0659999996424 0.219999998808 1288.0
0.933000028133 -0.0710000023246 0.218999996781 1250.0
0.938000023365 -0.0769999995828 0.219999998808 1231.0
0.929000020027 -0.082000002265 0.217999994755 1262.0
0.930000007153 -0.0879999995232 0.218999996781 1293.0
0.926999986172 -0.0930000022054 0.217999994755 1292.0
0.927999973297 -0.097999997437 0.217999994755 1251.0
0.931999981403 -0.104000002146 0.218999996781 1273.0
0.927999973297 -0.109999999404 0.218999996781 1267.0
0.926999986172 -0.115000002086 0.218999996781 1273.0
0.93599998951 -0.122000001371 0.221000000834 1282.0
0.927999973297 -0.126000002027 0.218999996781 1260.0
0.934000015259 -0.133000001311 0.221000000834 1265.0
0.929000020027 -0.136999994516 0.219999998808 1284.0
0.929000020027 -0.143000006676 0.219999998808 1286.0
0.927999973297 -0.149000003934 0.219999998808 1279.0
0.924000024796 -0.153999999166 0.218999996781 1286.0
0.920000016689 -0.158000007272 0.218999996781 1301.0
0.924000024796 -0.165000006557 0.219999998808 1289.0
0.920000016689 -0.170000001788 0.218999996781 1276.0
0.919000029564 -0.17499999702 0.218999996781 1286.0
0.920000016689 -0.180999994278 0.218999996781 1303.0
0.919000029564 -0.186000004411 0.218999996781 1295.0
0.916999995708 -0.192000001669 0.218999996781 1270.0
0.917999982834 -0.196999996901 0.219999998808 1284.0
0.915000021458 -0.202000007033 0.218999996781 1287.0
0.917999982834 -0.209000006318 0.219999998808 1301.0
0.916000008583 -0.21400000155 0.219999998808 1294.0
0.913999974728 -0.218999996781 0.219999998808 1324.0
0.908999979496 -0.224000006914 0.218999996781 1299.0
0.916999995708 -0.231999993324 0.221000000834 1316.0
0.919000029564 -0.238000005484 0.222000002861 1298.0
0.917999982834 -0.244000002742 0.222000002861 1314.0
0.912000000477 -0.247999995947 0.221000000834 1327.0
0.911000013351 -0.254000008106 0.221000000834 1346.0
0.910000026226 -0.259000003338 0.221000000834 1321.0
0.908999979496 -0.264999985695 0.221000000834 1336.0
0.907999992371 -0.270000010729 0.222000002861 1362.0
0.907999992371 -0.275999993086 0.222000002861 1357.0
0.911000013351 -0.282999992371 0.223000004888 1354.0
0.907000005245 -0.287999987602 0.222000002861 1359.0
0.90600001812 -0.293999999762 0.223000004888 1337.0
0.907999992371 -0.300000011921 0.223000004888 1354.0
0.90499997139 -0.305000007153 0.223000004888 1344.0
0.90499997139 -0.31099998951 0.224000006914 1337.0
0.910000026226 -0.319000005722 0.22499999404 1318.0
0.902000010014 -0.323000013828 0.224000006914 1343.0
0.90600001812 -0.331000000238 0.22499999404 1330.0
0.903999984264 -0.33599999547 0.22499999404 1324.0
0.897000014782 -0.340000003576 0.224000006914 1336.0
0.907000005245 -0.34999999404 0.226999998093 1372.0
0.90499997139 -0.354999989271 0.226999998093 1344.0
0.903999984264 -0.361000001431 0.226999998093 1332.0
0.896000027657 -0.363999992609 0.225999996066 1335.0
0.898000001907 -0.372000008821 0.226999998093 1303.0
0.901000022888 -0.379000008106 0.228000000119 1306.0
0.897000014782 -0.384000003338 0.226999998093 1303.0
0.903999984264 -0.393999993801 0.230000004172 1268.0
0.894999980927 -0.397000014782 0.228000000119 1285.0
0.897000014782 -0.404000014067 0.229000002146 1282.0
0.89200001955 -0.409000009298 0.229000002146 1293.0
0.888999998569 -0.41400000453 0.228000000119 1272.0
0.894999980927 -0.423000007868 0.231000006199 1260.0
0.887000024319 -0.426999986172 0.229000002146 1283.0
0.896000027657 -0.437999993563 0.231999993324 1290.0
0.889999985695 -0.442000001669 0.231000006199 1312.0
0.893999993801 -0.451000005007 0.232999995351 1319.0
0.897000014782 -0.458999991417 0.233999997377 1299.0
0.888000011444 -0.462000012398 0.232999995351 1305.0
0.887000024319 -0.467999994755 0.232999995351 1281.0
0.888000011444 -0.476000010967 0.233999997377 1282.0
0.888999998569 -0.483999997377 0.234999999404 1270.0
0.887000024319 -0.490000009537 0.234999999404 1279.0
0.882000029087 -0.495000004768 0.234999999404 1239.0
0.880999982357 -0.501999974251 0.234999999404 1246.0
1.93400001526 1.14300000668 0.499000012875 121.0
2.04399991035 1.19000005722 0.526000022888 190.0
2.03500008583 1.16700005531 0.522000014782 273.0
2.04999995232 1.1590000391 0.523999989033 302.0
2.06399989128 1.14999997616 0.526000022888 297.0
2.07399988174 1.13800001144 0.527000010014 289.0
2.08200001717 1.125 0.527999997139 177.0
2.08299994469 1.10899996758 0.527000010014 118.0
2.11800003052 1.11099994183 0.533999979496 177.0
2.16899991035 1.12000000477 0.545000016689 274.0
2.17199993134 1.10500001907 0.545000016689 172.0
2.26099991798 1.13199996948 0.565999984741 79.0
3.2990000248 1.26300001144 0.79699999094 76.0
3.26999998093 1.22899997234 0.788999974728 88.0
3.34899997711 1.23500001431 0.805999994278 81.0
3.73900008202 1.35300004482 0.898999989033 89.0
3.66799998283 1.30200004578 0.879999995232 104.0
3.80399990082 1.32500004768 0.912000000477 108.0
3.6930000782 1.26100003719 0.883000016212 92.0
4.08300018311 1.33899998665 0.973999977112 64.0
4.10599994659 1.31900000572 0.977999985218 88.0
4.09100008011 1.28699994087 0.972999989986 113.0
4.06300020218 1.25199997425 0.963999986649 111.0
4.08400011063 1.23099994659 0.967999994755 108.0
4.06199979782 1.19799995422 0.962000012398 113.0
4.09299993515 1.18099999428 0.967999994755 102.0
4.09700012207 1.15499997139 0.967000007629 107.0
4.0689997673 1.1210000515 0.958999991417 109.0
4.0560002327 1.0909999609 0.954999983311 105.0
4.07700014114 1.07099997997 0.958999991417 104.0
4.0720000267 1.04400002956 0.957000017166 101.0
4.05700016022 1.01400005817 0.952000021935 99.0
4.13800001144 1.00800001621 0.97000002861 102.0
4.09999990463 0.972999989986 0.959999978542 99.0
4.02899980545 0.930999994278 0.941999971867 103.0
4.10599994659 0.922999978065 0.958999991417 110.0
4.10099983215 0.896000027657 0.957000017166 116.0
4.08599996567 0.867999970913 0.95300000906 104.0
4.09899997711 0.84500002861 0.954999983311 111.0
4.10699987411 0.820999979973 0.955999970436 112.0
4.10599994659 0.796000003815 0.954999983311 112.0
4.11100006104 0.772000014782 0.954999983311 108.0
4.0560002327 0.736000001431 0.941999971867 107.0
4.11899995804 0.722999989986 0.955999970436 102.0
4.05800008774 0.686999976635 0.940999984741 99.0
4.03700017929 0.658999979496 0.935000002384 73.0
0.972999989986 -0.0520000010729 0.222000002861 467.0
0.936999976635 -0.054999999702 0.21400000155 1192.0
0.936999976635 -0.0610000006855 0.21400000155 1222.0
0.93599998951 -0.0659999996424 0.21400000155 1280.0
0.934000015259 -0.0710000023246 0.212999999523 1267.0
0.933000028133 -0.0769999995828 0.212999999523 1241.0
0.927999973297 -0.082000002265 0.211999997497 1250.0
0.931999981403 -0.0879999995232 0.212999999523 1278.0
0.926999986172 -0.0930000022054 0.211999997497 1310.0
0.927999973297 -0.097999997437 0.212999999523 1262.0
0.930000007153 -0.104000002146 0.212999999523 1260.0
0.929000020027 -0.109999999404 0.212999999523 1262.0
0.925000011921 -0.115000002086 0.212999999523 1264.0
0.922999978065 -0.119999997318 0.211999997497 1256.0
0.926999986172 -0.126000002027 0.212999999523 1255.0
0.930999994278 -0.131999999285 0.21400000155 1278.0
0.929000020027 -0.136999994516 0.21400000155 1346.0
0.922999978065 -0.142000004649 0.212999999523 1293.0
0.926999986172 -0.148000001907 0.21400000155 1272.0
0.924000024796 -0.152999997139 0.212999999523 1273.0
0.925999999046 -0.158999994397 0.21400000155 1301.0
0.921000003815 -0.16400000453 0.212999999523 1334.0
0.92199999094 -0.170000001788 0.21400000155 1286.0
0.921000003815 -0.17499999702 0.21400000155 1287.0
0.924000024796 -0.180999994278 0.215000003576 1292.0
0.919000029564 -0.186000004411 0.21400000155 1317.0
0.919000029564 -0.192000001669 0.21400000155 1299.0
0.920000016689 -0.197999998927 0.215000003576 1303.0
0.916000008583 -0.202999994159 0.21400000155 1298.0
0.916000008583 -0.208000004292 0.21400000155 1306.0
0.920000016689 -0.215000003576 0.215000003576 1316.0
0.917999982834 -0.219999998808 0.215000003576 1323.0
0.921000003815 -0.226999998093 0.216000005603 1316.0
0.913999974728 -0.231000006199 0.215000003576 1304.0
0.913999974728 -0.236000001431 0.215000003576 1301.0
0.916000008583 -0.243000000715 0.216000005603 1324.0
0.907999992371 -0.24699999392 0.21400000155 1317.0
0.912000000477 -0.254000008106 0.216000005603 1359.0
0.913999974728 -0.259999990463 0.216999992728 1326.0
0.912999987602 -0.266000002623 0.216999992728 1365.0
0.908999979496 -0.270000010729 0.216000005603 1347.0
0.910000026226 -0.277000010014 0.216999992728 1383.0
0.911000013351 -0.282999992371 0.216999992728 1363.0
0.908999979496 -0.287999987602 0.216999992728 1364.0
0.907999992371 -0.293999999762 0.216999992728 1356.0
0.911000013351 -0.300999999046 0.217999994755 1351.0
0.898999989033 -0.303000003099 0.216000005603 1343.0
0.908999979496 -0.312999993563 0.218999996781 1334.0
0.90499997139 -0.317000001669 0.217999994755 1336.0
0.907000005245 -0.324000000954 0.218999996781 1312.0
0.899999976158 -0.32800000906 0.217999994755 1333.0
0.899999976158 -0.333999991417 0.217999994755 1327.0
0.902999997139 -0.340999990702 0.218999996781 1333.0
0.899999976158 -0.347000002861 0.218999996781 1337.0
0.893999993801 -0.351000010967 0.217999994755 1359.0
0.90499997139 -0.361999988556 0.222000002861 1336.0
0.898000001907 -0.365000009537 0.219999998808 1352.0
0.893999993801 -0.370000004768 0.219999998808 1355.0
0.893999993801 -0.375999987125 0.219999998808 1344.0
0.897000014782 -0.384000003338 0.222000002861 1329.0
0.893000006676 -0.388999998569 0.221000000834 1283.0
0.893000006676 -0.395000010729 0.222000002861 1292.0
0.893999993801 -0.402000010014 0.223000004888 1306.0
0.896000027657 -0.409999996424 0.224000006914 1304.0
0.89200001955 -0.414999991655 0.223000004888 1278.0
0.901000022888 -0.425999999046 0.225999996066 1275.0
0.894999980927 -0.430000007153 0.22499999404 1302.0
0.888999998569 -0.433999985456 0.224000006914 1325.0
0.89099997282 -0.442000001669 0.225999996066 1339.0
0.889999985695 -0.448000013828 0.225999996066 1316.0
0.888000011444 -0.453999996185 0.225999996066 1327.0
0.884000003338 -0.458999991417 0.225999996066 1308.0
0.89099997282 -0.469999998808 0.228000000119 1298.0
0.884999990463 -0.474000006914 0.226999998093 1284.0
0.887000024319 -0.481999993324 0.228000000119 1269.0
0.889999985695 -0.490999996662 0.230000004172 1258.0
0.885999977589 -0.497000008821 0.230000004172 1254.0
0.879000008106 -0.5 0.229000002146 1276.0
2.03800010681 1.18499994278 0.509999990463 154.0
2.04399991035 1.17100000381 0.509999990463 290.0
2.05399990082 1.15999996662 0.510999977589 302.0
2.06399989128 1.14800000191 0.512000024319 300.0
2.05800008774 1.12800002098 0.509000003338 284.0
2.05100011826 1.10699999332 0.505999982357 176.0
2.07699990273 1.10399997234 0.510999977589 113.0
2.14499998093 1.12300002575 0.526000022888 178.0
2.19000005722 1.1289999485 0.536000013351 290.0
2.1819999218 1.10800004005 0.532000005245 154.0
3.25300002098 1.24300003052 0.764999985695 87.0
3.26300001144 1.22399997711 0.76599997282 79.0
3.36100006104 1.23800003529 0.787000000477 71.0
3.71099996567 1.3409999609 0.867999970913 83.0
3.73099994659 1.32299995422 0.870999991894 98.0
3.73799991608 1.29999995232 0.870999991894 102.0
4.25600004196 1.39400005341 0.987999975681 67.0
4.08799982071 1.31200003624 0.947000026703 80.0
4.05000019073 1.27300000191 0.936999976635 118.0
4.13899993896 1.27300000191 0.955999970436 120.0
4.08099985123 1.22899997234 0.940999984741 114.0
4.10799980164 1.21000003815 0.945999979973 106.0
4.05499982834 1.16799998283 0.933000028133 107.0
4.06199979782 1.14400005341 0.933000028133 108.0
4.10300016403 1.1289999485 0.940999984741 106.0
4.06699991226 1.09300005436 0.931999981403 95.0
4.11899995804 1.08099997044 0.943000018597 80.0
4.12799978256 1.05700004101 0.944000005722 83.0
4.13000011444 1.03100001812 0.943000018597 88.0
4.10300016403 0.998000025749 0.93599998951 79.0
4.05999994278 0.962000012398 0.925000011921 80.0
4.10099983215 0.945999979973 0.933000028133 98.0
4.09000015259 0.917999982834 0.930000007153 105.0
4.14599990845 0.90499997139 0.941999971867 108.0
4.16099977493 0.882000029087 0.944000005722 115.0
4.08300018311 0.841000020504 0.925000011921 106.0
4.15100002289 0.828999996185 0.939999997616 106.0
4.13199996948 0.800000011921 0.935000002384 111.0
4.07999992371 0.764999985695 0.922999978065 106.0
4.08300018311 0.740000009537 0.92199999094 104.0
4.12599992752 0.722999989986 0.931999981403 102.0
4.10400009155 0.694000005722 0.925999999046 92.0
0.967999994755 -0.0509999990463 0.215000003576 487.0
0.934000015259 -0.054999999702 0.207000002265 1196.0
0.933000028133 -0.0599999986589 0.207000002265 1231.0
0.938000023365 -0.0659999996424 0.209000006318 1278.0
