ply
format ascii 1.0
element vertex 927
property float x
property float y
property float z
property float intensity
end_header
0.847999989986 -0.372999995947 0.0219999998808 1876.0
0.847000002861 -0.377999991179 0.0219999998808 1878.0
0.847999989986 -0.384999990463 0.0219999998808 1866.0
0.848999977112 -0.391999989748 0.0219999998808 1845.0
0.84399998188 -0.395999997854 0.0219999998808 1849.0
0.84399998188 -0.402000010014 0.0219999998808 1865.0
0.838999986649 -0.405999988317 0.0219999998808 1854.0
0.839999973774 -0.412999987602 0.0219999998808 1822.0
0.841000020504 -0.419999986887 0.0219999998808 1829.0
0.841000020504 -0.425999999046 0.0219999998808 1821.0
0.833999991417 -0.428999990225 0.0219999998808 1802.0
0.836000025272 -0.43599998951 0.0219999998808 1823.0
0.833999991417 -0.442000001669 0.0219999998808 1868.0
0.833000004292 -0.448000013828 0.0230000000447 1886.0
0.829999983311 -0.45300000906 0.0230000000447 1811.0
0.830999970436 -0.460000008345 0.0230000000447 1838.0
1.35300004482 0.776000022888 0.0219999998808 270.0
1.70000004768 0.961000025272 0.0280000008643 237.0
1.69299995899 0.943000018597 0.0280000008643 230.0
1.74000000954 0.954999983311 0.0289999991655 226.0
1.78600001335 0.966000020504 0.0289999991655 228.0
1.82299995422 0.971000015736 0.0299999993294 192.0
1.99699997902 1.0490000248 0.0329999998212 98.0
2.04800009727 1.05900001526 0.0340000018477 115.0
2.02699995041 1.03299999237 0.0340000018477 136.0
2.07299995422 1.03999996185 0.0340000018477 251.0
2.09200000763 1.0340000391 0.035000000149 324.0
2.09299993515 1.01800000668 0.035000000149 310.0
2.08699989319 0.999000012875 0.0340000018477 297.0
2.10299992561 0.990999996662 0.035000000149 298.0
2.1210000515 0.98400002718 0.035000000149 189.0
2.16700005531 0.990000009537 0.0359999984503 122.0
2.18099999428 0.980000019073 0.0359999984503 197.0
2.21199989319 0.977999985218 0.0359999984503 361.0
2.2349998951 0.972000002861 0.0370000004768 225.0
2.25099992752 0.962999999523 0.0370000004768 83.0
3.3259999752 1.03999996185 0.054999999702 103.0
3.367000103 1.03100001812 0.0560000017285 91.0
3.41000008583 1.02199995518 0.0570000000298 85.0
3.8180000782 1.12000000477 0.0640000030398 62.0
3.72000002861 1.06799995899 0.0619999989867 104.0
3.76200008392 1.05599999428 0.0630000010133 110.0
3.81500005722 1.04700005054 0.0640000030398 97.0
3.96600008011 1.06299996376 0.0670000016689 81.0
4.15799999237 1.08899998665 0.070000000298 80.0
4.16599988937 1.06500005722 0.070000000298 91.0
4.11199998856 1.02600002289 0.0689999982715 131.0
4.06699991226 0.989000022411 0.0680000036955 140.0
4.12400007248 0.977999985218 0.0689999982715 136.0
4.10599994659 0.948000013828 0.0689999982715 118.0
4.11600017548 0.925000011921 0.0689999982715 113.0
4.14499998093 0.907000005245 0.070000000298 111.0
4.09700012207 0.870999991894 0.0689999982715 113.0
4.13399982452 0.853999972343 0.070000000298 115.0
4.11299991608 0.824999988079 0.0689999982715 116.0
4.18300008774 0.81400001049 0.0710000023246 113.0
4.12200021744 0.777000010014 0.070000000298 115.0
4.12099981308 0.751999974251 0.070000000298 118.0
4.08400011063 0.721000015736 0.0689999982715 115.0
4.10099983215 0.699000000954 0.0689999982715 113.0
4.11899995804 0.677999973297 0.070000000298 118.0
4.13700008392 0.65600001812 0.070000000298 118.0
4.16800022125 0.637000024319 0.0710000023246 113.0
4.13800001144 0.60799998045 0.070000000298 112.0
4.11600017548 0.579999983311 0.070000000298 112.0
4.14900016785 0.560000002384 0.0710000023246 111.0
4.09399986267 0.528999984264 0.070000000298 113.0
4.08900022507 0.504000008106 0.070000000298 126.0
4.09000015259 0.479999989271 0.070000000298 122.0
4.12599992752 0.46099999547 0.0710000023246 136.0
4.11299991608 0.435000002384 0.070000000298 129.0
4.18200016022 0.418000012636 0.0719999969006 76.0
0.927999973297 -0.123999997973 0.01600000076 386.0
0.893999993801 -0.125 0.0149999996647 1626.0
0.893999993801 -0.129999995232 0.0149999996647 1831.0
0.889999985695 -0.135000005364 0.0149999996647 1859.0
0.888000011444 -0.140000000596 0.0149999996647 1830.0
0.894999980927 -0.145999997854 0.0149999996647 1760.0
0.893000006676 -0.150999993086 0.0149999996647 1860.0
0.888999998569 -0.156000003219 0.0149999996647 1858.0
0.889999985695 -0.16099999845 0.0149999996647 1823.0
0.884999990463 -0.165000006557 0.0149999996647 1817.0
0.889999985695 -0.172000005841 0.0149999996647 1794.0
0.884000003338 -0.175999999046 0.0149999996647 1771.0
0.883000016212 -0.180999994278 0.0149999996647 1782.0
0.884000003338 -0.186000004411 0.0149999996647 1785.0
0.882000029087 -0.190999999642 0.0149999996647 1793.0
0.878000020981 -0.195999994874 0.0149999996647 1796.0
0.883000016212 -0.202000007033 0.0149999996647 1808.0
0.879999995232 -0.207000002265 0.0149999996647 1811.0
0.874000012875 -0.21099999547 0.0149999996647 1817.0
0.875 -0.216999992728 0.0149999996647 1816.0
0.874000012875 -0.222000002861 0.0149999996647 1783.0
0.878000020981 -0.228000000119 0.01600000076 1851.0
0.879000008106 -0.233999997377 0.01600000076 1879.0
0.873000025749 -0.238000005484 0.01600000076 1860.0
0.866999983788 -0.241999998689 0.01600000076 1876.0
0.869000017643 -0.247999995947 0.01600000076 1880.0
0.871999979019 -0.254000008106 0.01600000076 1877.0
0.870000004768 -0.259000003338 0.01600000076 1850.0
0.865999996662 -0.263000011444 0.01600000076 1863.0
0.864000022411 -0.268000006676 0.01600000076 1871.0
0.864000022411 -0.273999989033 0.01600000076 1870.0
0.862999975681 -0.279000014067 0.01600000076 1846.0
0.865999996662 -0.286000013351 0.01600000076 1840.0
0.865999996662 -0.291999995708 0.01600000076 1839.0
0.862999975681 -0.296000003815 0.01600000076 1853.0
0.85900002718 -0.300000011921 0.01600000076 1808.0
0.862999975681 -0.307999998331 0.01600000076 1817.0
0.85900002718 -0.312000006437 0.01600000076 1833.0
0.85900002718 -0.317999988794 0.01600000076 1803.0
0.856000006199 -0.321999996901 0.01600000076 1860.0
0.860000014305 -0.330000013113 0.01600000076 1852.0
0.855000019073 -0.333999991417 0.01600000076 1860.0
0.861000001431 -0.342000007629 0.01600000076 1860.0
0.851000010967 -0.344000011683 0.01600000076 1885.0
0.853999972343 -0.351000010967 0.01600000076 1898.0
0.851000010967 -0.356000006199 0.01600000076 1898.0
0.847000002861 -0.360000014305 0.01600000076 1872.0
0.848999977112 -0.36700001359 0.01600000076 1879.0
0.851999998093 -0.375 0.0170000009239 1890.0
0.847000002861 -0.377999991179 0.0170000009239 1905.0
0.847000002861 -0.384000003338 0.0170000009239 1883.0
0.84500002861 -0.389999985695 0.0170000009239 1872.0
0.838999986649 -0.393000006676 0.0170000009239 1845.0
0.84500002861 -0.402000010014 0.0170000009239 1907.0
0.837999999523 -0.405000001192 0.0170000009239 1884.0
0.84399998188 -0.414999991655 0.0170000009239 1858.0
0.837999999523 -0.418000012636 0.0170000009239 1834.0
0.837000012398 -0.423999994993 0.0170000009239 1838.0
0.837999999523 -0.430999994278 0.0170000009239 1809.0
0.837999999523 -0.437999993563 0.0170000009239 1821.0
0.833999991417 -0.442000001669 0.0170000009239 1844.0
0.833000004292 -0.448000013828 0.0170000009239 1866.0
0.82800000906 -0.451999992132 0.0170000009239 1800.0
0.830999970436 -0.460000008345 0.0170000009239 1831.0
1.31299996376 0.751999974251 0.0130000002682 275.0
1.69000005722 0.954999983311 0.0170000009239 231.0
1.72500002384 0.959999978542 0.0170000009239 232.0
1.75699996948 0.963999986649 0.0179999992251 222.0
1.77400004864 0.958999991417 0.0179999992251 222.0
1.85000002384 0.985000014305 0.0189999993891 207.0
2.04500007629 1.07299995422 0.0209999997169 194.0
2.0529999733 1.06200003624 0.0209999997169 213.0
2.08200001717 1.05999994278 0.0209999997169 241.0
2.08699989319 1.04700005054 0.0209999997169 299.0
2.09100008011 1.03299999237 0.0209999997169 301.0
2.09500002861 1.01900005341 0.0209999997169 319.0
2.10400009155 1.00800001621 0.0219999998808 305.0
2.10700011253 0.992999970913 0.0219999998808 303.0
2.11500000954 0.981000006199 0.0219999998808 183.0
2.12599992752 0.971000015736 0.0219999998808 111.0
2.18499994278 0.981999993324 0.0219999998808 215.0
2.20399999619 0.973999977112 0.0230000000447 386.0
2.23300004005 0.971000015736 0.0230000000447 223.0
2.23300004005 0.954999983311 0.0230000000447 88.0
3.28200006485 1.02600002289 0.035000000149 116.0
3.38100004196 1.03499996662 0.0359999984503 91.0
3.38100004196 1.01300001144 0.0359999984503 79.0
3.8029999733 1.11600005627 0.0410000011325 69.0
3.76300001144 1.08000004292 0.0410000011325 106.0
3.78500008583 1.06200003624 0.0410000011325 106.0
3.85199999809 1.05700004101 0.0419999994338 98.0
4.11899995804 1.10399997234 0.0450000017881 88.0
4.09100008011 1.07099997997 0.0439999997616 96.0
4.12699985504 1.05499994755 0.0450000017881 104.0
4.06699991226 1.01400005817 0.0439999997616 170.0
4.10400009155 0.998000025749 0.0450000017881 177.0
4.09299993515 0.97000002861 0.0450000017881 166.0
4.16099977493 0.961000025272 0.0460000000894 124.0
4.10900020599 0.922999978065 0.0450000017881 120.0
4.13199996948 0.902999997139 0.0450000017881 116.0
4.11000013351 0.874000012875 0.0450000017881 119.0
4.1360001564 0.853999972343 0.0460000000894 129.0
4.08099985123 0.818000018597 0.0450000017881 134.0
4.12599992752 0.801999986172 0.0460000000894 131.0
4.13899993896 0.77999997139 0.0460000000894 128.0
4.09499979019 0.746999979019 0.0450000017881 127.0
4.11999988556 0.726999998093 0.0460000000894 137.0
4.08500003815 0.695999979973 0.0450000017881 136.0
4.10200023651 0.675000011921 0.0460000000894 129.0
4.12400007248 0.653999984264 0.0460000000894 138.0
4.13899993896 0.632000029087 0.0460000000894 134.0
4.125 0.605000019073 0.0460000000894 135.0
4.10799980164 0.578999996185 0.0460000000894 138.0
4.08699989319 0.551999986172 0.0460000000894 139.0
4.15700006485 0.537000000477 0.0469999983907 141.0
4.14200019836 0.510999977589 0.0469999983907 141.0
4.10300016403 0.481999993324 0.0460000000894 125.0
4.12400007248 0.460000008345 0.0469999983907 137.0
4.10400009155 0.433999985456 0.0460000000894 134.0
4.19999980927 0.419999986887 0.0480000004172 89.0
4.51900005341 0.425000011921 0.0520000010729 55.0
4.57399988174 0.404000014067 0.0520000010729 62.0
4.52099990845 0.372999995947 0.0520000010729 58.0
4.62200021744 0.354999989271 0.0529999993742 56.0
4.52799987793 0.321000009775 0.0520000010729 57.0
4.65399980545 0.303000003099 0.0540000014007 55.0
4.51700019836 0.268000006676 0.0520000010729 56.0
4.63000011444 0.221000000834 0.0540000014007 54.0
4.65199995041 0.195999994874 0.0540000014007 57.0
4.61299991608 0.166999995708 0.0540000014007 55.0
4.60500001907 0.141000002623 0.0540000014007 48.0
4.73600006104 0.0900000035763 0.0560000017285 52.0
4.65799999237 0.0619999989867 0.054999999702 54.0
4.71199989319 0.00800000037998 0.0560000017285 48.0
4.73199987411 -0.0179999992251 0.0560000017285 50.0
4.69199991226 -0.0450000017881 0.0560000017285 55.0
4.70900011063 -0.0719999969006 0.0560000017285 51.0
4.82299995422 -0.128999993205 0.0579999983311 52.0
4.73400020599 -0.153999999166 0.0570000000298 52.0
4.82800006866 -0.212999999523 0.0579999983311 54.0
4.8109998703 -0.239999994636 0.0579999983311 47.0
0.917999982834 -0.123000003397 0.00999999977648 408.0
0.898000001907 -0.126000002027 0.00999999977648 1590.0
0.893999993801 -0.129999995232 0.00999999977648 1768.0
0.889999985695 -0.135000005364 0.00999999977648 1865.0
0.888000011444 -0.140000000596 0.00999999977648 1840.0
0.893000006676 -0.145999997854 0.00999999977648 1790.0
0.893000006676 -0.150999993086 0.00999999977648 1873.0
0.885999977589 -0.155000001192 0.00999999977648 1912.0
0.887000024319 -0.16099999845 0.00999999977648 1858.0
0.888000011444 -0.165999993682 0.00999999977648 1833.0
0.884999990463 -0.171000003815 0.00999999977648 1810.0
0.885999977589 -0.175999999046 0.00999999977648 1773.0
0.883000016212 -0.180999994278 0.00999999977648 1807.0
0.884000003338 -0.186000004411 0.00999999977648 1794.0
0.884000003338 -0.192000001669 0.00999999977648 1808.0
0.878000020981 -0.195999994874 0.00999999977648 1810.0
0.879999995232 -0.202000007033 0.00999999977648 1837.0
0.884999990463 -0.208000004292 0.00999999977648 1837.0
0.873000025749 -0.21099999547 0.00999999977648 1882.0
0.879000008106 -0.217999994755 0.00999999977648 1838.0
0.879000008106 -0.223000004888 0.00999999977648 1813.0
0.879999995232 -0.229000002146 0.00999999977648 1868.0
0.871999979019 -0.231999993324 0.00999999977648 1896.0
0.873000025749 -0.238000005484 0.00999999977648 1888.0
0.875 -0.244000002742 0.0109999999404 1895.0
0.870999991894 -0.247999995947 0.0109999999404 1913.0
0.870999991894 -0.254000008106 0.0109999999404 1880.0
0.866999983788 -0.25799998641 0.0109999999404 1900.0
0.867999970913 -0.263999998569 0.0109999999404 1874.0
0.867999970913 -0.270000010729 0.0109999999404 1892.0
0.867999970913 -0.27500000596 0.0109999999404 1842.0
0.864000022411 -0.279000014067 0.0109999999404 1845.0
0.862999975681 -0.284999996424 0.0109999999404 1852.0
0.864000022411 -0.291000008583 0.0109999999404 1860.0
0.862999975681 -0.296000003815 0.0109999999404 1853.0
0.861999988556 -0.301999986172 0.0109999999404 1841.0
0.85900002718 -0.305999994278 0.0109999999404 1807.0
0.85900002718 -0.312000006437 0.0109999999404 1820.0
0.856000006199 -0.316000014544 0.0109999999404 1837.0
0.856000006199 -0.321999996901 0.0109999999404 1850.0
0.851999998093 -0.326999992132 0.0109999999404 1852.0
0.856000006199 -0.333999991417 0.0109999999404 1858.0
0.848999977112 -0.337000012398 0.0109999999404 1871.0
0.851999998093 -0.344000011683 0.0109999999404 1881.0
0.847000002861 -0.347999989986 0.0109999999404 1900.0
0.851000010967 -0.356000006199 0.0109999999404 1901.0
0.848999977112 -0.361000001431 0.0109999999404 1887.0
0.84399998188 -0.365000009537 0.0109999999404 1886.0
0.846000015736 -0.372000008821 0.0109999999404 1882.0
0.839999973774 -0.375 0.0109999999404 1910.0
0.847999989986 -0.384999990463 0.0109999999404 1906.0
0.842999994755 -0.388999998569 0.0109999999404 1905.0
0.84399998188 -0.395000010729 0.0109999999404 1898.0
0.838999986649 -0.398999989033 0.0109999999404 1894.0
0.842000007629 -0.407000005245 0.0120000001043 1882.0
0.833999991417 -0.409000009298 0.0109999999404 1867.0
0.837999999523 -0.418000012636 0.0120000001043 1869.0
0.837999999523 -0.423999994993 0.0120000001043 1890.0
0.837999999523 -0.430999994278 0.0120000001043 1855.0
0.833999991417 -0.435000002384 0.0120000001043 1841.0
0.833000004292 -0.442000001669 0.0120000001043 1843.0
0.837999999523 -0.451000005007 0.0120000001043 1830.0
0.832000017166 -0.453999996185 0.0120000001043 1798.0
0.828999996185 -0.458999991417 0.0120000001043 1792.0
1.33500003815 0.764999985695 0.00400000018999 256.0
1.69900000095 0.959999978542 0.00600000005215 237.0
1.7120000124 0.95300000906 0.00600000005215 230.0
1.73300004005 0.950999975204 0.00600000005215 223.0
1.78600001335 0.966000020504 0.00700000021607 221.0
1.82799994946 0.973999977112 0.00700000021607 192.0
2.01099991798 1.05499994755 0.00800000037998 153.0
2.06699991226 1.06900000572 0.00800000037998 113.0
2.06599998474 1.05200004578 0.00800000037998 139.0
2.05100011826 1.02900004387 0.00800000037998 170.0
2.08899998665 1.03199994564 0.00800000037998 239.0
2.08699989319 1.01499998569 0.00800000037998 301.0
2.09699988365 1.0039999485 0.00800000037998 297.0
2.09999990463 0.990000009537 0.00800000037998 296.0
2.11599993706 0.981999993324 0.00800000037998 174.0
2.13499999046 0.975000023842 0.00899999961257 112.0
2.17899990082 0.978999972343 0.00899999961257 221.0
2.20900011063 0.976000010967 0.00899999961257 384.0
2.23699998856 0.972999989986 0.00899999961257 225.0
2.242000103 0.958999991417 0.00899999961257 97.0
3.23900008202 1.01300001144 0.0149999996647 126.0
3.38700008392 1.03699994087 0.01600000076 89.0
3.3900001049 1.01600003242 0.01600000076 81.0
3.79099988937 1.11199998856 0.0179999992251 56.0
3.71700000763 1.06700003147 0.0179999992251 105.0
3.74300003052 1.04999995232 0.0179999992251 119.0
3.83400011063 1.05200004578 0.0189999993891 108.0
4.08900022507 1.09599995613 0.019999999553 88.0
4.07999992371 1.06799995899 0.019999999553 87.0
4.09299993515 1.04600000381 0.019999999553 103.0
4.08699989319 1.01900005341 0.019999999553 169.0
4.07700014114 0.990999996662 0.019999999553 180.0
4.11899995804 0.976000010967 0.0209999997169 157.0
4.10900020599 0.948000013828 0.0209999997169 133.0
4.15799999237 0.934000015259 0.0209999997169 125.0
4.11800003052 0.899999976158 0.0209999997169 127.0
4.11600017548 0.875 0.0209999997169 121.0
4.11299991608 0.848999977112 0.0209999997169 128.0
4.16200017929 0.833999991417 0.0209999997169 134.0
4.10300016403 0.797999978065 0.0209999997169 131.0
4.07700014114 0.768000006676 0.0209999997169 133.0
4.13199996948 0.754000008106 0.0219999998808 131.0
4.15100002289 0.731999993324 0.0219999998808 135.0
4.0640001297 0.693000018597 0.0209999997169 133.0
4.09299993515 0.672999978065 0.0219999998808 134.0
4.11499977112 0.652999997139 0.0219999998808 134.0
4.10400009155 0.626999974251 0.0219999998808 138.0
4.09999990463 0.601999998093 0.0219999998808 135.0
4.13700008392 0.583000004292 0.0219999998808 145.0
4.12799978256 0.556999981403 0.0219999998808 148.0
4.09000015259 0.527999997139 0.0219999998808 147.0
4.09200000763 0.504000008106 0.0219999998808 145.0
4.06799983978 0.477999985218 0.0219999998808 127.0
4.08599996567 0.456000000238 0.0230000000447 131.0
4.10099983215 0.433999985456 0.0230000000447 129.0
4.23299980164 0.423000007868 0.0240000002086 86.0
4.45200014114 0.418999999762 0.0250000003725 63.0
4.51800012589 0.398999989033 0.0260000005364 69.0
4.60699987411 0.379999995232 0.0260000005364 68.0
4.51599979401 0.345999985933 0.0260000005364 65.0
4.60500001907 0.326000005007 0.0260000005364 66.0
4.58400011063 0.298000007868 0.0260000005364 63.0
4.61299991608 0.273999989033 0.0270000007004 65.0
4.65299987793 0.222000002861 0.0270000007004 70.0
4.68200016022 0.196999996901 0.0270000007004 63.0
4.63399982452 0.167999997735 0.0270000007004 63.0
4.57899999619 0.140000000596 0.0270000007004 59.0
4.72100019455 0.116999998689 0.0280000008643 58.0
4.68200016022 0.0890000015497 0.0280000008643 61.0
4.67600011826 0.0619999989867 0.0280000008643 59.0
4.73199987411 0.035000000149 0.0289999991655 57.0
4.73600006104 0.00800000037998 0.0289999991655 60.0
4.73299980164 -0.0179999992251 0.0289999991655 66.0
4.73199987411 -0.0450000017881 0.0289999991655 58.0
4.74300003052 -0.0729999989271 0.0289999991655 57.0
4.72599983215 -0.0989999994636 0.0289999991655 54.0
4.80800008774 -0.128999993205 0.0299999993294 60.0
4.74399995804 -0.153999999166 0.0299999993294 58.0
4.83300018311 -0.185000002384 0.0299999993294 52.0
4.82800006866 -0.212999999523 0.0299999993294 52.0
4.75 -0.237000003457 0.0299999993294 54.0
4.82600021362 -0.268000006676 0.0309999994934 52.0
4.81199979782 -0.294999986887 0.0309999994934 53.0
4.92500019073 -0.331000000238 0.0320000015199 48.0
2.4509999752 -0.219999998808 0.0149999996647 47.0
0.926999986172 -0.123999997973 0.00499999988824 421.0
0.893999993801 -0.125 0.00499999988824 1610.0
0.889999985695 -0.129999995232 0.00499999988824 1779.0
0.89099997282 -0.135000005364 0.00499999988824 1888.0
0.889999985695 -0.140000000596 0.00499999988824 1890.0
0.897000014782 -0.145999997854 0.00499999988824 1801.0
0.89099997282 -0.150999993086 0.00499999988824 1870.0
0.89099997282 -0.156000003219 0.00499999988824 1955.0
0.887000024319 -0.16099999845 0.00499999988824 1879.0
0.89099997282 -0.166999995708 0.00499999988824 1872.0
0.885999977589 -0.171000003815 0.00499999988824 1858.0
0.89099997282 -0.177000001073 0.00499999988824 1819.0
0.885999977589 -0.181999996305 0.00499999988824 1791.0
0.876999974251 -0.185000002384 0.00499999988824 1835.0
0.878000020981 -0.189999997616 0.00499999988824 1853.0
0.878000020981 -0.195999994874 0.00499999988824 1821.0
0.882000029087 -0.202000007033 0.00499999988824 1850.0
0.874000012875 -0.206000000238 0.00499999988824 1828.0
0.878000020981 -0.211999997497 0.00499999988824 1884.0
0.875999987125 -0.216999992728 0.00499999988824 1849.0
0.875 -0.222000002861 0.00499999988824 1828.0
0.880999982357 -0.229000002146 0.00499999988824 1850.0
0.875999987125 -0.232999995351 0.00499999988824 1915.0
0.867999970913 -0.236000001431 0.00499999988824 1937.0
0.870000004768 -0.243000000715 0.00499999988824 1912.0
0.873000025749 -0.248999997973 0.00499999988824 1930.0
0.869000017643 -0.252999991179 0.00499999988824 1912.0
0.869000017643 -0.259000003338 0.00499999988824 1914.0
0.866999983788 -0.263999998569 0.00499999988824 1899.0
0.866999983788 -0.268999993801 0.00499999988824 1896.0
0.865000009537 -0.273999989033 0.00499999988824 1869.0
0.865999996662 -0.280000001192 0.00600000005215 1861.0
0.864000022411 -0.284999996424 0.00600000005215 1875.0
0.861999988556 -0.289999991655 0.00600000005215 1866.0
0.861999988556 -0.296000003815 0.00600000005215 1849.0
0.861000001431 -0.300999999046 0.00600000005215 1884.0
0.860000014305 -0.307000011206 0.00600000005215 1853.0
0.85799998045 -0.312000006437 0.00600000005215 1856.0
0.856999993324 -0.317000001669 0.00600000005215 1854.0
0.856999993324 -0.323000013828 0.00600000005215 1843.0
0.855000019073 -0.32800000906 0.00600000005215 1861.0
0.852999985218 -0.333000004292 0.00600000005215 1869.0
0.851000010967 -0.337999999523 0.00600000005215 1903.0
0.850000023842 -0.344000011683 0.00600000005215 1893.0
0.846000015736 -0.347999989986 0.00600000005215 1874.0
0.850000023842 -0.354999989271 0.00600000005215 1904.0
0.851000010967 -0.361999988556 0.00600000005215 1897.0
0.847999989986 -0.36700001359 0.00600000005215 1902.0
0.847000002861 -0.372000008821 0.00600000005215 1904.0
0.84500002861 -0.377000004053 0.00600000005215 1958.0
0.84399998188 -0.38299998641 0.00600000005215 1924.0
0.842999994755 -0.388999998569 0.00600000005215 1921.0
0.841000020504 -0.393999993801 0.00600000005215 1946.0
0.847000002861 -0.402999997139 0.00600000005215 1927.0
0.841000020504 -0.407000005245 0.00600000005215 1915.0
0.837999999523 -0.411000013351 0.00600000005215 1888.0
0.836000025272 -0.416999995708 0.00600000005215 1877.0
0.836000025272 -0.423000007868 0.00600000005215 1886.0
0.837000012398 -0.430000007153 0.00600000005215 1873.0
0.836000025272 -0.437000006437 0.00600000005215 1862.0
0.833000004292 -0.442000001669 0.00600000005215 1872.0
0.833999991417 -0.449000000954 0.00700000021607 1845.0
0.830999970436 -0.453999996185 0.00700000021607 1825.0
0.828999996185 -0.458999991417 0.00700000021607 1792.0
1.34599995613 0.771000027657 -0.00300000002608 254.0
1.68799996376 0.95300000906 -0.00400000018999 234.0
1.67100000381 0.930000007153 -0.00400000018999 220.0
1.77300000191 0.972000002861 -0.00400000018999 222.0
1.7840000391 0.963999986649 -0.00400000018999 224.0
1.82000005245 0.96899998188 -0.00400000018999 184.0
1.94400000572 1.01999998093 -0.00400000018999 82.0
2.07100009918 1.07099997997 -0.00400000018999 92.0
2.07100009918 1.05499994755 -0.00400000018999 124.0
2.07999992371 1.04299998283 -0.00400000018999 216.0
2.08800005913 1.03100001812 -0.00400000018999 303.0
2.08500003815 1.01400005817 -0.00400000018999 314.0
2.09100008011 1.00100004673 -0.00400000018999 307.0
2.09599995613 0.987999975681 -0.00400000018999 294.0
2.12599992752 0.986000001431 -0.00400000018999 165.0
2.15599989891 0.98400002718 -0.00400000018999 121.0
2.1819999218 0.980000019073 -0.00400000018999 222.0
2.21399998665 0.977999985218 -0.00400000018999 381.0
2.23699998856 0.972000002861 -0.00400000018999 211.0
2.26200008392 0.967000007629 -0.00400000018999 95.0
3.27200007439 1.02300000191 -0.00300000002608 119.0
3.35100007057 1.02600002289 -0.00300000002608 89.0
3.42100000381 1.02499997616 -0.00300000002608 83.0
3.74499988556 1.09800004959 -0.00300000002608 72.0
3.77800011635 1.08399999142 -0.00300000002608 109.0
3.81200003624 1.07000005245 -0.00300000002608 107.0
3.78600001335 1.0379999876 -0.00300000002608 103.0
4.05800008774 1.08800005913 -0.00300000002608 90.0
4.02500009537 1.05400002003 -0.00300000002608 94.0
4.09899997711 1.04700005054 -0.00300000002608 109.0
4.09200000763 1.01999998093 -0.00300000002608 168.0
4.09999990463 0.996999979019 -0.00300000002608 187.0
4.07899999619 0.966000020504 -0.00300000002608 159.0
4.132999897 0.953999996185 -0.00200000009499 131.0
4.15299987793 0.933000028133 -0.00200000009499 125.0
4.14699983597 0.907000005245 -0.00200000009499 126.0
4.12799978256 0.876999974251 -0.00200000009499 121.0
4.12300014496 0.851000010967 -0.00200000009499 130.0
4.12799978256 0.827000021935 -0.00200000009499 131.0
4.11299991608 0.799000024796 -0.00200000009499 132.0
4.09000015259 0.769999980927 -0.00200000009499 133.0
4.11100006104 0.75 -0.00200000009499 130.0
4.16099977493 0.73400002718 -0.0010000000475 137.0
4.05900001526 0.691999971867 -0.0010000000475 135.0
4.15399980545 0.683000028133 -0.0010000000475 136.0
4.15600013733 0.658999979496 -0.0010000000475 130.0
4.132999897 0.630999982357 -0.0010000000475 132.0
4.1139998436 0.603999972343 -0.0010000000475 135.0
4.10699987411 0.57800000906 -0.0010000000475 139.0
4.11100006104 0.555000007153 -0.0010000000475 142.0
4.09499979019 0.528999984264 0.0 146.0
4.13399982452 0.509000003338 0.0 137.0
4.12200021744 0.483999997377 0.0 124.0
4.1139998436 0.458999991417 0.0 136.0
4.11999988556 0.43599998951 0.0 124.0
4.21999979019 0.421000003815 0.0 87.0
4.46500015259 0.419999986887 0.0 68.0
4.52699995041 0.398999989033 0.0 71.0
4.57600021362 0.377000004053 0.0 74.0
4.59600019455 0.351999998093 0.0 69.0
4.60900020599 0.326999992132 0.0 68.0
4.54099988937 0.294999986887 0.0 65.0
4.58199977875 0.272000014782 0.0 60.0
4.64400005341 0.248999997973 0.0 66.0
4.63199996948 0.221000000834 0.0 64.0
4.61600017548 0.194000005722 0.0 67.0
4.63500022888 0.167999997735 0.0010000000475 63.0
4.67299985886 0.142000004649 0.0010000000475 65.0
4.68800020218 0.115999996662 0.0010000000475 66.0
4.65299987793 0.0879999995232 0.0010000000475 65.0
4.70699977875 0.0619999989867 0.0010000000475 63.0
4.66400003433 0.035000000149 0.0010000000475 63.0
4.70200014114 0.00800000037998 0.0010000000475 64.0
4.71299982071 -0.0179999992251 0.00200000009499 61.0
4.72599983215 -0.0450000017881 0.00200000009499 60.0
4.77099990845 -0.0729999989271 0.00200000009499 62.0
4.6890001297 -0.0989999994636 0.00200000009499 56.0
4.80399990082 -0.128999993205 0.00200000009499 57.0
4.73299980164 -0.153999999166 0.00200000009499 59.0
4.77899980545 -0.182999998331 0.00200000009499 58.0
4.85300016403 -0.21400000155 0.00300000002608 56.0
4.84800004959 -0.241999998689 0.00300000002608 57.0
4.81799983978 -0.268000006676 0.00300000002608 55.0
4.80900001526 -0.294999986887 0.00300000002608 56.0
4.83300018311 -0.324999988079 0.00300000002608 51.0
0.916999995708 -0.123000003397 0.0 429.0
0.89200001955 -0.125 0.0 1638.0
0.888999998569 -0.128999993205 0.0 1822.0
0.893999993801 -0.135000005364 0.0 1857.0
0.888999998569 -0.140000000596 0.0 1877.0
0.889999985695 -0.144999995828 0.0 1859.0
0.889999985695 -0.150999993086 0.0 1890.0
0.887000024319 -0.155000001192 0.0 1966.0
0.888000011444 -0.16099999845 0.0 1881.0
0.884000003338 -0.165000006557 0.0 1923.0
0.888999998569 -0.172000005841 0.0 1878.0
0.884000003338 -0.175999999046 0.0 1845.0
0.884000003338 -0.180999994278 0.0 1824.0
0.880999982357 -0.186000004411 0.0 1880.0
0.882000029087 -0.192000001669 0.0 1876.0
0.875999987125 -0.195999994874 0.0 1830.0
0.874000012875 -0.20000000298 0.0 1831.0
0.879000008106 -0.207000002265 0.0 1845.0
0.879000008106 -0.211999997497 0.0 1887.0
0.874000012875 -0.216000005603 0.0 1869.0
0.873000025749 -0.222000002861 0.0 1830.0
0.870999991894 -0.225999996066 0.0 1852.0
0.875 -0.232999995351 0.0 1900.0
0.867999970913 -0.237000003457 0.0 1979.0
0.873000025749 -0.243000000715 0.0 1920.0
0.871999979019 -0.247999995947 0.0 1949.0
0.867999970913 -0.252999991179 0.0 1943.0
0.867999970913 -0.259000003338 0.0 1943.0
0.867999970913 -0.263999998569 0.0 1948.0
0.864000022411 -0.268000006676 0.0 1914.0
0.860000014305 -0.273000001907 0.0 1929.0
0.870999991894 -0.282000005245 0.0 1915.0
0.864000022411 -0.284999996424 0.0 1955.0
0.861999988556 -0.289999991655 0.0 1918.0
0.85900002718 -0.294999986887 0.0 1887.0
0.85900002718 -0.300000011921 0.0 1911.0
0.861000001431 -0.307000011206 0.0 1884.0
0.861000001431 -0.312999993563 0.0 1900.0
0.855000019073 -0.316000014544 0.0 1860.0
0.856000006199 -0.321999996901 0.0010000000475 1861.0
0.856000006199 -0.32800000906 0.0010000000475 1847.0
0.853999972343 -0.333000004292 0.0010000000475 1900.0
0.853999972343 -0.338999986649 0.0010000000475 1915.0
0.852999985218 -0.344999998808 0.0010000000475 1897.0
0.848999977112 -0.349000006914 0.0010000000475 1881.0
0.855000019073 -0.358000010252 0.0010000000475 1895.0
0.847999989986 -0.361000001431 0.0010000000475 1887.0
0.846000015736 -0.365999996662 0.0010000000475 1899.0
0.846000015736 -0.372000008821 0.0010000000475 1933.0
0.841000020504 -0.375999987125 0.0010000000475 1944.0
0.846000015736 -0.384000003338 0.0010000000475 1957.0
0.841000020504 -0.388000011444 0.0010000000475 1932.0
0.846000015736 -0.397000014782 0.0010000000475 1934.0
0.842999994755 -0.400999993086 0.0010000000475 1954.0
0.837000012398 -0.405000001192 0.0010000000475 1971.0
0.841000020504 -0.412999987602 0.0010000000475 1935.0
0.834999978542 -0.416000008583 0.0010000000475 1874.0
0.832000017166 -0.42199999094 0.0010000000475 1883.0
0.834999978542 -0.428999990225 0.0010000000475 1863.0
0.836000025272 -0.43599998951 0.0010000000475 1853.0
0.834999978542 -0.442000001669 0.0010000000475 1898.0
0.833999991417 -0.449000000954 0.0010000000475 1889.0
0.829999983311 -0.45300000906 0.0010000000475 1830.0
0.82800000906 -0.458000004292 0.0010000000475 1808.0
1.36500000954 0.782000005245 -0.0120000001043 252.0
1.70500004292 0.962999999523 -0.0149999996647 231.0
1.69500005245 0.943000018597 -0.0149999996647 230.0
1.76100003719 0.966000020504 -0.0149999996647 223.0
1.77199995518 0.958000004292 -0.0149999996647 229.0
1.84300005436 0.981000006199 -0.01600000076 197.0
2.02800011635 1.06400001049 -0.0170000009239 166.0
2.06399989128 1.06700003147 -0.0170000009239 202.0
2.07899999619 1.05799996853 -0.0170000009239 234.0
2.09100008011 1.0490000248 -0.0170000009239 303.0
2.09699988365 1.03499996662 -0.0170000009239 308.0
2.08999991417 1.01600003242 -0.0170000009239 303.0
2.09800004959 1.0039999485 -0.0170000009239 310.0
2.10700011253 0.992999970913 -0.0170000009239 301.0
2.10700011253 0.976999998093 -0.0170000009239 161.0
2.1970000267 1.00300002098 -0.0179999992251 115.0
2.17700004578 0.977999985218 -0.0170000009239 214.0
2.20499992371 0.973999977112 -0.0170000009239 383.0
2.22399997711 0.967000007629 -0.0170000009239 212.0
2.28800010681 0.977999985218 -0.0179999992251 100.0
3.26799988747 1.02100002766 -0.0230000000447 121.0
3.38199996948 1.03499996662 -0.0240000002086 86.0
3.40300011635 1.01999998093 -0.0240000002086 78.0
3.82399988174 1.1210000515 -0.0260000005364 68.0
3.75 1.0759999752 -0.0260000005364 100.0
3.76200008392 1.05599999428 -0.0260000005364 116.0
3.82100009918 1.04799997807 -0.0260000005364 94.0
4.03700017929 1.08200001717 -0.0270000007004 87.0
4.1360001564 1.08200001717 -0.0280000008643 86.0
4.13199996948 1.05599999428 -0.0270000007004 108.0
4.09200000763 1.01999998093 -0.0270000007004 170.0
4.07600021362 0.990999996662 -0.0270000007004 178.0
4.09800004959 0.971000015736 -0.0270000007004 149.0
4.14900016785 0.958000004292 -0.0270000007004 128.0
4.12400007248 0.925999999046 -0.0270000007004 124.0
4.09100008011 0.893999993801 -0.0260000005364 126.0
4.13399982452 0.878000020981 -0.0260000005364 133.0
4.10300016403 0.847000002861 -0.0260000005364 125.0
4.09999990463 0.822000026703 -0.0260000005364 128.0
4.09000015259 0.795000016689 -0.0260000005364 138.0
4.13199996948 0.777999997139 -0.0260000005364 133.0
4.16800022125 0.759999990463 -0.0260000005364 131.0
4.1139998436 0.726000010967 -0.0250000003725 129.0
4.11999988556 0.702000021935 -0.0250000003725 133.0
4.10400009155 0.675000011921 -0.0250000003725 140.0
4.10599994659 0.651000022888 -0.0250000003725 141.0
4.09899997711 0.625 -0.0250000003725 133.0
4.14099979401 0.606999993324 -0.0250000003725 138.0
4.10500001907 0.57800000906 -0.0250000003725 139.0
4.14099979401 0.559000015259 -0.0250000003725 146.0
4.132999897 0.532999992371 -0.0240000002086 145.0
4.12300014496 0.508000016212 -0.0240000002086 133.0
4.10599994659 0.481999993324 -0.0240000002086 125.0
4.07299995422 0.453999996185 -0.0240000002086 136.0
4.10200023651 0.433999985456 -0.0240000002086 124.0
4.20399999619 0.419999986887 -0.0240000002086 82.0
4.53000020981 0.425999999046 -0.0260000005364 72.0
4.51599979401 0.398000001907 -0.0260000005364 74.0
4.58099985123 0.377999991179 -0.0260000005364 71.0
4.66499996185 0.356999993324 -0.0260000005364 67.0
4.58500003815 0.324999988079 -0.0260000005364 59.0
4.6360001564 0.300999999046 -0.0260000005364 64.0
4.6139998436 0.273000001907 -0.0260000005364 71.0
4.59700012207 0.246000006795 -0.0250000003725 67.0
4.63999986649 0.221000000834 -0.0250000003725 67.0
4.64200019836 0.194999992847 -0.0250000003725 63.0
4.63000011444 0.167999997735 -0.0250000003725 66.0
4.632999897 0.141000002623 -0.0250000003725 59.0
4.66099977493 0.115000002086 -0.0250000003725 70.0
4.69500017166 0.0890000015497 -0.0250000003725 65.0
4.72200012207 0.0619999989867 -0.0250000003725 65.0
4.65799999237 0.035000000149 -0.0250000003725 68.0
4.71999979019 0.00800000037998 -0.0250000003725 60.0
4.78100013733 -0.0179999992251 -0.0250000003725 60.0
4.70699977875 -0.0450000017881 -0.0240000002086 59.0
4.77500009537 -0.0729999989271 -0.0250000003725 58.0
4.6939997673 -0.0989999994636 -0.0240000002086 59.0
4.76900005341 -0.12800000608 -0.0240000002086 59.0
4.77799987793 -0.156000003219 -0.0240000002086 61.0
4.78399991989 -0.184000000358 -0.0240000002086 54.0
4.81300020218 -0.211999997497 -0.0240000002086 56.0
4.8109998703 -0.239999994636 -0.0240000002086 54.0
4.85699987411 -0.270000010729 -0.0240000002086 54.0
4.88700008392 -0.300000011921 -0.0240000002086 52.0
0.920000016689 -0.123000003397 -0.00499999988824 439.0
0.89099997282 -0.123999997973 -0.00499999988824 1664.0
0.893000006676 -0.129999995232 -0.00499999988824 1832.0
0.887000024319 -0.134000003338 -0.00499999988824 1837.0
0.888999998569 -0.140000000596 -0.00499999988824 1884.0
0.885999977589 -0.144999995828 -0.00400000018999 1873.0
0.887000024319 -0.15000000596 -0.00400000018999 1877.0
0.885999977589 -0.155000001192 -0.00400000018999 1987.0
0.888000011444 -0.16099999845 -0.00400000018999 1922.0
0.882000029087 -0.165000006557 -0.00400000018999 1963.0
0.882000029087 -0.170000001788 -0.00400000018999 1908.0
0.887000024319 -0.177000001073 -0.00400000018999 1883.0
0.888000011444 -0.181999996305 -0.00400000018999 1878.0
0.879999995232 -0.186000004411 -0.00400000018999 1890.0
0.882000029087 -0.192000001669 -0.00400000018999 1872.0
0.880999982357 -0.196999996901 -0.00400000018999 1871.0
0.879999995232 -0.202000007033 -0.00400000018999 1839.0
0.875999987125 -0.206000000238 -0.00400000018999 1868.0
0.879999995232 -0.212999999523 -0.00400000018999 1911.0
0.878000020981 -0.217999994755 -0.00400000018999 1891.0
0.876999974251 -0.223000004888 -0.00400000018999 1819.0
0.871999979019 -0.226999998093 -0.00400000018999 1895.0
0.873000025749 -0.231999993324 -0.00400000018999 1936.0
0.874000012875 -0.238000005484 -0.00400000018999 2015.0
0.870000004768 -0.243000000715 -0.00400000018999 1977.0
0.870000004768 -0.247999995947 -0.00400000018999 1982.0
0.869000017643 -0.252999991179 -0.00400000018999 1969.0
0.867999970913 -0.259000003338 -0.00400000018999 1953.0
0.865999996662 -0.263000011444 -0.00400000018999 1986.0
0.866999983788 -0.268999993801 -0.00400000018999 1961.0
0.867999970913 -0.27500000596 -0.00400000018999 1952.0
0.867999970913 -0.280999988317 -0.00400000018999 2005.0
0.861999988556 -0.284000009298 -0.00400000018999 2010.0
0.85900002718 -0.28900000453 -0.00400000018999 1959.0
0.865000009537 -0.29699999094 -0.00400000018999 1926.0
0.864000022411 -0.301999986172 -0.00400000018999 1922.0
0.861000001431 -0.307000011206 -0.00400000018999 1920.0
0.861000001431 -0.312999993563 -0.00400000018999 1936.0
0.856999993324 -0.317000001669 -0.00400000018999 1888.0
0.855000019073 -0.321999996901 -0.00400000018999 1852.0
0.85799998045 -0.328999996185 -0.00400000018999 1839.0
0.851999998093 -0.333000004292 -0.00400000018999 1888.0
0.850000023842 -0.337999999523 -0.00400000018999 1908.0
0.847000002861 -0.342000007629 -0.00400000018999 1921.0
0.850000023842 -0.34999999404 -0.00400000018999 1896.0
0.850000023842 -0.354999989271 -0.00400000018999 1893.0
0.84399998188 -0.358999997377 -0.00300000002608 1910.0
0.842000007629 -0.363999992609 -0.00300000002608 1905.0
0.84399998188 -0.370999991894 -0.00300000002608 1906.0
0.842999994755 -0.377000004053 -0.00300000002608 1967.0
0.847000002861 -0.384999990463 -0.00300000002608 1967.0
0.84399998188 -0.388999998569 -0.00300000002608 1941.0
0.842000007629 -0.395000010729 -0.00300000002608 1969.0
0.838999986649 -0.40000000596 -0.00300000002608 2002.0
0.837000012398 -0.405000001192 -0.00300000002608 1988.0
0.837999999523 -0.412000000477 -0.00300000002608 1984.0
0.834999978542 -0.416000008583 -0.00300000002608 1893.0
0.837999999523 -0.425000011921 -0.00300000002608 1890.0
0.833999991417 -0.428999990225 -0.00300000002608 1889.0
0.828999996185 -0.432999998331 -0.00300000002608 1879.0
0.833000004292 -0.442000001669 -0.00300000002608 1886.0
0.836000025272 -0.449999988079 -0.00300000002608 1907.0
0.828999996185 -0.451999992132 -0.00300000002608 1855.0
0.833999991417 -0.462000012398 -0.00300000002608 1838.0
1.34599995613 0.771000027657 -0.0209999997169 261.0
1.66499996185 0.940999984741 -0.0250000003725 228.0
1.7009999752 0.947000026703 -0.0260000005364 225.0
1.77100002766 0.972000002861 -0.0270000007004 226.0
1.80400002003 0.975000023842 -0.0270000007004 213.0
1.82400000095 0.971000015736 -0.0270000007004 209.0
2.06599998474 1.08399999142 -0.0309999994934 193.0
2.07399988174 1.0720000267 -0.0309999994934 196.0
2.08999991417 1.06400001049 -0.0309999994934 210.0
2.08500003815 1.04499995708 -0.0309999994934 213.0
2.10199999809 1.0379999876 -0.0309999994934 238.0
2.09800004959 1.01999998093 -0.0299999993294 305.0
2.11599993706 1.01300001144 -0.0309999994934 307.0
2.10500001907 0.991999983788 -0.0299999993294 300.0
2.1099998951 0.978999972343 -0.0299999993294 167.0
2.1400001049 0.976999998093 -0.0309999994934 108.0
2.19400000572 0.986000001431 -0.0309999994934 214.0
2.19600009918 0.97000002861 -0.0309999994934 383.0
2.24399995804 0.975000023842 -0.0320000015199 201.0
2.20600008965 0.943000018597 -0.0309999994934 98.0
3.24499988556 1.01400005817 -0.0419999994338 114.0
3.29399991035 1.00800001621 -0.0430000014603 91.0
3.38100004196 1.01300001144 -0.0439999997616 85.0
3.77800011635 1.10800004005 -0.0480000004172 75.0
3.6740000248 1.05400002003 -0.0469999983907 110.0
3.78699994087 1.06200003624 -0.0480000004172 112.0
3.80999994278 1.04499995708 -0.0480000004172 99.0
3.99699997902 1.07099997997 -0.0509999990463 90.0
3.95600008965 1.03499996662 -0.0500000007451 93.0
4.06599998474 1.03900003433 -0.0509999990463 99.0
4.09700012207 1.02100002766 -0.0509999990463 149.0
4.09899997711 0.995999991894 -0.0509999990463 146.0
4.125 0.976999998093 -0.0509999990463 139.0
4.10900020599 0.948000013828 -0.0509999990463 127.0
4.15199995041 0.933000028133 -0.0509999990463 116.0
4.17000007629 0.911000013351 -0.0509999990463 108.0
4.17899990082 0.888000011444 -0.0509999990463 110.0
4.15899991989 0.85799998045 -0.0509999990463 113.0
4.10099983215 0.822000026703 -0.0500000007451 113.0
4.125 0.801999986172 -0.0500000007451 110.0
4.0529999733 0.763000011444 -0.0489999987185 111.0
4.15299987793 0.757000029087 -0.0500000007451 114.0
4.132999897 0.728999972343 -0.0500000007451 115.0
4.10500001907 0.699000000954 -0.0489999987185 120.0
4.11299991608 0.675999999046 -0.0489999987185 115.0
4.14599990845 0.657000005245 -0.0489999987185 118.0
4.10200023651 0.625999987125 -0.0489999987185 124.0
4.10200023651 0.601999998093 -0.0489999987185 141.0
4.12300014496 0.579999983311 -0.0489999987185 133.0
4.10099983215 0.552999973297 -0.0480000004172 141.0
4.11199998856 0.53100001812 -0.0480000004172 140.0
4.117000103 0.507000029087 -0.0480000004172 129.0
4.10699987411 0.481999993324 -0.0480000004172 122.0
4.07800006866 0.455000013113 -0.0469999983907 135.0
4.05800008774 0.428999990225 -0.0469999983907 122.0
4.27099990845 0.425999999046 -0.0489999987185 88.0
4.54799985886 0.426999986172 -0.0520000010729 70.0
4.55000019073 0.400999993086 -0.0520000010729 77.0
4.60400009155 0.379000008106 -0.0529999993742 70.0
4.5609998703 0.349000006914 -0.0520000010729 64.0
4.57299995422 0.324000000954 -0.0520000010729 66.0
4.57299995422 0.29699999094 -0.0520000010729 69.0
4.61800003052 0.273999989033 -0.0520000010729 67.0
4.64699983597 0.247999995947 -0.0520000010729 67.0
4.61199998856 0.219999998808 -0.0520000010729 73.0
4.64200019836 0.194999992847 -0.0520000010729 67.0
4.67000007629 0.168999999762 -0.0520000010729 68.0
4.63399982452 0.141000002623 -0.0520000010729 68.0
4.66900014877 0.115000002086 -0.0520000010729 65.0
4.69999980927 0.0890000015497 -0.0520000010729 68.0
4.66400003433 0.0610000006855 -0.0520000010729 66.0
4.75 0.035000000149 -0.0520000010729 65.0
4.69999980927 0.00800000037998 -0.0520000010729 60.0
4.73600006104 -0.0179999992251 -0.0520000010729 62.0
4.78800010681 -0.0460000000894 -0.0529999993742 59.0
4.76900005341 -0.0729999989271 -0.0520000010729 60.0
4.77600002289 -0.101000003517 -0.0520000010729 65.0
4.75699996948 -0.12800000608 -0.0520000010729 65.0
4.81599998474 -0.157000005245 -0.0520000010729 59.0
4.75400018692 -0.181999996305 -0.0520000010729 57.0
4.82700014114 -0.212999999523 -0.0520000010729 59.0
4.78000020981 -0.238999992609 -0.0520000010729 58.0
4.89599990845 -0.273000001907 -0.0529999993742 53.0
4.86299991608 -0.298999994993 -0.0520000010729 52.0
4.88899993896 -0.328999996185 -0.0520000010729 58.0
0.911000013351 -0.122000001371 -0.00999999977648 484.0
0.894999980927 -0.125 -0.00999999977648 1715.0
0.893000006676 -0.129999995232 -0.00999999977648 1870.0
0.889999985695 -0.135000005364 -0.00999999977648 1861.0
0.893000006676 -0.141000002623 -0.00999999977648 1915.0
0.889999985695 -0.144999995828 -0.00999999977648 1910.0
0.89099997282 -0.150999993086 -0.00999999977648 1883.0
0.888999998569 -0.156000003219 -0.00999999977648 1968.0
0.885999977589 -0.159999996424 -0.00999999977648 1946.0
0.888000011444 -0.165999993682 -0.00999999977648 1980.0
0.880999982357 -0.170000001788 -0.00899999961257 1938.0
0.884000003338 -0.175999999046 -0.00999999977648 1887.0
0.884000003338 -0.180999994278 -0.00899999961257 1895.0
0.882000029087 -0.186000004411 -0.00899999961257 1871.0
0.884999990463 -0.192000001669 -0.00899999961257 1888.0
0.879999995232 -0.196999996901 -0.00899999961257 1869.0
0.879999995232 -0.202000007033 -0.00899999961257 1874.0
0.878000020981 -0.207000002265 -0.00899999961257 1836.0
0.870999991894 -0.209999993443 -0.00899999961257 1868.0
0.876999974251 -0.216999992728 -0.00899999961257 1899.0
0.875999987125 -0.222000002861 -0.00899999961257 1856.0
0.875 -0.228000000119 -0.00899999961257 1906.0
0.873000025749 -0.231999993324 -0.00899999961257 1949.0
0.871999979019 -0.238000005484 -0.00899999961257 1999.0
0.871999979019 -0.243000000715 -0.00899999961257 2039.0
0.870000004768 -0.247999995947 -0.00899999961257 2004.0
0.867999970913 -0.252999991179 -0.00899999961257 1976.0
0.869000017643 -0.259000003338 -0.00899999961257 1980.0
0.871999979019 -0.264999985695 -0.00899999961257 2001.0
0.864000022411 -0.268000006676 -0.00899999961257 2016.0
0.870999991894 -0.275999993086 -0.00899999961257 1975.0
0.864000022411 -0.280000001192 -0.00899999961257 1991.0
0.864000022411 -0.284999996424 -0.00899999961257 2035.0
0.860000014305 -0.28900000453 -0.00899999961257 1988.0
0.861000001431 -0.294999986887 -0.00899999961257 1955.0
0.860000014305 -0.300999999046 -0.00899999961257 1921.0
0.85900002718 -0.305999994278 -0.00899999961257 1941.0
0.856999993324 -0.31099998951 -0.00899999961257 1961.0
0.85799998045 -0.317000001669 -0.00899999961257 1953.0
0.856000006199 -0.321999996901 -0.00899999961257 1923.0
0.851000010967 -0.326000005007 -0.00899999961257 1859.0
0.853999972343 -0.333000004292 -0.00899999961257 1888.0
0.851999998093 -0.338999986649 -0.00899999961257 1871.0
0.852999985218 -0.344999998808 -0.00899999961257 1904.0
0.853999972343 -0.351000010967 -0.00899999961257 1913.0
0.846000015736 -0.354000002146 -0.00899999961257 1915.0
0.847999989986 -0.361000001431 -0.00899999961257 1909.0
0.847000002861 -0.365999996662 -0.00899999961257 1895.0
0.84500002861 -0.372000008821 -0.00899999961257 1932.0
0.841000020504 -0.375999987125 -0.00899999961257 1956.0
0.846000015736 -0.384000003338 -0.00899999961257 1988.0
0.841000020504 -0.388000011444 -0.00899999961257 1988.0
0.84500002861 -0.395999997854 -0.00899999961257 2010.0
0.84500002861 -0.402000010014 -0.00899999961257 2035.0
0.834999978542 -0.404000014067 -0.00899999961257 1992.0
0.833999991417 -0.409999996424 -0.00899999961257 2044.0
0.834999978542 -0.416999995708 -0.00899999961257 1952.0
0.837000012398 -0.423999994993 -0.00899999961257 1955.0
0.833999991417 -0.428999990225 -0.00899999961257 1966.0
0.834999978542 -0.43599998951 -0.00899999961257 1922.0
0.832000017166 -0.441000014544 -0.00899999961257 1872.0
0.833000004292 -0.448000013828 -0.00899999961257 1893.0
0.828999996185 -0.451999992132 -0.00800000037998 1888.0
0.829999983311 -0.460000008345 -0.00800000037998 1848.0
1.33800005913 0.76700001955 -0.0289999991655 250.0
1.68799996376 0.953999996185 -0.0370000004768 244.0
1.74100005627 0.96899998188 -0.0379999987781 228.0
1.74199998379 0.954999983311 -0.0379999987781 220.0
1.77499997616 0.959999978542 -0.0379999987781 218.0
1.80900001526 0.962999999523 -0.0390000008047 187.0
2.03500008583 1.05200004578 -0.0430000014603 79.0
2.00900006294 1.02300000191 -0.0419999994338 101.0
2.07899999619 1.04299998283 -0.0439999997616 168.0
2.10899996758 1.04100000858 -0.0439999997616 266.0
2.10800004005 1.02499997616 -0.0439999997616 316.0
2.09400010109 1.00300002098 -0.0430000014603 306.0
2.09899997711 0.989000022411 -0.0430000014603 283.0
2.13499999046 0.990000009537 -0.0439999997616 171.0
2.125 0.97000002861 -0.0439999997616 111.0
2.1970000267 0.986999988556 -0.0450000017881 221.0
2.20499992371 0.975000023842 -0.0450000017881 379.0
2.21700000763 0.963999986649 -0.0450000017881 211.0
3.18700003624 0.995999991894 -0.0610000006855 117.0
3.30999994278 1.01300001144 -0.0630000010133 86.0
3.46799993515 1.03900003433 -0.0649999976158 82.0
3.742000103 1.09700000286 -0.070000000298 62.0
3.73000001907 1.07000005245 -0.070000000298 102.0
3.72199988365 1.04400002956 -0.070000000298 102.0
3.80999994278 1.04499995708 -0.0710000023246 103.0
3.89899992943 1.04499995708 -0.0719999969006 102.0
3.92199993134 1.02600002289 -0.0729999989271 117.0
4.04300022125 1.03299999237 -0.0750000029802 109.0
4.12599992752 1.02799999714 -0.0759999975562 134.0
4.13899993896 1.00600004196 -0.0759999975562 130.0
4.11199998856 0.973999977112 -0.0750000029802 134.0
4.11100006104 0.948000013828 -0.0750000029802 134.0
4.15299987793 0.933000028133 -0.0759999975562 116.0
4.06300020218 0.888000011444 -0.0740000009537 114.0
4.12300014496 0.875999987125 -0.0750000029802 120.0
4.15700006485 0.85799998045 -0.0750000029802 117.0
4.09100008011 0.819000005722 -0.0740000009537 121.0
4.10500001907 0.797999978065 -0.0740000009537 120.0
4.13100004196 0.777999997139 -0.0740000009537 116.0
4.12699985504 0.751999974251 -0.0740000009537 117.0
4.14799976349 0.731000006199 -0.0740000009537 118.0
4.13700008392 0.704999983311 -0.0740000009537 119.0
4.13199996948 0.679000020027 -0.0729999989271 120.0
4.11600017548 0.652000010014 -0.0729999989271 120.0
4.10400009155 0.625999987125 -0.0729999989271 114.0
4.0720000267 0.597000002861 -0.0719999969006 140.0
4.132999897 0.582000017166 -0.0729999989271 134.0
4.09200000763 0.551999986172 -0.0719999969006 141.0
4.13100004196 0.532999992371 -0.0719999969006 144.0
4.13700008392 0.509000003338 -0.0719999969006 132.0
4.10799980164 0.481999993324 -0.0719999969006 124.0
4.09499979019 0.456000000238 -0.0710000023246 132.0
4.11899995804 0.435000002384 -0.0719999969006 121.0
4.26000022888 0.425000011921 -0.0740000009537 80.0
4.54899978638 0.426999986172 -0.0790000036359 63.0
