ply
format ascii 1.0
element vertex 933
property float x
property float y
property float z
property float intensity
end_header
0.0379999987781 0.00499999988824 0.00400000018999 50.0
0.17499999702 0.01600000076 0.0250000003725 50.0
4.95399999619 0.358000010252 0.78100001812 50.0
0.0520000010729 0.00300000002608 0.00600000005215 50.0
0.108000002801 0.00400000018999 0.0149999996647 51.0
0.00899999961257 0.00200000009499 0.0 57.0
0.175999999046 0.00400000018999 0.0250000003725 54.0
4.96600008011 0.0130000002682 0.782999992371 55.0
4.95900011063 -0.0149999996647 0.78100001812 52.0
0.134000003338 0.0 0.0189999993891 52.0
0.0939999967813 -0.00400000018999 0.0130000002682 54.0
4.97200012207 -0.449999988079 0.787999987602 58.0
0.976999998093 -0.097000002861 0.152999997139 927.0
0.787000000477 -0.0869999974966 0.123000003397 177.0
0.785000026226 -0.0909999981523 0.123000003397 169.0
0.79699999094 -0.097000002861 0.125 175.0
0.796000003815 -0.101999998093 0.125 176.0
0.791000008583 -0.105999998748 0.123999997973 170.0
0.796000003815 -0.111000001431 0.125 177.0
0.782999992371 -0.11400000006 0.123000003397 178.0
0.791999995708 -0.119999997318 0.125 181.0
0.791000008583 -0.125 0.125 187.0
0.78100001812 -0.12800000608 0.123000003397 184.0
0.810000002384 -0.137999996543 0.12800000608 189.0
0.805000007153 -0.141000002623 0.127000004053 190.0
1.00100004673 -0.188999995589 0.158999994397 1100.0
0.96899998188 -0.188999995589 0.153999999166 1303.0
0.972000002861 -0.194999992847 0.155000001192 1307.0
0.97000002861 -0.201000005007 0.155000001192 1306.0
0.97000002861 -0.207000002265 0.155000001192 1330.0
0.97000002861 -0.211999997497 0.155000001192 1332.0
0.967000007629 -0.217999994755 0.155000001192 1338.0
0.963999986649 -0.223000004888 0.153999999166 1336.0
0.955999970436 -0.226999998093 0.152999997139 1351.0
0.961000025272 -0.233999997377 0.153999999166 1374.0
0.958000004292 -0.238999992609 0.153999999166 1367.0
0.957000017166 -0.245000004768 0.153999999166 1385.0
0.954999983311 -0.250999987125 0.153999999166 1393.0
0.92199999094 -0.247999995947 0.149000003934 1281.0
0.77999997139 -0.218999996781 0.126000002027 218.0
0.76700001955 -0.219999998808 0.123999997973 212.0
0.782999992371 -0.230000004172 0.127000004053 205.0
0.768999993801 -0.231000006199 0.125 211.0
0.750999987125 -0.230000004172 0.122000001371 209.0
0.759999990463 -0.238000005484 0.123999997973 212.0
0.773999989033 -0.24699999392 0.126000002027 214.0
0.740000009537 -0.240999996662 0.120999999344 212.0
0.762000024319 -0.252999991179 0.125 210.0
0.753000020981 -0.254999995232 0.123000003397 218.0
0.758000016212 -0.261999994516 0.125 223.0
0.740000009537 -0.261000007391 0.122000001371 228.0
0.920000016689 -0.344000011683 0.152999997139 1448.0
0.913999974728 -0.347999989986 0.151999995112 1484.0
0.912999987602 -0.354000002146 0.151999995112 1502.0
0.911000013351 -0.358999997377 0.152999997139 1500.0
0.912000000477 -0.365999996662 0.152999997139 1519.0
0.903999984264 -0.368999987841 0.151999995112 1500.0
0.911000013351 -0.379000008106 0.153999999166 1517.0
0.898000001907 -0.379999995232 0.151999995112 1533.0
0.902999997139 -0.388000011444 0.152999997139 1537.0
0.901000022888 -0.393999993801 0.152999997139 1529.0
0.897000014782 -0.398999989033 0.152999997139 1533.0
0.898000001907 -0.405999988317 0.152999997139 1552.0
0.851000010967 -0.389999985695 0.145999997854 1333.0
0.740999996662 -0.344999998808 0.127000004053 463.0
0.662000000477 -0.312999993563 0.112999998033 257.0
0.676999986172 -0.324999988079 0.115999996662 248.0
0.644999980927 -0.31400001049 0.111000001431 252.0
0.657000005245 -0.324999988079 0.112999998033 245.0
0.638999998569 -0.321000009775 0.111000001431 245.0
0.643000006676 -0.32800000906 0.112000003457 257.0
0.637000024319 -0.330000013113 0.111000001431 251.0
0.610000014305 -0.321000009775 0.105999998748 259.0
0.632000029087 -0.337999999523 0.111000001431 245.0
0.632000029087 -0.342999994755 0.111000001431 258.0
0.584999978542 -0.321000009775 0.103000000119 255.0
2.1099998951 1.22699999809 0.356000006199 134.0
2.11899995804 1.21399998665 0.356000006199 98.0
2.28399991989 1.25199997425 0.379999995232 126.0
2.38700008392 1.28900003433 0.397000014782 87.0
4.41400003433 2.31399989128 0.731999993324 82.0
0.0179999992251 0.00800000037998 0.0010000000475 80.0
0.0109999999404 0.00499999988824 0.0 81.0
4.43300008774 2.22000002861 0.728999972343 83.0
4.44899988174 2.16000008583 0.727999985218 80.0
4.46199989319 2.13199996948 0.727999985218 90.0
4.48699998856 2.1099998951 0.731000006199 78.0
4.47700023651 2.0720000267 0.726999998093 81.0
4.53399991989 2.06500005722 0.735000014305 92.0
4.53999996185 2.03399991989 0.73400002718 78.0
4.51200008392 1.98899996281 0.727999985218 80.0
4.60900020599 1.99800002575 0.741999983788 92.0
4.54699993134 1.93799996376 0.731000006199 80.0
4.5609998703 1.91100001335 0.731999993324 82.0
4.64799976349 1.91499996185 0.744000017643 83.0
4.60599994659 1.86500000954 0.736000001431 82.0
4.40799999237 1.7539999485 0.70300000906 80.0
4.45800018311 1.74300003052 0.708999991417 76.0
4.56500005722 1.75300002098 0.725000023842 78.0
4.44500017166 1.67599999905 0.704999983311 106.0
4.45300006866 1.64800000191 0.704999983311 110.0
4.49399995804 1.63300001621 0.709999978542 107.0
4.56199979782 1.62600004673 0.72000002861 100.0
4.64799976349 1.62600004673 0.731999993324 87.0
4.67999982834 1.60599994659 0.736000001431 95.0
4.65899991989 1.56799995899 0.731999993324 100.0
4.59299993515 1.51499998569 0.72000002861 111.0
4.62799978256 1.4960000515 0.723999977112 115.0
4.63999986649 1.46899998188 0.725000023842 105.0
4.6360001564 1.43799996376 0.723999977112 101.0
4.77600002289 1.45000004768 0.744000017643 90.0
0.0260000005364 0.00800000037998 0.00200000009499 81.0
0.103000000119 0.0299999993294 0.0140000004321 94.0
0.142000004649 0.0410000011325 0.019999999553 76.0
0.187999993563 0.0520000010729 0.0270000007004 85.0
0.153999999166 0.0419999994338 0.0209999997169 77.0
0.291999995708 0.0780000016093 0.0430000014603 85.0
0.241999998689 0.0630000010133 0.035000000149 84.0
0.275999993086 0.070000000298 0.0399999991059 80.0
0.337000012398 0.082999996841 0.0500000007451 87.0
0.303999990225 0.0729999989271 0.0450000017881 89.0
0.190999999642 0.0450000017881 0.0270000007004 90.0
4.86899995804 1.10899996758 0.749000012875 91.0
4.87099981308 1.07899999619 0.748000025749 99.0
4.90299987793 1.05599999428 0.753000020981 98.0
4.87300014496 1.01999998093 0.746999979019 107.0
4.89900016785 0.995000004768 0.750999987125 102.0
0.0219999998808 0.00499999988824 0.0010000000475 104.0
0.0390000008047 0.00800000037998 0.00400000018999 98.0
0.112000003457 0.0209999997169 0.0149999996647 98.0
0.305000007153 0.054999999702 0.0439999997616 88.0
0.486999988556 0.0850000008941 0.0719999969006 80.0
0.504999995232 0.0850000008941 0.0750000029802 85.0
0.56400001049 0.0909999981523 0.0839999988675 86.0
0.783999979496 0.122000001371 0.116999998689 122.0
0.657999992371 0.0989999994636 0.097999997437 98.0
0.662999987602 0.0960000008345 0.0989999994636 96.0
0.731999993324 0.101000003517 0.108999997377 124.0
0.728999972343 0.0960000008345 0.108999997377 125.0
0.606000006199 0.0769999995828 0.0900000035763 86.0
0.677999973297 0.082000002265 0.101000003517 99.0
0.550000011921 0.0630000010133 0.0810000002384 94.0
0.542999982834 0.0590000003576 0.0799999982119 89.0
0.598999977112 0.0619999989867 0.0890000015497 85.0
0.600000023842 0.0579999983311 0.0890000015497 90.0
0.660000026226 0.0599999986589 0.097999997437 101.0
0.584999978542 0.0500000007451 0.0869999974966 91.0
0.574000000954 0.0460000000894 0.0850000008941 89.0
0.689999997616 0.0509999990463 0.101999998093 97.0
0.606999993324 0.0379999987781 0.0900000035763 99.0
0.551999986172 0.0309999994934 0.0810000002384 87.0
0.670000016689 0.0340000018477 0.0989999994636 106.0
0.639999985695 0.0289999991655 0.0949999988079 92.0
0.731999993324 0.0240000002086 0.108999997377 141.0
0.711000025272 0.019999999553 0.105999998748 96.0
0.638999998569 0.0140000004321 0.0949999988079 102.0
0.787000000477 0.0120000001043 0.116999998689 125.0
0.580999970436 0.00600000005215 0.0860000029206 91.0
0.662000000477 0.00300000002608 0.097999997437 91.0
0.550999999046 0.0 0.0810000002384 86.0
0.398999989033 -0.0010000000475 0.0579999983311 66.0
0.16099999845 -0.0109999999404 0.0219999998808 51.0
0.977999985218 -0.097000002861 0.146999999881 918.0
0.801999986172 -0.0890000015497 0.120999999344 174.0
0.813000023365 -0.0949999988079 0.122000001371 166.0
0.824999988079 -0.101000003517 0.123999997973 172.0
0.800000011921 -0.101999998093 0.120999999344 182.0
0.768000006676 -0.103000000119 0.115999996662 174.0
0.802999973297 -0.112000003457 0.120999999344 178.0
0.785000026226 -0.11400000006 0.119000002742 180.0
0.787000000477 -0.119000002742 0.119000002742 179.0
0.782000005245 -0.123000003397 0.118000000715 185.0
0.763000011444 -0.125 0.115999996662 181.0
0.791999995708 -0.134000003338 0.119999997318 184.0
0.785000026226 -0.137999996543 0.119000002742 187.0
0.996999979019 -0.187999993563 0.151999995112 1091.0
0.975000023842 -0.189999997616 0.149000003934 1296.0
0.973999977112 -0.194999992847 0.149000003934 1293.0
0.97000002861 -0.20000000298 0.149000003934 1308.0
0.971000015736 -0.207000002265 0.149000003934 1333.0
0.963999986649 -0.21099999547 0.148000001907 1338.0
0.963999986649 -0.216999992728 0.148000001907 1348.0
0.967000007629 -0.224000006914 0.149000003934 1352.0
0.959999978542 -0.228000000119 0.148000001907 1366.0
0.959999978542 -0.233999997377 0.148000001907 1369.0
0.955999970436 -0.238999992609 0.148000001907 1372.0
0.95300000906 -0.244000002742 0.148000001907 1374.0
0.950999975204 -0.248999997973 0.148000001907 1394.0
0.926999986172 -0.248999997973 0.143999993801 1289.0
0.763999998569 -0.21400000155 0.119000002742 217.0
0.758000016212 -0.216999992728 0.118000000715 210.0
0.753000020981 -0.221000000834 0.116999998689 212.0
0.768000006676 -0.230000004172 0.119999997318 217.0
0.753000020981 -0.230000004172 0.118000000715 208.0
0.760999977589 -0.238000005484 0.119000002742 216.0
0.774999976158 -0.24699999392 0.122000001371 209.0
0.748000025749 -0.243000000715 0.118000000715 213.0
0.735000014305 -0.244000002742 0.115999996662 217.0
0.73400002718 -0.247999995947 0.115999996662 218.0
0.773999989033 -0.266999989748 0.123000003397 216.0
0.739000022411 -0.259999990463 0.116999998689 224.0
0.924000024796 -0.344999998808 0.148000001907 1468.0
0.920000016689 -0.34999999404 0.148000001907 1485.0
0.913999974728 -0.354000002146 0.146999999881 1488.0
0.913999974728 -0.360000014305 0.146999999881 1511.0
0.912999987602 -0.365999996662 0.146999999881 1515.0
0.910000026226 -0.370999991894 0.146999999881 1523.0
0.90600001812 -0.375999987125 0.146999999881 1531.0
0.902999997139 -0.381000012159 0.146999999881 1541.0
0.899999976158 -0.386999994516 0.146999999881 1552.0
0.893999993801 -0.391000002623 0.145999997854 1553.0
0.896000027657 -0.398000001907 0.146999999881 1534.0
0.893999993801 -0.402999997139 0.146999999881 1546.0
0.853999972343 -0.391000002623 0.141000002623 1366.0
0.740000009537 -0.344000011683 0.122000001371 505.0
0.665000021458 -0.31400001049 0.108999997377 255.0
0.688000023365 -0.330000013113 0.11400000006 240.0
0.638999998569 -0.31099998951 0.105999998748 246.0
0.65600001812 -0.324000000954 0.108999997377 238.0
0.648999989033 -0.326000005007 0.108000002801 245.0
0.629999995232 -0.321000009775 0.104999996722 253.0
0.64099997282 -0.331999987364 0.107000000775 248.0
0.648999989033 -0.340999990702 0.108999997377 250.0
0.611999988556 -0.326000005007 0.103000000119 248.0
0.611999988556 -0.331000000238 0.103000000119 250.0
0.611000001431 -0.335000008345 0.104000002146 257.0
2.09899997711 1.21899998188 0.338999986649 98.0
4.44199991226 2.32699990273 0.707000017166 91.0
0.0240000002086 0.0109999999404 0.0010000000475 86.0
4.48500013351 2.27900004387 0.709999978542 90.0
0.0390000008047 0.0189999993891 0.00400000018999 88.0
4.49700021744 2.21600008011 0.708000004292 88.0
0.0469999983907 0.0219999998808 0.00499999988824 92.0
0.0839999988675 0.0390000008047 0.0109999999404 83.0
0.0850000008941 0.0390000008047 0.0109999999404 85.0
0.0460000000894 0.0209999997169 0.00499999988824 85.0
0.218999996781 0.0989999994636 0.0320000015199 100.0
0.173999994993 0.0769999995828 0.0250000003725 91.0
0.277999997139 0.122000001371 0.0410000011325 92.0
0.279000014067 0.120999999344 0.0410000011325 102.0
0.317000001669 0.135000005364 0.0469999983907 97.0
0.328999996185 0.137999996543 0.0480000004172 101.0
0.449000000954 0.184000000358 0.0670000016689 118.0
0.435000002384 0.175999999046 0.0649999976158 115.0
0.402000010014 0.158999994397 0.0590000003576 109.0
0.430999994278 0.167999997735 0.0640000030398 115.0
0.51599997282 0.197999998927 0.0769999995828 134.0
0.439999997616 0.165999993682 0.0649999976158 135.0
0.483999997377 0.179000005126 0.0710000023246 158.0
0.535000026226 0.194000005722 0.0790000036359 161.0
0.628000020981 0.224000006914 0.0930000022054 176.0
0.683000028133 0.238999992609 0.101000003517 183.0
0.702000021935 0.240999996662 0.104000002146 191.0
0.70300000906 0.236000001431 0.104000002146 200.0
0.68900001049 0.226999998093 0.101999998093 214.0
0.728999972343 0.234999999404 0.108000002801 234.0
0.759000003338 0.239999994636 0.112000003457 241.0
0.772000014782 0.238999992609 0.11400000006 256.0
0.800999999046 0.243000000715 0.118000000715 277.0
0.827000021935 0.246000006795 0.122000001371 301.0
0.851000010967 0.24699999392 0.125 306.0
0.862999975681 0.245000004768 0.127000004053 321.0
0.876999974251 0.244000002742 0.128999993205 352.0
0.887000024319 0.240999996662 0.129999995232 358.0
0.873000025749 0.231999993324 0.12800000608 367.0
0.883000016212 0.229000002146 0.128999993205 385.0
0.893000006676 0.225999996066 0.129999995232 390.0
0.896000027657 0.221000000834 0.130999997258 400.0
0.90600001812 0.217999994755 0.131999999285 414.0
0.888000011444 0.208000004292 0.128999993205 419.0
0.896000027657 0.203999996185 0.129999995232 428.0
0.888999998569 0.196999996901 0.128999993205 443.0
0.901000022888 0.194000005722 0.130999997258 451.0
0.902000010014 0.188999995589 0.130999997258 459.0
0.902999997139 0.184000000358 0.130999997258 457.0
0.921000003815 0.181999996305 0.134000003338 469.0
0.913999974728 0.17499999702 0.131999999285 476.0
0.910000026226 0.168999999762 0.131999999285 492.0
0.92199999094 0.165000006557 0.133000001311 488.0
0.912000000477 0.158000007272 0.131999999285 490.0
0.924000024796 0.155000001192 0.134000003338 501.0
0.922999978065 0.149000003934 0.133000001311 502.0
0.925000011921 0.143999993801 0.133000001311 509.0
0.920000016689 0.137999996543 0.133000001311 508.0
0.933000028133 0.134000003338 0.135000005364 517.0
0.930000007153 0.12800000608 0.134000003338 530.0
0.933000028133 0.123000003397 0.134000003338 525.0
0.931999981403 0.116999998689 0.134000003338 520.0
0.922999978065 0.111000001431 0.133000001311 526.0
0.916999995708 0.104999996722 0.131999999285 532.0
0.924000024796 0.10000000149 0.133000001311 521.0
0.930999994278 0.0949999988079 0.134000003338 525.0
0.931999981403 0.0900000035763 0.134000003338 528.0
0.924000024796 0.0839999988675 0.133000001311 543.0
0.925000011921 0.0790000036359 0.133000001311 545.0
0.947000026703 0.0750000029802 0.136000007391 548.0
0.922999978065 0.0680000036955 0.133000001311 556.0
0.93599998951 0.0630000010133 0.134000003338 557.0
0.930999994278 0.0570000000298 0.134000003338 547.0
0.936999976635 0.0520000010729 0.134000003338 566.0
0.943000018597 0.0469999983907 0.135000005364 579.0
0.955999970436 0.0419999994338 0.136999994516 591.0
0.938000023365 0.0359999984503 0.135000005364 593.0
0.941999971867 0.0309999994934 0.135000005364 579.0
0.947000026703 0.0260000005364 0.136000007391 576.0
0.930999994278 0.019999999553 0.134000003338 571.0
0.943000018597 0.0149999996647 0.135000005364 554.0
0.935000002384 0.00899999961257 0.134000003338 549.0
0.935000002384 0.00400000018999 0.134000003338 553.0
0.919000029564 -0.0010000000475 0.131999999285 533.0
0.097000002861 -0.00400000018999 0.0120000001043 53.0
0.976999998093 -0.097000002861 0.142000004649 916.0
0.799000024796 -0.0879999995232 0.115999996662 173.0
0.792999982834 -0.0920000001788 0.115000002086 168.0
0.795000016689 -0.097000002861 0.115000002086 175.0
0.785000026226 -0.10000000149 0.11400000006 174.0
0.791999995708 -0.105999998748 0.115000002086 178.0
0.791000008583 -0.111000001431 0.115000002086 179.0
0.788999974728 -0.115000002086 0.115000002086 173.0
0.788999974728 -0.119999997318 0.115000002086 178.0
0.796000003815 -0.125 0.115999996662 185.0
0.782999992371 -0.12800000608 0.11400000006 188.0
0.792999982834 -0.134000003338 0.115999996662 177.0
0.811999976635 -0.142000004649 0.118000000715 183.0
1.00100004673 -0.188999995589 0.146999999881 1089.0
0.976000010967 -0.189999997616 0.143999993801 1302.0
0.973999977112 -0.194999992847 0.143000006676 1299.0
0.966000020504 -0.199000000954 0.142000004649 1319.0
0.967000007629 -0.206000000238 0.143000006676 1327.0
0.967000007629 -0.21099999547 0.143000006676 1339.0
0.966000020504 -0.216999992728 0.143000006676 1340.0
0.962000012398 -0.222000002861 0.142000004649 1344.0
0.961000025272 -0.228000000119 0.143000006676 1366.0
0.961000025272 -0.233999997377 0.143000006676 1372.0
0.952000021935 -0.237000003457 0.141000002623 1349.0
0.958000004292 -0.245000004768 0.143000006676 1373.0
0.95300000906 -0.25 0.142000004649 1397.0
0.930999994278 -0.25 0.138999998569 1295.0
0.760999977589 -0.212999999523 0.11400000006 221.0
0.753000020981 -0.215000003576 0.112000003457 215.0
0.771000027657 -0.225999996066 0.115000002086 207.0
0.754000008106 -0.22499999404 0.112999998033 214.0
0.787000000477 -0.240999996662 0.118000000715 209.0
0.751999974251 -0.234999999404 0.112999998033 214.0
0.760999977589 -0.243000000715 0.115000002086 210.0
0.764999985695 -0.248999997973 0.115999996662 221.0
0.771000027657 -0.256000012159 0.116999998689 218.0
0.725000023842 -0.245000004768 0.109999999404 218.0
0.753000020981 -0.259999990463 0.11400000006 215.0
0.748000025749 -0.263000011444 0.11400000006 221.0
0.930999994278 -0.347000002861 0.143000006676 1452.0
0.924000024796 -0.351000010967 0.143000006676 1488.0
0.912999987602 -0.352999985218 0.141000002623 1515.0
0.912999987602 -0.360000014305 0.141000002623 1520.0
0.911000013351 -0.365000009537 0.141000002623 1517.0
0.903999984264 -0.368999987841 0.141000002623 1513.0
0.90600001812 -0.375999987125 0.141000002623 1517.0
0.90600001812 -0.381999999285 0.142000004649 1536.0
0.898999989033 -0.386000007391 0.141000002623 1551.0
0.898999989033 -0.391999989748 0.141000002623 1543.0
0.894999980927 -0.397000014782 0.141000002623 1546.0
0.893999993801 -0.402999997139 0.141000002623 1543.0
0.85900002718 -0.393000006676 0.136000007391 1399.0
0.742999970913 -0.344999998808 0.118000000715 519.0
0.666999995708 -0.31400001049 0.105999998748 258.0
0.643000006676 -0.307999998331 0.101999998093 248.0
0.648000001907 -0.314999997616 0.103000000119 249.0
0.649999976158 -0.321000009775 0.104000002146 246.0
0.629000008106 -0.314999997616 0.101000003517 240.0
0.646000027657 -0.328999996185 0.104000002146 256.0
0.643999993801 -0.333000004292 0.104000002146 246.0
0.60900002718 -0.319000005722 0.097999997437 246.0
0.634000003338 -0.337999999523 0.103000000119 253.0
0.633000016212 -0.342000007629 0.103000000119 251.0
0.620999991894 -0.340999990702 0.101000003517 255.0
0.695999979973 0.391999989748 0.105999998748 111.0
0.736999988556 0.407999992371 0.112000003457 125.0
0.601000010967 0.319000005722 0.0900000035763 155.0
0.59399998188 0.310000002384 0.0890000015497 163.0
0.661000013351 0.340000003576 0.097999997437 177.0
0.703999996185 0.356999993324 0.104999996722 190.0
0.760999977589 0.379999995232 0.112999998033 222.0
0.768000006676 0.377000004053 0.11400000006 235.0
0.787999987602 0.381000012159 0.116999998689 278.0
0.808000028133 0.384999990463 0.119999997318 297.0
0.837999999523 0.393000006676 0.123999997973 303.0
0.833999991417 0.384999990463 0.123000003397 329.0
0.830999970436 0.377000004053 0.122000001371 346.0
0.861000001431 0.384999990463 0.126000002027 366.0
0.860000014305 0.377999991179 0.126000002027 389.0
0.867999970913 0.375 0.127000004053 406.0
0.865000009537 0.368000000715 0.126000002027 423.0
0.889999985695 0.372000008821 0.128999993205 457.0
0.888000011444 0.365000009537 0.128999993205 477.0
0.879000008106 0.354999989271 0.127000004053 492.0
0.888999998569 0.352999985218 0.128999993205 500.0
0.90600001812 0.352999985218 0.130999997258 531.0
0.902999997139 0.345999985933 0.129999995232 535.0
0.901000022888 0.338999986649 0.129999995232 554.0
0.902000010014 0.333000004292 0.129999995232 575.0
0.910000026226 0.330000013113 0.129999995232 589.0
0.912999987602 0.324999988079 0.130999997258 600.0
0.912999987602 0.319000005722 0.129999995232 607.0
0.90499997139 0.310000002384 0.128999993205 632.0
0.911000013351 0.305999994278 0.129999995232 649.0
0.919000029564 0.303000003099 0.130999997258 662.0
0.916999995708 0.296000003815 0.129999995232 679.0
0.924000024796 0.291999995708 0.130999997258 696.0
0.935000002384 0.28900000453 0.131999999285 719.0
0.925999999046 0.280999988317 0.130999997258 718.0
0.929000020027 0.275999993086 0.130999997258 734.0
0.924000024796 0.268000006676 0.129999995232 737.0
0.927999973297 0.263000011444 0.130999997258 747.0
0.934000015259 0.259000003338 0.131999999285 766.0
0.931999981403 0.252999991179 0.130999997258 771.0
0.934000015259 0.24699999392 0.130999997258 785.0
0.935000002384 0.241999998689 0.130999997258 795.0
0.93900001049 0.237000003457 0.131999999285 800.0
0.938000023365 0.231000006199 0.130999997258 816.0
0.938000023365 0.22499999404 0.130999997258 818.0
0.938000023365 0.218999996781 0.130999997258 846.0
0.933000028133 0.211999997497 0.129999995232 852.0
0.93900001049 0.208000004292 0.130999997258 872.0
0.939999997616 0.202999994159 0.130999997258 894.0
0.93599998951 0.195999994874 0.129999995232 887.0
0.935000002384 0.189999997616 0.129999995232 883.0
0.93900001049 0.185000002384 0.130999997258 880.0
0.938000023365 0.179000005126 0.129999995232 882.0
0.939999997616 0.173999994993 0.129999995232 891.0
0.949000000954 0.170000001788 0.131999999285 889.0
0.941999971867 0.163000002503 0.130999997258 885.0
0.949000000954 0.158999994397 0.131999999285 901.0
0.944000005722 0.151999995112 0.130999997258 904.0
0.945999979973 0.146999999881 0.130999997258 896.0
0.945999979973 0.141000002623 0.130999997258 889.0
0.940999984741 0.135000005364 0.129999995232 897.0
0.944000005722 0.129999995232 0.129999995232 911.0
0.948000013828 0.125 0.130999997258 907.0
0.949000000954 0.119000002742 0.130999997258 915.0
0.949999988079 0.11400000006 0.130999997258 929.0
0.949000000954 0.108000002801 0.130999997258 922.0
0.944999992847 0.101999998093 0.129999995232 929.0
0.948000013828 0.097000002861 0.130999997258 943.0
0.950999975204 0.0920000001788 0.130999997258 962.0
0.949000000954 0.0860000029206 0.130999997258 970.0
0.949000000954 0.0810000002384 0.130999997258 986.0
0.948000013828 0.0750000029802 0.130999997258 977.0
0.95300000906 0.070000000298 0.130999997258 975.0
0.954999983311 0.0640000030398 0.131999999285 987.0
0.95300000906 0.0590000003576 0.130999997258 993.0
0.955999970436 0.0529999993742 0.131999999285 1031.0
0.953999996185 0.0480000004172 0.130999997258 1037.0
0.961000025272 0.0430000014603 0.131999999285 1042.0
0.949000000954 0.0370000004768 0.130999997258 1037.0
0.954999983311 0.0309999994934 0.130999997258 1045.0
0.959999978542 0.0260000005364 0.131999999285 1063.0
0.957000017166 0.019999999553 0.131999999285 1071.0
0.954999983311 0.0149999996647 0.131999999285 1054.0
0.962000012398 0.00899999961257 0.133000001311 1050.0
0.952000021935 0.00400000018999 0.130999997258 1038.0
0.948000013828 -0.0010000000475 0.130999997258 1013.0
4.91300010681 -0.215000003576 0.688000023365 49.0
0.977999985218 -0.097000002861 0.136000007391 931.0
0.774999976158 -0.0850000008941 0.107000000775 170.0
0.792999982834 -0.0920000001788 0.109999999404 173.0
0.819000005722 -0.10000000149 0.11400000006 177.0
0.788999974728 -0.101000003517 0.109999999404 180.0
0.801999986172 -0.107000000775 0.112000003457 181.0
0.791999995708 -0.111000001431 0.109999999404 176.0
0.791000008583 -0.115000002086 0.109999999404 184.0
0.800000011921 -0.120999999344 0.112000003457 180.0
0.788999974728 -0.123999997973 0.109999999404 181.0
0.794000029564 -0.129999995232 0.111000001431 184.0
0.77999997139 -0.131999999285 0.108999997377 187.0
0.778999984264 -0.136999994516 0.108999997377 193.0
1.00100004673 -0.188999995589 0.141000002623 1097.0
0.976999998093 -0.189999997616 0.137999996543 1293.0
0.972999989986 -0.194999992847 0.136999994516 1310.0
0.967000007629 -0.20000000298 0.136999994516 1316.0
0.964999973774 -0.204999998212 0.136999994516 1331.0
0.964999973774 -0.21099999547 0.136999994516 1335.0
0.96899998188 -0.217999994755 0.137999996543 1342.0
0.964999973774 -0.223000004888 0.136999994516 1350.0
0.954999983311 -0.225999996066 0.136000007391 1350.0
0.954999983311 -0.231999993324 0.136000007391 1362.0
0.954999983311 -0.238000005484 0.136000007391 1368.0
0.950999975204 -0.243000000715 0.136000007391 1373.0
0.947000026703 -0.247999995947 0.136000007391 1387.0
0.929000020027 -0.248999997973 0.133000001311 1305.0
0.773000001907 -0.216000005603 0.111000001431 225.0
0.799000024796 -0.229000002146 0.115000002086 215.0
0.757000029087 -0.221000000834 0.108999997377 211.0
0.745000004768 -0.223000004888 0.107000000775 214.0
0.773000001907 -0.236000001431 0.111000001431 218.0
0.768000006676 -0.239999994636 0.111000001431 212.0
0.777999997139 -0.247999995947 0.112999998033 214.0
0.742999970913 -0.240999996662 0.108000002801 218.0
0.759000003338 -0.252000004053 0.109999999404 218.0
0.745000004768 -0.252000004053 0.108000002801 218.0
0.754999995232 -0.259999990463 0.109999999404 220.0
0.744000017643 -0.261000007391 0.108999997377 224.0
0.841000020504 -0.301999986172 0.123000003397 256.0
0.924000024796 -0.344000011683 0.136000007391 1448.0
0.913999974728 -0.347000002861 0.135000005364 1504.0
0.915000021458 -0.354000002146 0.136000007391 1501.0
0.911000013351 -0.358000010252 0.135000005364 1516.0
0.907999992371 -0.363999992609 0.135000005364 1519.0
0.90600001812 -0.368999987841 0.135000005364 1517.0
0.902999997139 -0.374000012875 0.135000005364 1540.0
0.90499997139 -0.381000012159 0.136000007391 1538.0
0.901000022888 -0.386999994516 0.136000007391 1542.0
0.899999976158 -0.391999989748 0.136000007391 1542.0
0.896000027657 -0.397000014782 0.135000005364 1539.0
0.89099997282 -0.402000010014 0.135000005364 1561.0
0.862999975681 -0.395000010729 0.130999997258 1425.0
0.684000015259 -0.321999996901 0.104000002146 256.0
0.662999987602 -0.317000001669 0.101000003517 234.0
0.657999992371 -0.319999992847 0.10000000149 247.0
0.644999980927 -0.317999988794 0.0989999994636 243.0
0.65499997139 -0.328999996185 0.101000003517 246.0
0.657000005245 -0.333999991417 0.101000003517 248.0
0.621999979019 -0.321000009775 0.0960000008345 243.0
0.634000003338 -0.331999987364 0.097999997437 252.0
0.625999987125 -0.333000004292 0.097000002861 243.0
0.632000029087 -0.342000007629 0.097999997437 253.0
0.634999990463 -0.349000006914 0.0989999994636 259.0
0.850000023842 0.49200001359 0.125 350.0
0.851000010967 0.485000014305 0.123999997973 391.0
0.847000002861 0.476000010967 0.123000003397 411.0
0.851999998093 0.472000002861 0.123999997973 446.0
0.867999970913 0.474000006914 0.126000002027 461.0
0.856999993324 0.46099999547 0.123999997973 504.0
0.884000003338 0.467999994755 0.127000004053 537.0
0.878000020981 0.458000004292 0.126000002027 563.0
0.89200001955 0.458999991417 0.12800000608 585.0
0.884000003338 0.448000013828 0.126000002027 605.0
0.884999990463 0.441000014544 0.126000002027 633.0
0.898000001907 0.441000014544 0.12800000608 641.0
0.89099997282 0.430999994278 0.127000004053 662.0
0.899999976158 0.428000003099 0.12800000608 678.0
0.90600001812 0.423999994993 0.12800000608 689.0
0.912999987602 0.421000003815 0.128999993205 711.0
0.902999997139 0.409999996424 0.127000004053 716.0
0.908999979496 0.405999988317 0.12800000608 733.0
0.90499997139 0.398000001907 0.127000004053 751.0
0.90600001812 0.391000002623 0.127000004053 750.0
0.903999984264 0.384000003338 0.126000002027 762.0
0.912999987602 0.381000012159 0.127000004053 776.0
0.917999982834 0.377000004053 0.12800000608 778.0
0.92199999094 0.372000008821 0.12800000608 799.0
0.915000021458 0.363000005484 0.127000004053 804.0
0.919000029564 0.358000010252 0.127000004053 820.0
0.921000003815 0.351999998093 0.127000004053 835.0
0.92199999094 0.345999985933 0.127000004053 840.0
0.925999999046 0.342000007629 0.127000004053 855.0
0.92199999094 0.333999991417 0.127000004053 863.0
0.925999999046 0.328999996185 0.127000004053 883.0
0.921000003815 0.321000009775 0.126000002027 885.0
0.929000020027 0.317999988794 0.127000004053 885.0
0.930000007153 0.312000006437 0.127000004053 892.0
0.934000015259 0.307000011206 0.127000004053 914.0
0.933000028133 0.300999999046 0.127000004053 925.0
0.941999971867 0.298000007868 0.12800000608 947.0
0.93599998951 0.289999991655 0.127000004053 962.0
0.933000028133 0.282999992371 0.126000002027 973.0
0.934000015259 0.277000010014 0.126000002027 978.0
0.936999976635 0.272000014782 0.127000004053 998.0
0.935000002384 0.264999985695 0.126000002027 995.0
0.940999984741 0.261000007391 0.127000004053 1009.0
0.939999997616 0.254999995232 0.127000004053 1019.0
0.938000023365 0.247999995947 0.126000002027 1032.0
0.935000002384 0.241999998689 0.126000002027 1048.0
0.939999997616 0.237000003457 0.126000002027 1067.0
0.941999971867 0.231999993324 0.126000002027 1094.0
0.93900001049 0.22499999404 0.126000002027 1124.0
0.945999979973 0.221000000834 0.127000004053 1144.0
0.949999988079 0.216000005603 0.127000004053 1143.0
0.944999992847 0.209000006318 0.126000002027 1143.0
0.944999992847 0.203999996185 0.126000002027 1157.0
0.947000026703 0.197999998927 0.126000002027 1150.0
0.944999992847 0.192000001669 0.126000002027 1143.0
0.949999988079 0.187000006437 0.126000002027 1147.0
0.947000026703 0.180999994278 0.126000002027 1141.0
0.940999984741 0.173999994993 0.125 1152.0
0.945999979973 0.168999999762 0.126000002027 1142.0
0.943000018597 0.163000002503 0.125 1135.0
0.943000018597 0.158000007272 0.125 1147.0
0.948000013828 0.152999997139 0.126000002027 1147.0
0.957000017166 0.149000003934 0.127000004053 1144.0
0.953999996185 0.142000004649 0.126000002027 1145.0
0.949999988079 0.136000007391 0.126000002027 1143.0
0.950999975204 0.130999997258 0.126000002027 1149.0
0.949000000954 0.125 0.125 1145.0
0.947000026703 0.119000002742 0.125 1142.0
0.949999988079 0.11400000006 0.125 1146.0
0.952000021935 0.108000002801 0.126000002027 1157.0
0.957000017166 0.104000002146 0.126000002027 1156.0
0.958000004292 0.097999997437 0.126000002027 1190.0
0.95300000906 0.0920000001788 0.126000002027 1200.0
0.953999996185 0.0860000029206 0.126000002027 1231.0
0.955999970436 0.0810000002384 0.126000002027 1240.0
0.958000004292 0.0759999975562 0.126000002027 1255.0
0.955999970436 0.070000000298 0.126000002027 1269.0
0.953999996185 0.0640000030398 0.126000002027 1291.0
0.958999991417 0.0590000003576 0.126000002027 1276.0
0.958999991417 0.0540000014007 0.126000002027 1287.0
0.958999991417 0.0480000004172 0.126000002027 1302.0
0.962000012398 0.0430000014603 0.127000004053 1323.0
0.962999999523 0.0370000004768 0.127000004053 1329.0
0.961000025272 0.0309999994934 0.127000004053 1343.0
0.962000012398 0.0260000005364 0.127000004053 1406.0
0.962999999523 0.019999999553 0.127000004053 1435.0
0.962999999523 0.0149999996647 0.127000004053 1432.0
0.962999999523 0.00899999961257 0.127000004053 1462.0
0.958999991417 0.00400000018999 0.127000004053 1459.0
0.952000021935 -0.0010000000475 0.126000002027 1452.0
0.0260000005364 0.0 0.0010000000475 50.0
0.184000000358 -0.0140000004321 0.0230000000447 54.0
0.971000015736 -0.0960000008345 0.128999993205 928.0
0.800999999046 -0.0879999995232 0.105999998748 177.0
0.819999992847 -0.0949999988079 0.108999997377 173.0
0.825999975204 -0.101000003517 0.109999999404 176.0
0.787000000477 -0.101000003517 0.104999996722 178.0
0.802999973297 -0.107000000775 0.107000000775 182.0
0.81099998951 -0.112999998033 0.108000002801 177.0
0.797999978065 -0.115999996662 0.105999998748 183.0
0.806999981403 -0.122000001371 0.108000002801 181.0
0.772000014782 -0.120999999344 0.103000000119 187.0
0.809000015259 -0.131999999285 0.108000002801 181.0
0.792999982834 -0.134000003338 0.105999998748 186.0
0.788999974728 -0.137999996543 0.105999998748 187.0
1.00100004673 -0.187999993563 0.135000005364 1089.0
0.972999989986 -0.188999995589 0.130999997258 1292.0
0.972000002861 -0.194999992847 0.130999997258 1306.0
0.962999999523 -0.199000000954 0.129999995232 1319.0
0.971000015736 -0.206000000238 0.131999999285 1329.0
0.966000020504 -0.21099999547 0.130999997258 1341.0
0.958999991417 -0.215000003576 0.129999995232 1342.0
0.962999999523 -0.222000002861 0.130999997258 1348.0
0.957000017166 -0.226999998093 0.129999995232 1359.0
0.957000017166 -0.232999995351 0.130999997258 1364.0
0.958999991417 -0.238999992609 0.130999997258 1374.0
0.950999975204 -0.243000000715 0.129999995232 1386.0
0.948000013828 -0.247999995947 0.129999995232 1401.0
0.930999994278 -0.248999997973 0.12800000608 1323.0
0.764999985695 -0.21400000155 0.104999996722 230.0
0.785000026226 -0.22499999404 0.108000002801 212.0
0.776000022888 -0.226999998093 0.107000000775 208.0
0.760999977589 -0.226999998093 0.104999996722 210.0
0.773999989033 -0.236000001431 0.107000000775 210.0
0.772000014782 -0.240999996662 0.107000000775 220.0
0.758000016212 -0.240999996662 0.104999996722 217.0
0.768999993801 -0.25 0.107000000775 219.0
0.745000004768 -0.24699999392 0.104000002146 212.0
0.754999995232 -0.254999995232 0.104999996722 218.0
0.748000025749 -0.25799998641 0.104000002146 217.0
0.737999975681 -0.259000003338 0.103000000119 225.0
0.834999978542 -0.298999994993 0.116999998689 255.0
0.920000016689 -0.342999994755 0.129999995232 1469.0
0.916000008583 -0.347000002861 0.129999995232 1506.0
0.920000016689 -0.354999989271 0.130999997258 1506.0
0.915000021458 -0.360000014305 0.129999995232 1524.0
0.907999992371 -0.363999992609 0.129999995232 1524.0
0.907000005245 -0.368999987841 0.129999995232 1513.0
0.90600001812 -0.375 0.129999995232 1523.0
0.90499997139 -0.381000012159 0.129999995232 1551.0
0.902000010014 -0.386000007391 0.129999995232 1549.0
0.902999997139 -0.393999993801 0.129999995232 1549.0
0.89200001955 -0.395000010729 0.128999993205 1541.0
0.896000027657 -0.402999997139 0.129999995232 1561.0
0.867999970913 -0.397000014782 0.126000002027 1450.0
0.680999994278 -0.321000009775 0.0989999994636 267.0
0.662999987602 -0.317000001669 0.097000002861 242.0
0.657999992371 -0.319999992847 0.0960000008345 238.0
0.669000029564 -0.330000013113 0.097999997437 235.0
0.651000022888 -0.326000005007 0.0960000008345 240.0
0.644999980927 -0.32800000906 0.0949999988079 241.0
0.638999998569 -0.330000013113 0.0939999967813 253.0
0.644999980927 -0.337999999523 0.0960000008345 255.0
0.638000011444 -0.340000003576 0.0949999988079 251.0
0.632000029087 -0.340999990702 0.0939999967813 257.0
0.633000016212 -0.347000002861 0.0949999988079 256.0
0.731000006199 -0.407999992371 0.109999999404 291.0
0.879000008106 0.508000016212 0.123000003397 718.0
0.885999977589 0.504999995232 0.123999997973 745.0
0.893000006676 0.501999974251 0.123999997973 767.0
0.896000027657 0.495999991894 0.123999997973 778.0
0.902000010014 0.49200001359 0.125 802.0
0.893000006676 0.479999989271 0.123000003397 828.0
0.90600001812 0.479999989271 0.125 837.0
0.902999997139 0.470999985933 0.123999997973 856.0
0.90499997139 0.465000003576 0.123999997973 872.0
0.902999997139 0.456999987364 0.123000003397 878.0
0.916000008583 0.456000000238 0.125 881.0
0.912000000477 0.446999996901 0.123999997973 875.0
0.912000000477 0.441000014544 0.123999997973 881.0
0.913999974728 0.435000002384 0.123999997973 916.0
0.916999995708 0.428999990225 0.123999997973 911.0
0.913999974728 0.421000003815 0.123000003397 927.0
0.910000026226 0.412000000477 0.122000001371 926.0
0.915000021458 0.407999992371 0.123000003397 938.0
0.912999987602 0.400999993086 0.122000001371 945.0
0.92199999094 0.398000001907 0.123000003397 944.0
0.912999987602 0.386999994516 0.122000001371 952.0
0.925999999046 0.386000007391 0.123000003397 964.0
0.925999999046 0.379999995232 0.123000003397 964.0
0.92199999094 0.372000008821 0.122000001371 977.0
0.921000003815 0.365000009537 0.122000001371 988.0
0.924000024796 0.360000014305 0.122000001371 997.0
0.929000020027 0.354999989271 0.122000001371 1002.0
0.930999994278 0.34999999404 0.123000003397 1010.0
0.926999986172 0.342000007629 0.122000001371 1014.0
0.925000011921 0.335000008345 0.120999999344 1032.0
0.935000002384 0.331999987364 0.122000001371 1030.0
0.934000015259 0.326000005007 0.122000001371 1037.0
0.930999994278 0.317999988794 0.120999999344 1047.0
0.935000002384 0.31400001049 0.122000001371 1064.0
0.926999986172 0.305000007153 0.120999999344 1080.0
0.938000023365 0.301999986172 0.122000001371 1090.0
0.93900001049 0.296000003815 0.122000001371 1111.0
0.940999984741 0.291000008583 0.122000001371 1117.0
0.936999976635 0.284000009298 0.120999999344 1114.0
0.939999997616 0.277999997139 0.120999999344 1135.0
0.939999997616 0.273000001907 0.120999999344 1140.0
0.939999997616 0.266999989748 0.120999999344 1150.0
0.93599998951 0.259999990463 0.120999999344 1152.0
0.940999984741 0.254999995232 0.120999999344 1173.0
0.940999984741 0.248999997973 0.120999999344 1192.0
0.949999988079 0.246000006795 0.122000001371 1206.0
0.941999971867 0.238000005484 0.120999999344 1216.0
0.943000018597 0.231999993324 0.120999999344 1256.0
0.944999992847 0.225999996066 0.120999999344 1267.0
0.944999992847 0.221000000834 0.120999999344 1275.0
0.944999992847 0.215000003576 0.120999999344 1276.0
0.948000013828 0.209999993443 0.120999999344 1264.0
0.947000026703 0.203999996185 0.120999999344 1253.0
0.949999988079 0.199000000954 0.120999999344 1247.0
0.950999975204 0.193000003695 0.120999999344 1249.0
0.949000000954 0.187000006437 0.120999999344 1244.0
0.943000018597 0.180000007153 0.119999997318 1254.0
0.948000013828 0.17499999702 0.119999997318 1269.0
0.95300000906 0.170000001788 0.120999999344 1267.0
0.952000021935 0.165000006557 0.120999999344 1250.0
0.950999975204 0.158999994397 0.119999997318 1261.0
0.949999988079 0.152999997139 0.119999997318 1263.0
0.954999983311 0.148000001907 0.120999999344 1269.0
0.953999996185 0.142000004649 0.120999999344 1290.0
0.957000017166 0.136999994516 0.120999999344 1302.0
0.953999996185 0.130999997258 0.120999999344 1314.0
0.950999975204 0.125 0.119999997318 1310.0
0.953999996185 0.119999997318 0.119999997318 1306.0
0.955999970436 0.11400000006 0.120999999344 1328.0
0.955999970436 0.108999997377 0.120999999344 1347.0
0.955999970436 0.103000000119 0.120999999344 1374.0
0.953999996185 0.097000002861 0.119999997318 1426.0
0.953999996185 0.0920000001788 0.119999997318 1446.0
0.954999983311 0.0860000029206 0.119999997318 1455.0
0.954999983311 0.0810000002384 0.119999997318 1488.0
0.962999999523 0.0759999975562 0.120999999344 1505.0
0.958000004292 0.070000000298 0.120999999344 1511.0
0.959999978542 0.0649999976158 0.120999999344 1518.0
0.963999986649 0.0590000003576 0.122000001371 1538.0
0.961000025272 0.0540000014007 0.120999999344 1535.0
0.962999999523 0.0480000004172 0.120999999344 1556.0
0.962999999523 0.0430000014603 0.120999999344 1575.0
0.959999978542 0.0370000004768 0.120999999344 1585.0
0.966000020504 0.0320000015199 0.122000001371 1618.0
0.967999994755 0.0260000005364 0.122000001371 1699.0
0.962999999523 0.019999999553 0.120999999344 1771.0
0.964999973774 0.0149999996647 0.122000001371 1753.0
0.966000020504 0.00899999961257 0.122000001371 1787.0
0.967000007629 0.00400000018999 0.122000001371 1793.0
0.950999975204 -0.0010000000475 0.119999997318 1735.0
4.9279999733 -0.330000013113 0.634000003338 51.0
0.268000006676 -0.0209999997169 0.0320000015199 54.0
0.973999977112 -0.097000002861 0.123999997973 922.0
0.820999979973 -0.0909999981523 0.104000002146 172.0
0.819999992847 -0.0949999988079 0.104000002146 174.0
0.81400001049 -0.0989999994636 0.103000000119 181.0
0.813000023365 -0.104000002146 0.103000000119 177.0
0.81099998951 -0.108000002801 0.103000000119 173.0
0.819000005722 -0.11400000006 0.104000002146 178.0
0.776000022888 -0.112999998033 0.0989999994636 177.0
0.78100001812 -0.118000000715 0.10000000149 181.0
0.788999974728 -0.123999997973 0.101000003517 183.0
0.796000003815 -0.129999995232 0.101999998093 186.0
0.805999994278 -0.136000007391 0.103000000119 192.0
0.802999973297 -0.141000002623 0.103000000119 188.0
1.00600004196 -0.188999995589 0.129999995232 1110.0
0.972999989986 -0.188999995589 0.126000002027 1307.0
0.977999985218 -0.195999994874 0.126000002027 1295.0
0.972000002861 -0.20000000298 0.126000002027 1320.0
0.96899998188 -0.206000000238 0.126000002027 1336.0
0.967999994755 -0.21099999547 0.126000002027 1342.0
0.962000012398 -0.216000005603 0.125 1337.0
0.958999991417 -0.221000000834 0.125 1352.0
0.957000017166 -0.226999998093 0.125 1366.0
0.961000025272 -0.233999997377 0.125 1377.0
0.949999988079 -0.237000003457 0.123999997973 1385.0
0.955999970436 -0.244000002742 0.125 1395.0
0.953999996185 -0.25 0.125 1402.0
0.929000020027 -0.248999997973 0.122000001371 1330.0
0.769999980927 -0.215000003576 0.101000003517 228.0
0.773000001907 -0.221000000834 0.101999998093 215.0
0.782999992371 -0.229000002146 0.103000000119 221.0
0.76599997282 -0.229000002146 0.101000003517 215.0
0.760999977589 -0.231999993324 0.10000000149 217.0
0.760999977589 -0.237000003457 0.101000003517 216.0
0.764999985695 -0.243000000715 0.101000003517 218.0
0.791000008583 -0.256999999285 0.104999996722 217.0
0.776000022888 -0.256999999285 0.103000000119 224.0
0.751999974251 -0.254000008106 0.10000000149 222.0
0.742999970913 -0.256000012159 0.0989999994636 224.0
0.721000015736 -0.252999991179 0.0960000008345 223.0
0.825999975204 -0.296000003815 0.111000001431 253.0
0.922999978065 -0.344000011683 0.125 1467.0
0.916000008583 -0.347000002861 0.123999997973 1500.0
0.917999982834 -0.354999989271 0.125 1514.0
0.912999987602 -0.358999997377 0.123999997973 1522.0
0.911000013351 -0.363999992609 0.123999997973 1525.0
0.912000000477 -0.370999991894 0.125 1528.0
0.903999984264 -0.374000012875 0.123999997973 1537.0
0.903999984264 -0.381000012159 0.123999997973 1557.0
0.896000027657 -0.384000003338 0.123000003397 1545.0
0.901000022888 -0.391999989748 0.123999997973 1548.0
0.898000001907 -0.398000001907 0.123999997973 1560.0
0.894999980927 -0.402999997139 0.123999997973 1569.0
0.870000004768 -0.398000001907 0.120999999344 1473.0
0.662000000477 -0.31099998951 0.0920000001788 265.0
0.667999982834 -0.319000005722 0.0930000022054 245.0
0.637000024319 -0.308999985456 0.0890000015497 248.0
0.675000011921 -0.333000004292 0.0949999988079 246.0
0.651000022888 -0.326000005007 0.0920000001788 241.0
0.662000000477 -0.337000012398 0.0930000022054 246.0
0.635999977589 -0.32800000906 0.0900000035763 251.0
0.637000024319 -0.333999991417 0.0900000035763 243.0
0.629999995232 -0.335000008345 0.0900000035763 248.0
0.614000022411 -0.331000000238 0.0879999995232 254.0
0.633000016212 -0.347000002861 0.0909999981523 258.0
0.666999995708 -0.370999991894 0.0960000008345 272.0
0.899999976158 0.519999980927 0.119999997318 932.0
0.902000010014 0.513000011444 0.119999997318 964.0
0.902000010014 0.505999982357 0.119999997318 948.0
0.903999984264 0.5 0.119999997318 970.0
0.903999984264 0.49200001359 0.119000002742 987.0
0.90600001812 0.486000001431 0.119000002742 1005.0
0.907000005245 0.479999989271 0.119000002742 1004.0
0.912999987602 0.476000010967 0.119000002742 1030.0
0.907999992371 0.465999990702 0.119000002742 1013.0
0.917999982834 0.463999986649 0.119000002742 1011.0
0.913999974728 0.455000013113 0.119000002742 1026.0
0.916999995708 0.449999988079 0.119000002742 1026.0
0.916999995708 0.442000001669 0.119000002742 1027.0
0.920000016689 0.437000006437 0.119000002742 1041.0
0.921000003815 0.430999994278 0.118000000715 1053.0
0.915000021458 0.421000003815 0.116999998689 1050.0
0.920000016689 0.416000008583 0.118000000715 1045.0
0.916999995708 0.409000009298 0.116999998689 1068.0
0.920000016689 0.402999997139 0.116999998689 1077.0
0.925000011921 0.398999989033 0.118000000715 1073.0
0.929000020027 0.393999993801 0.118000000715 1081.0
0.926999986172 0.386999994516 0.118000000715 1075.0
0.925000011921 0.379000008106 0.116999998689 1098.0
0.926999986172 0.372999995947 0.116999998689 1091.0
0.931999981403 0.368999987841 0.116999998689 1102.0
0.938000023365 0.365000009537 0.118000000715 1113.0
0.931999981403 0.356000006199 0.116999998689 1122.0
0.930999994278 0.34999999404 0.116999998689 1115.0
0.938000023365 0.345999985933 0.116999998689 1126.0
0.936999976635 0.338999986649 0.116999998689 1147.0
0.93599998951 0.331999987364 0.116999998689 1148.0
0.934000015259 0.324999988079 0.115999996662 1145.0
0.93599998951 0.319999992847 0.115999996662 1149.0
0.939999997616 0.314999997616 0.116999998689 1164.0
0.939999997616 0.308999985456 0.116999998689 1181.0
0.936999976635 0.301999986172 0.115999996662 1165.0
0.93900001049 0.296000003815 0.115999996662 1184.0
0.930999994278 0.287999987602 0.115000002086 1194.0
0.93900001049 0.284000009298 0.115999996662 1184.0
0.940999984741 0.279000014067 0.115999996662 1191.0
0.935000002384 0.270999997854 0.115000002086 1180.0
0.941999971867 0.266999989748 0.115999996662 1186.0
0.939999997616 0.259999990463 0.115000002086 1191.0
0.943000018597 0.254999995232 0.115999996662 1189.0
0.941999971867 0.248999997973 0.115000002086 1196.0
0.945999979973 0.244000002742 0.115999996662 1209.0
0.941999971867 0.237000003457 0.115000002086 1203.0
0.945999979973 0.232999995351 0.115000002086 1239.0
0.945999979973 0.226999998093 0.115000002086 1252.0
0.953999996185 0.223000004888 0.115999996662 1267.0
0.945999979973 0.215000003576 0.115000002086 1312.0
0.944999992847 0.209000006318 0.115000002086 1279.0
0.944999992847 0.202999994159 0.115000002086 1263.0
0.952000021935 0.199000000954 0.115999996662 1291.0
0.948000013828 0.192000001669 0.115000002086 1308.0
0.949999988079 0.187000006437 0.115000002086 1340.0
0.949999988079 0.180999994278 0.115000002086 1347.0
0.957000017166 0.177000001073 0.115999996662 1348.0
0.955999970436 0.171000003815 0.115999996662 1371.0
0.950999975204 0.16400000453 0.115000002086 1400.0
0.957000017166 0.159999996424 0.115999996662 1434.0
0.957000017166 0.153999999166 0.115999996662 1464.0
0.952000021935 0.148000001907 0.115000002086 1457.0
0.959999978542 0.143000006676 0.115999996662 1477.0
0.957000017166 0.136999994516 0.115000002086 1558.0
0.950999975204 0.130999997258 0.115000002086 1529.0
0.954999983311 0.125 0.115000002086 1470.0
0.955999970436 0.119999997318 0.115000002086 1479.0
0.955999970436 0.11400000006 0.115000002086 1506.0
0.958000004292 0.108999997377 0.115000002086 1523.0
0.962000012398 0.104000002146 0.115999996662 1546.0
0.962000012398 0.097999997437 0.115999996662 1601.0
0.959999978542 0.0920000001788 0.115000002086 1584.0
0.959999978542 0.0869999974966 0.115000002086 1635.0
0.962000012398 0.0810000002384 0.115999996662 1687.0
0.963999986649 0.0759999975562 0.115999996662 1710.0
0.962000012398 0.070000000298 0.115999996662 1766.0
0.961000025272 0.0649999976158 0.115000002086 1785.0
0.962000012398 0.0590000003576 0.115999996662 1822.0
0.966000020504 0.0540000014007 0.115999996662 1794.0
0.958999991417 0.0480000004172 0.115000002086 1775.0
0.963999986649 0.0430000014603 0.115999996662 1752.0
0.963999986649 0.0370000004768 0.115999996662 1771.0
0.966000020504 0.0309999994934 0.115999996662 1774.0
0.964999973774 0.0260000005364 0.115999996662 1834.0
0.966000020504 0.019999999553 0.115999996662 1843.0
0.964999973774 0.0149999996647 0.115999996662 1786.0
0.96899998188 0.00899999961257 0.115999996662 1752.0
0.967999994755 0.00400000018999 0.115999996662 1774.0
0.95300000906 -0.0010000000475 0.115000002086 1703.0
0.0179999992251 0.0010000000475 0.0 49.0
0.973999977112 -0.097000002861 0.118000000715 919.0
0.801999986172 -0.0879999995232 0.097000002861 179.0
