ply
format ascii 1.0
element vertex 914
property float x
property float y
property float z
property float intensity
end_header
0.934000015259 -0.300999999046 0.194000005722 1164.0
0.933000028133 -0.307000011206 0.194000005722 1197.0
0.933000028133 -0.312999993563 0.194000005722 1172.0
0.935000002384 -0.319999992847 0.194999992847 1186.0
0.930999994278 -0.324999988079 0.194999992847 1184.0
0.936999976635 -0.333000004292 0.195999994874 1185.0
0.93599998951 -0.338999986649 0.196999996901 1189.0
0.936999976635 -0.345999985933 0.196999996901 1193.0
0.939999997616 -0.354000002146 0.197999998927 1178.0
0.934000015259 -0.358000010252 0.196999996901 1203.0
0.934000015259 -0.363999992609 0.197999998927 1187.0
0.934000015259 -0.370999991894 0.197999998927 1166.0
0.939999997616 -0.379999995232 0.20000000298 1172.0
0.933000028133 -0.384000003338 0.199000000954 1144.0
0.935000002384 -0.391000002623 0.20000000298 1148.0
0.938000023365 -0.398999989033 0.201000005007 1165.0
0.93599998951 -0.405000001192 0.201000005007 1167.0
0.935000002384 -0.412000000477 0.201000005007 1136.0
0.930999994278 -0.416999995708 0.201000005007 1116.0
0.936999976635 -0.426999986172 0.202999994159 1144.0
0.935000002384 -0.432999998331 0.202999994159 1153.0
0.939999997616 -0.442000001669 0.204999998212 1130.0
0.938000023365 -0.448000013828 0.204999998212 1112.0
0.931999981403 -0.451999992132 0.203999996185 1108.0
0.936999976635 -0.462000012398 0.206000000238 1117.0
0.936999976635 -0.469000011683 0.206000000238 1120.0
0.93599998951 -0.476000010967 0.207000002265 1083.0
0.93599998951 -0.483000010252 0.207000002265 1077.0
0.93599998951 -0.490999996662 0.208000004292 1071.0
0.936999976635 -0.499000012875 0.209000006318 1045.0
0.945999979973 -0.512000024319 0.211999997497 1042.0
0.939999997616 -0.51599997282 0.21099999547 1047.0
0.935000002384 -0.521000027657 0.209999993443 1052.0
0.93599998951 -0.528999984264 0.21099999547 1038.0
0.782000005245 0.444000005722 0.165999993682 91.0
0.675000011921 0.365999996662 0.142000004649 122.0
0.680000007153 0.352999985218 0.142000004649 177.0
0.754000008106 0.384999990463 0.157000005245 219.0
0.740000009537 0.372999995947 0.153999999166 256.0
0.750999987125 0.372999995947 0.156000003219 217.0
0.671000003815 0.32800000906 0.137999996543 191.0
0.694000005722 0.333000004292 0.143000006676 220.0
0.667999982834 0.316000014544 0.136999994516 235.0
0.694000005722 0.323000013828 0.142000004649 247.0
0.758000016212 0.347000002861 0.155000001192 276.0
0.777999997139 0.351000010967 0.158999994397 297.0
0.786000013351 0.349000006914 0.159999996424 321.0
0.786000013351 0.342999994755 0.159999996424 332.0
0.77999997139 0.333999991417 0.158000007272 351.0
0.791000008583 0.333999991417 0.159999996424 367.0
0.786000013351 0.326000005007 0.158999994397 404.0
0.79699999094 0.324999988079 0.16099999845 425.0
0.808000028133 0.324000000954 0.163000002503 441.0
0.804000020027 0.316000014544 0.162000000477 467.0
0.794000029564 0.307000011206 0.158999994397 471.0
0.794000029564 0.300999999046 0.158999994397 486.0
0.79699999094 0.29699999094 0.158999994397 516.0
0.797999978065 0.291999995708 0.158999994397 540.0
0.788999974728 0.282999992371 0.157000005245 568.0
0.783999979496 0.275999993086 0.156000003219 582.0
0.786000013351 0.272000014782 0.156000003219 593.0
0.801999986172 0.272000014782 0.158999994397 612.0
0.794000029564 0.263999998569 0.157000005245 616.0
0.799000024796 0.259999990463 0.158000007272 638.0
0.794000029564 0.252999991179 0.157000005245 641.0
0.806999981403 0.252000004053 0.158999994397 655.0
0.805000007153 0.246000006795 0.158000007272 665.0
0.813000023365 0.243000000715 0.159999996424 666.0
0.824000000954 0.240999996662 0.162000000477 599.0
0.893999993801 0.256000012159 0.175999999046 356.0
0.919000029564 0.0680000036955 0.175999999046 1168.0
0.920000016689 0.0630000010133 0.175999999046 1307.0
0.921000003815 0.0570000000298 0.175999999046 1291.0
0.922999978065 0.0520000010729 0.177000001073 1264.0
0.919000029564 0.0469999983907 0.175999999046 1298.0
0.921000003815 0.0410000011325 0.175999999046 1299.0
0.917999982834 0.0359999984503 0.17499999702 1297.0
0.925999999046 0.0309999994934 0.177000001073 1294.0
0.921000003815 0.0250000003725 0.175999999046 1297.0
0.924000024796 0.019999999553 0.177000001073 1330.0
0.925999999046 0.0149999996647 0.177000001073 1302.0
0.921000003815 0.00899999961257 0.175999999046 1283.0
0.919000029564 0.00400000018999 0.175999999046 1278.0
0.924000024796 0.0 0.177000001073 1289.0
0.922999978065 -0.00600000005215 0.177000001073 1275.0
0.920000016689 -0.0109999999404 0.175999999046 1267.0
0.922999978065 -0.0170000009239 0.177000001073 1253.0
0.925000011921 -0.0219999998808 0.177000001073 1292.0
0.927999973297 -0.0270000007004 0.178000003099 1289.0
0.925000011921 -0.0329999998212 0.177000001073 1264.0
0.926999986172 -0.0379999987781 0.178000003099 1271.0
0.926999986172 -0.0439999997616 0.178000003099 1263.0
0.929000020027 -0.0489999987185 0.178000003099 1266.0
0.922999978065 -0.0540000014007 0.177000001073 1277.0
0.926999986172 -0.0599999986589 0.178000003099 1258.0
0.926999986172 -0.0649999976158 0.178000003099 1267.0
0.925999999046 -0.0710000023246 0.178000003099 1253.0
0.926999986172 -0.0759999975562 0.178000003099 1268.0
0.921000003815 -0.0810000002384 0.177000001073 1277.0
0.930000007153 -0.0869999974966 0.179000005126 1269.0
0.929000020027 -0.0930000022054 0.179000005126 1268.0
0.925000011921 -0.097999997437 0.178000003099 1266.0
0.930999994278 -0.104000002146 0.180000007153 1278.0
0.927999973297 -0.108999997377 0.179000005126 1258.0
0.925999999046 -0.11400000006 0.179000005126 1248.0
0.926999986172 -0.119999997318 0.179000005126 1258.0
0.926999986172 -0.125 0.179000005126 1244.0
0.92199999094 -0.129999995232 0.179000005126 1241.0
0.930999994278 -0.136999994516 0.180000007153 1270.0
0.934000015259 -0.143000006676 0.180999994278 1263.0
0.930000007153 -0.148000001907 0.180999994278 1271.0
0.931999981403 -0.153999999166 0.180999994278 1261.0
0.927999973297 -0.158999994397 0.180999994278 1250.0
0.931999981403 -0.165000006557 0.180999994278 1271.0
0.930999994278 -0.171000003815 0.180999994278 1249.0
0.930999994278 -0.175999999046 0.181999996305 1234.0
0.926999986172 -0.180999994278 0.180999994278 1251.0
0.933000028133 -0.187999993563 0.181999996305 1252.0
0.927999973297 -0.193000003695 0.181999996305 1258.0
0.925999999046 -0.197999998927 0.181999996305 1271.0
0.935000002384 -0.206000000238 0.184000000358 1254.0
0.929000020027 -0.209999993443 0.182999998331 1279.0
0.929000020027 -0.216000005603 0.182999998331 1254.0
0.930999994278 -0.222000002861 0.182999998331 1284.0
0.933000028133 -0.228000000119 0.184000000358 1235.0
0.934000015259 -0.233999997377 0.185000002384 1216.0
0.935000002384 -0.240999996662 0.185000002384 1212.0
0.927999973297 -0.245000004768 0.184000000358 1221.0
0.933000028133 -0.252000004053 0.185000002384 1198.0
0.933000028133 -0.25799998641 0.185000002384 1213.0
0.936999976635 -0.264999985695 0.187000006437 1198.0
0.934000015259 -0.270000010729 0.186000004411 1168.0
0.933000028133 -0.275999993086 0.186000004411 1182.0
0.933000028133 -0.282000005245 0.187000006437 1187.0
0.931999981403 -0.287999987602 0.187000006437 1197.0
0.927999973297 -0.293000012636 0.186000004411 1208.0
0.934000015259 -0.300999999046 0.187999993563 1201.0
0.931999981403 -0.305999994278 0.187999993563 1208.0
0.931999981403 -0.312000006437 0.187999993563 1190.0
0.930000007153 -0.317999988794 0.187999993563 1219.0
0.926999986172 -0.323000013828 0.187999993563 1203.0
0.934000015259 -0.331999987364 0.189999997616 1182.0
0.929000020027 -0.337000012398 0.188999995589 1200.0
0.93599998951 -0.344999998808 0.190999999642 1190.0
0.93599998951 -0.351999998093 0.190999999642 1203.0
0.938000023365 -0.358999997377 0.192000001669 1201.0
0.935000002384 -0.363999992609 0.192000001669 1196.0
0.93900001049 -0.372000008821 0.193000003695 1202.0
0.938000023365 -0.379000008106 0.194000005722 1166.0
0.93599998951 -0.384999990463 0.194000005722 1154.0
0.938000023365 -0.391999989748 0.194000005722 1158.0
0.943000018597 -0.400999993086 0.195999994874 1196.0
0.93900001049 -0.405999988317 0.195999994874 1189.0
0.940999984741 -0.41400000453 0.196999996901 1169.0
0.936999976635 -0.418999999762 0.195999994874 1153.0
0.933000028133 -0.423999994993 0.195999994874 1162.0
0.935000002384 -0.432000011206 0.196999996901 1152.0
0.930000007153 -0.437000006437 0.195999994874 1127.0
0.944000005722 -0.449999988079 0.20000000298 1124.0
0.938000023365 -0.455000013113 0.199000000954 1117.0
0.93599998951 -0.46099999547 0.199000000954 1117.0
0.943000018597 -0.470999985933 0.201000005007 1139.0
0.934000015259 -0.47499999404 0.20000000298 1120.0
0.941999971867 -0.486000001431 0.202000007033 1108.0
0.939999997616 -0.493000000715 0.202000007033 1076.0
0.938000023365 -0.499000012875 0.202999994159 1065.0
0.943000018597 -0.509000003338 0.203999996185 1059.0
0.939999997616 -0.514999985695 0.203999996185 1057.0
0.93900001049 -0.522000014782 0.204999998212 1072.0
0.936999976635 -0.528999984264 0.204999998212 1068.0
0.763999998569 0.446000009775 0.158000007272 412.0
0.76599997282 0.441000014544 0.158000007272 436.0
0.771000027657 0.437999993563 0.158999994397 477.0
0.795000016689 0.444999992847 0.163000002503 502.0
0.768999993801 0.423000007868 0.157000005245 554.0
0.799000024796 0.433999985456 0.163000002503 591.0
0.78100001812 0.416999995708 0.158999994397 628.0
0.782000005245 0.412000000477 0.158999994397 639.0
0.786000013351 0.407999992371 0.158999994397 674.0
0.78100001812 0.398999989033 0.158000007272 712.0
0.787000000477 0.395999997854 0.158000007272 744.0
0.788999974728 0.391000002623 0.158999994397 761.0
0.788999974728 0.384999990463 0.158000007272 790.0
0.787000000477 0.377999991179 0.157000005245 806.0
0.787999987602 0.372000008821 0.157000005245 845.0
0.787000000477 0.365999996662 0.156000003219 867.0
0.787999987602 0.361000001431 0.156000003219 881.0
0.782999992371 0.351999998093 0.155000001192 911.0
0.796000003815 0.352999985218 0.157000005245 920.0
0.790000021458 0.344000011683 0.156000003219 945.0
0.791999995708 0.338999986649 0.156000003219 976.0
0.788999974728 0.333000004292 0.155000001192 991.0
0.791000008583 0.326999992132 0.155000001192 1022.0
0.801999986172 0.326000005007 0.157000005245 1023.0
0.791999995708 0.317000001669 0.153999999166 1032.0
0.799000024796 0.31400001049 0.156000003219 1059.0
0.797999978065 0.307999998331 0.155000001192 1087.0
0.791999995708 0.300000011921 0.153999999166 1097.0
0.792999982834 0.294999986887 0.152999997139 1098.0
0.792999982834 0.289999991655 0.152999997139 1104.0
0.802999973297 0.287999987602 0.155000001192 1114.0
0.800000011921 0.280999988317 0.153999999166 1129.0
0.79699999094 0.27500000596 0.152999997139 1147.0
0.792999982834 0.268999993801 0.151999995112 1151.0
0.799000024796 0.264999985695 0.152999997139 1152.0
0.797999978065 0.259999990463 0.152999997139 1151.0
0.800000011921 0.254999995232 0.152999997139 1175.0
0.805000007153 0.250999987125 0.152999997139 1164.0
0.801999986172 0.245000004768 0.152999997139 1179.0
0.804000020027 0.239999994636 0.152999997139 1172.0
0.818000018597 0.238999992609 0.155000001192 983.0
0.90499997139 0.259000003338 0.172000005841 451.0
0.915000021458 0.0680000036955 0.170000001788 1189.0
0.925000011921 0.0630000010133 0.171000003815 1309.0
0.926999986172 0.0579999983311 0.172000005841 1282.0
0.922999978065 0.0520000010729 0.171000003815 1265.0
0.917999982834 0.0469999983907 0.170000001788 1277.0
0.92199999094 0.0410000011325 0.171000003815 1299.0
0.925000011921 0.0359999984503 0.171000003815 1276.0
0.925000011921 0.0309999994934 0.171000003815 1274.0
0.921000003815 0.0250000003725 0.171000003815 1270.0
0.925000011921 0.019999999553 0.171000003815 1338.0
0.925999999046 0.0149999996647 0.171000003815 1306.0
0.925000011921 0.00899999961257 0.171000003815 1294.0
0.926999986172 0.00400000018999 0.172000005841 1289.0
0.924000024796 0.0 0.171000003815 1274.0
0.929000020027 -0.00600000005215 0.172000005841 1273.0
0.925000011921 -0.0109999999404 0.171000003815 1251.0
0.921000003815 -0.0170000009239 0.171000003815 1248.0
0.922999978065 -0.0219999998808 0.171000003815 1279.0
0.924000024796 -0.0270000007004 0.171000003815 1279.0
0.931999981403 -0.0329999998212 0.172999992967 1296.0
0.92199999094 -0.0379999987781 0.171000003815 1275.0
0.92199999094 -0.0430000014603 0.171000003815 1254.0
0.926999986172 -0.0489999987185 0.172000005841 1278.0
0.924000024796 -0.0540000014007 0.172000005841 1285.0
0.930999994278 -0.0599999986589 0.172999992967 1266.0
0.922999978065 -0.0649999976158 0.172000005841 1261.0
0.926999986172 -0.0710000023246 0.172999992967 1256.0
0.925999999046 -0.0759999975562 0.172000005841 1258.0
0.924000024796 -0.0810000002384 0.172000005841 1272.0
0.925999999046 -0.0869999974966 0.172999992967 1278.0
0.926999986172 -0.0920000001788 0.172999992967 1272.0
0.929000020027 -0.097999997437 0.172999992967 1254.0
0.924000024796 -0.103000000119 0.172999992967 1253.0
0.929000020027 -0.108999997377 0.173999994993 1251.0
0.925999999046 -0.11400000006 0.172999992967 1250.0
0.924000024796 -0.119000002742 0.172999992967 1261.0
0.926999986172 -0.125 0.173999994993 1243.0
0.92199999094 -0.129999995232 0.172999992967 1234.0
0.930000007153 -0.136999994516 0.173999994993 1253.0
0.926999986172 -0.142000004649 0.173999994993 1274.0
0.933000028133 -0.148000001907 0.17499999702 1293.0
0.927999973297 -0.152999997139 0.17499999702 1280.0
0.929000020027 -0.158999994397 0.17499999702 1276.0
0.925999999046 -0.16400000453 0.17499999702 1273.0
0.931999981403 -0.171000003815 0.175999999046 1252.0
0.924000024796 -0.17499999702 0.17499999702 1244.0
0.930000007153 -0.180999994278 0.175999999046 1250.0
0.930999994278 -0.187000006437 0.175999999046 1243.0
0.930999994278 -0.193000003695 0.177000001073 1261.0
0.933000028133 -0.199000000954 0.177000001073 1246.0
0.929000020027 -0.203999996185 0.177000001073 1242.0
0.927999973297 -0.209000006318 0.177000001073 1231.0
0.938000023365 -0.217999994755 0.179000005126 1237.0
0.931999981403 -0.222000002861 0.178000003099 1259.0
0.933000028133 -0.228000000119 0.178000003099 1272.0
0.933000028133 -0.233999997377 0.179000005126 1252.0
0.935000002384 -0.239999994636 0.179000005126 1241.0
0.930999994278 -0.245000004768 0.179000005126 1232.0
0.930999994278 -0.250999987125 0.179000005126 1226.0
0.925999999046 -0.256000012159 0.178000003099 1230.0
0.931999981403 -0.263000011444 0.180000007153 1221.0
0.930999994278 -0.268999993801 0.180000007153 1213.0
0.930000007153 -0.27500000596 0.180000007153 1223.0
0.931999981403 -0.280999988317 0.180999994278 1222.0
0.934000015259 -0.287999987602 0.180999994278 1220.0
0.930999994278 -0.293000012636 0.180999994278 1240.0
0.931999981403 -0.300000011921 0.181999996305 1229.0
0.931999981403 -0.305999994278 0.181999996305 1234.0
0.931999981403 -0.312000006437 0.181999996305 1203.0
0.93599998951 -0.319999992847 0.182999998331 1243.0
0.934000015259 -0.324999988079 0.182999998331 1231.0
0.930999994278 -0.330000013113 0.182999998331 1208.0
0.935000002384 -0.337999999523 0.184000000358 1193.0
0.934000015259 -0.344000011683 0.185000002384 1182.0
0.93599998951 -0.351000010967 0.185000002384 1197.0
0.934000015259 -0.356999993324 0.185000002384 1196.0
0.936999976635 -0.365000009537 0.186000004411 1207.0
0.933000028133 -0.370000004768 0.186000004411 1226.0
0.935000002384 -0.377000004053 0.187000006437 1190.0
0.931999981403 -0.38299998641 0.187000006437 1193.0
0.935000002384 -0.391000002623 0.187999993563 1191.0
0.938000023365 -0.398999989033 0.188999995589 1223.0
0.93599998951 -0.404000014067 0.188999995589 1196.0
0.936999976635 -0.412000000477 0.189999997616 1172.0
0.93599998951 -0.418000012636 0.189999997616 1170.0
0.935000002384 -0.425000011921 0.189999997616 1164.0
0.934000015259 -0.430999994278 0.189999997616 1132.0
0.933000028133 -0.437999993563 0.190999999642 1150.0
0.935000002384 -0.446000009775 0.192000001669 1156.0
0.93900001049 -0.455000013113 0.193000003695 1137.0
0.936999976635 -0.46099999547 0.193000003695 1132.0
0.93599998951 -0.467999994755 0.193000003695 1131.0
0.935000002384 -0.474000006914 0.194000005722 1124.0
0.934000015259 -0.481000006199 0.194000005722 1110.0
0.93900001049 -0.490999996662 0.195999994874 1089.0
0.940999984741 -0.5 0.196999996901 1069.0
0.935000002384 -0.504000008106 0.195999994874 1061.0
0.936999976635 -0.513000011444 0.196999996901 1058.0
0.93599998951 -0.519999980927 0.197999998927 1081.0
0.938000023365 -0.528999984264 0.199000000954 1066.0
0.774999976158 0.451999992132 0.155000001192 966.0
0.763999998569 0.43900001049 0.151999995112 994.0
0.78100001812 0.442999988794 0.155000001192 996.0
0.783999979496 0.437999993563 0.156000003219 1033.0
0.773999989033 0.425999999046 0.152999997139 1036.0
0.777000010014 0.421000003815 0.152999997139 1068.0
0.782999992371 0.418000012636 0.153999999166 1099.0
0.778999984264 0.409999996424 0.152999997139 1102.0
0.777000010014 0.402999997139 0.151999995112 1141.0
0.783999979496 0.40000000596 0.152999997139 1170.0
0.78100001812 0.393000006676 0.151999995112 1188.0
0.778999984264 0.386000007391 0.150999993086 1198.0
0.786000013351 0.38299998641 0.151999995112 1225.0
0.787999987602 0.377999991179 0.151999995112 1256.0
0.78100001812 0.368999987841 0.150999993086 1260.0
0.782000005245 0.363000005484 0.15000000596 1289.0
0.788999974728 0.361000001431 0.150999993086 1309.0
0.787999987602 0.354000002146 0.150999993086 1300.0
0.77999997139 0.344999998808 0.149000003934 1313.0
0.790000021458 0.344000011683 0.150999993086 1341.0
0.79699999094 0.340999990702 0.151999995112 1339.0
0.794000029564 0.333999991417 0.150999993086 1376.0
0.787999987602 0.326000005007 0.149000003934 1366.0
0.790000021458 0.321000009775 0.149000003934 1383.0
0.787000000477 0.314999997616 0.148000001907 1375.0
0.792999982834 0.31099998951 0.149000003934 1401.0
0.787999987602 0.303999990225 0.148000001907 1409.0
0.791999995708 0.300000011921 0.149000003934 1417.0
0.792999982834 0.294999986887 0.148000001907 1415.0
0.794000029564 0.289999991655 0.148000001907 1434.0
0.795000016689 0.284999996424 0.148000001907 1431.0
0.794000029564 0.279000014067 0.148000001907 1449.0
0.79699999094 0.27500000596 0.148000001907 1436.0
0.796000003815 0.268999993801 0.148000001907 1472.0
0.799000024796 0.264999985695 0.148000001907 1484.0
0.797999978065 0.259000003338 0.148000001907 1486.0
0.79699999094 0.254000008106 0.146999999881 1494.0
0.796000003815 0.247999995947 0.146999999881 1509.0
0.802999973297 0.245000004768 0.148000001907 1536.0
0.79699999094 0.238000005484 0.146999999881 1498.0
0.814999997616 0.238000005484 0.15000000596 1138.0
0.90499997139 0.259000003338 0.165999993682 462.0
0.871999979019 0.070000000298 0.156000003219 274.0
0.919000029564 0.0680000036955 0.165000006557 1198.0
0.92199999094 0.0630000010133 0.165000006557 1322.0
0.925000011921 0.0579999983311 0.165999993682 1288.0
0.924000024796 0.0520000010729 0.165999993682 1292.0
0.924000024796 0.0469999983907 0.165999993682 1292.0
0.916000008583 0.0410000011325 0.16400000453 1307.0
0.916999995708 0.0359999984503 0.16400000453 1267.0
0.92199999094 0.0309999994934 0.165000006557 1280.0
0.925000011921 0.0250000003725 0.165999993682 1306.0
0.926999986172 0.019999999553 0.165999993682 1326.0
0.926999986172 0.0149999996647 0.165999993682 1318.0
0.92199999094 0.00899999961257 0.165000006557 1332.0
0.924000024796 0.00400000018999 0.165999993682 1291.0
0.925999999046 -0.0010000000475 0.165999993682 1308.0
0.922999978065 -0.00600000005215 0.165000006557 1288.0
0.925999999046 -0.0109999999404 0.165999993682 1295.0
0.92199999094 -0.0170000009239 0.165000006557 1261.0
0.930000007153 -0.0219999998808 0.166999995708 1283.0
0.922999978065 -0.0270000007004 0.165999993682 1286.0
0.922999978065 -0.0329999998212 0.165999993682 1295.0
0.919000029564 -0.0379999987781 0.165000006557 1282.0
0.924000024796 -0.0430000014603 0.165999993682 1268.0
0.927999973297 -0.0489999987185 0.166999995708 1275.0
0.927999973297 -0.0540000014007 0.166999995708 1285.0
0.926999986172 -0.0599999986589 0.166999995708 1269.0
0.925999999046 -0.0649999976158 0.166999995708 1279.0
0.92199999094 -0.070000000298 0.165999993682 1290.0
0.926999986172 -0.0759999975562 0.166999995708 1272.0
0.929000020027 -0.082000002265 0.167999997735 1266.0
0.919000029564 -0.0860000029206 0.165999993682 1268.0
0.929000020027 -0.0920000001788 0.167999997735 1287.0
0.925999999046 -0.097999997437 0.166999995708 1271.0
0.925999999046 -0.103000000119 0.166999995708 1249.0
0.931999981403 -0.108999997377 0.168999999762 1272.0
0.925000011921 -0.11400000006 0.166999995708 1251.0
0.922999978065 -0.119000002742 0.166999995708 1248.0
0.924000024796 -0.125 0.166999995708 1263.0
0.927999973297 -0.130999997258 0.167999997735 1240.0
0.930000007153 -0.136999994516 0.168999999762 1243.0
0.929000020027 -0.142000004649 0.168999999762 1284.0
0.929000020027 -0.146999999881 0.168999999762 1280.0
0.926999986172 -0.152999997139 0.168999999762 1282.0
0.931999981403 -0.158999994397 0.170000001788 1285.0
0.929000020027 -0.16400000453 0.168999999762 1281.0
0.925999999046 -0.168999999762 0.168999999762 1288.0
0.925000011921 -0.17499999702 0.168999999762 1273.0
0.925999999046 -0.180000007153 0.168999999762 1265.0
0.935000002384 -0.187999993563 0.171000003815 1255.0
0.924000024796 -0.190999999642 0.170000001788 1270.0
0.929000020027 -0.197999998927 0.171000003815 1279.0
0.925999999046 -0.202999994159 0.170000001788 1239.0
0.929000020027 -0.209999993443 0.171000003815 1240.0
0.933000028133 -0.216000005603 0.172000005841 1244.0
0.930000007153 -0.221000000834 0.172000005841 1253.0
0.929000020027 -0.226999998093 0.172000005841 1271.0
0.933000028133 -0.233999997377 0.172999992967 1297.0
0.925000011921 -0.238000005484 0.172000005841 1274.0
0.93599998951 -0.246000006795 0.173999994993 1245.0
0.931999981403 -0.250999987125 0.172999992967 1240.0
0.931999981403 -0.256999999285 0.173999994993 1251.0
0.927999973297 -0.261999994516 0.172999992967 1245.0
0.926999986172 -0.268000006676 0.172999992967 1231.0
0.929000020027 -0.273999989033 0.173999994993 1228.0
0.927999973297 -0.280000001192 0.173999994993 1244.0
0.930000007153 -0.286000013351 0.17499999702 1264.0
0.931999981403 -0.293000012636 0.17499999702 1276.0
0.931999981403 -0.300000011921 0.175999999046 1265.0
0.931999981403 -0.305000007153 0.175999999046 1253.0
0.933000028133 -0.312000006437 0.177000001073 1253.0
0.938000023365 -0.319999992847 0.178000003099 1276.0
0.931999981403 -0.324000000954 0.177000001073 1238.0
0.931999981403 -0.331000000238 0.178000003099 1214.0
0.939999997616 -0.340000003576 0.179000005126 1200.0
0.936999976635 -0.344999998808 0.179000005126 1216.0
0.930000007153 -0.349000006914 0.178000003099 1204.0
0.931999981403 -0.356000006199 0.179000005126 1200.0
0.929000020027 -0.361000001431 0.179000005126 1229.0
0.934000015259 -0.370000004768 0.180000007153 1211.0
0.93599998951 -0.377000004053 0.180999994278 1190.0
0.934000015259 -0.38299998641 0.180999994278 1190.0
0.930000007153 -0.388000011444 0.180999994278 1245.0
0.938000023365 -0.398000001907 0.182999998331 1215.0
0.93599998951 -0.404000014067 0.182999998331 1179.0
0.938000023365 -0.412000000477 0.184000000358 1177.0
0.935000002384 -0.416999995708 0.184000000358 1165.0
0.931999981403 -0.423000007868 0.182999998331 1163.0
0.93599998951 -0.432000011206 0.185000002384 1152.0
0.936999976635 -0.43900001049 0.185000002384 1146.0
0.935000002384 -0.444999992847 0.185000002384 1167.0
0.934000015259 -0.451999992132 0.186000004411 1176.0
0.934000015259 -0.458999991417 0.186000004411 1124.0
0.93599998951 -0.467000007629 0.187000006437 1115.0
0.934000015259 -0.474000006914 0.187999993563 1124.0
0.933000028133 -0.479999989271 0.187999993563 1124.0
0.93599998951 -0.490000009537 0.188999995589 1095.0
0.93599998951 -0.497000008821 0.189999997616 1070.0
0.933000028133 -0.503000020981 0.189999997616 1081.0
0.936999976635 -0.512000024319 0.190999999642 1063.0
0.941999971867 -0.523000001907 0.193000003695 1072.0
0.939999997616 -0.52999997139 0.193000003695 1078.0
0.778999984264 0.453999996185 0.150999993086 1299.0
0.774999976158 0.444999992847 0.149000003934 1319.0
0.776000022888 0.43900001049 0.149000003934 1330.0
0.772000014782 0.430000007153 0.148000001907 1342.0
0.777999997139 0.428000003099 0.149000003934 1352.0
0.785000026226 0.425000011921 0.15000000596 1383.0
0.774999976158 0.41400000453 0.146999999881 1400.0
0.776000022888 0.407999992371 0.146999999881 1415.0
0.782999992371 0.405000001192 0.148000001907 1436.0
0.78100001812 0.398000001907 0.146999999881 1454.0
0.778999984264 0.391000002623 0.146999999881 1472.0
0.777000010014 0.384000003338 0.145999997854 1475.0
0.777999997139 0.379000008106 0.145999997854 1490.0
0.785000026226 0.375999987125 0.145999997854 1497.0
0.785000026226 0.370000004768 0.145999997854 1498.0
0.782999992371 0.363000005484 0.144999995828 1521.0
0.790000021458 0.361000001431 0.145999997854 1507.0
0.783999979496 0.351999998093 0.144999995828 1535.0
0.788999974728 0.349000006914 0.145999997854 1539.0
0.787999987602 0.342999994755 0.144999995828 1543.0
0.794000029564 0.338999986649 0.145999997854 1570.0
0.788999974728 0.331999987364 0.144999995828 1587.0
0.790000021458 0.326000005007 0.144999995828 1605.0
0.790000021458 0.321000009775 0.143999993801 1623.0
0.787000000477 0.31400001049 0.143000006676 1641.0
0.794000029564 0.31099998951 0.143999993801 1650.0
0.792999982834 0.305999994278 0.143999993801 1651.0
0.790000021458 0.298999994993 0.143000006676 1663.0
0.795000016689 0.294999986887 0.143999993801 1681.0
0.792999982834 0.28900000453 0.143000006676 1691.0
0.799000024796 0.286000013351 0.143999993801 1694.0
0.797999978065 0.280000001192 0.143999993801 1702.0
0.794000029564 0.273999989033 0.143000006676 1708.0
0.79699999094 0.268999993801 0.143000006676 1735.0
0.794000029564 0.263000011444 0.142000004649 1767.0
0.79699999094 0.259000003338 0.142000004649 1765.0
0.804000020027 0.256000012159 0.143999993801 1775.0
0.801999986172 0.25 0.143000006676 1810.0
0.801999986172 0.245000004768 0.143000006676 1798.0
0.800000011921 0.238999992609 0.142000004649 1767.0
0.82800000906 0.241999998689 0.146999999881 1245.0
0.903999984264 0.25799998641 0.16099999845 462.0
0.912999987602 0.0670000016689 0.158000007272 1235.0
0.925000011921 0.0630000010133 0.159999996424 1318.0
0.92199999094 0.0570000000298 0.159999996424 1305.0
0.917999982834 0.0520000010729 0.158999994397 1304.0
0.916999995708 0.0460000000894 0.158999994397 1312.0
0.921000003815 0.0410000011325 0.159999996424 1327.0
0.917999982834 0.0359999984503 0.158999994397 1278.0
0.921000003815 0.0309999994934 0.158999994397 1269.0
0.917999982834 0.0250000003725 0.158999994397 1291.0
0.92199999094 0.019999999553 0.159999996424 1335.0
0.927999973297 0.0149999996647 0.16099999845 1335.0
0.922999978065 0.00899999961257 0.159999996424 1330.0
0.92199999094 0.00400000018999 0.159999996424 1300.0
0.916000008583 0.0 0.158999994397 1323.0
0.921000003815 -0.00600000005215 0.159999996424 1313.0
0.925000011921 -0.0109999999404 0.159999996424 1305.0
0.925000011921 -0.0170000009239 0.159999996424 1298.0
0.925000011921 -0.0219999998808 0.159999996424 1317.0
0.925000011921 -0.0270000007004 0.159999996424 1311.0
0.92199999094 -0.0329999998212 0.159999996424 1296.0
0.925000011921 -0.0379999987781 0.16099999845 1293.0
0.925999999046 -0.0439999997616 0.16099999845 1260.0
0.929000020027 -0.0489999987185 0.16099999845 1271.0
0.925000011921 -0.0540000014007 0.16099999845 1271.0
0.922999978065 -0.0590000003576 0.159999996424 1292.0
0.924000024796 -0.0649999976158 0.16099999845 1284.0
0.930000007153 -0.0710000023246 0.162000000477 1277.0
0.925999999046 -0.0759999975562 0.16099999845 1292.0
0.925999999046 -0.0810000002384 0.16099999845 1282.0
0.921000003815 -0.0860000029206 0.16099999845 1285.0
0.927999973297 -0.0920000001788 0.162000000477 1292.0
0.930999994278 -0.097999997437 0.163000002503 1275.0
0.929000020027 -0.103000000119 0.162000000477 1274.0
0.925999999046 -0.108000002801 0.162000000477 1288.0
0.926999986172 -0.11400000006 0.162000000477 1280.0
0.930999994278 -0.119999997318 0.163000002503 1265.0
0.922999978065 -0.123999997973 0.162000000477 1277.0
0.926999986172 -0.129999995232 0.163000002503 1267.0
0.926999986172 -0.136000007391 0.163000002503 1233.0
0.924000024796 -0.141000002623 0.162000000477 1265.0
0.925000011921 -0.146999999881 0.163000002503 1292.0
0.929000020027 -0.152999997139 0.16400000453 1276.0
0.924000024796 -0.158000007272 0.163000002503 1284.0
0.933000028133 -0.165000006557 0.165000006557 1302.0
0.931999981403 -0.170000001788 0.165000006557 1318.0
0.930000007153 -0.17499999702 0.16400000453 1312.0
0.925000011921 -0.180000007153 0.16400000453 1287.0
0.925999999046 -0.186000004411 0.16400000453 1284.0
0.933000028133 -0.193000003695 0.165999993682 1282.0
0.934000015259 -0.199000000954 0.165999993682 1296.0
0.935000002384 -0.204999998212 0.165999993682 1296.0
0.929000020027 -0.209000006318 0.165000006557 1289.0
0.927999973297 -0.215000003576 0.165999993682 1259.0
0.925000011921 -0.219999998808 0.165000006557 1276.0
0.927999973297 -0.225999996066 0.165999993682 1290.0
0.925999999046 -0.231999993324 0.165999993682 1314.0
0.930999994278 -0.238999992609 0.166999995708 1287.0
0.930000007153 -0.245000004768 0.166999995708 1296.0
0.929000020027 -0.25 0.166999995708 1279.0
0.930999994278 -0.256999999285 0.167999997735 1288.0
0.929000020027 -0.261999994516 0.167999997735 1285.0
0.936999976635 -0.270000010729 0.168999999762 1253.0
0.930000007153 -0.273999989033 0.167999997735 1249.0
0.930000007153 -0.280000001192 0.168999999762 1296.0
0.933000028133 -0.287000000477 0.168999999762 1299.0
0.935000002384 -0.293999999762 0.170000001788 1284.0
0.934000015259 -0.300000011921 0.170000001788 1279.0
0.929000020027 -0.303999990225 0.170000001788 1279.0
0.934000015259 -0.312000006437 0.171000003815 1306.0
0.929000020027 -0.317000001669 0.170000001788 1286.0
0.931999981403 -0.324000000954 0.171000003815 1256.0
0.935000002384 -0.331000000238 0.172000005841 1229.0
0.930999994278 -0.33599999547 0.172000005841 1233.0
0.933000028133 -0.342999994755 0.172999992967 1227.0
0.926999986172 -0.347000002861 0.172000005841 1206.0
0.935000002384 -0.356999993324 0.173999994993 1203.0
0.930000007153 -0.361000001431 0.172999992967 1225.0
0.933000028133 -0.368999987841 0.173999994993 1210.0
0.936999976635 -0.377000004053 0.17499999702 1206.0
0.929000020027 -0.381000012159 0.173999994993 1206.0
0.934000015259 -0.388999998569 0.17499999702 1238.0
0.933000028133 -0.395000010729 0.175999999046 1193.0
0.934000015259 -0.402999997139 0.175999999046 1180.0
0.930999994278 -0.407999992371 0.175999999046 1195.0
0.934000015259 -0.416000008583 0.177000001073 1185.0
0.935000002384 -0.423999994993 0.178000003099 1158.0
0.930999994278 -0.428999990225 0.178000003099 1153.0
0.936999976635 -0.43900001049 0.179000005126 1160.0
0.941999971867 -0.448000013828 0.180999994278 1181.0
0.938000023365 -0.45300000906 0.180000007153 1203.0
0.930000007153 -0.456999987364 0.180000007153 1160.0
0.931999981403 -0.465000003576 0.180000007153 1123.0
0.930999994278 -0.472000002861 0.180999994278 1140.0
0.93900001049 -0.483000010252 0.182999998331 1120.0
0.93599998951 -0.488999992609 0.182999998331 1132.0
0.93900001049 -0.497999995947 0.184000000358 1091.0
0.938000023365 -0.504999995232 0.184000000358 1082.0
0.941999971867 -0.514999985695 0.186000004411 1092.0
0.934000015259 -0.518000006676 0.185000002384 1089.0
0.933000028133 -0.524999976158 0.185000002384 1096.0
0.772000014782 0.449000000954 0.143999993801 1464.0
0.773999989033 0.444000005722 0.143999993801 1496.0
0.773999989033 0.437000006437 0.143999993801 1504.0
0.769999980927 0.428999990225 0.142000004649 1503.0
0.776000022888 0.425999999046 0.143000006676 1507.0
0.772000014782 0.416999995708 0.142000004649 1548.0
0.777999997139 0.414999991655 0.143000006676 1578.0
0.786000013351 0.412000000477 0.143999993801 1586.0
0.787000000477 0.407000005245 0.143999993801 1596.0
0.782999992371 0.398999989033 0.142000004649 1616.0
0.783999979496 0.393000006676 0.142000004649 1629.0
0.785000026226 0.386999994516 0.142000004649 1631.0
0.783999979496 0.381000012159 0.142000004649 1644.0
0.786000013351 0.375999987125 0.142000004649 1658.0
0.787000000477 0.370999991894 0.141000002623 1668.0
0.786000013351 0.363999992609 0.141000002623 1693.0
0.783999979496 0.358000010252 0.140000000596 1698.0
0.790000021458 0.354000002146 0.141000002623 1717.0
0.788999974728 0.347999989986 0.141000002623 1733.0
0.787000000477 0.342000007629 0.140000000596 1751.0
0.795000016689 0.340000003576 0.141000002623 1766.0
0.791999995708 0.333000004292 0.140000000596 1793.0
0.792999982834 0.326999992132 0.140000000596 1777.0
0.791999995708 0.321000009775 0.140000000596 1786.0
0.79699999094 0.317999988794 0.140000000596 1783.0
0.797999978065 0.312000006437 0.140000000596 1783.0
0.79699999094 0.307000011206 0.140000000596 1809.0
0.799000024796 0.301999986172 0.140000000596 1809.0
0.792999982834 0.293999999762 0.137999996543 1818.0
0.791000008583 0.287999987602 0.137999996543 1822.0
0.794000029564 0.284000009298 0.137999996543 1834.0
0.799000024796 0.280000001192 0.138999998569 1834.0
0.792999982834 0.273000001907 0.136999994516 1826.0
0.797999978065 0.268999993801 0.137999996543 1873.0
0.796000003815 0.263000011444 0.137999996543 1908.0
0.797999978065 0.259000003338 0.137999996543 1905.0
0.799000024796 0.254000008106 0.137999996543 1913.0
0.800999999046 0.248999997973 0.137999996543 1936.0
0.797999978065 0.243000000715 0.136999994516 1933.0
0.800000011921 0.238999992609 0.136999994516 1885.0
0.84399998188 0.246000006795 0.144999995828 1168.0
0.912999987602 0.261000007391 0.157000005245 434.0
0.912000000477 0.0670000016689 0.152999997139 1278.0
0.919000029564 0.0619999989867 0.153999999166 1337.0
0.922999978065 0.0570000000298 0.153999999166 1309.0
0.920000016689 0.0520000010729 0.153999999166 1310.0
0.919000029564 0.0460000000894 0.153999999166 1318.0
0.919000029564 0.0410000011325 0.153999999166 1341.0
0.926999986172 0.0359999984503 0.155000001192 1330.0
0.919000029564 0.0299999993294 0.153999999166 1284.0
0.925000011921 0.0250000003725 0.155000001192 1308.0
0.921000003815 0.019999999553 0.153999999166 1336.0
0.922999978065 0.0140000004321 0.153999999166 1329.0
0.920000016689 0.00899999961257 0.153999999166 1343.0
0.925999999046 0.00400000018999 0.155000001192 1321.0
0.92199999094 -0.0010000000475 0.153999999166 1317.0
0.922999978065 -0.00600000005215 0.153999999166 1325.0
0.922999978065 -0.0109999999404 0.153999999166 1332.0
0.922999978065 -0.0170000009239 0.155000001192 1312.0
0.919000029564 -0.0219999998808 0.153999999166 1299.0
0.925000011921 -0.0270000007004 0.155000001192 1304.0
0.927999973297 -0.0329999998212 0.156000003219 1324.0
0.92199999094 -0.0379999987781 0.153999999166 1294.0
0.926999986172 -0.0439999997616 0.155000001192 1296.0
0.926999986172 -0.0489999987185 0.155000001192 1302.0
0.926999986172 -0.0540000014007 0.156000003219 1295.0
0.925000011921 -0.0599999986589 0.155000001192 1310.0
0.927999973297 -0.0649999976158 0.156000003219 1313.0
0.929000020027 -0.0710000023246 0.156000003219 1287.0
0.92199999094 -0.0750000029802 0.155000001192 1300.0
0.924000024796 -0.0810000002384 0.156000003219 1300.0
0.927999973297 -0.0869999974966 0.156000003219 1304.0
0.926999986172 -0.0920000001788 0.156000003219 1290.0
0.926999986172 -0.097999997437 0.156000003219 1315.0
0.926999986172 -0.103000000119 0.156000003219 1304.0
0.929000020027 -0.108999997377 0.157000005245 1311.0
0.930999994278 -0.11400000006 0.157000005245 1292.0
0.929000020027 -0.119999997318 0.157000005245 1294.0
0.924000024796 -0.125 0.156000003219 1282.0
0.925999999046 -0.129999995232 0.157000005245 1298.0
0.920000016689 -0.135000005364 0.156000003219 1282.0
0.924000024796 -0.141000002623 0.157000005245 1258.0
0.930000007153 -0.146999999881 0.158000007272 1311.0
0.925999999046 -0.151999995112 0.157000005245 1326.0
0.929000020027 -0.158999994397 0.158000007272 1303.0
0.933000028133 -0.165000006557 0.158999994397 1335.0
0.926999986172 -0.168999999762 0.158000007272 1334.0
0.924000024796 -0.173999994993 0.158000007272 1334.0
0.929000020027 -0.180999994278 0.158999994397 1339.0
0.930999994278 -0.187000006437 0.158999994397 1341.0
0.925999999046 -0.192000001669 0.158999994397 1332.0
0.922999978065 -0.196999996901 0.158000007272 1326.0
0.931999981403 -0.203999996185 0.159999996424 1348.0
0.934000015259 -0.209999993443 0.16099999845 1358.0
0.930000007153 -0.215000003576 0.159999996424 1353.0
0.931999981403 -0.222000002861 0.16099999845 1369.0
0.929000020027 -0.226999998093 0.159999996424 1365.0
0.930000007153 -0.232999995351 0.16099999845 1331.0
0.931999981403 -0.238999992609 0.16099999845 1329.0
0.933000028133 -0.245000004768 0.162000000477 1323.0
0.929000020027 -0.25 0.16099999845 1322.0
0.930999994278 -0.256000012159 0.162000000477 1319.0
0.930999994278 -0.261999994516 0.162000000477 1317.0
0.930999994278 -0.268000006676 0.163000002503 1277.0
0.933000028133 -0.27500000596 0.163000002503 1276.0
0.93599998951 -0.282000005245 0.16400000453 1295.0
0.934000015259 -0.287000000477 0.16400000453 1300.0
0.931999981403 -0.293000012636 0.16400000453 1306.0
0.933000028133 -0.298999994993 0.16400000453 1304.0
0.925999999046 -0.303000003099 0.163000002503 1295.0
0.934000015259 -0.312000006437 0.165000006557 1320.0
0.933000028133 -0.317999988794 0.165000006557 1286.0
0.935000002384 -0.324999988079 0.165999993682 1283.0
0.93599998951 -0.331000000238 0.165999993682 1262.0
0.929000020027 -0.335000008345 0.165000006557 1227.0
0.933000028133 -0.342999994755 0.166999995708 1234.0
0.933000028133 -0.349000006914 0.166999995708 1219.0
0.930000007153 -0.354999989271 0.166999995708 1223.0
0.931999981403 -0.361999988556 0.167999997735 1223.0
0.934000015259 -0.368999987841 0.167999997735 1205.0
0.929000020027 -0.374000012875 0.167999997735 1212.0
0.934000015259 -0.381999999285 0.168999999762 1246.0
0.935000002384 -0.388999998569 0.170000001788 1221.0
0.933000028133 -0.395000010729 0.170000001788 1198.0
0.930999994278 -0.400999993086 0.170000001788 1201.0
0.931999981403 -0.407999992371 0.170000001788 1206.0
0.934000015259 -0.416000008583 0.171000003815 1170.0
0.936999976635 -0.423999994993 0.172000005841 1157.0
0.929000020027 -0.426999986172 0.171000003815 1180.0
0.936999976635 -0.437999993563 0.172999992967 1174.0
0.936999976635 -0.444999992847 0.173999994993 1175.0
0.934000015259 -0.451000005007 0.173999994993 1183.0
0.930000007153 -0.456000000238 0.172999992967 1180.0
0.930999994278 -0.463999986649 0.173999994993 1152.0
0.936999976635 -0.474000006914 0.175999999046 1143.0
0.938000023365 -0.481999993324 0.175999999046 1128.0
0.938000023365 -0.488999992609 0.177000001073 1114.0
0.930000007153 -0.49200001359 0.175999999046 1112.0
0.934000015259 -0.501999974251 0.177000001073 1084.0
0.93599998951 -0.510999977589 0.178000003099 1114.0
0.935000002384 -0.518000006676 0.178000003099 1096.0
0.936999976635 -0.527000010014 0.180000007153 1079.0
0.774999976158 0.451000005007 0.138999998569 1563.0
0.777000010014 0.444999992847 0.138999998569 1561.0
0.774999976158 0.437999993563 0.138999998569 1564.0
0.776000022888 0.432000011206 0.137999996543 1584.0
0.782999992371 0.430000007153 0.138999998569 1601.0
0.778999984264 0.421000003815 0.137999996543 1620.0
0.78100001812 0.416000008583 0.137999996543 1645.0
0.77999997139 0.409000009298 0.137999996543 1665.0
0.773000001907 0.398999989033 0.136000007391 1685.0
0.786000013351 0.40000000596 0.137999996543 1724.0
0.782000005245 0.391000002623 0.136999994516 1741.0
0.785000026226 0.386999994516 0.136999994516 1744.0
0.787999987602 0.38299998641 0.136999994516 1780.0
0.787000000477 0.375999987125 0.136999994516 1770.0
0.783999979496 0.368999987841 0.136000007391 1761.0
0.782999992371 0.363000005484 0.135000005364 1774.0
0.788999974728 0.360000014305 0.136000007391 1777.0
0.787000000477 0.352999985218 0.135000005364 1783.0
0.782999992371 0.344999998808 0.134000003338 1795.0
0.790000021458 0.342999994755 0.135000005364 1809.0
0.788999974728 0.337000012398 0.135000005364 1819.0
0.787999987602 0.331000000238 0.134000003338 1867.0
0.791000008583 0.326000005007 0.135000005364 1857.0
0.791000008583 0.319999992847 0.134000003338 1864.0
0.792999982834 0.316000014544 0.134000003338 1858.0
0.799000024796 0.312999993563 0.135000005364 1861.0
0.796000003815 0.305999994278 0.134000003338 1880.0
0.794000029564 0.300000011921 0.134000003338 1893.0
0.794000029564 0.293999999762 0.134000003338 1875.0
0.79699999094 0.289999991655 0.134000003338 1918.0
0.787999987602 0.280999988317 0.131999999285 1904.0
0.791000008583 0.277000010014 0.131999999285 1902.0
0.794000029564 0.273000001907 0.133000001311 1893.0
0.791999995708 0.266999989748 0.131999999285 1930.0
0.792999982834 0.261999994516 0.131999999285 1975.0
0.79699999094 0.25799998641 0.133000001311 1973.0
0.797999978065 0.252999991179 0.133000001311 1983.0
0.797999978065 0.247999995947 0.131999999285 2006.0
0.804000020027 0.245000004768 0.133000001311 1998.0
0.799000024796 0.238000005484 0.131999999285 1962.0
0.828999996185 0.241999998689 0.136999994516 1205.0
0.908999979496 0.259000003338 0.15000000596 401.0
0.912999987602 0.0670000016689 0.146999999881 1281.0
0.920000016689 0.0619999989867 0.148000001907 1353.0
0.921000003815 0.0570000000298 0.149000003934 1339.0
0.921000003815 0.0520000010729 0.149000003934 1329.0
0.92199999094 0.0460000000894 0.149000003934 1340.0
0.921000003815 0.0410000011325 0.148000001907 1333.0
0.924000024796 0.0359999984503 0.149000003934 1338.0
0.922999978065 0.0299999993294 0.149000003934 1288.0
0.929000020027 0.0250000003725 0.15000000596 1319.0
0.916999995708 0.019999999553 0.148000001907 1350.0
0.925999999046 0.0140000004321 0.149000003934 1341.0
0.921000003815 0.00899999961257 0.149000003934 1328.0
0.924000024796 0.00400000018999 0.149000003934 1327.0
0.930000007153 -0.0010000000475 0.15000000596 1348.0
0.924000024796 -0.00600000005215 0.149000003934 1338.0
0.922999978065 -0.0109999999404 0.149000003934 1359.0
0.925000011921 -0.0170000009239 0.149000003934 1360.0
0.916999995708 -0.0219999998808 0.148000001907 1346.0
0.92199999094 -0.0270000007004 0.149000003934 1341.0
0.92199999094 -0.0329999998212 0.149000003934 1356.0
0.920000016689 -0.0379999987781 0.149000003934 1346.0
0.929000020027 -0.0439999997616 0.15000000596 1373.0
0.927999973297 -0.0489999987185 0.15000000596 1359.0
0.92199999094 -0.0540000014007 0.149000003934 1327.0
0.927999973297 -0.0599999986589 0.15000000596 1354.0
0.921000003815 -0.0649999976158 0.149000003934 1361.0
0.930000007153 -0.0710000023246 0.150999993086 1316.0
0.922999978065 -0.0759999975562 0.15000000596 1328.0
0.924000024796 -0.0810000002384 0.15000000596 1326.0
0.929000020027 -0.0869999974966 0.150999993086 1341.0
0.921000003815 -0.0909999981523 0.15000000596 1318.0
0.926999986172 -0.097999997437 0.150999993086 1340.0
0.930999994278 -0.103000000119 0.150999993086 1340.0
0.930999994278 -0.108999997377 0.151999995112 1335.0
0.925000011921 -0.11400000006 0.150999993086 1338.0
0.926999986172 -0.119000002742 0.150999993086 1333.0
0.930999994278 -0.125 0.151999995112 1332.0
0.926999986172 -0.129999995232 0.150999993086 1344.0
0.929000020027 -0.136000007391 0.151999995112 1329.0
0.930000007153 -0.142000004649 0.151999995112 1307.0
0.930000007153 -0.146999999881 0.151999995112 1340.0
0.925999999046 -0.151999995112 0.151999995112 1367.0
0.927999973297 -0.158000007272 0.151999995112 1338.0
0.931999981403 -0.16400000453 0.152999997139 1356.0
0.929000020027 -0.170000001788 0.152999997139 1355.0
0.927999973297 -0.17499999702 0.152999997139 1369.0
0.931999981403 -0.180999994278 0.153999999166 1384.0
0.926999986172 -0.186000004411 0.152999997139 1365.0
0.929000020027 -0.192000001669 0.152999997139 1389.0
0.93599998951 -0.199000000954 0.155000001192 1400.0
0.927999973297 -0.202999994159 0.153999999166 1393.0
0.930000007153 -0.209000006318 0.153999999166 1378.0
0.934000015259 -0.216000005603 0.155000001192 1380.0
0.927999973297 -0.221000000834 0.153999999166 1377.0
0.931999981403 -0.226999998093 0.155000001192 1371.0
0.926999986172 -0.231999993324 0.155000001192 1380.0
0.927999973297 -0.238000005484 0.155000001192 1361.0
0.930999994278 -0.244000002742 0.156000003219 1347.0
0.926999986172 -0.248999997973 0.155000001192 1334.0
0.934000015259 -0.256999999285 0.157000005245 1345.0
0.934000015259 -0.263000011444 0.157000005245 1316.0
0.927999973297 -0.266999989748 0.156000003219 1291.0
0.931999981403 -0.273999989033 0.157000005245 1279.0
0.927999973297 -0.279000014067 0.157000005245 1284.0
0.934000015259 -0.287000000477 0.158000007272 1295.0
0.934000015259 -0.293000012636 0.158000007272 1322.0
0.930000007153 -0.298000007868 0.158000007272 1323.0
0.931999981403 -0.305000007153 0.158999994397 1300.0
0.930999994278 -0.31099998951 0.158999994397 1320.0
0.931999981403 -0.317000001669 0.158999994397 1297.0
0.929000020027 -0.321999996901 0.158999994397 1277.0
0.931999981403 -0.330000013113 0.159999996424 1273.0
0.930000007153 -0.335000008345 0.159999996424 1252.0
0.930000007153 -0.340999990702 0.159999996424 1231.0
0.935000002384 -0.34999999404 0.16099999845 1221.0
0.930000007153 -0.354000002146 0.16099999845 1236.0
0.934000015259 -0.361999988556 0.162000000477 1233.0
0.929000020027 -0.36700001359 0.162000000477 1190.0
0.934000015259 -0.375 0.163000002503 1215.0
0.930000007153 -0.379999995232 0.162000000477 1253.0
0.930999994278 -0.386999994516 0.163000002503 1225.0
0.93900001049 -0.397000014782 0.165000006557 1228.0
0.938000023365 -0.404000014067 0.165000006557 1234.0
0.931999981403 -0.407999992371 0.16400000453 1215.0
0.936999976635 -0.416999995708 0.165999993682 1172.0
0.936999976635 -0.423999994993 0.165999993682 1157.0
0.934000015259 -0.428999990225 0.165999993682 1189.0
0.93599998951 -0.437000006437 0.166999995708 1170.0
0.936999976635 -0.444999992847 0.166999995708 1182.0
0.933000028133 -0.449999988079 0.166999995708 1185.0
0.931999981403 -0.456000000238 0.167999997735 1172.0
0.936999976635 -0.465999990702 0.168999999762 1157.0
0.927999973297 -0.469000011683 0.167999997735 1112.0
0.931999981403 -0.477999985218 0.168999999762 1114.0
0.93599998951 -0.488000005484 0.170000001788 1107.0
0.940999984741 -0.497999995947 0.172000005841 1088.0
0.938000023365 -0.504000008106 0.172000005841 1087.0
0.938000023365 -0.510999977589 0.172000005841 1096.0
0.925999999046 -0.512000024319 0.171000003815 1090.0
0.938000023365 -0.527000010014 0.172999992967 1082.0
0.782000005245 0.453999996185 0.135000005364 1549.0
0.777000010014 0.444999992847 0.134000003338 1589.0
0.776000022888 0.437999993563 0.134000003338 1600.0
0.782999992371 0.435000002384 0.134000003338 1612.0
0.777000010014 0.425999999046 0.133000001311 1619.0
0.778999984264 0.419999986887 0.133000001311 1665.0
0.782000005245 0.416000008583 0.133000001311 1657.0
0.78100001812 0.409000009298 0.133000001311 1677.0
0.783999979496 0.405000001192 0.133000001311 1680.0
0.783999979496 0.398000001907 0.131999999285 1690.0
0.782999992371 0.391999989748 0.131999999285 1680.0
0.787000000477 0.388000011444 0.131999999285 1713.0
0.787000000477 0.381999999285 0.131999999285 1733.0
0.785000026226 0.375 0.130999997258 1722.0
0.786000013351 0.368999987841 0.130999997258 1717.0
0.786000013351 0.363000005484 0.130999997258 1722.0
0.790000021458 0.358999997377 0.130999997258 1716.0
0.792999982834 0.354999989271 0.130999997258 1721.0
0.794000029564 0.34999999404 0.130999997258 1746.0
0.791000008583 0.342999994755 0.129999995232 1746.0
0.794000029564 0.338999986649 0.130999997258 1766.0
0.792999982834 0.331999987364 0.129999995232 1764.0
0.796000003815 0.32800000906 0.129999995232 1770.0
0.799000024796 0.324000000954 0.130999997258 1785.0
0.800000011921 0.317999988794 0.130999997258 1795.0
0.796000003815 0.31099998951 0.129999995232 1809.0
0.795000016689 0.305000007153 0.128999993205 1806.0
0.799000024796 0.300999999046 0.129999995232 1791.0
0.795000016689 0.294999986887 0.128999993205 1788.0
0.804000020027 0.291999995708 0.129999995232 1800.0
0.800000011921 0.284999996424 0.128999993205 1799.0
0.799000024796 0.280000001192 0.128999993205 1802.0
0.797999978065 0.273999989033 0.12800000608 1822.0
