ply
format ascii 1.0
element vertex 926
property float x
property float y
property float z
property float intensity
end_header
0.660000026226 -0.296000003815 -0.140000000596 239.0
0.649999976158 -0.294999986887 -0.137999996543 233.0
0.649999976158 -0.300999999046 -0.138999998569 248.0
0.785000026226 -0.370000004768 -0.167999997735 461.0
0.873000025749 -0.418000012636 -0.187000006437 1337.0
0.876999974251 -0.426999986172 -0.187999993563 1523.0
0.878000020981 -0.433999985456 -0.188999995589 1508.0
0.883000016212 -0.444000005722 -0.190999999642 1502.0
0.878000020981 -0.448000013828 -0.189999997616 1498.0
0.873000025749 -0.451999992132 -0.189999997616 1507.0
0.867999970913 -0.456999987364 -0.188999995589 1504.0
0.866999983788 -0.462999999523 -0.188999995589 1499.0
0.865000009537 -0.469000011683 -0.188999995589 1484.0
0.869000017643 -0.479000002146 -0.190999999642 1494.0
0.85900002718 -0.479999989271 -0.188999995589 1505.0
0.864000022411 -0.490000009537 -0.190999999642 1510.0
4.28000020981 2.5039999485 -1.00699996948 168.0
4.27199983597 2.46300005913 -1.00199997425 172.0
4.26399993896 2.42300009727 -0.996999979019 151.0
4.31799983978 2.41700005531 -1.00600004196 160.0
4.35400009155 2.40100002289 -1.01100003719 178.0
4.35900020599 2.36899995804 -1.00899994373 164.0
4.36299991608 2.33500003815 -1.00699996948 167.0
4.37599992752 2.3069999218 -1.00699996948 155.0
4.42000007629 2.29500007629 -1.01400005817 156.0
0.00899999961257 0.00400000018999 -0.00200000009499 153.0
4.41800022125 2.22399997711 -1.00699996948 155.0
4.24599981308 2.10400009155 -0.964999973774 149.0
4.19099998474 2.04500007629 -0.949999988079 163.0
4.25400018692 2.04299998283 -0.962000012398 156.0
4.38500022888 2.07299995422 -0.989000022411 160.0
4.41300010681 2.05200004578 -0.992999970913 160.0
4.42700004578 2.02500009537 -0.992999970913 160.0
4.4359998703 1.9960000515 -0.991999983788 161.0
4.47900009155 1.98300004005 -1.0 173.0
4.48000001907 1.95000004768 -0.996999979019 158.0
4.507999897 1.92999994755 -1.00100004673 153.0
4.52199983597 1.90299999714 -1.00199997425 152.0
4.5 1.86099994183 -0.994000017643 145.0
4.507999897 1.83200001717 -0.994000017643 148.0
4.51399993896 1.8029999733 -0.992999970913 143.0
4.53100013733 1.77799999714 -0.995000004768 139.0
4.51200008392 1.73800003529 -0.987999975681 145.0
4.50099992752 1.70299994946 -0.98400002718 138.0
4.50699996948 1.6740000248 -0.98299998045 142.0
4.56300020218 1.6629999876 -0.992999970913 138.0
4.47200012207 1.60000002384 -0.971000015736 138.0
4.53200006485 1.59000003338 -0.981999993324 136.0
4.54300022125 1.56299996376 -0.98299998045 135.0
4.55399990082 1.53600001335 -0.98299998045 140.0
4.57800006866 1.51400005817 -0.986999988556 127.0
4.62699985504 1.49899995327 -0.995000004768 121.0
4.60400009155 1.46099996567 -0.989000022411 125.0
4.66400003433 1.45000004768 -1.0 125.0
4.66200017929 1.41799998283 -0.998000025749 119.0
4.65000009537 1.38399994373 -0.992999970913 131.0
4.49399995804 1.30900001526 -0.958000004292 160.0
4.507999897 1.28299999237 -0.959999978542 164.0
4.55499982834 1.26699995995 -0.967999994755 156.0
4.53399991989 1.23300004005 -0.962000012398 163.0
4.59899997711 1.22099995613 -0.975000023842 149.0
4.78499984741 1.24000000954 -1.01300001144 115.0
0.0280000008643 0.00800000037998 -0.00600000005215 110.0
4.80700016022 1.18499994278 -1.01400005817 117.0
0.0189999993891 0.00499999988824 -0.00400000018999 117.0
4.83599996567 1.13100004196 -1.01800000668 115.0
4.85400009155 1.10500001907 -1.01999998093 103.0
0.0340000018477 0.00800000037998 -0.00700000021607 103.0
0.0309999994934 0.00700000021607 -0.00600000005215 102.0
0.0270000007004 0.00600000005215 -0.00499999988824 107.0
4.867000103 0.986999988556 -1.01800000668 99.0
4.79500007629 0.943000018597 -1.00199997425 106.0
4.77699995041 0.910000026226 -0.996999979019 112.0
4.8029999733 0.885999977589 -1.00100004673 107.0
4.79600000381 0.856000006199 -0.999000012875 107.0
4.82800006866 0.832000017166 -1.0039999485 108.0
4.86299991608 0.808000028133 -1.01100003719 100.0
4.91300010681 0.787000000477 -1.01999998093 101.0
4.92000007629 0.759000003338 -1.02100002766 100.0
4.90100002289 0.726000010967 -1.01600003242 100.0
0.0299999993294 0.00499999988824 -0.00600000005215 99.0
0.0309999994934 0.00499999988824 -0.00600000005215 103.0
0.0179999992251 0.00300000002608 -0.00300000002608 100.0
0.0560000017285 0.00800000037998 -0.0109999999404 100.0
0.0419999994338 0.00600000005215 -0.00800000037998 98.0
4.9310002327 0.554000020027 -1.01699995995 98.0
0.00800000037998 0.00200000009499 -0.0010000000475 100.0
0.0309999994934 0.00400000018999 -0.00600000005215 104.0
0.01600000076 0.00300000002608 -0.00300000002608 103.0
0.0430000014603 0.00499999988824 -0.00899999961257 96.0
0.0130000002682 0.00200000009499 -0.00200000009499 88.0
0.0299999993294 0.00400000018999 -0.00600000005215 86.0
0.0329999998212 0.00400000018999 -0.00600000005215 78.0
0.0689999982715 0.00600000005215 -0.0140000004321 83.0
0.070000000298 0.00600000005215 -0.0140000004321 85.0
0.0280000008643 0.00300000002608 -0.00499999988824 79.0
0.0460000000894 0.00400000018999 -0.00899999961257 88.0
0.0260000005364 0.00300000002608 -0.00499999988824 83.0
4.96500015259 0.178000003099 -1.01800000668 82.0
0.0529999993742 0.00300000002608 -0.00999999977648 79.0
0.00800000037998 0.00200000009499 -0.0010000000475 75.0
0.0480000004172 0.00200000009499 -0.00899999961257 78.0
0.0460000000894 0.00200000009499 -0.00899999961257 80.0
0.0480000004172 0.00200000009499 -0.00899999961257 81.0
0.0109999999404 0.00200000009499 -0.00200000009499 74.0
0.0460000000894 0.0010000000475 -0.00899999961257 74.0
0.0299999993294 0.0010000000475 -0.00600000005215 80.0
0.082000002265 0.0 -0.01600000076 80.0
0.941999971867 -0.0189999993891 -0.192000001669 606.0
0.961000025272 -0.0250000003725 -0.195999994874 867.0
0.755999982357 -0.0230000000447 -0.153999999166 223.0
0.713999986649 -0.0260000005364 -0.145999997854 188.0
0.736000001431 -0.0309999994934 -0.15000000596 192.0
0.73299998045 -0.035000000149 -0.15000000596 191.0
0.739000022411 -0.0399999991059 -0.150999993086 189.0
0.726000010967 -0.0430000014603 -0.148000001907 184.0
0.703999996185 -0.0460000000894 -0.143999993801 188.0
0.726000010967 -0.0520000010729 -0.148000001907 188.0
0.699999988079 -0.0540000014007 -0.143000006676 194.0
0.712999999523 -0.0590000003576 -0.145999997854 188.0
0.711000025272 -0.0630000010133 -0.144999995828 190.0
0.71899998188 -0.0680000036955 -0.146999999881 192.0
0.727999985218 -0.0729999989271 -0.149000003934 203.0
0.90600001812 -0.097999997437 -0.185000002384 466.0
0.961000025272 -0.108999997377 -0.196999996901 1185.0
0.967999994755 -0.115999996662 -0.197999998927 1278.0
0.966000020504 -0.120999999344 -0.197999998927 1294.0
0.967999994755 -0.127000004053 -0.199000000954 1291.0
0.962000012398 -0.131999999285 -0.196999996901 1294.0
0.958000004292 -0.137999996543 -0.196999996901 1325.0
0.959999978542 -0.143999993801 -0.196999996901 1316.0
0.958000004292 -0.149000003934 -0.196999996901 1322.0
0.957000017166 -0.155000001192 -0.196999996901 1319.0
0.961000025272 -0.16099999845 -0.197999998927 1347.0
0.954999983311 -0.165999993682 -0.196999996901 1341.0
0.957000017166 -0.172000005841 -0.196999996901 1347.0
0.949000000954 -0.175999999046 -0.195999994874 1358.0
0.950999975204 -0.181999996305 -0.195999994874 1251.0
0.860000014305 -0.170000001788 -0.178000003099 394.0
0.73400002718 -0.149000003934 -0.151999995112 222.0
0.717999994755 -0.15000000596 -0.149000003934 219.0
0.722000002861 -0.155000001192 -0.15000000596 221.0
0.726000010967 -0.159999996424 -0.15000000596 215.0
0.712999999523 -0.162000000477 -0.148000001907 221.0
0.690999984741 -0.16099999845 -0.143000006676 219.0
0.697000026703 -0.166999995708 -0.144999995828 224.0
0.731000006199 -0.180000007153 -0.151999995112 226.0
0.704999983311 -0.178000003099 -0.146999999881 224.0
0.686999976635 -0.177000001073 -0.143000006676 226.0
0.722999989986 -0.192000001669 -0.150999993086 228.0
0.709999978542 -0.193000003695 -0.149000003934 231.0
0.708999991417 -0.196999996901 -0.149000003934 237.0
0.907999992371 -0.259000003338 -0.189999997616 980.0
0.925999999046 -0.270000010729 -0.194999992847 1422.0
0.925000011921 -0.275999993086 -0.194999992847 1449.0
0.927999973297 -0.282999992371 -0.195999994874 1442.0
0.924000024796 -0.287999987602 -0.194999992847 1459.0
0.920000016689 -0.291999995708 -0.194000005722 1461.0
0.919000029564 -0.298000007868 -0.194999992847 1458.0
0.919000029564 -0.303999990225 -0.194999992847 1468.0
0.916000008583 -0.310000002384 -0.194999992847 1478.0
0.913999974728 -0.314999997616 -0.194000005722 1474.0
0.912999987602 -0.321000009775 -0.194999992847 1468.0
0.907999992371 -0.324999988079 -0.194000005722 1461.0
0.912999987602 -0.333000004292 -0.194999992847 1457.0
0.90600001812 -0.337000012398 -0.194000005722 1469.0
0.875 -0.331000000238 -0.187999993563 671.0
0.712000012398 -0.273000001907 -0.152999997139 256.0
0.679000020027 -0.264999985695 -0.145999997854 242.0
0.675999999046 -0.268999993801 -0.145999997854 242.0
0.660000026226 -0.266999989748 -0.143000006676 242.0
0.647000014782 -0.266000002623 -0.140000000596 239.0
0.670000016689 -0.280999988317 -0.144999995828 239.0
0.653999984264 -0.279000014067 -0.142000004649 233.0
0.643000006676 -0.277999997139 -0.140000000596 237.0
0.661000013351 -0.291000008583 -0.143999993801 240.0
0.638999998569 -0.286000013351 -0.140000000596 239.0
0.638000011444 -0.291000008583 -0.140000000596 246.0
0.632000029087 -0.291999995708 -0.138999998569 245.0
0.79699999094 -0.375999987125 -0.175999999046 526.0
0.879999995232 -0.42199999094 -0.194000005722 1371.0
0.884999990463 -0.432000011206 -0.195999994874 1506.0
0.875999987125 -0.433999985456 -0.194999992847 1495.0
0.876999974251 -0.441000014544 -0.194999992847 1503.0
0.871999979019 -0.446000009775 -0.194999992847 1503.0
0.875 -0.453999996185 -0.195999994874 1497.0
0.861999988556 -0.453999996185 -0.194000005722 1505.0
0.873000025749 -0.467000007629 -0.196999996901 1493.0
0.865999996662 -0.469999998808 -0.195999994874 1500.0
0.862999975681 -0.476000010967 -0.194999992847 1499.0
0.862999975681 -0.483000010252 -0.195999994874 1494.0
0.860000014305 -0.488000005484 -0.195999994874 1480.0
4.26399993896 2.49799990654 -1.03299999237 175.0
4.28700017929 2.47499990463 -1.03499996662 177.0
4.29699993134 2.44400000572 -1.0340000391 155.0
4.3220000267 2.42300009727 -1.03699994087 160.0
4.33300018311 2.39299988747 -1.03600001335 176.0
4.35500001907 2.36899995804 -1.0379999876 176.0
4.367000103 2.33999991417 -1.0379999876 166.0
4.382999897 2.31399989128 -1.0379999876 166.0
4.39799976349 2.28600001335 -1.03900003433 160.0
4.40999984741 2.25699996948 -1.0379999876 164.0
4.44500017166 2.24000000954 -1.04400002956 162.0
4.29099988937 2.1289999485 -1.00499999523 150.0
4.19999980927 2.05200004578 -0.980000019073 155.0
4.257999897 2.04699993134 -0.990999996662 160.0
4.41300010681 2.08800005913 -1.02400004864 162.0
4.40899991989 2.05200004578 -1.02100002766 156.0
4.42000007629 2.02399992943 -1.02100002766 160.0
4.43800020218 2.0 -1.02199995518 169.0
4.46400022507 1.97800004482 -1.02600002289 156.0
4.48400020599 1.95399999619 -1.02799999714 153.0
4.53200006485 1.94200003147 -1.03600001335 154.0
4.55800008774 1.91999995708 -1.03999996185 157.0
4.52400016785 1.87300002575 -1.02900004387 149.0
4.49700021744 1.83000004292 -1.02100002766 145.0
4.47900009155 1.79100000858 -1.01400005817 143.0
4.5 1.76699995995 -1.01699995995 151.0
4.492000103 1.73300004005 -1.01300001144 143.0
4.50199985504 1.70500004292 -1.01300001144 139.0
4.50899982452 1.67700004578 -1.01199996471 141.0
4.53700017929 1.65600001812 -1.01699995995 139.0
4.51700019836 1.61699998379 -1.00999999046 136.0
4.52799987793 1.59000003338 -1.00999999046 136.0
4.50899982452 1.5529999733 -1.0039999485 133.0
4.54500007629 1.53499996662 -1.00999999046 135.0
4.57600021362 1.51499998569 -1.01499998569 127.0
4.60599994659 1.49399995804 -1.01999998093 125.0
4.625 1.46899998188 -1.02199995518 128.0
4.61800003052 1.43599998951 -1.01900005341 126.0
4.64400005341 1.41400003433 -1.02300000191 125.0
4.67000007629 1.39100003242 -1.02699995041 124.0
4.60599994659 1.34200000763 -1.01100003719 149.0
4.62400007248 1.31799995899 -1.01400005817 139.0
4.62099981308 1.28699994087 -1.01100003719 147.0
4.62300014496 1.25800001621 -1.00999999046 131.0
4.6779999733 1.24300003052 -1.02100002766 138.0
4.80800008774 1.24699997902 -1.04799997807 113.0
0.0219999998808 0.00600000005215 -0.00400000018999 111.0
0.0240000002086 0.00600000005215 -0.00499999988824 111.0
0.0140000004321 0.00400000018999 -0.00200000009499 117.0
4.84399986267 1.13399994373 -1.04999995232 112.0
0.0170000009239 0.00400000018999 -0.00300000002608 108.0
4.85799980164 1.0759999752 -1.04999995232 110.0
4.82299995422 1.03900003433 -1.04100000858 111.0
4.8639998436 1.01800000668 -1.0490000248 106.0
0.00899999961257 0.00200000009499 -0.0010000000475 109.0
4.81699991226 0.948000013828 -1.03600001335 108.0
4.77799987793 0.912000000477 -1.02699995041 108.0
4.80000019073 0.885999977589 -1.02999997139 106.0
4.75099992752 0.847999989986 -1.01900005341 114.0
4.70300006866 0.81099998951 -1.00699996948 114.0
4.73299980164 0.787999987602 -1.01300001144 105.0
4.78700017929 0.768000006676 -1.02300000191 107.0
4.78399991989 0.737999975681 -1.02199995518 107.0
4.88000011444 0.723999977112 -1.04100000858 104.0
4.92399978638 0.700999975204 -1.04999995232 104.0
4.90399980545 0.667999982834 -1.04499995708 104.0
4.92199993134 0.64099997282 -1.04799997807 101.0
0.0120000001043 0.00300000002608 -0.00200000009499 103.0
0.00700000021607 0.00200000009499 -0.0010000000475 103.0
0.0280000008643 0.00400000018999 -0.00600000005215 107.0
4.93499994278 0.524999976158 -1.04799997807 105.0
0.0280000008643 0.00400000018999 -0.00600000005215 102.0
4.95200014114 0.469000011683 -1.04999995232 103.0
0.00700000021607 0.00200000009499 -0.0010000000475 100.0
0.0329999998212 0.00400000018999 -0.00600000005215 88.0
0.0189999993891 0.00300000002608 -0.00400000018999 87.0
0.0390000008047 0.00400000018999 -0.00800000037998 95.0
0.0219999998808 0.00300000002608 -0.00400000018999 86.0
4.96400022507 0.293999999762 -1.0490000248 86.0
0.00700000021607 0.00200000009499 -0.0010000000475 80.0
0.01600000076 0.00200000009499 -0.00300000002608 81.0
0.0280000008643 0.00300000002608 -0.00499999988824 84.0
4.94899988174 0.177000001073 -1.04400002956 81.0
0.0309999994934 0.00200000009499 -0.00600000005215 78.0
0.0289999991655 0.00200000009499 -0.00600000005215 76.0
0.00999999977648 0.00200000009499 -0.00200000009499 77.0
4.96899986267 0.0610000006855 -1.04799997807 78.0
0.0850000008941 0.00200000009499 -0.0179999992251 87.0
0.0120000001043 0.00200000009499 -0.00200000009499 71.0
0.0450000017881 0.0010000000475 -0.00899999961257 78.0
0.035000000149 0.0010000000475 -0.00700000021607 84.0
0.179000005126 0.0 -0.0370000004768 87.0
0.944000005722 -0.0189999993891 -0.199000000954 638.0
0.96899998188 -0.0250000003725 -0.203999996185 847.0
0.788999974728 -0.0250000003725 -0.165999993682 223.0
0.717999994755 -0.0260000005364 -0.150999993086 189.0
0.716000020504 -0.0299999993294 -0.150999993086 192.0
0.70300000906 -0.0340000018477 -0.148000001907 189.0
0.711000025272 -0.0379999987781 -0.149000003934 185.0
0.731999993324 -0.0439999997616 -0.153999999166 191.0
0.717999994755 -0.0469999983907 -0.150999993086 191.0
0.703999996185 -0.0500000007451 -0.148000001907 192.0
0.73400002718 -0.0570000000298 -0.153999999166 195.0
0.712000012398 -0.0590000003576 -0.15000000596 194.0
0.725000023842 -0.0649999976158 -0.152999997139 200.0
0.736999988556 -0.070000000298 -0.155000001192 194.0
0.70300000906 -0.0710000023246 -0.148000001907 202.0
0.90600001812 -0.097999997437 -0.190999999642 492.0
0.967999994755 -0.109999999404 -0.203999996185 1207.0
0.959999978542 -0.115000002086 -0.202999994159 1284.0
0.967999994755 -0.122000001371 -0.203999996185 1284.0
0.967999994755 -0.12800000608 -0.204999998212 1274.0
0.959999978542 -0.131999999285 -0.202999994159 1293.0
0.962000012398 -0.137999996543 -0.203999996185 1313.0
0.962999999523 -0.143999993801 -0.203999996185 1311.0
0.955999970436 -0.149000003934 -0.202000007033 1320.0
0.954999983311 -0.153999999166 -0.202000007033 1325.0
0.95300000906 -0.159999996424 -0.202000007033 1343.0
0.957000017166 -0.165999993682 -0.202999994159 1334.0
0.955999970436 -0.172000005841 -0.202999994159 1360.0
0.952000021935 -0.177000001073 -0.202000007033 1352.0
0.944000005722 -0.180999994278 -0.201000005007 1218.0
0.850000023842 -0.167999997735 -0.180999994278 364.0
0.727999985218 -0.148000001907 -0.155000001192 220.0
0.714999973774 -0.149000003934 -0.151999995112 223.0
0.726999998093 -0.156000003219 -0.155000001192 227.0
0.725000023842 -0.16099999845 -0.155000001192 224.0
0.716000020504 -0.163000002503 -0.152999997139 221.0
0.704999983311 -0.165000006557 -0.150999993086 223.0
0.70300000906 -0.168999999762 -0.150999993086 223.0
0.694999992847 -0.171000003815 -0.149000003934 225.0
0.711000025272 -0.180000007153 -0.152999997139 219.0
0.712999999523 -0.185000002384 -0.152999997139 221.0
0.717000007629 -0.189999997616 -0.153999999166 228.0
0.694999992847 -0.188999995589 -0.15000000596 223.0
0.735000014305 -0.203999996185 -0.158000007272 245.0
0.907999992371 -0.259000003338 -0.195999994874 1041.0
0.925000011921 -0.270000010729 -0.20000000298 1427.0
0.92199999094 -0.27500000596 -0.20000000298 1436.0
0.925000011921 -0.282000005245 -0.201000005007 1453.0
0.922999978065 -0.287999987602 -0.201000005007 1443.0
0.921000003815 -0.293000012636 -0.20000000298 1454.0
0.917999982834 -0.298000007868 -0.20000000298 1444.0
0.916999995708 -0.303999990225 -0.20000000298 1465.0
0.913999974728 -0.308999985456 -0.20000000298 1467.0
0.912999987602 -0.314999997616 -0.20000000298 1463.0
0.916999995708 -0.323000013828 -0.201000005007 1473.0
0.912000000477 -0.326999992132 -0.20000000298 1464.0
0.908999979496 -0.331999987364 -0.20000000298 1470.0
0.907000005245 -0.337000012398 -0.20000000298 1442.0
0.856999993324 -0.324999988079 -0.188999995589 596.0
0.68900001049 -0.264999985695 -0.151999995112 259.0
0.666999995708 -0.261000007391 -0.148000001907 238.0
0.661000013351 -0.263000011444 -0.146999999881 240.0
0.647000014782 -0.261999994516 -0.143999993801 240.0
0.639999985695 -0.263999998569 -0.143000006676 236.0
0.652000010014 -0.273000001907 -0.145999997854 239.0
0.614000022411 -0.261000007391 -0.136999994516 241.0
0.638999998569 -0.277000010014 -0.143000006676 238.0
0.662000000477 -0.291999995708 -0.149000003934 242.0
0.602999985218 -0.270000010729 -0.136000007391 244.0
0.637000024319 -0.289999991655 -0.143999993801 242.0
0.634999990463 -0.293999999762 -0.143999993801 244.0
0.824000000954 -0.389999985695 -0.187000006437 598.0
0.875999987125 -0.421000003815 -0.199000000954 1389.0
0.875 -0.426999986172 -0.20000000298 1509.0
0.876999974251 -0.435000002384 -0.201000005007 1496.0
0.874000012875 -0.439999997616 -0.201000005007 1494.0
0.867999970913 -0.444000005722 -0.20000000298 1491.0
0.871999979019 -0.45300000906 -0.201000005007 1493.0
0.871999979019 -0.460000008345 -0.202000007033 1494.0
0.862999975681 -0.462000012398 -0.20000000298 1484.0
0.867999970913 -0.472000002861 -0.202000007033 1497.0
0.864000022411 -0.476999998093 -0.202000007033 1489.0
0.856999993324 -0.479999989271 -0.201000005007 1508.0
0.861000001431 -0.488999992609 -0.202000007033 1474.0
4.26599979401 2.50200009346 -1.06299996376 183.0
4.29799985886 2.4849998951 -1.06799995899 180.0
4.31500005722 2.45799994469 -1.06799995899 166.0
4.3109998703 2.41899991035 -1.06400001049 162.0
4.32700014114 2.39199995995 -1.06400001049 165.0
0.0230000000447 0.0109999999404 -0.00499999988824 171.0
0.00600000005215 0.00200000009499 -0.0010000000475 164.0
4.39599990845 2.32299995422 -1.07099997997 169.0
4.39799976349 2.28900003433 -1.06900000572 169.0
4.40600013733 2.257999897 -1.06700003147 161.0
4.4310002327 2.23600006104 -1.07000005245 166.0
4.31599998474 2.14400005341 -1.03999996185 158.0
4.21099996567 2.05999994278 -1.01199996471 161.0
4.27500009537 2.05800008774 -1.02400004864 157.0
4.39699983597 2.08299994469 -1.04999995232 159.0
4.42899990082 2.06500005722 -1.05499994755 160.0
4.4470000267 2.03900003433 -1.05700004101 164.0
4.43800020218 2.00200009346 -1.05200004578 167.0
4.46700000763 1.98199999332 -1.05599999428 164.0
4.50600004196 1.9659999609 -1.06299996376 157.0
4.54099988937 1.94799995422 -1.06799995899 142.0
4.56599998474 1.92599999905 -1.0720000267 150.0
4.54799985886 1.88499999046 -1.06500005722 140.0
4.54199981689 1.85000002384 -1.06099998951 151.0
4.51000022888 1.80499994755 -1.05099999905 146.0
4.46799993515 1.75699996948 -1.03900003433 145.0
4.507999897 1.74100005627 -1.04600000381 148.0
4.50500011444 1.70799994469 -1.04299998283 141.0
4.51399993896 1.67999994755 -1.04299998283 140.0
4.51700019836 1.64999997616 -1.04100000858 130.0
4.50600004196 1.61500000954 -1.03699994087 144.0
4.49599981308 1.58099997044 -1.03199994564 140.0
4.5609998703 1.57299995422 -1.04499995708 143.0
4.57899999619 1.54799997807 -1.04700005054 137.0
4.55700016022 1.50999999046 -1.03999996185 131.0
4.57600021362 1.48599994183 -1.04299998283 132.0
4.62400007248 1.47099995613 -1.05200004578 132.0
4.60599994659 1.43400001526 -1.04600000381 128.0
4.66099977493 1.42100000381 -1.05700004101 128.0
4.73799991608 1.4129999876 -1.0720000267 118.0
4.6970000267 1.37000000477 -1.06099998951 124.0
4.69799995422 1.34000003338 -1.05999994278 128.0
4.72599983215 1.31799995899 -1.06400001049 119.0
4.75199985504 1.29400002956 -1.06799995899 124.0
4.71700000763 1.25499999523 -1.05900001526 121.0
0.00700000021607 0.00200000009499 -0.0010000000475 119.0
4.81599998474 1.22000002861 -1.07799994946 114.0
4.80800008774 1.18700003624 -1.07500004768 113.0
4.78100013733 1.14999997616 -1.06700003147 118.0
4.80999994278 1.12699997425 -1.0720000267 115.0
4.80000019073 1.09500002861 -1.06900000572 116.0
4.84100008011 1.07400000095 -1.0759999752 112.0
4.84299993515 1.04400002956 -1.0759999752 116.0
4.81500005722 1.00800001621 -1.06799995899 111.0
4.84200000763 0.98400002718 -1.07299995422 113.0
4.84200000763 0.953999996185 -1.0720000267 113.0
4.79199981689 0.915000021458 -1.05900001526 104.0
4.77400016785 0.882000029087 -1.05400002003 106.0
4.70800018311 0.841000020504 -1.03900003433 108.0
4.66300010681 0.805000007153 -1.02799999714 112.0
4.65600013733 0.774999976158 -1.02499997616 118.0
4.71000003815 0.755999982357 -1.03600001335 114.0
4.69299983978 0.725000023842 -1.03100001812 112.0
4.82399988174 0.716000020504 -1.05900001526 105.0
4.91699981689 0.699999988079 -1.07899999619 108.0
4.90100002289 0.669000029564 -1.07400000095 100.0
4.91099977493 0.639999985695 -1.0759999752 104.0
4.92299985886 0.612999975681 -1.07700002193 108.0
4.92100000381 0.583000004292 -1.0759999752 104.0
0.019999999553 0.00300000002608 -0.00400000018999 108.0
4.93800020218 0.526000022888 -1.07799994946 101.0
0.0170000009239 0.00300000002608 -0.00300000002608 100.0
0.0149999996647 0.00300000002608 -0.00300000002608 98.0
4.93200016022 0.437999993563 -1.07500004768 93.0
4.92999982834 0.409000009298 -1.07400000095 96.0
0.00499999988824 0.00200000009499 -0.0010000000475 94.0
0.00700000021607 0.00200000009499 -0.0010000000475 86.0
0.0379999987781 0.00400000018999 -0.00800000037998 84.0
0.0309999994934 0.00300000002608 -0.00600000005215 87.0
4.9359998703 0.263999998569 -1.07299995422 84.0
0.0209999997169 0.00200000009499 -0.00400000018999 82.0
0.00800000037998 0.00200000009499 -0.0010000000475 83.0
0.00499999988824 0.00200000009499 -0.0010000000475 85.0
4.95699977875 0.148000001907 -1.0759999752 86.0
0.019999999553 0.00200000009499 -0.00400000018999 82.0
0.0320000015199 0.00200000009499 -0.00600000005215 81.0
0.0149999996647 0.00200000009499 -0.00300000002608 78.0
0.0270000007004 0.00200000009499 -0.00499999988824 74.0
0.0469999983907 0.00200000009499 -0.00999999977648 81.0
4.95300006866 -0.0250000003725 -1.07400000095 80.0
0.0189999993891 0.00200000009499 -0.00400000018999 82.0
0.0579999983311 0.0010000000475 -0.0120000001043 84.0
0.948000013828 -0.0189999993891 -0.204999998212 657.0
0.972000002861 -0.0250000003725 -0.209999993443 858.0
0.819000005722 -0.0260000005364 -0.177000001073 284.0
0.787000000477 -0.0289999991655 -0.170000001788 238.0
0.746999979019 -0.0320000015199 -0.162000000477 221.0
0.771000027657 -0.0379999987781 -0.166999995708 208.0
0.762000024319 -0.0410000011325 -0.165000006557 204.0
0.731999993324 -0.0439999997616 -0.158000007272 199.0
0.712999999523 -0.0469999983907 -0.153999999166 191.0
0.707000017166 -0.0509999990463 -0.152999997139 206.0
0.740999996662 -0.0579999983311 -0.159999996424 205.0
0.721000015736 -0.0599999986589 -0.156000003219 204.0
0.725000023842 -0.0649999976158 -0.157000005245 199.0
0.721000015736 -0.0689999982715 -0.156000003219 202.0
0.722999989986 -0.0729999989271 -0.157000005245 205.0
0.920000016689 -0.0989999994636 -0.20000000298 527.0
0.964999973774 -0.109999999404 -0.209000006318 1220.0
0.963999986649 -0.115999996662 -0.209000006318 1277.0
0.962000012398 -0.120999999344 -0.209000006318 1272.0
0.967000007629 -0.12800000608 -0.209999993443 1276.0
0.958000004292 -0.131999999285 -0.208000004292 1294.0
0.952000021935 -0.136999994516 -0.207000002265 1310.0
0.958999991417 -0.143999993801 -0.209000006318 1304.0
0.957000017166 -0.149000003934 -0.209000006318 1322.0
0.95300000906 -0.153999999166 -0.208000004292 1328.0
0.95300000906 -0.159999996424 -0.208000004292 1339.0
0.947000026703 -0.165000006557 -0.207000002265 1344.0
0.95300000906 -0.172000005841 -0.208000004292 1347.0
0.947000026703 -0.175999999046 -0.207000002265 1345.0
0.940999984741 -0.180999994278 -0.206000000238 1182.0
0.82800000906 -0.16400000453 -0.180999994278 345.0
0.72000002861 -0.145999997854 -0.158000007272 211.0
0.73299998045 -0.152999997139 -0.16099999845 219.0
0.722999989986 -0.156000003219 -0.158999994397 223.0
0.699999988079 -0.155000001192 -0.153999999166 225.0
0.717000007629 -0.163000002503 -0.158000007272 227.0
0.699000000954 -0.16400000453 -0.153999999166 224.0
0.674000024796 -0.162000000477 -0.148000001907 223.0
0.693000018597 -0.171000003815 -0.152999997139 222.0
0.697000026703 -0.175999999046 -0.153999999166 220.0
0.679000020027 -0.175999999046 -0.15000000596 223.0
0.689999997616 -0.182999998331 -0.152999997139 231.0
0.695999979973 -0.188999995589 -0.153999999166 231.0
0.728999972343 -0.202999994159 -0.162000000477 261.0
0.916999995708 -0.261999994516 -0.203999996185 1092.0
0.925000011921 -0.270999997854 -0.206000000238 1426.0
0.922999978065 -0.275999993086 -0.206000000238 1428.0
0.920000016689 -0.280999988317 -0.204999998212 1441.0
0.926999986172 -0.28900000453 -0.207000002265 1439.0
0.921000003815 -0.293000012636 -0.206000000238 1441.0
0.920000016689 -0.298999994993 -0.206000000238 1441.0
0.916000008583 -0.303999990225 -0.206000000238 1448.0
0.92199999094 -0.312000006437 -0.207000002265 1457.0
0.913999974728 -0.316000014544 -0.206000000238 1471.0
0.912000000477 -0.321000009775 -0.206000000238 1467.0
0.907000005245 -0.326000005007 -0.204999998212 1455.0
0.910000026226 -0.333000004292 -0.206000000238 1459.0
0.907000005245 -0.337999999523 -0.206000000238 1428.0
0.837000012398 -0.317000001669 -0.189999997616 549.0
0.666999995708 -0.256000012159 -0.151999995112 246.0
0.657999992371 -0.25799998641 -0.15000000596 232.0
0.663999974728 -0.264999985695 -0.151999995112 230.0
0.657999992371 -0.266999989748 -0.150999993086 236.0
0.669000029564 -0.275999993086 -0.153999999166 232.0
0.681999981403 -0.287000000477 -0.157000005245 234.0
0.637000024319 -0.272000014782 -0.146999999881 237.0
0.643999993801 -0.280000001192 -0.149000003934 238.0
0.647000014782 -0.286000013351 -0.15000000596 233.0
0.649999976158 -0.291999995708 -0.150999993086 236.0
0.643999993801 -0.293999999762 -0.15000000596 236.0
0.630999982357 -0.293000012636 -0.146999999881 237.0
0.842999994755 -0.398999989033 -0.196999996901 691.0
0.878000020981 -0.423000007868 -0.206000000238 1417.0
0.879999995232 -0.430000007153 -0.207000002265 1496.0
0.878000020981 -0.43599998951 -0.207000002265 1485.0
0.878000020981 -0.442999988794 -0.207000002265 1476.0
0.874000012875 -0.448000013828 -0.207000002265 1485.0
0.873000025749 -0.453999996185 -0.207000002265 1488.0
0.871999979019 -0.460000008345 -0.208000004292 1491.0
0.861999988556 -0.462000012398 -0.206000000238 1492.0
0.870000004768 -0.472999989986 -0.208000004292 1461.0
0.855000019073 -0.472999989986 -0.204999998212 1490.0
0.856999993324 -0.481000006199 -0.206000000238 1474.0
0.85799998045 -0.488999992609 -0.207000002265 1438.0
4.27699995041 2.51200008392 -1.09599995613 182.0
4.28100013733 2.47799992561 -1.09300005436 186.0
0.0189999993891 0.00899999961257 -0.00400000018999 186.0
4.32399988174 2.43000006676 -1.09700000286 170.0
4.34299993515 2.40499997139 -1.09899997711 179.0
0.00499999988824 0.00200000009499 -0.0010000000475 173.0
4.35400009155 2.33899998665 -1.09399998188 172.0
4.37099981308 2.31299996376 -1.09500002861 172.0
4.38899993896 2.28699994087 -1.09700000286 174.0
4.40000009537 2.257999897 -1.09599995613 172.0
4.42000007629 2.23300004005 -1.09800004959 169.0
4.31799983978 2.14800000191 -1.06900000572 161.0
4.18699979782 2.04999995232 -1.0340000391 165.0
4.27199983597 2.05900001526 -1.05200004578 167.0
4.40100002289 2.08699989319 -1.08099997044 173.0
4.44099998474 2.07299995422 -1.08800005913 163.0
4.42100000381 2.02999997139 -1.08000004292 172.0
4.42299985886 1.99800002575 -1.07799994946 163.0
4.50600004196 2.00200009346 -1.09500002861 155.0
4.51599979401 1.97300004959 -1.09500002861 158.0
4.53999996185 1.95000004768 -1.09800004959 152.0
4.55499982834 1.92299997807 -1.09899997711 147.0
4.55999994278 1.89300000668 -1.09800004959 147.0
4.57800006866 1.86699998379 -1.09899997711 141.0
4.56699991226 1.83000004292 -1.09399998188 147.0
4.51700019836 1.77799999714 -1.08000004292 145.0
4.51700019836 1.7460000515 -1.07700002193 151.0
4.52199983597 1.71700000763 -1.0759999752 151.0
4.49599981308 1.67499995232 -1.06799995899 148.0
4.53800010681 1.6590000391 -1.07500004768 145.0
4.53900003433 1.6289999485 -1.07400000095 141.0
4.54600000381 1.60000002384 -1.07299995422 143.0
4.56599998474 1.5759999752 -1.0759999752 150.0
4.58099985123 1.54999995232 -1.07700002193 138.0
4.59399986267 1.52400004864 -1.07799994946 139.0
4.59100008011 1.49199998379 -1.0759999752 138.0
4.66699981689 1.48599994183 -1.0909999609 139.0
4.6810002327 1.45899999142 -1.09300005436 128.0
4.70599985123 1.43599998951 -1.09700000286 127.0
0.0109999999404 0.00300000002608 -0.00200000009499 128.0
4.73699998856 1.38399994373 -1.10000002384 127.0
4.72200012207 1.34800004959 -1.09500002861 130.0
4.70499992371 1.31299996376 -1.08899998665 130.0
4.74499988556 1.29400002956 -1.09700000286 124.0
4.72800016403 1.25899994373 -1.0909999609 123.0
4.77799987793 1.24199998379 -1.10099995136 116.0
4.79500007629 1.2159999609 -1.10399997234 116.0
4.79099988937 1.18400001526 -1.10099995136 121.0
4.78900003433 1.15299999714 -1.09899997711 119.0
4.78499984741 1.12199997902 -1.09700000286 119.0
4.80900001526 1.09800004959 -1.10099995136 119.0
4.81799983978 1.07000005245 -1.10199999809 124.0
4.82600021362 1.04200005531 -1.10199999809 112.0
4.81799983978 1.00999999046 -1.09899997711 118.0
4.85500001907 0.987999975681 -1.10599994659 114.0
4.84499979019 0.955999970436 -1.10199999809 116.0
4.81500005722 0.920000016689 -1.09399998188 111.0
4.70300006866 0.870000004768 -1.06799995899 109.0
4.64699983597 0.830999970436 -1.05400002003 114.0
4.68499994278 0.809000015259 -1.06099998951 113.0
4.68499994278 0.78100001812 -1.05999994278 108.0
4.67500019073 0.750999987125 -1.05700004101 108.0
4.71199989319 0.727999985218 -1.06400001049 117.0
4.82100009918 0.716000020504 -1.08800005913 107.0
4.90199995041 0.699000000954 -1.10599994659 106.0
4.91699981689 0.671000003815 -1.10800004005 110.0
4.91800022125 0.64200001955 -1.10699999332 106.0
4.92199993134 0.612999975681 -1.10800004005 108.0
4.92199993134 0.583999991417 -1.10699999332 104.0
4.92000007629 0.554000020027 -1.10500001907 106.0
0.0260000005364 0.00400000018999 -0.00499999988824 109.0
4.89799976349 0.493000000715 -1.09899997711 106.0
0.00700000021607 0.00200000009499 -0.0010000000475 98.0
4.94500017166 0.43900001049 -1.10800004005 99.0
0.0649999976158 0.00700000021607 -0.0140000004321 97.0
0.0149999996647 0.00200000009499 -0.00300000002608 85.0
4.90399980545 0.349000006914 -1.09700000286 87.0
4.94199991226 0.321999996901 -1.10500001907 81.0
0.0320000015199 0.00300000002608 -0.00700000021607 80.0
4.92500019073 0.263000011444 -1.10099995136 87.0
0.00700000021607 0.00200000009499 -0.0010000000475 82.0
4.95499992371 0.206000000238 -1.10699999332 81.0
0.0489999987185 0.00300000002608 -0.00999999977648 92.0
0.0340000018477 0.00300000002608 -0.00700000021607 86.0
4.96000003815 0.119000002742 -1.10699999332 92.0
4.93699979782 0.0900000035763 -1.10099995136 85.0
4.96000003815 0.0610000006855 -1.10599994659 83.0
0.0250000003725 0.00200000009499 -0.00499999988824 81.0
0.0769999995828 0.00200000009499 -0.0170000009239 77.0
0.0320000015199 0.00200000009499 -0.00700000021607 81.0
0.0370000004768 0.0010000000475 -0.00800000037998 79.0
0.12800000608 0.0 -0.0280000008643 84.0
0.950999975204 -0.0189999993891 -0.211999997497 692.0
0.980000019073 -0.0260000005364 -0.217999994755 1118.0
0.973999977112 -0.0309999994934 -0.216999992728 1032.0
0.972999989986 -0.0370000004768 -0.216000005603 997.0
0.96899998188 -0.0419999994338 -0.216000005603 949.0
0.963999986649 -0.0480000004172 -0.21400000155 909.0
0.961000025272 -0.0529999993742 -0.21400000155 869.0
0.955999970436 -0.0590000003576 -0.212999999523 800.0
0.944000005722 -0.0630000010133 -0.209999993443 757.0
0.941999971867 -0.0689999982715 -0.209999993443 715.0
0.938000023365 -0.0740000009537 -0.209000006318 667.0
0.924000024796 -0.0780000016093 -0.206000000238 625.0
0.941999971867 -0.0850000008941 -0.209999993443 570.0
0.907000005245 -0.0869999974966 -0.202000007033 531.0
0.920000016689 -0.0939999967813 -0.204999998212 487.0
0.930000007153 -0.101000003517 -0.207000002265 646.0
0.958999991417 -0.109999999404 -0.21400000155 1008.0
0.95300000906 -0.115000002086 -0.212999999523 1074.0
0.950999975204 -0.119999997318 -0.211999997497 1110.0
0.955999970436 -0.126000002027 -0.21400000155 1143.0
0.958999991417 -0.131999999285 -0.21400000155 1154.0
0.955999970436 -0.137999996543 -0.21400000155 1193.0
0.950999975204 -0.143000006676 -0.212999999523 1217.0
0.957000017166 -0.149000003934 -0.21400000155 1245.0
0.952000021935 -0.153999999166 -0.212999999523 1265.0
0.950999975204 -0.159999996424 -0.212999999523 1289.0
0.944999992847 -0.165000006557 -0.211999997497 1314.0
0.948000013828 -0.171000003815 -0.212999999523 1323.0
0.947000026703 -0.175999999046 -0.212999999523 1330.0
0.941999971867 -0.180999994278 -0.211999997497 1130.0
0.823000013828 -0.163000002503 -0.185000002384 329.0
0.737999975681 -0.15000000596 -0.165999993682 234.0
0.716000020504 -0.15000000596 -0.16099999845 230.0
0.742999970913 -0.159999996424 -0.167999997735 233.0
0.73299998045 -0.163000002503 -0.165000006557 227.0
0.730000019073 -0.166999995708 -0.165000006557 226.0
0.705999970436 -0.165000006557 -0.159999996424 226.0
0.71899998188 -0.172999992967 -0.163000002503 223.0
0.686999976635 -0.168999999762 -0.156000003219 227.0
0.721000015736 -0.182999998331 -0.16400000453 226.0
0.717000007629 -0.186000004411 -0.163000002503 230.0
0.693000018597 -0.184000000358 -0.158000007272 232.0
0.705999970436 -0.192000001669 -0.16099999845 225.0
0.762000024319 -0.212999999523 -0.173999994993 289.0
0.917999982834 -0.263000011444 -0.209999993443 1126.0
0.922999978065 -0.270000010729 -0.21099999547 1419.0
0.919000029564 -0.27500000596 -0.21099999547 1424.0
0.917999982834 -0.280999988317 -0.21099999547 1427.0
0.924000024796 -0.28900000453 -0.211999997497 1449.0
0.916999995708 -0.293000012636 -0.21099999547 1456.0
0.920000016689 -0.300000011921 -0.211999997497 1442.0
0.916000008583 -0.303999990225 -0.211999997497 1445.0
0.915000021458 -0.310000002384 -0.211999997497 1450.0
0.913999974728 -0.316000014544 -0.211999997497 1459.0
0.912000000477 -0.321999996901 -0.211999997497 1451.0
0.907999992371 -0.326000005007 -0.21099999547 1454.0
0.907999992371 -0.331999987364 -0.211999997497 1442.0
0.896000027657 -0.333999991417 -0.209000006318 1375.0
0.828999996185 -0.31400001049 -0.194000005722 501.0
0.680000007153 -0.261999994516 -0.158999994397 245.0
0.652000010014 -0.256000012159 -0.152999997139 245.0
0.648999989033 -0.259000003338 -0.151999995112 238.0
0.652000010014 -0.264999985695 -0.152999997139 241.0
0.663999974728 -0.27500000596 -0.157000005245 245.0
0.64200001955 -0.270000010729 -0.151999995112 243.0
0.633000016212 -0.270999997854 -0.15000000596 246.0
0.647000014782 -0.280999988317 -0.153999999166 245.0
0.621999979019 -0.27500000596 -0.148000001907 238.0
0.634999990463 -0.286000013351 -0.151999995112 238.0
0.639999985695 -0.293000012636 -0.152999997139 251.0
0.638999998569 -0.29699999094 -0.152999997139 247.0
0.84500002861 -0.400999993086 -0.202999994159 783.0
0.876999974251 -0.423000007868 -0.21099999547 1401.0
0.879000008106 -0.430000007153 -0.211999997497 1485.0
0.879000008106 -0.437000006437 -0.212999999523 1483.0
0.873000025749 -0.441000014544 -0.211999997497 1480.0
0.873000025749 -0.448000013828 -0.212999999523 1466.0
0.865000009537 -0.451000005007 -0.21099999547 1468.0
0.865999996662 -0.458000004292 -0.211999997497 1459.0
0.865999996662 -0.465000003576 -0.212999999523 1437.0
0.864000022411 -0.470999985933 -0.212999999523 1455.0
0.856999993324 -0.474000006914 -0.211999997497 1442.0
0.856999993324 -0.481000006199 -0.211999997497 1430.0
0.848999977112 -0.483999997377 -0.21099999547 1335.0
4.257999897 2.5039999485 -1.1210000515 195.0
0.01600000076 0.00800000037998 -0.00300000002608 187.0
4.30700016022 2.46000003815 -1.12699997425 182.0
4.3109998703 2.42600011826 -1.12399995327 176.0
4.33699989319 2.40499997139 -1.12699997425 178.0
0.0329999998212 0.0170000009239 -0.00800000037998 176.0
0.0189999993891 0.00899999961257 -0.00400000018999 184.0
4.37400007248 2.3180000782 -1.12600004673 175.0
4.39200019836 2.29200005531 -1.12699997425 183.0
4.39400005341 2.257999897 -1.125 173.0
4.40899991989 2.23099994659 -1.125 169.0
4.37200021744 2.1779999733 -1.11300003529 159.0
4.22300004959 2.07100009918 -1.0720000267 166.0
4.26800012589 2.05900001526 -1.08000004292 168.0
4.36499977112 2.07299995422 -1.10099995136 166.0
4.44500017166 2.07699990273 -1.11899995804 167.0
4.44500017166 2.04299998283 -1.11600005627 171.0
4.48500013351 2.02800011635 -1.12300002575 172.0
4.50600004196 2.0039999485 -1.125 165.0
4.53599977493 1.98399996758 -1.12999999523 155.0
4.53700017929 1.9509999752 -1.12699997425 163.0
4.53999996185 1.91999995708 -1.12600004673 157.0
4.55800008774 1.89400005341 -1.12699997425 153.0
4.57899999619 1.87000000477 -1.12999999523 146.0
4.58400011063 1.83899998665 -1.12800002098 145.0
4.57600021362 1.8029999733 -1.12399995327 150.0
4.58099985123 1.77300000191 -1.12300002575 146.0
4.57100009918 1.73699998856 -1.11800003052 141.0
4.58799982071 1.7120000124 -1.12000000477 147.0
4.60799980164 1.68700003624 -1.12199997902 141.0
4.60400009155 1.65400004387 -1.11899995804 139.0
4.59100008011 1.61800003052 -1.11399996281 139.0
4.625 1.59800004959 -1.11899995804 143.0
4.62900018692 1.56799995899 -1.11800003052 137.0
4.67700004578 1.5529999733 -1.12800002098 128.0
4.67899990082 1.52300000191 -1.12600004673 129.0
4.6810002327 1.49199998379 -1.125 140.0
0.01600000076 0.00499999988824 -0.00300000002608 133.0
0.0289999991655 0.00899999961257 -0.00600000005215 128.0
4.74700021744 1.41900002956 -1.13499999046 126.0
4.71099996567 1.37699997425 -1.12399995327 133.0
4.70300006866 1.34399998188 -1.12000000477 125.0
4.71899986267 1.31799995899 -1.12300002575 126.0
4.74700021744 1.29600000381 -1.12800002098 131.0
4.71799993515 1.25800001621 -1.11899995804 129.0
4.76800012589 1.24000000954 -1.1289999485 121.0
4.8029999733 1.21899998188 -1.13600003719 120.0
0.0179999992251 0.00499999988824 -0.00400000018999 123.0
4.79300022125 1.15499997139 -1.12999999523 124.0
4.76900005341 1.12000000477 -1.12300002575 130.0
4.82800006866 1.10300004482 -1.13499999046 120.0
4.79099988937 1.06500005722 -1.125 116.0
4.83500003815 1.04400002956 -1.13399994373 119.0
4.80200004578 1.00800001621 -1.125 124.0
4.83199977875 0.98400002718 -1.13100004196 114.0
4.79400014877 0.947000026703 -1.1210000515 116.0
4.82499980927 0.922999978065 -1.12699997425 108.0
4.84899997711 0.898000001907 -1.13100004196 106.0
4.80900001526 0.861000001431 -1.1210000515 96.0
4.8220000267 0.833999991417 -1.12300002575 103.0
4.8109998703 0.802999973297 -1.11899995804 104.0
4.78999996185 0.769999980927 -1.11300003529 106.0
4.82899999619 0.746999979019 -1.1210000515 99.0
4.88800001144 0.726999998093 -1.13399994373 106.0
4.90100002289 0.699000000954 -1.13600003719 108.0
4.90299987793 0.670000016689 -1.13499999046 108.0
4.87799978256 0.637000024319 -1.1289999485 108.0
4.90000009537 0.611000001431 -1.13300001621 110.0
4.91400003433 0.583000004292 -1.13499999046 109.0
4.92299985886 0.555000007153 -1.13699996471 110.0
4.91900014877 0.524999976158 -1.13499999046 111.0
0.0109999999404 0.00200000009499 -0.00200000009499 108.0
4.91099977493 0.465999990702 -1.13100004196 104.0
4.92700004578 0.437999993563 -1.13499999046 97.0
0.0109999999404 0.00200000009499 -0.00200000009499 91.0
0.00800000037998 0.00200000009499 -0.0010000000475 86.0
0.0509999990463 0.00499999988824 -0.0109999999404 86.0
4.9390001297 0.321999996901 -1.13499999046 86.0
4.93699979782 0.293000012636 -1.13399994373 87.0
0.0170000009239 0.00200000009499 -0.00300000002608 82.0
4.93499994278 0.234999999404 -1.13300001621 85.0
4.89900016785 0.203999996185 -1.12399995327 90.0
4.94299983978 0.177000001073 -1.13399994373 82.0
4.94099998474 0.148000001907 -1.13300001621 84.0
0.0219999998808 0.00200000009499 -0.00400000018999 79.0
0.0399999991059 0.00200000009499 -0.00899999961257 82.0
4.93499994278 0.0610000006855 -1.13100004196 84.0
0.0450000017881 0.00200000009499 -0.00999999977648 82.0
0.00800000037998 0.00200000009499 -0.0010000000475 80.0
0.0170000009239 0.00200000009499 -0.00300000002608 85.0
0.0399999991059 0.0010000000475 -0.00899999961257 85.0
0.0949999988079 0.0 -0.0209999997169 88.0
0.950999975204 -0.0189999993891 -0.216999992728 717.0
0.98400002718 -0.0260000005364 -0.22499999404 1178.0
0.98400002718 -0.0320000015199 -0.22499999404 1187.0
0.976999998093 -0.0370000004768 -0.223000004888 1184.0
0.977999985218 -0.0430000014603 -0.224000006914 1189.0
0.976000010967 -0.0480000004172 -0.223000004888 1191.0
0.97000002861 -0.0540000014007 -0.222000002861 1202.0
0.971000015736 -0.0599999986589 -0.222000002861 1211.0
0.976999998093 -0.0659999996424 -0.224000006914 1209.0
0.972999989986 -0.0710000023246 -0.223000004888 1218.0
0.96899998188 -0.0769999995828 -0.222000002861 1230.0
0.96899998188 -0.082000002265 -0.222000002861 1217.0
0.967999994755 -0.0879999995232 -0.222000002861 1214.0
0.97000002861 -0.0939999967813 -0.222000002861 1228.0
0.961000025272 -0.0989999994636 -0.219999998808 1224.0
0.939999997616 -0.101999998093 -0.216000005603 807.0
0.797999978065 -0.0909999981523 -0.182999998331 269.0
0.782999992371 -0.0939999967813 -0.180000007153 265.0
0.806999981403 -0.101000003517 -0.185000002384 274.0
0.818000018597 -0.108000002801 -0.187999993563 296.0
0.833000004292 -0.115000002086 -0.190999999642 314.0
0.856000006199 -0.123000003397 -0.196999996901 341.0
0.850000023842 -0.127000004053 -0.195999994874 365.0
0.866999983788 -0.135000005364 -0.199000000954 412.0
0.870999991894 -0.141000002623 -0.201000005007 435.0
0.884999990463 -0.149000003934 -0.203999996185 477.0
0.884000003338 -0.153999999166 -0.203999996185 513.0
0.897000014782 -0.162000000477 -0.207000002265 543.0
0.893000006676 -0.165999993682 -0.206000000238 587.0
0.907000005245 -0.17499999702 -0.209999993443 662.0
0.916999995708 -0.181999996305 -0.211999997497 858.0
0.919000029564 -0.187999993563 -0.212999999523 858.0
0.916999995708 -0.193000003695 -0.211999997497 829.0
0.916000008583 -0.199000000954 -0.212999999523 811.0
0.90499997139 -0.202000007033 -0.209999993443 770.0
0.902999997139 -0.207000002265 -0.209999993443 745.0
0.887000024319 -0.209000006318 -0.206000000238 711.0
0.903999984264 -0.218999996781 -0.21099999547 682.0
0.884000003338 -0.219999998808 -0.206000000238 653.0
0.887000024319 -0.225999996066 -0.207000002265 631.0
0.880999982357 -0.230000004172 -0.206000000238 610.0
0.869000017643 -0.231999993324 -0.202999994159 585.0
0.870000004768 -0.238000005484 -0.203999996185 562.0
0.874000012875 -0.245000004768 -0.204999998212 589.0
0.907000005245 -0.259999990463 -0.212999999523 996.0
0.90499997139 -0.264999985695 -0.212999999523 1085.0
0.908999979496 -0.272000014782 -0.21400000155 1103.0
0.90600001812 -0.277000010014 -0.21400000155 1125.0
0.907000005245 -0.284000009298 -0.21400000155 1132.0
0.902000010014 -0.287999987602 -0.21400000155 1145.0
0.903999984264 -0.294999986887 -0.21400000155 1164.0
0.902999997139 -0.300000011921 -0.21400000155 1165.0
0.903999984264 -0.307000011206 -0.215000003576 1179.0
0.902999997139 -0.312999993563 -0.215000003576 1193.0
0.897000014782 -0.317000001669 -0.21400000155 1191.0
0.901000022888 -0.324000000954 -0.216000005603 1207.0
0.89200001955 -0.326999992132 -0.21400000155 1205.0
0.89200001955 -0.333000004292 -0.21400000155 1123.0
0.836000025272 -0.317999988794 -0.201000005007 515.0
0.802999973297 -0.31099998951 -0.193000003695 446.0
0.800999999046 -0.316000014544 -0.193000003695 442.0
0.787000000477 -0.316000014544 -0.189999997616 452.0
0.794000029564 -0.324000000954 -0.192000001669 446.0
0.800000011921 -0.331999987364 -0.194000005722 456.0
0.788999974728 -0.333000004292 -0.192000001669 454.0
0.792999982834 -0.340999990702 -0.193000003695 462.0
0.794000029564 -0.347000002861 -0.194000005722 471.0
0.800999999046 -0.356000006199 -0.195999994874 481.0
0.804000020027 -0.363000005484 -0.196999996901 502.0
0.799000024796 -0.36700001359 -0.196999996901 499.0
0.797999978065 -0.372000008821 -0.196999996901 513.0
0.856999993324 -0.407000005245 -0.211999997497 889.0
0.862999975681 -0.416999995708 -0.21400000155 1091.0
0.869000017643 -0.425999999046 -0.216000005603 1109.0
0.861000001431 -0.428999990225 -0.21400000155 1107.0
0.860000014305 -0.435000002384 -0.215000003576 1065.0
0.853999972343 -0.43900001049 -0.21400000155 1049.0
0.852999985218 -0.444999992847 -0.21400000155 1045.0
0.852999985218 -0.451999992132 -0.215000003576 1016.0
0.847000002861 -0.455000013113 -0.21400000155 989.0
0.851000010967 -0.465000003576 -0.216000005603 977.0
0.828999996185 -0.458999991417 -0.21099999547 960.0
0.833000004292 -0.467999994755 -0.211999997497 932.0
0.816999971867 -0.465999990702 -0.209000006318 839.0
4.26700019836 2.51300001144 -1.15400004387 196.0
4.27899980545 2.48300004005 -1.15299999714 198.0
4.29899978638 2.45900011063 -1.15499997139 188.0
0.00499999988824 0.00200000009499 -0.0010000000475 186.0
4.31500005722 2.39499998093 -1.15100002289 191.0
4.33599996567 2.3710000515 -1.15400004387 190.0
4.34800004959 2.34200000763 -1.15299999714 182.0
0.0149999996647 0.00700000021607 -0.00300000002608 186.0
4.36600017548 2.28099989891 -1.15100002289 181.0
4.39900016785 2.26300001144 -1.15600001812 176.0
4.41699981689 2.23799991608 -1.15799999237 173.0
4.34700012207 2.16799998283 -1.13600003719 165.0
4.24700021744 2.08500003815 -1.10699999332 172.0
4.27400016785 2.06500005722 -1.11099994183 161.0
4.36800003052 2.07699990273 -1.13199996948 171.0
4.46600008011 2.08999991417 -1.15400004387 166.0
4.46000003815 2.0529999733 -1.14999997616 174.0
4.48999977112 2.03299999237 -1.15400004387 172.0
4.49499988556 2.00200009346 -1.15299999714 163.0
4.51900005341 1.97899997234 -1.15600001812 157.0
4.51599979401 1.94500005245 -1.15199995041 161.0
4.52099990845 1.91400003433 -1.15100002289 158.0
4.55499982834 1.89499998093 -1.15699994564 156.0
4.56599998474 1.86699998379 -1.15699994564 153.0
4.58099985123 1.84000003338 -1.15799999237 150.0
4.58400011063 1.80900001526 -1.15600001812 140.0
4.5640001297 1.76900005341 -1.14900004864 150.0
4.59999990463 1.75 -1.15499997139 139.0
4.61499977112 1.72399997711 -1.15600001812 139.0
4.61000013351 1.69000005722 -1.15299999714 144.0
