ply
format ascii 1.0
element vertex 895
property float x
property float y
property float z
property float intensity
end_header
0.902999997139 -0.0170000009239 -0.0729999989271 1813.0
0.901000022888 -0.0219999998808 -0.0729999989271 1830.0
0.902000010014 -0.0270000007004 -0.0729999989271 1831.0
0.902000010014 -0.0329999998212 -0.0729999989271 1810.0
0.899999976158 -0.0379999987781 -0.0719999969006 1765.0
0.903999984264 -0.0430000014603 -0.0729999989271 1738.0
0.907999992371 -0.0489999987185 -0.0729999989271 1751.0
0.90600001812 -0.0540000014007 -0.0729999989271 1745.0
0.90499997139 -0.0590000003576 -0.0729999989271 1767.0
0.908999979496 -0.0640000030398 -0.0729999989271 1728.0
0.907000005245 -0.0689999982715 -0.0729999989271 1770.0
0.90600001812 -0.0750000029802 -0.0729999989271 1730.0
0.910000026226 -0.0799999982119 -0.0729999989271 1714.0
0.902999997139 -0.0850000008941 -0.0729999989271 1670.0
0.902999997139 -0.0900000035763 -0.0729999989271 1689.0
0.90600001812 -0.0960000008345 -0.0729999989271 1727.0
0.902999997139 -0.101000003517 -0.0729999989271 1710.0
0.90499997139 -0.105999998748 -0.0729999989271 1753.0
0.908999979496 -0.112000003457 -0.0729999989271 1676.0
0.910000026226 -0.116999998689 -0.0729999989271 1686.0
0.907999992371 -0.122000001371 -0.0729999989271 1673.0
0.907000005245 -0.12800000608 -0.0729999989271 1704.0
0.908999979496 -0.133000001311 -0.0729999989271 1673.0
0.912999987602 -0.138999998569 -0.0740000009537 1739.0
0.908999979496 -0.143999993801 -0.0729999989271 1818.0
0.907999992371 -0.149000003934 -0.0729999989271 1811.0
0.907000005245 -0.153999999166 -0.0729999989271 1794.0
0.907000005245 -0.159999996424 -0.0729999989271 1782.0
0.910000026226 -0.165999993682 -0.0740000009537 1762.0
0.908999979496 -0.171000003815 -0.0729999989271 1828.0
0.907000005245 -0.175999999046 -0.0729999989271 1806.0
0.910000026226 -0.181999996305 -0.0740000009537 1824.0
0.911000013351 -0.187999993563 -0.0740000009537 1747.0
0.912000000477 -0.194000005722 -0.0740000009537 1702.0
0.916000008583 -0.20000000298 -0.0740000009537 1721.0
0.911000013351 -0.203999996185 -0.0740000009537 1732.0
0.911000013351 -0.209999993443 -0.0740000009537 1658.0
0.912999987602 -0.216000005603 -0.0740000009537 1637.0
0.911000013351 -0.221000000834 -0.0740000009537 1686.0
0.908999979496 -0.225999996066 -0.0740000009537 1718.0
0.912999987602 -0.232999995351 -0.0740000009537 1735.0
0.919000029564 -0.239999994636 -0.0750000029802 1748.0
0.913999974728 -0.245000004768 -0.0750000029802 1713.0
0.916000008583 -0.250999987125 -0.0750000029802 1665.0
0.915000021458 -0.256000012159 -0.0750000029802 1695.0
0.916000008583 -0.263000011444 -0.0750000029802 1677.0
0.921000003815 -0.270000010729 -0.0750000029802 1690.0
0.916999995708 -0.27500000596 -0.0750000029802 1674.0
0.916999995708 -0.280000001192 -0.0750000029802 1702.0
0.916999995708 -0.286000013351 -0.0750000029802 1658.0
0.917999982834 -0.291999995708 -0.0759999975562 1612.0
0.911000013351 -0.296000003815 -0.0750000029802 1537.0
0.916000008583 -0.303999990225 -0.0759999975562 1550.0
0.920000016689 -0.31099998951 -0.0759999975562 1539.0
0.912000000477 -0.314999997616 -0.0759999975562 1517.0
0.919000029564 -0.323000013828 -0.0759999975562 1488.0
0.92199999094 -0.330000013113 -0.0769999995828 1555.0
0.924000024796 -0.337000012398 -0.0769999995828 1542.0
0.915000021458 -0.340000003576 -0.0759999975562 1553.0
0.916999995708 -0.347000002861 -0.0769999995828 1539.0
0.916999995708 -0.354000002146 -0.0769999995828 1503.0
0.927999973297 -0.363999992609 -0.0780000016093 1514.0
0.920000016689 -0.36700001359 -0.0769999995828 1466.0
0.919000029564 -0.372999995947 -0.0769999995828 1458.0
0.922999978065 -0.381000012159 -0.0780000016093 1468.0
0.921000003815 -0.386999994516 -0.0780000016093 1545.0
0.917999982834 -0.393000006676 -0.0780000016093 1562.0
0.922999978065 -0.400999993086 -0.0780000016093 1557.0
0.92199999094 -0.407000005245 -0.0780000016093 1509.0
0.922999978065 -0.414999991655 -0.0780000016093 1461.0
0.924000024796 -0.42199999094 -0.0790000036359 1507.0
0.92199999094 -0.428000003099 -0.0790000036359 1483.0
0.920000016689 -0.432999998331 -0.0790000036359 1486.0
0.925000011921 -0.442999988794 -0.0790000036359 1480.0
0.927999973297 -0.451000005007 -0.0799999982119 1440.0
0.920000016689 -0.453999996185 -0.0790000036359 1412.0
0.921000003815 -0.462000012398 -0.0790000036359 1386.0
0.920000016689 -0.467999994755 -0.0799999982119 1380.0
0.98299998045 -0.509000003338 -0.0850000008941 642.0
1.50699996948 -0.794000029564 -0.130999997258 324.0
1.57099997997 -0.841000020504 -0.136999994516 349.0
1.58000004292 -0.85799998045 -0.137999996543 354.0
1.47099995613 -0.81099998951 -0.128999993205 388.0
1.30700004101 -0.731000006199 -0.115000002086 546.0
0.790000021458 0.45300000906 -0.0790000036359 1418.0
0.785000026226 0.444000005722 -0.0790000036359 1458.0
0.787000000477 0.43900001049 -0.0780000016093 1494.0
0.785000026226 0.430999994278 -0.0780000016093 1513.0
0.791999995708 0.428999990225 -0.0780000016093 1557.0
0.787000000477 0.419999986887 -0.0780000016093 1595.0
0.792999982834 0.416999995708 -0.0780000016093 1616.0
0.794000029564 0.411000013351 -0.0780000016093 1652.0
0.790000021458 0.402999997139 -0.0769999995828 1643.0
0.794000029564 0.398999989033 -0.0769999995828 1669.0
0.799000024796 0.395000010729 -0.0780000016093 1752.0
0.795000016689 0.386999994516 -0.0769999995828 1800.0
0.787000000477 0.377000004053 -0.0759999975562 1778.0
0.796000003815 0.375999987125 -0.0769999995828 1780.0
0.795000016689 0.368999987841 -0.0759999975562 1781.0
0.79699999094 0.363999992609 -0.0759999975562 1843.0
0.801999986172 0.361000001431 -0.0769999995828 1819.0
0.800000011921 0.354000002146 -0.0759999975562 1820.0
0.799000024796 0.347999989986 -0.0759999975562 1843.0
0.800000011921 0.342000007629 -0.0759999975562 1844.0
0.801999986172 0.337999999523 -0.0759999975562 1800.0
0.800999999046 0.331999987364 -0.0759999975562 1808.0
0.800999999046 0.326000005007 -0.0750000029802 1798.0
0.805999994278 0.321999996901 -0.0759999975562 1792.0
0.806999981403 0.317000001669 -0.0759999975562 1814.0
0.802999973297 0.310000002384 -0.0750000029802 1819.0
0.808000028133 0.307000011206 -0.0750000029802 1816.0
0.806999981403 0.300999999046 -0.0750000029802 1791.0
0.809000015259 0.296000003815 -0.0750000029802 1730.0
0.81400001049 0.291999995708 -0.0750000029802 1708.0
0.808000028133 0.284999996424 -0.0750000029802 1697.0
0.805999994278 0.279000014067 -0.0740000009537 1437.0
4.59399986267 1.52900004387 -0.421000003815 67.0
4.48999977112 1.46500003338 -0.411000013351 76.0
4.51300001144 1.44299995899 -0.412000000477 71.0
4.47200012207 1.39999997616 -0.407999992371 73.0
4.52899980545 1.38900005817 -0.412000000477 74.0
4.47700023651 1.34399998188 -0.407000005245 70.0
4.43699979782 1.30400002003 -0.402000010014 71.0
4.58300018311 1.31700003147 -0.414999991655 67.0
4.57499980927 1.28600001335 -0.412999987602 68.0
4.62300014496 1.26999998093 -0.416999995708 65.0
4.5720000267 1.22699999809 -0.412000000477 67.0
4.63399982452 1.21500003338 -0.416999995708 67.0
4.5720000267 1.16999995708 -0.409999996424 65.0
4.64400005341 1.1590000391 -0.416000008583 62.0
4.64599990845 1.13100004196 -0.416000008583 65.0
4.73999977112 1.12399995327 -0.423000007868 65.0
4.74599981308 1.09700000286 -0.423000007868 67.0
4.80000019073 1.08000004292 -0.428000003099 67.0
4.77099990845 1.04400002956 -0.423999994993 62.0
4.78800010681 1.01800000668 -0.425000011921 57.0
4.84399986267 0.971000015736 -0.428999990225 58.0
4.80100011826 0.934000015259 -0.425000011921 57.0
4.88100004196 0.920000016689 -0.430999994278 57.0
0.899999976158 0.12800000608 -0.0790000036359 1735.0
0.893000006676 0.120999999344 -0.0780000016093 1839.0
0.896000027657 0.115999996662 -0.0780000016093 1839.0
0.902999997139 0.112000003457 -0.0790000036359 1813.0
0.901000022888 0.105999998748 -0.0790000036359 1824.0
0.898000001907 0.101000003517 -0.0780000016093 1867.0
0.898000001907 0.0960000008345 -0.0780000016093 1829.0
0.896000027657 0.0900000035763 -0.0780000016093 1714.0
0.898999989033 0.0850000008941 -0.0780000016093 1807.0
0.893000006676 0.0799999982119 -0.0780000016093 1847.0
0.898000001907 0.0750000029802 -0.0780000016093 1800.0
0.902000010014 0.070000000298 -0.0780000016093 1753.0
0.898999989033 0.0649999976158 -0.0780000016093 1754.0
0.898999989033 0.0590000003576 -0.0780000016093 1745.0
0.902000010014 0.0540000014007 -0.0780000016093 1704.0
0.898000001907 0.0489999987185 -0.0780000016093 1741.0
0.902999997139 0.0439999997616 -0.0780000016093 1696.0
0.902999997139 0.0390000008047 -0.0780000016093 1767.0
0.898000001907 0.0329999998212 -0.0780000016093 1761.0
0.897000014782 0.0280000008643 -0.0780000016093 1728.0
0.897000014782 0.0230000000447 -0.0780000016093 1724.0
0.90600001812 0.0179999992251 -0.0780000016093 1709.0
0.90600001812 0.0130000002682 -0.0780000016093 1740.0
0.901000022888 0.00800000037998 -0.0780000016093 1745.0
0.901000022888 0.00300000002608 -0.0780000016093 1695.0
0.899999976158 -0.00200000009499 -0.0780000016093 1712.0
0.902999997139 -0.00700000021607 -0.0780000016093 1765.0
0.902999997139 -0.0120000001043 -0.0780000016093 1809.0
0.90600001812 -0.0170000009239 -0.0780000016093 1787.0
0.902999997139 -0.0219999998808 -0.0780000016093 1806.0
0.903999984264 -0.0280000008643 -0.0780000016093 1808.0
0.90499997139 -0.0329999998212 -0.0780000016093 1811.0
0.90600001812 -0.0379999987781 -0.0780000016093 1762.0
0.902000010014 -0.0430000014603 -0.0780000016093 1723.0
0.903999984264 -0.0480000004172 -0.0780000016093 1752.0
0.90499997139 -0.0540000014007 -0.0780000016093 1728.0
0.902999997139 -0.0590000003576 -0.0780000016093 1760.0
0.90499997139 -0.0640000030398 -0.0780000016093 1707.0
0.907999992371 -0.070000000298 -0.0780000016093 1731.0
0.903999984264 -0.0740000009537 -0.0780000016093 1740.0
0.910000026226 -0.0799999982119 -0.0780000016093 1706.0
0.902000010014 -0.0850000008941 -0.0780000016093 1652.0
0.907999992371 -0.0909999981523 -0.0780000016093 1688.0
0.90499997139 -0.0960000008345 -0.0780000016093 1696.0
0.908999979496 -0.101000003517 -0.0780000016093 1702.0
0.90499997139 -0.105999998748 -0.0780000016093 1748.0
0.910000026226 -0.112000003457 -0.0790000036359 1674.0
0.907999992371 -0.116999998689 -0.0780000016093 1715.0
0.910000026226 -0.123000003397 -0.0790000036359 1676.0
0.90600001812 -0.127000004053 -0.0780000016093 1719.0
0.907000005245 -0.133000001311 -0.0780000016093 1651.0
0.910000026226 -0.138999998569 -0.0790000036359 1726.0
0.90600001812 -0.143999993801 -0.0780000016093 1817.0
0.90499997139 -0.149000003934 -0.0780000016093 1845.0
0.911000013351 -0.155000001192 -0.0790000036359 1782.0
0.911000013351 -0.16099999845 -0.0790000036359 1772.0
0.907999992371 -0.165000006557 -0.0790000036359 1782.0
0.908999979496 -0.171000003815 -0.0790000036359 1832.0
0.911000013351 -0.177000001073 -0.0790000036359 1798.0
0.912000000477 -0.182999998331 -0.0790000036359 1775.0
0.910000026226 -0.187999993563 -0.0790000036359 1755.0
0.915000021458 -0.194000005722 -0.0799999982119 1743.0
0.912000000477 -0.199000000954 -0.0790000036359 1731.0
0.907999992371 -0.203999996185 -0.0790000036359 1702.0
0.912999987602 -0.21099999547 -0.0799999982119 1662.0
0.912999987602 -0.216000005603 -0.0799999982119 1631.0
0.912999987602 -0.222000002861 -0.0799999982119 1661.0
0.913999974728 -0.228000000119 -0.0799999982119 1662.0
0.908999979496 -0.231999993324 -0.0790000036359 1763.0
0.911000013351 -0.238000005484 -0.0799999982119 1744.0
0.913999974728 -0.245000004768 -0.0799999982119 1675.0
0.917999982834 -0.252000004053 -0.0799999982119 1681.0
0.916000008583 -0.256999999285 -0.0799999982119 1682.0
0.910000026226 -0.261000007391 -0.0799999982119 1674.0
0.920000016689 -0.270000010729 -0.0810000002384 1648.0
0.916999995708 -0.27500000596 -0.0810000002384 1675.0
0.910000026226 -0.277999997139 -0.0799999982119 1676.0
0.911000013351 -0.284999996424 -0.0799999982119 1606.0
0.915000021458 -0.291999995708 -0.0810000002384 1521.0
0.917999982834 -0.298999994993 -0.0810000002384 1519.0
0.916999995708 -0.303999990225 -0.0810000002384 1550.0
0.92199999094 -0.312000006437 -0.082000002265 1532.0
0.916999995708 -0.317000001669 -0.082000002265 1484.0
0.915000021458 -0.321999996901 -0.0810000002384 1491.0
0.916999995708 -0.328999996185 -0.082000002265 1527.0
0.915000021458 -0.333999991417 -0.082000002265 1525.0
0.916000008583 -0.340999990702 -0.082000002265 1528.0
0.913999974728 -0.345999985933 -0.082000002265 1557.0
0.919000029564 -0.354000002146 -0.082000002265 1525.0
0.919000029564 -0.361000001431 -0.082999996841 1522.0
0.916999995708 -0.365999996662 -0.082999996841 1469.0
0.924000024796 -0.375 -0.082999996841 1451.0
0.915000021458 -0.377999991179 -0.082999996841 1474.0
0.922999978065 -0.388000011444 -0.0839999988675 1533.0
0.916000008583 -0.391999989748 -0.082999996841 1556.0
0.917999982834 -0.398999989033 -0.082999996841 1544.0
0.920000016689 -0.407000005245 -0.0839999988675 1500.0
0.921000003815 -0.41400000453 -0.0839999988675 1467.0
0.917999982834 -0.418999999762 -0.0839999988675 1512.0
0.919000029564 -0.425999999046 -0.0839999988675 1485.0
0.924000024796 -0.43599998951 -0.0850000008941 1479.0
0.92199999094 -0.441000014544 -0.0850000008941 1480.0
0.925000011921 -0.449999988079 -0.0850000008941 1451.0
0.922999978065 -0.456000000238 -0.0850000008941 1428.0
0.924000024796 -0.462999999523 -0.0860000029206 1389.0
0.925000011921 -0.470999985933 -0.0860000029206 1397.0
0.98400002718 -0.509000003338 -0.0920000001788 632.0
1.51100003719 -0.79699999094 -0.141000002623 325.0
1.58500003815 -0.848999977112 -0.148000001907 343.0
1.59000003338 -0.864000022411 -0.149000003934 356.0
1.46099996567 -0.805999994278 -0.136999994516 395.0
1.31500005722 -0.735000014305 -0.123999997973 549.0
0.791000008583 0.453999996185 -0.0850000008941 809.0
0.802999973297 0.455000013113 -0.0860000029206 855.0
0.800999999046 0.446999996901 -0.0850000008941 933.0
0.801999986172 0.441000014544 -0.0850000008941 981.0
0.801999986172 0.435000002384 -0.0850000008941 1055.0
0.786000013351 0.419999986887 -0.082999996841 1122.0
0.79699999094 0.418999999762 -0.0839999988675 1169.0
0.801999986172 0.414999991655 -0.0839999988675 1251.0
0.800999999046 0.407999992371 -0.082999996841 1291.0
0.800000011921 0.402000010014 -0.082999996841 1330.0
0.799000024796 0.395000010729 -0.082999996841 1589.0
0.787999987602 0.384000003338 -0.0810000002384 1662.0
0.79699999094 0.381999999285 -0.082000002265 1558.0
0.791999995708 0.374000012875 -0.0810000002384 1603.0
0.800000011921 0.372000008821 -0.082000002265 1367.0
0.795000016689 0.363999992609 -0.0810000002384 1562.0
0.791999995708 0.356999993324 -0.0810000002384 1437.0
0.800000011921 0.354000002146 -0.0810000002384 1501.0
0.800999999046 0.349000006914 -0.0810000002384 1854.0
0.795000016689 0.340999990702 -0.0799999982119 1870.0
0.800000011921 0.337000012398 -0.0810000002384 1783.0
0.799000024796 0.331000000238 -0.0799999982119 1872.0
0.805000007153 0.32800000906 -0.0810000002384 1766.0
0.805999994278 0.323000013828 -0.0810000002384 1792.0
0.806999981403 0.317000001669 -0.0810000002384 1839.0
0.808000028133 0.312000006437 -0.0810000002384 1893.0
0.805000007153 0.305999994278 -0.0799999982119 1929.0
0.804000020027 0.300000011921 -0.0799999982119 1950.0
0.81099998951 0.29699999094 -0.0799999982119 1930.0
0.810000002384 0.291000008583 -0.0799999982119 1921.0
0.810000002384 0.286000013351 -0.0799999982119 1921.0
0.791999995708 0.273999989033 -0.0780000016093 1519.0
0.71899998188 0.244000002742 -0.0710000023246 386.0
4.55200004578 1.51499998569 -0.444999992847 71.0
4.46600008011 1.45700001717 -0.43599998951 76.0
4.40999984741 1.40999996662 -0.430000007153 69.0
4.53000020981 1.41900002956 -0.439999997616 69.0
4.46500015259 1.37000000477 -0.432999998331 64.0
4.53299999237 1.36099994183 -0.43900001049 66.0
4.51399993896 1.32700002193 -0.43599998951 70.0
4.55000019073 1.30799996853 -0.43900001049 69.0
4.59000015259 1.28999996185 -0.442000001669 69.0
4.60500001907 1.26600003242 -0.442999988794 71.0
4.59800004959 1.23500001431 -0.442000001669 68.0
4.63700008392 1.2159999609 -0.444999992847 67.0
4.60699987411 1.17900002003 -0.441000014544 69.0
4.66300010681 1.16400003433 -0.446000009775 69.0
4.69999980927 1.14400005341 -0.449000000954 60.0
4.66400003433 1.10699999332 -0.444000005722 70.0
4.73299980164 1.09399998188 -0.449999988079 63.0
4.75500011444 1.07000005245 -0.451999992132 57.0
4.79099988937 1.0490000248 -0.455000013113 58.0
4.82600021362 1.02699995041 -0.456999987364 58.0
4.83400011063 0.999000012875 -0.458000004292 59.0
4.86899995804 0.976999998093 -0.460000008345 60.0
4.83300018311 0.939999997616 -0.456000000238 60.0
0.902999997139 0.12800000608 -0.0850000008941 1727.0
0.896000027657 0.122000001371 -0.0839999988675 1813.0
0.896000027657 0.116999998689 -0.0839999988675 1841.0
0.898999989033 0.112000003457 -0.0839999988675 1821.0
0.899999976158 0.105999998748 -0.0839999988675 1835.0
0.897000014782 0.101000003517 -0.0839999988675 1898.0
0.89200001955 0.0949999988079 -0.082999996841 1874.0
0.898999989033 0.0909999981523 -0.0839999988675 1732.0
0.902000010014 0.0860000029206 -0.0839999988675 1798.0
0.898000001907 0.0799999982119 -0.082999996841 1830.0
0.897000014782 0.0750000029802 -0.082999996841 1800.0
0.901000022888 0.070000000298 -0.0839999988675 1747.0
0.898000001907 0.0649999976158 -0.082999996841 1733.0
0.898000001907 0.0590000003576 -0.082999996841 1714.0
0.898999989033 0.0540000014007 -0.082999996841 1700.0
0.897000014782 0.0489999987185 -0.082999996841 1757.0
0.898000001907 0.0439999997616 -0.082999996841 1739.0
0.901000022888 0.0390000008047 -0.082999996841 1754.0
0.901000022888 0.0340000018477 -0.082999996841 1757.0
0.897000014782 0.0280000008643 -0.082999996841 1720.0
0.907000005245 0.0230000000447 -0.0839999988675 1727.0
0.896000027657 0.0179999992251 -0.082999996841 1687.0
0.901000022888 0.0130000002682 -0.082999996841 1706.0
0.898000001907 0.00800000037998 -0.082999996841 1764.0
0.902000010014 0.00300000002608 -0.082999996841 1712.0
0.902000010014 -0.00200000009499 -0.082999996841 1757.0
0.899999976158 -0.00700000021607 -0.082999996841 1747.0
0.902999997139 -0.0120000001043 -0.082999996841 1817.0
0.902999997139 -0.0170000009239 -0.082999996841 1800.0
0.902999997139 -0.0219999998808 -0.082999996841 1793.0
0.902000010014 -0.0280000008643 -0.082999996841 1785.0
0.90600001812 -0.0329999998212 -0.082999996841 1792.0
0.903999984264 -0.0379999987781 -0.082999996841 1746.0
0.902999997139 -0.0430000014603 -0.082999996841 1746.0
0.901000022888 -0.0480000004172 -0.082999996841 1767.0
0.903999984264 -0.0540000014007 -0.082999996841 1734.0
0.90499997139 -0.0590000003576 -0.082999996841 1771.0
0.90499997139 -0.0640000030398 -0.082999996841 1706.0
0.903999984264 -0.0689999982715 -0.082999996841 1716.0
0.902999997139 -0.0740000009537 -0.082999996841 1743.0
0.907000005245 -0.0799999982119 -0.082999996841 1703.0
0.90600001812 -0.0850000008941 -0.082999996841 1658.0
0.903999984264 -0.0900000035763 -0.082999996841 1690.0
0.902999997139 -0.0949999988079 -0.082999996841 1686.0
0.90600001812 -0.101000003517 -0.082999996841 1708.0
0.90600001812 -0.105999998748 -0.082999996841 1740.0
0.90499997139 -0.112000003457 -0.082999996841 1681.0
0.910000026226 -0.116999998689 -0.0839999988675 1672.0
0.907000005245 -0.122000001371 -0.0839999988675 1658.0
0.907000005245 -0.12800000608 -0.0839999988675 1689.0
0.911000013351 -0.134000003338 -0.0839999988675 1644.0
0.913999974728 -0.138999998569 -0.0839999988675 1709.0
0.907999992371 -0.143999993801 -0.0839999988675 1847.0
0.908999979496 -0.149000003934 -0.0839999988675 1843.0
0.907000005245 -0.155000001192 -0.0839999988675 1779.0
0.913999974728 -0.16099999845 -0.0850000008941 1776.0
0.910000026226 -0.165999993682 -0.0839999988675 1782.0
0.908999979496 -0.171000003815 -0.0839999988675 1770.0
0.912999987602 -0.177000001073 -0.0850000008941 1787.0
0.912999987602 -0.182999998331 -0.0850000008941 1757.0
0.913999974728 -0.188999995589 -0.0850000008941 1782.0
0.911000013351 -0.194000005722 -0.0850000008941 1738.0
0.911000013351 -0.199000000954 -0.0850000008941 1712.0
0.912999987602 -0.204999998212 -0.0850000008941 1704.0
0.908999979496 -0.209999993443 -0.0850000008941 1643.0
0.908999979496 -0.215000003576 -0.0850000008941 1645.0
0.911000013351 -0.221000000834 -0.0850000008941 1626.0
0.911000013351 -0.226999998093 -0.0850000008941 1643.0
0.917999982834 -0.233999997377 -0.0860000029206 1705.0
0.910000026226 -0.238000005484 -0.0850000008941 1711.0
0.910000026226 -0.244000002742 -0.0850000008941 1626.0
0.917999982834 -0.252000004053 -0.0860000029206 1656.0
0.917999982834 -0.25799998641 -0.0860000029206 1681.0
0.916000008583 -0.263000011444 -0.0860000029206 1660.0
0.912000000477 -0.266999989748 -0.0860000029206 1672.0
0.916999995708 -0.27500000596 -0.0860000029206 1723.0
0.912999987602 -0.279000014067 -0.0860000029206 1677.0
0.912000000477 -0.284999996424 -0.0860000029206 1573.0
0.916000008583 -0.291999995708 -0.0869999974966 1464.0
0.921000003815 -0.300000011921 -0.0869999974966 1515.0
0.912999987602 -0.303000003099 -0.0860000029206 1552.0
0.919000029564 -0.31099998951 -0.0869999974966 1550.0
0.915000021458 -0.316000014544 -0.0869999974966 1482.0
0.917999982834 -0.323000013828 -0.0869999974966 1510.0
0.916999995708 -0.328999996185 -0.0869999974966 1554.0
0.919000029564 -0.33599999547 -0.0879999995232 1543.0
0.916999995708 -0.340999990702 -0.0879999995232 1544.0
0.917999982834 -0.347999989986 -0.0879999995232 1594.0
0.916000008583 -0.354000002146 -0.0879999995232 1539.0
0.917999982834 -0.360000014305 -0.0879999995232 1521.0
0.920000016689 -0.368000000715 -0.0879999995232 1475.0
0.92199999094 -0.375 -0.0890000015497 1447.0
0.921000003815 -0.381000012159 -0.0890000015497 1445.0
0.925000011921 -0.388999998569 -0.0890000015497 1554.0
0.919000029564 -0.393000006676 -0.0890000015497 1565.0
0.916000008583 -0.398999989033 -0.0890000015497 1542.0
0.921000003815 -0.407999992371 -0.0900000035763 1482.0
0.92199999094 -0.414999991655 -0.0900000035763 1455.0
0.921000003815 -0.421000003815 -0.0900000035763 1482.0
0.921000003815 -0.428000003099 -0.0900000035763 1478.0
0.921000003815 -0.435000002384 -0.0900000035763 1461.0
0.920000016689 -0.441000014544 -0.0909999981523 1504.0
0.920000016689 -0.448000013828 -0.0909999981523 1448.0
0.926999986172 -0.458000004292 -0.0920000001788 1418.0
0.920000016689 -0.462000012398 -0.0909999981523 1389.0
0.92199999094 -0.469999998808 -0.0920000001788 1393.0
0.981999993324 -0.508000016212 -0.097999997437 631.0
1.51300001144 -0.797999978065 -0.150999993086 326.0
1.60800004005 -0.861999988556 -0.16099999845 340.0
1.58899998665 -0.864000022411 -0.158999994397 350.0
1.4509999752 -0.800999999046 -0.145999997854 406.0
1.32000005245 -0.737999975681 -0.133000001311 557.0
0.554000020027 0.317999988794 -0.0630000010133 110.0
0.70300000906 0.398000001907 -0.0799999982119 161.0
0.741999983788 0.41400000453 -0.0839999988675 227.0
0.727999985218 0.393999993801 -0.082000002265 287.0
0.736000001431 0.393000006676 -0.082000002265 280.0
0.763999998569 0.402000010014 -0.0850000008941 348.0
0.758000016212 0.393000006676 -0.0839999988675 408.0
0.777999997139 0.397000014782 -0.0860000029206 474.0
0.805999994278 0.405000001192 -0.0890000015497 551.0
0.79699999094 0.395000010729 -0.0879999995232 707.0
0.795000016689 0.388000011444 -0.0869999974966 855.0
0.805999994278 0.386999994516 -0.0879999995232 873.0
0.795000016689 0.375999987125 -0.0869999974966 1042.0
0.791999995708 0.368000000715 -0.0860000029206 824.0
0.806999981403 0.368999987841 -0.0879999995232 757.0
0.804000020027 0.361999988556 -0.0869999974966 751.0
0.813000023365 0.360000014305 -0.0879999995232 792.0
0.808000028133 0.351999998093 -0.0869999974966 1242.0
0.805000007153 0.344999998808 -0.0860000029206 1381.0
0.809000015259 0.340999990702 -0.0869999974966 1347.0
0.806999981403 0.335000008345 -0.0860000029206 1622.0
0.805000007153 0.32800000906 -0.0860000029206 1406.0
0.810000002384 0.324000000954 -0.0860000029206 1420.0
0.811999976635 0.319999992847 -0.0860000029206 1472.0
0.81400001049 0.314999997616 -0.0860000029206 1516.0
0.814999997616 0.308999985456 -0.0860000029206 1589.0
0.81099998951 0.303000003099 -0.0850000008941 1630.0
0.810000002384 0.29699999094 -0.0850000008941 1648.0
0.806999981403 0.289999991655 -0.0850000008941 1654.0
0.808000028133 0.284999996424 -0.0850000008941 1684.0
0.800000011921 0.277000010014 -0.0839999988675 1339.0
4.4470000267 1.48099994659 -0.462000012398 78.0
4.46500015259 1.45799994469 -0.462999999523 70.0
4.4470000267 1.42299997807 -0.460000008345 75.0
4.48000001907 1.40400004387 -0.462999999523 70.0
4.53100013733 1.38999998569 -0.467000007629 70.0
4.54799985886 1.36600005627 -0.467999994755 66.0
4.51700019836 1.32799994946 -0.463999986649 75.0
4.48999977112 1.29100000858 -0.460000008345 74.0
4.59000015259 1.29100000858 -0.469999998808 68.0
4.60200023651 1.26499998569 -0.469999998808 68.0
4.54300022125 1.22000002861 -0.463999986649 68.0
4.65500020981 1.22099995613 -0.474000006914 66.0
4.67999982834 1.19799995422 -0.476000010967 70.0
4.64799976349 1.16100001335 -0.472000002861 63.0
4.68200016022 1.13999998569 -0.47499999404 58.0
4.69500017166 1.11500000954 -0.476000010967 66.0
4.71700000763 1.0909999609 -0.476999998093 62.0
4.74700021744 1.06799995899 -0.479000002146 69.0
4.72599983215 1.03499996662 -0.476999998093 71.0
4.81199979782 1.02400004864 -0.485000014305 64.0
4.76499986649 0.985000014305 -0.479000002146 59.0
4.86499977112 0.976000010967 -0.488999992609 59.0
4.92899990082 0.958999991417 -0.493999987841 56.0
4.93800020218 0.930999994278 -0.495000004768 51.0
0.899999976158 0.12800000608 -0.0900000035763 1690.0
0.894999980927 0.122000001371 -0.0890000015497 1786.0
0.896000027657 0.115999996662 -0.0890000015497 1830.0
0.902999997139 0.112000003457 -0.0900000035763 1821.0
0.897000014782 0.105999998748 -0.0890000015497 1875.0
0.896000027657 0.101000003517 -0.0890000015497 1918.0
0.893000006676 0.0949999988079 -0.0879999995232 1866.0
0.896000027657 0.0900000035763 -0.0890000015497 1744.0
0.899999976158 0.0850000008941 -0.0890000015497 1790.0
0.894999980927 0.0799999982119 -0.0879999995232 1826.0
0.897000014782 0.0750000029802 -0.0879999995232 1775.0
0.896000027657 0.070000000298 -0.0879999995232 1742.0
0.896000027657 0.0640000030398 -0.0879999995232 1726.0
0.898999989033 0.0590000003576 -0.0890000015497 1709.0
0.898999989033 0.0540000014007 -0.0879999995232 1703.0
0.902000010014 0.0489999987185 -0.0890000015497 1773.0
0.901000022888 0.0439999997616 -0.0890000015497 1708.0
0.902000010014 0.0390000008047 -0.0890000015497 1734.0
0.902999997139 0.0340000018477 -0.0890000015497 1755.0
0.901000022888 0.0280000008643 -0.0879999995232 1719.0
0.898999989033 0.0230000000447 -0.0879999995232 1703.0
0.902000010014 0.0179999992251 -0.0890000015497 1704.0
0.902999997139 0.0130000002682 -0.0890000015497 1700.0
0.903999984264 0.00800000037998 -0.0890000015497 1749.0
0.898999989033 0.00200000009499 -0.0879999995232 1705.0
0.901000022888 -0.00200000009499 -0.0879999995232 1761.0
0.899999976158 -0.00700000021607 -0.0879999995232 1724.0
0.90499997139 -0.0120000001043 -0.0890000015497 1793.0
0.901000022888 -0.0170000009239 -0.0879999995232 1809.0
0.898000001907 -0.0219999998808 -0.0879999995232 1778.0
0.903999984264 -0.0280000008643 -0.0879999995232 1769.0
0.903999984264 -0.0329999998212 -0.0879999995232 1778.0
0.899999976158 -0.0379999987781 -0.0879999995232 1762.0
0.90600001812 -0.0430000014603 -0.0890000015497 1732.0
0.90499997139 -0.0489999987185 -0.0890000015497 1757.0
0.902999997139 -0.0540000014007 -0.0879999995232 1723.0
0.903999984264 -0.0590000003576 -0.0879999995232 1751.0
0.90600001812 -0.0640000030398 -0.0890000015497 1722.0
0.907000005245 -0.070000000298 -0.0890000015497 1682.0
0.90600001812 -0.0750000029802 -0.0890000015497 1743.0
0.899999976158 -0.0799999982119 -0.0879999995232 1710.0
0.908999979496 -0.0860000029206 -0.0890000015497 1633.0
0.910000026226 -0.0909999981523 -0.0890000015497 1673.0
0.90600001812 -0.0960000008345 -0.0890000015497 1683.0
0.908999979496 -0.101000003517 -0.0890000015497 1733.0
0.90600001812 -0.105999998748 -0.0890000015497 1728.0
0.90600001812 -0.112000003457 -0.0890000015497 1701.0
0.90499997139 -0.116999998689 -0.0890000015497 1642.0
0.911000013351 -0.123000003397 -0.0890000015497 1653.0
0.908999979496 -0.12800000608 -0.0890000015497 1680.0
0.912000000477 -0.134000003338 -0.0900000035763 1649.0
0.910000026226 -0.138999998569 -0.0890000015497 1705.0
0.912000000477 -0.144999995828 -0.0900000035763 1829.0
0.907000005245 -0.149000003934 -0.0890000015497 1856.0
0.907000005245 -0.155000001192 -0.0890000015497 1802.0
0.907999992371 -0.159999996424 -0.0890000015497 1812.0
0.911000013351 -0.165999993682 -0.0900000035763 1769.0
0.908999979496 -0.171000003815 -0.0890000015497 1768.0
0.912999987602 -0.177000001073 -0.0900000035763 1789.0
0.908999979496 -0.181999996305 -0.0900000035763 1739.0
0.912999987602 -0.188999995589 -0.0900000035763 1786.0
0.908999979496 -0.193000003695 -0.0900000035763 1757.0
0.910000026226 -0.199000000954 -0.0900000035763 1704.0
0.908999979496 -0.203999996185 -0.0900000035763 1701.0
0.915000021458 -0.21099999547 -0.0909999981523 1669.0
0.90600001812 -0.215000003576 -0.0900000035763 1688.0
0.912999987602 -0.222000002861 -0.0909999981523 1683.0
0.908999979496 -0.226999998093 -0.0900000035763 1702.0
0.911000013351 -0.232999995351 -0.0900000035763 1652.0
0.912000000477 -0.238999992609 -0.0909999981523 1695.0
0.907999992371 -0.244000002742 -0.0900000035763 1631.0
0.915000021458 -0.250999987125 -0.0909999981523 1640.0
0.912999987602 -0.256000012159 -0.0909999981523 1657.0
0.917999982834 -0.263000011444 -0.0920000001788 1664.0
0.910000026226 -0.266999989748 -0.0909999981523 1692.0
0.912999987602 -0.273999989033 -0.0909999981523 1735.0
0.912999987602 -0.280000001192 -0.0920000001788 1665.0
0.912999987602 -0.286000013351 -0.0920000001788 1516.0
0.917999982834 -0.293000012636 -0.0920000001788 1505.0
0.916999995708 -0.298999994993 -0.0920000001788 1525.0
0.908999979496 -0.301999986172 -0.0920000001788 1555.0
0.916999995708 -0.31099998951 -0.0930000022054 1558.0
0.916999995708 -0.317000001669 -0.0930000022054 1490.0
0.919000029564 -0.324000000954 -0.0930000022054 1541.0
0.915000021458 -0.32800000906 -0.0930000022054 1568.0
0.916000008583 -0.335000008345 -0.0930000022054 1523.0
0.92199999094 -0.342999994755 -0.0939999967813 1520.0
0.92199999094 -0.34999999404 -0.0939999967813 1597.0
0.919000029564 -0.354999989271 -0.0939999967813 1554.0
0.920000016689 -0.361999988556 -0.0939999967813 1501.0
0.919000029564 -0.368000000715 -0.0939999967813 1478.0
0.92199999094 -0.375 -0.0949999988079 1454.0
0.916000008583 -0.379000008106 -0.0939999967813 1473.0
0.916999995708 -0.386000007391 -0.0939999967813 1577.0
0.921000003815 -0.393999993801 -0.0949999988079 1550.0
0.92199999094 -0.400999993086 -0.0949999988079 1535.0
0.916000008583 -0.405000001192 -0.0949999988079 1480.0
0.92199999094 -0.414999991655 -0.0960000008345 1443.0
0.916999995708 -0.418999999762 -0.0949999988079 1477.0
0.921000003815 -0.428000003099 -0.0960000008345 1474.0
0.926999986172 -0.437999993563 -0.097000002861 1454.0
0.916000008583 -0.43900001049 -0.0960000008345 1459.0
0.926999986172 -0.451999992132 -0.097000002861 1447.0
0.921000003815 -0.456000000238 -0.097000002861 1419.0
0.921000003815 -0.462999999523 -0.097000002861 1369.0
0.921000003815 -0.469999998808 -0.097000002861 1398.0
0.987999975681 -0.512000024319 -0.104999996722 630.0
1.51400005817 -0.800000011921 -0.16099999845 315.0
1.59300005436 -0.853999972343 -0.170000001788 339.0
1.57799994946 -0.85900002718 -0.167999997735 353.0
1.43700003624 -0.792999982834 -0.153999999166 414.0
1.3029999733 -0.728999972343 -0.140000000596 551.0
3.53699994087 1.97899997234 -0.42199999094 87.0
3.63000011444 2.00099992752 -0.432000011206 80.0
3.80100011826 2.06500005722 -0.449999988079 74.0
3.80800008774 2.03800010681 -0.449999988079 75.0
3.94099998474 2.07800006866 -0.463999986649 77.0
3.88100004196 2.01600003242 -0.456000000238 76.0
0.598999977112 0.287999987602 -0.0689999982715 111.0
0.712999999523 0.337000012398 -0.082000002265 155.0
0.699999988079 0.326000005007 -0.0810000002384 175.0
0.726999998093 0.333000004292 -0.082999996841 249.0
0.764999985695 0.344999998808 -0.0879999995232 361.0
0.811999976635 0.354000002146 -0.0920000001788 578.0
0.777999997139 0.333999991417 -0.0879999995232 366.0
0.787000000477 0.331999987364 -0.0890000015497 432.0
0.783999979496 0.324999988079 -0.0890000015497 570.0
0.787999987602 0.321000009775 -0.0890000015497 516.0
0.802999973297 0.321999996901 -0.0900000035763 566.0
0.811999976635 0.319999992847 -0.0909999981523 618.0
0.819000005722 0.317000001669 -0.0920000001788 703.0
0.815999984741 0.310000002384 -0.0909999981523 758.0
0.819000005722 0.305999994278 -0.0909999981523 830.0
0.823000013828 0.301999986172 -0.0920000001788 878.0
0.824000000954 0.29699999094 -0.0909999981523 928.0
0.827000021935 0.291999995708 -0.0920000001788 1004.0
0.804000020027 0.277999997139 -0.0890000015497 938.0
4.52400016785 1.50699996948 -0.497999995947 69.0
4.43800020218 1.44900000095 -0.486999988556 73.0
4.48500013351 1.43499994278 -0.490999996662 76.0
4.45800018311 1.39800000191 -0.488000005484 74.0
4.49900007248 1.38100004196 -0.490999996662 76.0
4.4889998436 1.34899997711 -0.488999992609 72.0
4.53599977493 1.33399999142 -0.493000000715 74.0
4.57600021362 1.31700003147 -0.497000008821 74.0
4.57600021362 1.28699994087 -0.495999991894 61.0
4.61899995804 1.26999998093 -0.5 67.0
4.56599998474 1.22699999809 -0.493000000715 68.0
4.62599992752 1.21399998665 -0.499000012875 64.0
4.632999897 1.18700003624 -0.499000012875 65.0
4.632999897 1.15799999237 -0.497999995947 68.0
4.67600011826 1.13900005817 -0.501999974251 64.0
4.72200012207 1.1210000515 -0.505999982357 64.0
4.73600006104 1.09500002861 -0.507000029087 72.0
4.71299982071 1.06099998951 -0.504000008106 65.0
4.73500013351 1.03699994087 -0.505999982357 68.0
4.80999994278 1.02400004864 -0.513000011444 59.0
4.85200023651 1.00300002098 -0.51700001955 64.0
4.78700017929 0.961000025272 -0.509000003338 64.0
4.89400005341 0.95300000906 -0.519999980927 63.0
1.23399996758 0.225999996066 -0.130999997258 58.0
1.12300002575 0.192000001669 -0.119000002742 55.0
0.894999980927 0.127000004053 -0.0939999967813 1678.0
0.897000014782 0.122000001371 -0.0939999967813 1756.0
0.893999993801 0.115999996662 -0.0939999967813 1765.0
0.896000027657 0.111000001431 -0.0939999967813 1804.0
0.898999989033 0.105999998748 -0.0939999967813 1843.0
0.897000014782 0.101000003517 -0.0939999967813 1879.0
0.896000027657 0.0960000008345 -0.0939999967813 1837.0
0.893999993801 0.0900000035763 -0.0939999967813 1730.0
0.898999989033 0.0850000008941 -0.0939999967813 1761.0
0.888999998569 0.0790000036359 -0.0930000022054 1808.0
0.898999989033 0.0750000029802 -0.0939999967813 1745.0
0.898000001907 0.070000000298 -0.0939999967813 1691.0
0.896000027657 0.0640000030398 -0.0939999967813 1685.0
0.898000001907 0.0590000003576 -0.0939999967813 1702.0
0.902000010014 0.0540000014007 -0.0939999967813 1681.0
0.899999976158 0.0489999987185 -0.0939999967813 1742.0
0.898000001907 0.0439999997616 -0.0939999967813 1703.0
0.898000001907 0.0390000008047 -0.0939999967813 1711.0
0.898999989033 0.0329999998212 -0.0930000022054 1721.0
0.901000022888 0.0280000008643 -0.0939999967813 1712.0
0.897000014782 0.0230000000447 -0.0930000022054 1648.0
0.898000001907 0.0179999992251 -0.0930000022054 1643.0
0.898999989033 0.0130000002682 -0.0930000022054 1659.0
0.90600001812 0.00800000037998 -0.0939999967813 1712.0
0.897000014782 0.00200000009499 -0.0930000022054 1684.0
0.902000010014 -0.00200000009499 -0.0939999967813 1717.0
0.902000010014 -0.00700000021607 -0.0939999967813 1675.0
0.90499997139 -0.0120000001043 -0.0939999967813 1724.0
0.901000022888 -0.0170000009239 -0.0930000022054 1791.0
0.903999984264 -0.0230000000447 -0.0939999967813 1750.0
0.902999997139 -0.0280000008643 -0.0939999967813 1782.0
0.902999997139 -0.0329999998212 -0.0939999967813 1763.0
0.903999984264 -0.0379999987781 -0.0939999967813 1760.0
0.902999997139 -0.0430000014603 -0.0939999967813 1737.0
0.90499997139 -0.0489999987185 -0.0939999967813 1741.0
0.903999984264 -0.0540000014007 -0.0939999967813 1730.0
0.902000010014 -0.0590000003576 -0.0939999967813 1720.0
0.902999997139 -0.0640000030398 -0.0939999967813 1718.0
0.90600001812 -0.070000000298 -0.0939999967813 1680.0
0.902000010014 -0.0750000029802 -0.0939999967813 1698.0
0.902999997139 -0.0799999982119 -0.0939999967813 1681.0
0.907000005245 -0.0850000008941 -0.0939999967813 1647.0
0.908999979496 -0.0909999981523 -0.0939999967813 1669.0
0.90499997139 -0.0960000008345 -0.0939999967813 1671.0
0.90600001812 -0.101000003517 -0.0939999967813 1720.0
0.90499997139 -0.105999998748 -0.0939999967813 1756.0
0.90600001812 -0.112000003457 -0.0939999967813 1692.0
0.90600001812 -0.116999998689 -0.0939999967813 1616.0
0.902999997139 -0.122000001371 -0.0939999967813 1639.0
0.90600001812 -0.12800000608 -0.0939999967813 1658.0
0.908999979496 -0.133000001311 -0.0949999988079 1629.0
0.912000000477 -0.138999998569 -0.0949999988079 1658.0
0.903999984264 -0.143999993801 -0.0939999967813 1799.0
0.907999992371 -0.15000000596 -0.0949999988079 1805.0
0.907999992371 -0.155000001192 -0.0949999988079 1787.0
0.90499997139 -0.159999996424 -0.0939999967813 1801.0
0.907999992371 -0.165999993682 -0.0949999988079 1768.0
0.910000026226 -0.172000005841 -0.0949999988079 1749.0
0.910000026226 -0.177000001073 -0.0949999988079 1778.0
0.908999979496 -0.181999996305 -0.0949999988079 1736.0
0.908999979496 -0.187999993563 -0.0949999988079 1761.0
0.910000026226 -0.194000005722 -0.0949999988079 1765.0
0.912999987602 -0.20000000298 -0.0960000008345 1714.0
0.907000005245 -0.203999996185 -0.0949999988079 1725.0
0.908999979496 -0.209999993443 -0.0949999988079 1703.0
0.910000026226 -0.216000005603 -0.0960000008345 1728.0
0.912999987602 -0.222000002861 -0.0960000008345 1726.0
0.908999979496 -0.226999998093 -0.0960000008345 1721.0
0.910000026226 -0.232999995351 -0.0960000008345 1657.0
0.912000000477 -0.238999992609 -0.0960000008345 1682.0
0.915000021458 -0.245000004768 -0.097000002861 1666.0
0.912000000477 -0.25 -0.0960000008345 1658.0
0.913999974728 -0.256999999285 -0.097000002861 1655.0
0.913999974728 -0.263000011444 -0.097000002861 1669.0
0.908999979496 -0.266999989748 -0.0960000008345 1738.0
0.912999987602 -0.273999989033 -0.097000002861 1706.0
0.912999987602 -0.280000001192 -0.097000002861 1620.0
0.912999987602 -0.286000013351 -0.097000002861 1498.0
0.912000000477 -0.291000008583 -0.097000002861 1534.0
0.919000029564 -0.300000011921 -0.097999997437 1543.0
0.916999995708 -0.305000007153 -0.097999997437 1580.0
0.913999974728 -0.310000002384 -0.097999997437 1604.0
0.915000021458 -0.316000014544 -0.097999997437 1525.0
0.916999995708 -0.323000013828 -0.097999997437 1560.0
0.915000021458 -0.328999996185 -0.097999997437 1522.0
0.916999995708 -0.335000008345 -0.0989999994636 1524.0
0.921000003815 -0.342999994755 -0.0989999994636 1503.0
0.920000016689 -0.349000006914 -0.0989999994636 1554.0
0.913999974728 -0.352999985218 -0.0989999994636 1538.0
0.912999987602 -0.358999997377 -0.0989999994636 1504.0
0.915000021458 -0.365999996662 -0.0989999994636 1461.0
0.912999987602 -0.372000008821 -0.0989999994636 1465.0
0.92199999094 -0.381999999285 -0.101000003517 1471.0
0.920000016689 -0.388000011444 -0.101000003517 1575.0
0.916000008583 -0.391999989748 -0.10000000149 1548.0
0.919000029564 -0.40000000596 -0.101000003517 1535.0
0.916000008583 -0.405999988317 -0.101000003517 1473.0
0.922999978065 -0.414999991655 -0.101999998093 1436.0
0.925999999046 -0.423999994993 -0.101999998093 1481.0
0.921000003815 -0.428000003099 -0.101999998093 1487.0
0.924000024796 -0.437000006437 -0.101999998093 1440.0
0.922999978065 -0.442999988794 -0.103000000119 1467.0
0.925000011921 -0.451000005007 -0.103000000119 1437.0
0.92199999094 -0.456000000238 -0.103000000119 1397.0
0.925999999046 -0.465000003576 -0.104000002146 1384.0
0.920000016689 -0.469999998808 -0.103000000119 1404.0
0.995999991894 -0.51599997282 -0.112000003457 619.0
1.50300002098 -0.795000016689 -0.168999999762 329.0
1.60099995136 -0.85900002718 -0.180999994278 338.0
1.61099994183 -0.878000020981 -0.182999998331 358.0
1.43599998951 -0.792999982834 -0.163000002503 424.0
1.30499994755 -0.731000006199 -0.149000003934 553.0
3.50500011444 2.02099990845 -0.444000005722 101.0
3.67000007629 2.05500006676 -0.462000012398 89.0
3.65899991989 2.01900005341 -0.458999991417 86.0
3.875 2.10700011253 -0.485000014305 81.0
3.76099991798 1.95500004292 -0.465999990702 77.0
3.92000007629 1.65600001812 -0.467999994755 69.0
4.06500005722 1.68799996376 -0.485000014305 73.0
4.00400018692 1.63499999046 -0.476000010967 69.0
4.00899982452 1.60800004005 -0.476000010967 67.0
3.90000009537 1.5379999876 -0.462000012398 72.0
4.06599998474 1.57500004768 -0.479999989271 67.0
4.01999998093 1.52900004387 -0.474000006914 71.0
0.533999979496 0.195999994874 -0.0630000010133 82.0
0.68599998951 0.24699999392 -0.0799999982119 124.0
0.73400002718 0.259000003338 -0.0860000029206 168.0
0.462999999523 0.159999996424 -0.0540000014007 117.0
4.75699996948 1.61699998379 -0.552999973297 78.0
4.38700008392 1.4620000124 -0.509000003338 67.0
4.48199987411 1.46399998665 -0.518999993801 77.0
4.49300003052 1.43799996376 -0.519999980927 82.0
4.51000022888 1.41400003433 -0.521000027657 79.0
4.49300003052 1.37999999523 -0.518000006676 74.0
4.51900005341 1.35899996758 -0.519999980927 70.0
4.53800010681 1.33500003815 -0.521000027657 71.0
4.57299995422 1.31599998474 -0.523999989033 72.0
4.58400011063 1.28999996185 -0.524999976158 66.0
4.65899991989 1.28199994564 -0.532000005245 67.0
4.58400011063 1.23199999332 -0.523000001907 64.0
4.60900020599 1.21000003815 -0.524999976158 69.0
4.59800004959 1.1779999733 -0.523000001907 64.0
4.63999986649 1.15999996662 -0.527000010014 60.0
4.62599992752 1.12800002098 -0.524999976158 71.0
4.6890001297 1.11399996281 -0.53100001812 67.0
4.72300004959 1.09300005436 -0.533999979496 70.0
4.77400016785 1.07500004768 -0.538999974728 66.0
4.74499988556 1.03999996185 -0.535000026226 68.0
4.78599977493 1.01900005341 -0.538999974728 63.0
4.73000001907 0.978999972343 -0.532000005245 64.0
4.82100009918 0.967999994755 -0.541999995708 71.0
4.8860001564 0.952000021935 -0.547999978065 59.0
1.25600004196 0.230000004172 -0.141000002623 51.0
1.23399996758 0.218999996781 -0.137999996543 62.0
1.23800003529 0.211999997497 -0.137999996543 55.0
0.898999989033 0.127000004053 -0.10000000149 1654.0
0.897000014782 0.122000001371 -0.10000000149 1748.0
0.896000027657 0.116999998689 -0.0989999994636 1758.0
0.898999989033 0.112000003457 -0.10000000149 1763.0
0.893000006676 0.105999998748 -0.0989999994636 1836.0
0.896000027657 0.101000003517 -0.0989999994636 1814.0
0.897000014782 0.0960000008345 -0.0989999994636 1786.0
0.898000001907 0.0909999981523 -0.0989999994636 1702.0
0.902000010014 0.0860000029206 -0.10000000149 1730.0
0.893000006676 0.0799999982119 -0.0989999994636 1793.0
0.894999980927 0.0750000029802 -0.0989999994636 1754.0
0.896000027657 0.070000000298 -0.0989999994636 1685.0
0.89200001955 0.0640000030398 -0.097999997437 1693.0
0.897000014782 0.0590000003576 -0.0989999994636 1679.0
0.899999976158 0.0540000014007 -0.0989999994636 1678.0
0.896000027657 0.0489999987185 -0.0989999994636 1733.0
0.898000001907 0.0439999997616 -0.0989999994636 1669.0
0.898999989033 0.0390000008047 -0.0989999994636 1700.0
0.898999989033 0.0329999998212 -0.0989999994636 1693.0
0.896000027657 0.0280000008643 -0.097999997437 1676.0
0.898000001907 0.0230000000447 -0.0989999994636 1631.0
0.90600001812 0.0179999992251 -0.0989999994636 1628.0
0.898999989033 0.0130000002682 -0.0989999994636 1624.0
0.898999989033 0.00800000037998 -0.0989999994636 1680.0
0.898999989033 0.00200000009499 -0.0989999994636 1656.0
0.899999976158 -0.00200000009499 -0.0989999994636 1726.0
0.899999976158 -0.00700000021607 -0.0989999994636 1669.0
0.902999997139 -0.0120000001043 -0.0989999994636 1723.0
0.903999984264 -0.0170000009239 -0.0989999994636 1764.0
0.901000022888 -0.0219999998808 -0.0989999994636 1747.0
0.902999997139 -0.0280000008643 -0.0989999994636 1738.0
0.902999997139 -0.0329999998212 -0.0989999994636 1718.0
0.903999984264 -0.0379999987781 -0.0989999994636 1717.0
0.899999976158 -0.0430000014603 -0.0989999994636 1715.0
0.903999984264 -0.0489999987185 -0.0989999994636 1711.0
0.902999997139 -0.0540000014007 -0.0989999994636 1721.0
0.903999984264 -0.0590000003576 -0.0989999994636 1680.0
0.90499997139 -0.0640000030398 -0.0989999994636 1711.0
0.902000010014 -0.0689999982715 -0.0989999994636 1667.0
0.90499997139 -0.0750000029802 -0.0989999994636 1685.0
0.90499997139 -0.0799999982119 -0.0989999994636 1678.0
0.90600001812 -0.0850000008941 -0.0989999994636 1667.0
0.90600001812 -0.0909999981523 -0.0989999994636 1652.0
0.903999984264 -0.0960000008345 -0.0989999994636 1638.0
0.907000005245 -0.101000003517 -0.0989999994636 1707.0
0.90499997139 -0.105999998748 -0.0989999994636 1750.0
0.90499997139 -0.112000003457 -0.0989999994636 1682.0
0.908999979496 -0.118000000715 -0.10000000149 1625.0
0.910000026226 -0.123000003397 -0.10000000149 1605.0
0.907999992371 -0.12800000608 -0.10000000149 1650.0
0.907000005245 -0.133000001311 -0.10000000149 1606.0
0.910000026226 -0.138999998569 -0.10000000149 1624.0
0.907999992371 -0.143999993801 -0.10000000149 1752.0
0.916000008583 -0.150999993086 -0.101000003517 1775.0
0.910000026226 -0.155000001192 -0.10000000149 1770.0
0.908999979496 -0.16099999845 -0.10000000149 1760.0
0.907999992371 -0.165999993682 -0.10000000149 1747.0
0.908999979496 -0.172000005841 -0.10000000149 1758.0
0.907999992371 -0.177000001073 -0.10000000149 1758.0
0.907999992371 -0.181999996305 -0.10000000149 1766.0
0.910000026226 -0.187999993563 -0.101000003517 1774.0
0.910000026226 -0.194000005722 -0.101000003517 1757.0
0.90499997139 -0.197999998927 -0.10000000149 1747.0
0.911000013351 -0.204999998212 -0.101000003517 1702.0
0.908999979496 -0.209999993443 -0.101000003517 1693.0
0.913999974728 -0.216999992728 -0.101000003517 1720.0
0.912999987602 -0.222000002861 -0.101000003517 1714.0
0.911000013351 -0.226999998093 -0.101000003517 1714.0
0.913999974728 -0.233999997377 -0.101999998093 1683.0
0.910000026226 -0.238999992609 -0.101000003517 1683.0
0.912000000477 -0.245000004768 -0.101999998093 1658.0
0.916000008583 -0.252000004053 -0.101999998093 1665.0
0.913999974728 -0.256999999285 -0.101999998093 1652.0
0.916999995708 -0.263000011444 -0.103000000119 1667.0
0.912999987602 -0.268000006676 -0.101999998093 1739.0
0.912000000477 -0.273999989033 -0.101999998093 1670.0
0.912000000477 -0.280000001192 -0.101999998093 1584.0
0.916000008583 -0.287000000477 -0.103000000119 1549.0
0.916999995708 -0.293000012636 -0.103000000119 1560.0
0.912000000477 -0.298000007868 -0.103000000119 1589.0
0.916000008583 -0.305000007153 -0.103000000119 1621.0
0.907000005245 -0.307999998331 -0.103000000119 1595.0
0.913999974728 -0.316000014544 -0.104000002146 1581.0
0.915000021458 -0.323000013828 -0.104000002146 1580.0
0.912999987602 -0.32800000906 -0.104000002146 1525.0
0.916999995708 -0.33599999547 -0.104000002146 1504.0
0.919000029564 -0.342999994755 -0.104999996722 1499.0
0.912999987602 -0.347000002861 -0.104000002146 1553.0
0.913999974728 -0.354000002146 -0.104999996722 1538.0
0.92199999094 -0.363000005484 -0.105999998748 1490.0
0.917999982834 -0.368000000715 -0.104999996722 1473.0
0.917999982834 -0.374000012875 -0.105999998748 1447.0
0.92199999094 -0.381999999285 -0.105999998748 1468.0
0.917999982834 -0.386999994516 -0.105999998748 1565.0
0.92199999094 -0.395000010729 -0.107000000775 1541.0
0.917999982834 -0.40000000596 -0.105999998748 1542.0
0.916999995708 -0.407000005245 -0.107000000775 1469.0
0.919000029564 -0.41400000453 -0.107000000775 1427.0
0.916999995708 -0.419999986887 -0.107000000775 1463.0
0.92199999094 -0.428999990225 -0.108000002801 1475.0
0.920000016689 -0.435000002384 -0.108000002801 1402.0
0.922999978065 -0.442999988794 -0.108000002801 1452.0
0.920000016689 -0.449000000954 -0.108000002801 1428.0
0.924000024796 -0.458000004292 -0.108999997377 1419.0
