ply
format ascii 1.0
element vertex 971
property float x
property float y
property float z
property float intensity
end_header
3.89299988747 1.45000004768 1.38399994373 119.0
3.90199995041 1.42599999905 1.38399994373 117.0
3.90300011635 1.39900004864 1.38199996948 117.0
3.96799993515 1.39400005341 1.40299999714 121.0
3.92300009727 1.35099995136 1.38399994373 113.0
3.91899991035 1.32299995422 1.38100004196 115.0
3.93099999428 1.29999995232 1.38300001621 115.0
3.90499997139 1.26400005817 1.3710000515 116.0
3.93899989128 1.24800002575 1.38100004196 113.0
3.94899988174 1.22500002384 1.38199996948 114.0
3.92600011826 1.19099998474 1.37199997902 108.0
3.90499997139 1.1590000391 1.36300003529 101.0
4.05200004578 1.17499995232 1.41199994087 78.0
4.33099985123 -0.856000006199 1.49300003052 64.0
4.30499982834 -0.878000020981 1.48500001431 69.0
4.1810002327 -0.879999995232 1.44400000572 69.0
4.33599996567 -0.939999997616 1.5 72.0
4.30900001526 -0.962000012398 1.49199998379 76.0
4.35699987411 -1.0 1.51100003719 73.0
4.28900003433 -1.01199996471 1.48899996281 76.0
4.30999994278 -1.04499995708 1.49899995327 80.0
4.37900018692 -1.09000003338 1.52400004864 73.0
4.32100009918 -1.10399997234 1.50600004196 72.0
4.31500005722 -1.13100004196 1.50600004196 70.0
4.34399986267 -1.16700005531 1.51900005341 77.0
4.35200023651 -1.19799995422 1.52400004864 69.0
4.38899993896 -1.23699998856 1.53999996185 73.0
4.37300014496 -1.26100003719 1.53600001335 68.0
4.38100004196 -1.29299998283 1.54200005531 70.0
4.38500022888 -1.32400000095 1.54600000381 69.0
4.41099977493 -1.36099994183 1.55799996853 69.0
4.40299987793 -1.38800001144 1.55700004101 73.0
4.43400001526 -1.42900002003 1.57099997997 71.0
4.31199979782 -1.41900002956 1.53100001812 69.0
4.51499986649 -1.51699995995 1.60599994659 69.0
4.39599990845 -1.50699996948 1.56700003147 74.0
0.00499999988824 0.00200000009499 -0.0010000000475 75.0
2.32999992371 -1.14100003242 0.869000017643 84.0
2.45900011063 -1.22399997711 0.920000016689 135.0
2.44499993324 -1.23599994183 0.916999995708 127.0
3.06999993324 1.60699999332 1.12000000477 114.0
3.1779999733 1.63699996471 1.15699994564 88.0
3.56999993324 1.7539999485 1.28900003433 86.0
3.52200007439 1.70200002193 1.26900005341 90.0
3.86599993706 1.80900001526 1.38600003719 78.0
3.867000103 1.77900004387 1.38300001621 83.0
3.79800009727 1.71899998188 1.35500001907 120.0
3.88700008392 1.72899997234 1.38300001621 122.0
3.85500001907 1.68599998951 1.36899995804 120.0
3.875 1.66600000858 1.37300002575 120.0
3.78500008583 1.59899997711 1.33800005913 121.0
3.85800004005 1.60099995136 1.36099994183 118.0
3.92300009727 1.60000002384 1.38100004196 115.0
3.89299988747 1.55900001526 1.36800003052 114.0
3.93499994278 1.54700005054 1.3789999485 117.0
3.96700000763 1.53100001812 1.38800001144 113.0
3.90100002289 1.47800004482 1.36199998856 117.0
3.94799995422 1.46800005436 1.37600004673 116.0
3.91899991035 1.42900002003 1.36300003529 122.0
3.93499994278 1.40699994564 1.36600005627 116.0
3.87700009346 1.36000001431 1.34399998188 122.0
3.91599988937 1.34599995613 1.35500001907 115.0
3.95600008965 1.33200001717 1.36600005627 112.0
3.91499996185 1.29200005531 1.35000002384 114.0
3.92499995232 1.26800000668 1.35099995136 114.0
3.99499988556 1.26400005817 1.37300002575 113.0
3.9430000782 1.22099995613 1.35300004482 109.0
3.97600007057 1.20399999619 1.36199998856 124.0
3.9240000248 1.16199994087 1.34200000763 100.0
4.25 -0.973999977112 1.44500005245 69.0
4.30999994278 -1.01499998569 1.46700000763 76.0
4.34899997711 -1.0529999733 1.48199999332 80.0
4.3029999733 -1.06900000572 1.46899998188 82.0
4.33799982071 -1.10599994659 1.48300004005 73.0
4.34299993515 -1.13600003719 1.48699998856 74.0
4.33300018311 -1.19000005722 1.48800003529 78.0
4.37799978256 -1.23199999332 1.50600004196 69.0
4.34299993515 -1.25100004673 1.4960000515 69.0
4.24399995804 -1.25 1.46399998665 69.0
4.32600021362 -1.3029999733 1.49500000477 67.0
4.30900001526 -1.32700002193 1.49100005627 71.0
4.36100006104 -1.37300002575 1.51199996471 68.0
2.38700008392 -1.16700005531 0.873000025749 94.0
2.44099998474 -1.21300005913 0.894999980927 132.0
2.4470000267 -1.23500001431 0.899999976158 131.0
1.13900005817 -0.638000011444 0.425999999046 90.0
1.18499994278 -0.674000024796 0.444999992847 91.0
3.01900005341 1.57700002193 1.07899999619 98.0
3.21700000763 1.65400004387 1.14699995518 86.0
3.5720000267 1.75100004673 1.26400005817 107.0
3.57899999619 1.72699999809 1.26300001144 97.0
3.75200009346 1.75199997425 1.31799995899 80.0
3.92600011826 1.8029999733 1.37600004673 90.0
3.81999993324 1.72500002384 1.33500003815 110.0
3.84500002861 1.70700001717 1.3409999609 115.0
3.78099989891 1.64999997616 1.31599998474 126.0
3.88199996948 1.66600000858 1.34800004959 121.0
3.86299991608 1.6289999485 1.33800005913 120.0
3.8599998951 1.59899997711 1.33399999142 120.0
3.86299991608 1.5720000267 1.33200001717 116.0
3.89599990845 1.55700004101 1.3409999609 115.0
3.85700011253 1.51300001144 1.32500004768 115.0
3.91799998283 1.50899994373 1.34300005436 111.0
3.9509999752 1.49399995804 1.35199999809 123.0
3.88499999046 1.44200003147 1.32700002193 111.0
3.91599988937 1.42499995232 1.33500003815 109.0
3.90599989891 1.39400005341 1.32899999619 115.0
3.89100003242 1.36199998856 1.32099997997 113.0
3.94000005722 1.35199999809 1.33599996567 114.0
3.90199995041 1.31200003624 1.32000005245 108.0
3.94600009918 1.2990000248 1.33299994469 106.0
3.96900010109 1.27999997139 1.33899998665 118.0
3.89400005341 1.22899997234 1.31099998951 110.0
3.94099998474 1.21800005436 1.32500004768 107.0
3.98099994659 1.20299994946 1.3370000124 118.0
3.91700005531 1.15799999237 1.31299996376 100.0
4.34399986267 -1.02199995518 1.45000004768 73.0
4.32700014114 -1.04600000381 1.44599997997 78.0
4.35400009155 -1.08099997044 1.45700001717 78.0
4.29600000381 -1.09399998188 1.43900001049 78.0
4.37300014496 -1.14199995995 1.46700000763 71.0
4.29099988937 -1.14800000191 1.44200003147 68.0
4.43800020218 -1.24699997902 1.4960000515 78.0
4.34000015259 -1.24800002575 1.46500003338 70.0
4.33300018311 -1.27400004864 1.46500003338 72.0
4.35400009155 -1.30999994278 1.47500002384 71.0
4.46000003815 -1.37199997902 1.51300001144 68.0
2.44899988174 -1.21399998665 0.879999995232 116.0
2.42199993134 -1.22000002861 0.873000025749 131.0
1.18099999428 -0.649999976158 0.430999994278 87.0
3.117000103 1.64999997616 1.09500002861 100.0
3.10599994659 1.61899995804 1.08800005913 98.0
3.55999994278 1.74199998379 1.23399996758 130.0
3.64599990845 1.75499999523 1.25999999046 95.0
3.84699988365 1.8220000267 1.32700002193 79.0
3.84999990463 1.79400002956 1.32500004768 79.0
3.84899997711 1.76400005817 1.32099997997 95.0
3.84299993515 1.73199999332 1.31599998474 128.0
3.87700009346 1.71800005436 1.32400000095 120.0
3.89899992943 1.69799995422 1.32899999619 122.0
3.91000008583 1.6740000248 1.33000004292 117.0
3.86500000954 1.62600004673 1.31099998951 114.0
3.86999988556 1.60000002384 1.30999994278 117.0
3.87700009346 1.57400000095 1.30999994278 124.0
3.89299988747 1.5529999733 1.31200003624 112.0
3.86800003052 1.51499998569 1.30099999905 112.0
3.89599990845 1.49800002575 1.30799996853 112.0
3.92600011826 1.48099994659 1.31599998474 114.0
3.95799994469 1.4659999609 1.32400000095 122.0
3.87400007248 1.40699994564 1.29400002956 123.0
3.90899991989 1.39300000668 1.3029999733 113.0
3.89100003242 1.35899996758 1.29400002956 121.0
3.96099996567 1.35599994659 1.31500005722 113.0
3.95199990273 1.3259999752 1.30999994278 115.0
3.95499992371 1.29999995232 1.30900001526 109.0
3.96000003815 1.27499997616 1.30900001526 113.0
3.94899988174 1.24399995804 1.3029999733 115.0
3.93799996376 1.21399998665 1.29700005054 112.0
3.97799992561 1.20000004768 1.30799996853 109.0
3.95199990273 1.16600000858 1.29799997807 86.0
4.30000019073 -1.00999999046 1.40600001812 71.0
4.24499988556 -1.02400004864 1.38999998569 77.0
4.36299991608 -1.08099997044 1.42999994755 78.0
4.33900022507 -1.10300004482 1.4240000248 73.0
4.26800012589 -1.11300003529 1.40299999714 75.0
4.35799980164 -1.16499996185 1.43499994278 75.0
4.33500003815 -1.18700003624 1.42999994755 74.0
4.26399993896 -1.19500005245 1.40799999237 67.0
4.34600019455 -1.24699997902 1.43799996376 69.0
4.37300014496 -1.2840000391 1.44900000095 66.0
2.48399996758 -1.23000001907 0.874000012875 97.0
2.36899995804 -1.19099998474 0.836000025272 99.0
1.15299999714 -0.614000022411 0.409999996424 90.0
1.22800004482 -0.665000021458 0.437999993563 90.0
1.1740000248 -0.644999980927 0.419999986887 98.0
1.14199995995 -0.637000024319 0.409999996424 100.0
1.15400004387 -0.653999984264 0.416000008583 87.0
3.07100009918 1.62199997902 1.05599999428 107.0
3.08500003815 1.60500001907 1.05799996853 109.0
3.17000007629 1.62300002575 1.08399999142 90.0
3.55500006676 1.76400005817 1.21000003815 95.0
3.5759999752 1.7460000515 1.21399998665 128.0
3.54399991035 1.70299994946 1.20000004768 105.0
3.61400008202 1.67999994755 1.21700000763 78.0
3.86800003052 1.76900005341 1.29999995232 97.0
3.82800006866 1.72200000286 1.28299999237 118.0
3.83899998665 1.69799995422 1.2840000391 125.0
3.84899997711 1.67299997807 1.2840000391 120.0
3.88100004196 1.6590000391 1.29200005531 117.0
3.88199996948 1.62999999523 1.28999996185 119.0
3.8900001049 1.60500001907 1.28999996185 120.0
3.85299992561 1.56200003624 1.27499997616 116.0
3.87800002098 1.54400002956 1.27999997139 117.0
3.8710000515 1.51300001144 1.27499997616 109.0
3.90599989891 1.49899995327 1.28499996662 115.0
3.91599988937 1.47500002384 1.28499996662 120.0
3.92300009727 1.45000004768 1.28499996662 122.0
3.91300010681 1.41900002956 1.27900004387 120.0
3.97000002861 1.41199994087 1.29600000381 115.0
3.93300008774 1.3710000515 1.28100001812 115.0
3.95199990273 1.35000002384 1.28499996662 116.0
3.94400000572 1.32099997997 1.28100001812 112.0
3.94600009918 1.29499995708 1.27900004387 113.0
3.89700007439 1.25199997425 1.26100003719 114.0
3.96099996567 1.2460000515 1.27999997139 109.0
3.97799992561 1.22500002384 1.28299999237 108.0
3.93099999428 1.18400001526 1.26600003242 113.0
3.96399998665 1.16700005531 1.27499997616 91.0
4.35200023651 -1.02100002766 1.39400005341 73.0
4.28900003433 -1.03299999237 1.375 71.0
4.28399991989 -1.05999994278 1.37600004673 84.0
4.35400009155 -1.10500001907 1.39999997616 77.0
4.3220000267 -1.125 1.39199995995 68.0
4.3220000267 -1.15299999714 1.39400005341 68.0
4.35099983215 -1.18900001049 1.40600001812 71.0
4.37799978256 -1.2539999485 1.41799998283 75.0
0.945999979973 -0.358000010252 0.312000006437 74.0
0.853999972343 -0.328999996185 0.282000005245 101.0
0.949999988079 -0.372999995947 0.314999997616 109.0
0.929000020027 -0.372000008821 0.308999985456 124.0
0.930999994278 -0.379000008106 0.310000002384 119.0
0.944000005722 -0.391000002623 0.314999997616 146.0
0.934000015259 -0.393999993801 0.312999993563 121.0
0.925999999046 -0.397000014782 0.310000002384 124.0
1.00699996948 -0.439999997616 0.338999986649 120.0
1.23199999332 -0.646000027657 0.428000003099 93.0
1.18799996376 -0.632000029087 0.41400000453 99.0
1.16100001335 -0.626999974251 0.405999988317 94.0
1.1210000515 -0.615000009537 0.393000006676 87.0
1.19299995899 -0.663999974728 0.419999986887 84.0
1.20299994946 -0.689999997616 0.425999999046 91.0
1.37800002098 -0.804000020027 0.490000009537 91.0
3.02999997139 1.59800004959 1.01999998093 118.0
3.125 1.62300002575 1.0490000248 98.0
3.28299999237 1.6779999733 1.09899997711 95.0
3.54999995232 1.78600001335 1.18599998951 92.0
3.54600000381 1.75600004196 1.18099999428 106.0
3.54800009727 1.72899997234 1.17900002003 126.0
3.65799999237 1.7539999485 1.2120000124 84.0
3.78699994087 1.72899997234 1.2460000515 103.0
3.7990000248 1.70500004292 1.24699997902 128.0
3.8710000515 1.70899999142 1.26800000668 125.0
3.91599988937 1.69900000095 1.27900004387 114.0
3.86899995804 1.64999997616 1.26100003719 122.0
3.88199996948 1.62699997425 1.26300001144 117.0
3.92300009727 1.61600005627 1.27300000191 119.0
3.91499996185 1.58399999142 1.26800000668 111.0
3.83599996567 1.52400004864 1.24000000954 109.0
3.91199994087 1.52600002289 1.26199996471 118.0
3.91199994087 1.49800002575 1.25899994373 118.0
3.8789999485 1.45799994469 1.2460000515 115.0
3.91700005531 1.44500005245 1.25600004196 114.0
3.90499997139 1.4129999876 1.25 121.0
3.93899989128 1.39800000191 1.25800001621 116.0
3.91000008583 1.36099994183 1.24699997902 106.0
3.88499999046 1.32500004768 1.23699998856 121.0
3.89899992943 1.30400002003 1.23899996281 118.0
3.93600010872 1.28900003433 1.24899995327 114.0
3.9430000782 1.26400005817 1.24899995327 116.0
3.91400003433 1.22899997234 1.23800003529 114.0
3.98099994659 1.22300004959 1.25699996948 111.0
3.9319999218 1.18200004101 1.24000000954 112.0
3.99000000954 1.17299997807 1.25600004196 85.0
4.36199998856 -1.02199995518 1.36800003052 68.0
4.30200004578 -1.03499996662 1.35099995136 75.0
4.28599977493 -1.05799996853 1.34800004959 72.0
4.33300018311 -1.09800004959 1.36500000954 71.0
4.28499984741 -1.11399996281 1.35099995136 67.0
4.41900014877 -1.17700004578 1.39600002766 77.0
4.34399986267 -1.18599998951 1.37399995327 65.0
0.998000025749 -0.321999996901 0.317000001669 89.0
1.00999999046 -0.333000004292 0.321999996901 103.0
0.990999996662 -0.333000004292 0.316000014544 93.0
0.977999985218 -0.33599999547 0.312999993563 90.0
0.961000025272 -0.33599999547 0.307999998331 97.0
0.995000004768 -0.354999989271 0.319999992847 103.0
0.95300000906 -0.347000002861 0.307000011206 110.0
0.967999994755 -0.358999997377 0.312000006437 125.0
0.98400002718 -0.372000008821 0.317999988794 128.0
0.935000002384 -0.360000014305 0.303000003099 138.0
0.959999978542 -0.375999987125 0.31099998951 276.0
0.943000018597 -0.377000004053 0.307000011206 497.0
0.949000000954 -0.386000007391 0.308999985456 301.0
0.949000000954 -0.393000006676 0.310000002384 198.0
0.930000007153 -0.391999989748 0.305000007153 184.0
0.95300000906 -0.407999992371 0.312999993563 195.0
0.939999997616 -0.409999996424 0.308999985456 194.0
0.933000028133 -0.41400000453 0.307999998331 180.0
0.949999988079 -0.428000003099 0.31400001049 152.0
0.921000003815 -0.42199999094 0.305000007153 127.0
0.971000015736 -0.45300000906 0.323000013828 113.0
0.949999988079 -0.451000005007 0.317000001669 119.0
0.912999987602 -0.439999997616 0.305000007153 105.0
1.13999998569 -0.587000012398 0.386000007391 90.0
1.18099999428 -0.616999983788 0.400999993086 94.0
1.24899995327 -0.663999974728 0.425999999046 94.0
1.28100001812 -0.690999984741 0.43900001049 98.0
1.06799995899 -0.583999991417 0.365999996662 89.0
1.23300004005 -0.695999979973 0.425999999046 96.0
1.18599998951 -0.680000007153 0.411000013351 98.0
1.15499997139 -0.671000003815 0.400999993086 88.0
3.04800009727 1.60399997234 1.0039999485 112.0
3.11999988556 1.61600005627 1.02400004864 97.0
3.32100009918 1.69400000572 1.08800005913 84.0
3.46499991417 1.74000000954 1.13199996948 112.0
3.5680000782 1.76400005817 1.1629999876 117.0
3.57699990273 1.74000000954 1.1629999876 116.0
3.50500011444 1.6779999733 1.13600003719 79.0
3.64499998093 1.68900001049 1.17599999905 79.0
3.80399990082 1.73300004005 1.22399997711 110.0
3.79800009727 1.70200002193 1.22000002861 128.0
3.80500006676 1.67599999905 1.21899998188 129.0
3.80900001526 1.64999997616 1.21800005436 119.0
3.86400008202 1.64499998093 1.23199999332 115.0
3.85800004005 1.61399996281 1.22800004482 118.0
3.89199995995 1.60000002384 1.23599994183 116.0
3.89199995995 1.5720000267 1.23300004005 108.0
3.89400005341 1.54499995708 1.23199999332 118.0
3.90100002289 1.51999998093 1.23099994659 118.0
3.882999897 1.48500001431 1.22300004959 115.0
3.92499995232 1.47300004959 1.23399996758 121.0
3.88000011444 1.42900002003 1.21700000763 114.0
3.91799998283 1.41499996185 1.22699999809 116.0
3.90700006485 1.38399994373 1.22200000286 108.0
3.86500000954 1.34300005436 1.20599997044 115.0
3.86400008202 1.31599998474 1.20399999619 110.0
3.92000007629 1.30799996853 1.21899998188 115.0
3.92600011826 1.28299999237 1.21899998188 117.0
3.98099994659 1.27400004864 1.23399996758 123.0
3.87400007248 1.21399998665 1.19900000095 117.0
3.97300004959 1.21800005436 1.22800004482 110.0
3.86599993706 1.15999996662 1.19299995899 110.0
4.00500011444 1.17499995232 1.23399996758 104.0
4.38899993896 -1.05400002003 1.34899997711 64.0
4.3109998703 -1.0909999609 1.32899999619 64.0
4.2389998436 -1.10000002384 1.30799996853 65.0
4.17700004578 -1.11099994183 1.29100000858 66.0
0.991999983788 -0.300000011921 0.307000011206 68.0
0.995000004768 -0.307000011206 0.308999985456 99.0
1.0340000391 -0.326999992132 0.321000009775 105.0
1.01800000668 -0.32800000906 0.317000001669 110.0
1.01100003719 -0.333000004292 0.314999997616 122.0
0.998000025749 -0.335000008345 0.312000006437 117.0
0.989000022411 -0.338999986649 0.310000002384 121.0
0.98299998045 -0.344000011683 0.307999998331 132.0
0.980000019073 -0.349000006914 0.307999998331 138.0
0.962000012398 -0.349000006914 0.303000003099 125.0
0.921000003815 -0.340999990702 0.289999991655 115.0
0.945999979973 -0.356999993324 0.298999994993 133.0
0.938000023365 -0.360000014305 0.29699999094 172.0
0.962999999523 -0.377000004053 0.305999994278 345.0
0.93900001049 -0.374000012875 0.298999994993 1161.0
0.930999994278 -0.377999991179 0.29699999094 623.0
0.925999999046 -0.38299998641 0.296000003815 230.0
0.916000008583 -0.384999990463 0.293000012636 154.0
0.930000007153 -0.398000001907 0.298999994993 146.0
0.938000023365 -0.407999992371 0.301999986172 169.0
0.926999986172 -0.409999996424 0.298999994993 176.0
0.938000023365 -0.42199999094 0.303999990225 163.0
0.954999983311 -0.437999993563 0.310000002384 146.0
0.940999984741 -0.437999993563 0.305999994278 144.0
0.947000026703 -0.448000013828 0.308999985456 156.0
0.927999973297 -0.446000009775 0.303999990225 165.0
0.930000007153 -0.453999996185 0.305000007153 161.0
0.950999975204 -0.472000002861 0.312999993563 141.0
0.933000028133 -0.470999985933 0.307999998331 127.0
0.949999988079 -0.486999988556 0.31400001049 84.0
1.26400005817 -0.660000026226 0.421000003815 80.0
1.10000002384 -0.583000004292 0.36700001359 85.0
1.23899996281 -0.666999995708 0.414999991655 89.0
1.27300000191 -0.695999979973 0.428000003099 84.0
1.25800001621 -0.699000000954 0.423999994993 94.0
1.17100000381 -0.660000026226 0.395999997854 94.0
1.22699999809 -0.702000021935 0.416000008583 109.0
3.06200003624 1.60800004005 0.986000001431 102.0
3.1210000515 1.61399996281 1.00199997425 86.0
3.45700001717 1.75999999046 1.10800004005 81.0
3.49399995804 1.75100004673 1.11699998379 120.0
3.5529999733 1.75300002098 1.13300001621 130.0
3.47900009155 1.68900001049 1.10599994659 108.0
3.79200005531 1.81200003624 1.20299994946 77.0
3.69199991226 1.73500001431 1.16799998283 76.0
3.74900007248 1.73399996758 1.18299996853 79.0
3.81200003624 1.73399996758 1.20000004768 115.0
3.85700011253 1.72500002384 1.2120000124 119.0
3.85400009155 1.69500005245 1.20799994469 114.0
3.84599995613 1.6629999876 1.20299994946 124.0
3.88199996948 1.64999997616 1.21099996567 125.0
3.90100002289 1.6289999485 1.21399998665 119.0
3.92600011826 1.61099994183 1.22000002861 116.0
3.85299992561 1.5529999733 1.19400000572 110.0
3.87800002098 1.53499996662 1.20000004768 113.0
3.95000004768 1.53600001335 1.22000002861 120.0
3.92100000381 1.49699997902 1.20799994469 112.0
3.89899992943 1.46099996567 1.19900000095 118.0
3.87700009346 1.42499995232 1.19000005722 116.0
3.94199991226 1.42200005054 1.20799994469 125.0
3.95499992371 1.39900004864 1.21000003815 117.0
3.92700004578 1.36199998856 1.19900000095 114.0
3.91899991035 1.33200001717 1.19400000572 119.0
3.91899991035 1.30499994755 1.19200003147 118.0
3.97600007057 1.29799997807 1.20799994469 112.0
3.94099998474 1.25899994373 1.19500005245 118.0
3.96700000763 1.24100005627 1.2009999752 117.0
3.91000008583 1.1970000267 1.18200004101 110.0
3.90400004387 1.16900002956 1.17900002003 113.0
3.90199995041 1.14300000668 1.17599999905 85.0
1.07000005245 -0.316000014544 0.324000000954 81.0
1.04100000858 -0.31400001049 0.316000014544 95.0
1.01600003242 -0.312999993563 0.307999998331 117.0
0.991999983788 -0.312999993563 0.301999986172 136.0
0.985000014305 -0.317000001669 0.300000011921 134.0
0.987999975681 -0.324999988079 0.300999999046 146.0
0.992999970913 -0.333000004292 0.303999990225 157.0
0.999000012875 -0.342000007629 0.305999994278 165.0
0.975000023842 -0.340000003576 0.298999994993 165.0
0.971000015736 -0.345999985933 0.298999994993 153.0
0.959999978542 -0.347999989986 0.296000003815 137.0
0.978999972343 -0.361999988556 0.301999986172 127.0
0.958999991417 -0.361000001431 0.29699999094 138.0
0.934000015259 -0.358000010252 0.28900000453 179.0
0.949000000954 -0.370999991894 0.294999986887 319.0
0.943000018597 -0.375 0.293999999762 603.0
0.933000028133 -0.377999991179 0.291000008583 558.0
0.93599998951 -0.386000007391 0.293000012636 260.0
0.908999979496 -0.381999999285 0.284999996424 165.0
0.944999992847 -0.404000014067 0.29699999094 155.0
0.949999988079 -0.412999987602 0.300000011921 146.0
0.943000018597 -0.416999995708 0.298000007868 138.0
0.934000015259 -0.419999986887 0.296000003815 127.0
0.926999986172 -0.423000007868 0.293999999762 111.0
0.921000003815 -0.428000003099 0.293000012636 109.0
0.925000011921 -0.437000006437 0.294999986887 107.0
0.958999991417 -0.46099999547 0.307000011206 122.0
0.938000023365 -0.456999987364 0.300999999046 138.0
0.949999988079 -0.470999985933 0.305999994278 179.0
0.966000020504 -0.486999988556 0.312000006437 172.0
0.93900001049 -0.479999989271 0.303999990225 126.0
0.994000017643 -0.51700001955 0.323000013828 86.0
1.13100004196 -0.60799998045 0.370000004768 93.0
1.17700004578 -0.64200001955 0.386999994516 96.0
1.1779999733 -0.652000010014 0.388000011444 86.0
1.19099998474 -0.670000016689 0.393999993801 134.0
1.24300003052 -0.709999978542 0.412999987602 246.0
1.47800004482 -0.85799998045 0.493000000715 140.0
3.08400011063 1.61699998379 0.971000015736 109.0
3.1930000782 1.64800000191 1.00300002098 84.0
3.48099994659 1.76900005341 1.09000003338 97.0
3.5039999485 1.75300002098 1.09500002861 116.0
3.56100010872 1.7539999485 1.11000001431 121.0
3.56100010872 1.72599995136 1.10699999332 98.0
3.72699999809 1.74899995327 1.15299999714 79.0
3.80399990082 1.75600004196 1.1740000248 82.0
3.81699991226 1.73300004005 1.17499995232 129.0
3.88199996948 1.73300004005 1.19200003147 118.0
3.82999992371 1.68099999428 1.1740000248 120.0
3.9470000267 1.70299994946 1.20700001717 117.0
3.89499998093 1.65199995041 1.18799996376 124.0
3.88499999046 1.62000000477 1.18299996853 120.0
3.89899992943 1.59700000286 1.18499994278 115.0
3.9319999218 1.58200001717 1.19200003147 116.0
3.9240000248 1.55099999905 1.18700003624 104.0
3.89299988747 1.51100003719 1.17499995232 119.0
3.9279999733 1.4960000515 1.18400001526 113.0
3.89899992943 1.45799994469 1.17299997807 123.0
3.89599990845 1.42999994755 1.16999995708 120.0
3.94600009918 1.41999995708 1.18200004101 109.0
3.92300009727 1.38499999046 1.17299997807 116.0
3.84800004959 1.33200001717 1.14900004864 116.0
3.93499994278 1.33500003815 1.17299997807 110.0
3.96900010109 1.32000005245 1.18099999428 118.0
3.95000004768 1.28699994087 1.1740000248 112.0
3.95700001717 1.26199996471 1.1740000248 118.0
3.93300008774 1.22800004482 1.16499996185 108.0
3.95399999619 1.20899999142 1.16900002956 110.0
3.89199995995 1.16400003433 1.14900004864 109.0
1.00999999046 -0.0839999988675 0.287999987602 64.0
1.09300005436 -0.097999997437 0.312000006437 64.0
1.06599998474 -0.101999998093 0.305000007153 63.0
1.05599999428 -0.11400000006 0.301999986172 71.0
1.03499996662 -0.116999998689 0.296000003815 71.0
0.972999989986 -0.115999996662 0.277999997139 65.0
0.995999991894 -0.136999994516 0.286000013351 57.0
1.07099997997 -0.153999999166 0.307999998331 64.0
1.02900004387 -0.159999996424 0.296000003815 57.0
1.01300001144 -0.16400000453 0.291999995708 61.0
0.972000002861 -0.273000001907 0.286000013351 72.0
1.05900001526 -0.305999994278 0.312999993563 84.0
1.02600002289 -0.303000003099 0.303999990225 83.0
1.02699995041 -0.308999985456 0.303999990225 86.0
1.02999997139 -0.317000001669 0.305999994278 98.0
0.981000006199 -0.308999985456 0.291999995708 116.0
1.01199996471 -0.324999988079 0.301999986172 131.0
1.02400004864 -0.33599999547 0.305999994278 140.0
0.955999970436 -0.319999992847 0.286000013351 143.0
0.978999972343 -0.333999991417 0.293000012636 156.0
0.973999977112 -0.338999986649 0.291999995708 170.0
0.985000014305 -0.34999999404 0.296000003815 179.0
0.961000025272 -0.347999989986 0.289999991655 161.0
0.992999970913 -0.36700001359 0.300000011921 143.0
0.964999973774 -0.363000005484 0.291999995708 164.0
0.948000013828 -0.363000005484 0.287000000477 170.0
0.958999991417 -0.374000012875 0.291000008583 322.0
0.939999997616 -0.374000012875 0.286000013351 795.0
0.934000015259 -0.377999991179 0.284999996424 642.0
0.930000007153 -0.38299998641 0.284000009298 315.0
0.958999991417 -0.402000010014 0.293999999762 181.0
0.950999975204 -0.405000001192 0.291999995708 183.0
0.953999996185 -0.41400000453 0.293999999762 158.0
0.957000017166 -0.42199999094 0.296000003815 154.0
0.922999978065 -0.41400000453 0.286000013351 146.0
0.941999971867 -0.430000007153 0.293000012636 145.0
0.936999976635 -0.435000002384 0.291999995708 135.0
0.899999976158 -0.423999994993 0.280999988317 113.0
0.92199999094 -0.442000001669 0.28900000453 104.0
0.927999973297 -0.451999992132 0.291000008583 101.0
1.00499999523 -0.497999995947 0.317000001669 111.0
0.939999997616 -0.472999989986 0.29699999094 140.0
0.96899998188 -0.495000004768 0.307000011206 138.0
0.943000018597 -0.488999992609 0.300000011921 102.0
1.12600004673 -0.603999972343 0.361000001431 86.0
1.20000004768 -0.653999984264 0.386000007391 101.0
1.19000005722 -0.657999992371 0.38299998641 144.0
1.22899997234 -0.689999997616 0.398000001907 275.0
1.22500002384 -0.698000013828 0.398000001907 424.0
1.39400005341 -0.806999981403 0.453999996185 232.0
2.97499990463 1.58099997044 0.917999982834 96.0
3.09200000763 1.61800003052 0.952000021935 106.0
3.13800001144 1.61699998379 0.962999999523 85.0
3.41899991035 1.73500001431 1.04700005054 104.0
3.4849998951 1.74100005627 1.06400001049 119.0
3.53099989891 1.73599994183 1.0759999752 122.0
3.46799993515 1.6779999733 1.05400002003 101.0
3.75900006294 1.73199999332 1.13399994373 88.0
3.8259999752 1.73399996758 1.15100002289 124.0
3.81399989128 1.70000004768 1.14499998093 121.0
3.83200001717 1.67999994755 1.14800000191 116.0
3.83299994469 1.65100002289 1.14499998093 127.0
3.79699993134 1.60800004005 1.13199996948 125.0
3.8900001049 1.61899995804 1.15799999237 111.0
3.867000103 1.58099997044 1.14800000191 123.0
3.88499999046 1.56099998951 1.15100002289 121.0
3.83999991417 1.51499998569 1.13499999046 114.0
3.86599993706 1.49800002575 1.14100003242 111.0
3.90799999237 1.48599994183 1.15100002289 114.0
3.867000103 1.44400000572 1.13699996471 119.0
3.89299988747 1.42599999905 1.14300000668 117.0
3.875 1.39300000668 1.13499999046 121.0
3.92000007629 1.38199996948 1.14600002766 115.0
3.87400007248 1.33899998665 1.13100004196 114.0
3.91799998283 1.32700002193 1.14199995995 116.0
3.87199997902 1.28499996662 1.12600004673 113.0
3.94899988174 1.2840000391 1.14699995518 113.0
3.95700001717 1.25999999046 1.14699995518 117.0
3.95799994469 1.23399996758 1.14600002766 111.0
3.9430000782 1.20299994946 1.13999998569 119.0
3.98600006104 1.19000005722 1.15100002289 106.0
1.0379999876 -0.0799999982119 0.28900000453 81.0
1.00199997425 -0.082999996841 0.279000014067 138.0
0.990000009537 -0.0879999995232 0.275999993086 140.0
1.01499998569 -0.097000002861 0.282999992371 106.0
0.989000022411 -0.10000000149 0.275999993086 93.0
1.0039999485 -0.108000002801 0.280000001192 90.0
0.976000010967 -0.109999999404 0.273000001907 92.0
0.953999996185 -0.112999998033 0.266999989748 99.0
0.972999989986 -0.122000001371 0.272000014782 98.0
0.981000006199 -0.128999993205 0.27500000596 99.0
0.952000021935 -0.129999995232 0.266999989748 102.0
0.986000001431 -0.141000002623 0.277000010014 100.0
0.991999983788 -0.148000001907 0.279000014067 96.0
0.986000001431 -0.152999997139 0.277000010014 105.0
0.96899998188 -0.156000003219 0.273000001907 98.0
1.01400005817 -0.170000001788 0.286000013351 95.0
0.964999973774 -0.167999997735 0.272000014782 103.0
1.00800001621 -0.180999994278 0.284999996424 108.0
0.981000006199 -0.181999996305 0.277000010014 104.0
1.00199997425 -0.193000003695 0.282999992371 103.0
0.985000014305 -0.194999992847 0.279000014067 100.0
0.990000009537 -0.202999994159 0.280999988317 99.0
0.962000012398 -0.202999994159 0.273000001907 98.0
0.987999975681 -0.215000003576 0.280999988317 93.0
0.953999996185 -0.212999999523 0.270999997854 94.0
0.949000000954 -0.217999994755 0.270000010729 93.0
0.90600001812 -0.21400000155 0.25799998641 86.0
0.938000023365 -0.226999998093 0.268000006676 84.0
0.884000003338 -0.218999996781 0.252000004053 88.0
0.916999995708 -0.233999997377 0.261999994516 87.0
0.852999985218 -0.223000004888 0.244000002742 82.0
0.954999983311 -0.256000012159 0.273999989033 104.0
0.944000005722 -0.259000003338 0.272000014782 94.0
1.02600002289 -0.287999987602 0.296000003815 91.0
1.00300002098 -0.28900000453 0.289999991655 89.0
0.998000025749 -0.293999999762 0.28900000453 96.0
1.00600004196 -0.303000003099 0.291999995708 87.0
1.00199997425 -0.307999998331 0.291000008583 92.0
0.995000004768 -0.312000006437 0.28900000453 102.0
1.00100004673 -0.321000009775 0.291000008583 105.0
1.00100004673 -0.32800000906 0.291999995708 122.0
0.98299998045 -0.328999996185 0.287000000477 125.0
0.978999972343 -0.333999991417 0.287000000477 144.0
0.971000015736 -0.337999999523 0.284999996424 156.0
0.961000025272 -0.340999990702 0.282999992371 166.0
0.96899998188 -0.34999999404 0.284999996424 151.0
0.955999970436 -0.352999985218 0.282000005245 143.0
0.967999994755 -0.363999992609 0.286000013351 141.0
0.954999983311 -0.365000009537 0.282999992371 162.0
0.953999996185 -0.372000008821 0.284000009298 269.0
0.957000017166 -0.379999995232 0.284999996424 720.0
0.941999971867 -0.379999995232 0.280999988317 677.0
0.949999988079 -0.391000002623 0.284000009298 324.0
0.943000018597 -0.395000010729 0.282999992371 202.0
0.948000013828 -0.404000014067 0.284999996424 175.0
0.927999973297 -0.402000010014 0.279000014067 167.0
0.959999978542 -0.423000007868 0.289999991655 161.0
0.940999984741 -0.42199999094 0.284999996424 151.0
0.93900001049 -0.428000003099 0.284999996424 153.0
0.944999992847 -0.437999993563 0.287999987602 145.0
0.925999999046 -0.43599998951 0.282999992371 134.0
0.916999995708 -0.43900001049 0.280999988317 122.0
0.952000021935 -0.462999999523 0.291999995708 110.0
0.961000025272 -0.47499999404 0.296000003815 110.0
0.938000023365 -0.470999985933 0.28900000453 118.0
0.927999973297 -0.472999989986 0.287000000477 103.0
0.943000018597 -0.488999992609 0.293000012636 98.0
1.00699996948 -0.52999997139 0.31400001049 89.0
1.2460000515 -0.677999973297 0.391999989748 138.0
1.24399995804 -0.686999976635 0.391999989748 278.0
1.22000002861 -0.684000015259 0.386000007391 461.0
1.22800004482 -0.699000000954 0.389999985695 539.0
1.3220000267 -0.763999998569 0.421000003815 304.0
3.06599998474 1.62699997425 0.924000024796 99.0
3.15000009537 1.64600002766 0.947000026703 109.0
3.15499997139 1.62300002575 0.945999979973 93.0
3.43899989128 1.74199998379 1.02900004387 100.0
3.52500009537 1.75800001621 1.05200004578 132.0
3.51699995995 1.72599995136 1.04600000381 118.0
3.78200006485 1.76800000668 1.11699998379 78.0
3.84299993515 1.76800000668 1.13300001621 90.0
3.76900005341 1.70500004292 1.10800004005 122.0
3.83899998665 1.70799994469 1.12600004673 126.0
3.86999988556 1.69299995899 1.13199996948 124.0
3.8710000515 1.66499996185 1.12999999523 119.0
3.89599990845 1.64699995518 1.13499999046 116.0
3.8259999752 1.59000003338 1.11199998856 124.0
3.89700007439 1.5909999609 1.13100004196 117.0
3.88100004196 1.55599999428 1.12399995327 111.0
3.88199996948 1.52900004387 1.12199997902 122.0
3.89100003242 1.50499999523 1.12199997902 121.0
3.9279999733 1.49199998379 1.13100004196 120.0
3.88199996948 1.4470000267 1.11500000954 117.0
3.91499996185 1.43200004101 1.12199997902 114.0
3.90599989891 1.40199995041 1.11800003052 122.0
3.86999988556 1.36199998856 1.10599994659 117.0
3.9470000267 1.36199998856 1.12600004673 117.0
3.96000003815 1.33899998665 1.12800002098 117.0
3.92199993134 1.29999995232 1.11500000954 121.0
3.91300010681 1.27100002766 1.11099994183 121.0
3.88499999046 1.23500001431 1.10099995136 114.0
3.87800002098 1.20700001717 1.09700000286 110.0
3.86100006104 1.17599999905 1.0909999609 108.0
3.95199990273 1.1779999733 1.11500000954 100.0
1.03499996662 -0.0799999982119 0.282000005245 102.0
0.986000001431 -0.082000002265 0.268999993801 358.0
0.978999972343 -0.0869999974966 0.266999989748 297.0
0.976000010967 -0.0930000022054 0.266000002623 140.0
0.958000004292 -0.097000002861 0.261000007391 103.0
1.00199997425 -0.107000000775 0.273999989033 99.0
0.994000017643 -0.112000003457 0.272000014782 96.0
0.998000025749 -0.119000002742 0.273000001907 104.0
0.999000012875 -0.125 0.273000001907 99.0
0.981999993324 -0.128999993205 0.268999993801 101.0
0.967999994755 -0.133000001311 0.264999985695 101.0
1.00100004673 -0.143000006676 0.27500000596 99.0
0.958999991417 -0.143000006676 0.263000011444 102.0
0.986999988556 -0.152999997139 0.270999997854 103.0
0.976000010967 -0.157000005245 0.268000006676 100.0
0.967999994755 -0.162000000477 0.266000002623 102.0
0.981999993324 -0.170000001788 0.270999997854 109.0
0.981000006199 -0.175999999046 0.270999997854 107.0
0.989000022411 -0.184000000358 0.273000001907 102.0
0.980000019073 -0.187999993563 0.270999997854 104.0
0.926999986172 -0.182999998331 0.256000012159 107.0
0.975000023842 -0.199000000954 0.270000010729 105.0
1.0039999485 -0.211999997497 0.279000014067 104.0
0.978999972343 -0.211999997497 0.272000014782 107.0
0.939999997616 -0.209999993443 0.261000007391 112.0
0.961000025272 -0.219999998808 0.266999989748 111.0
0.97000002861 -0.229000002146 0.270000010729 113.0
0.981999993324 -0.238000005484 0.273999989033 105.0
0.975000023842 -0.241999998689 0.272000014782 114.0
0.957000017166 -0.244000002742 0.268000006676 105.0
0.916000008583 -0.238999992609 0.256999999285 100.0
0.934000015259 -0.25 0.261999994516 103.0
0.953999996185 -0.261000007391 0.268000006676 109.0
0.963999986649 -0.270000010729 0.270999997854 107.0
0.976999998093 -0.280000001192 0.275999993086 102.0
0.927999973297 -0.272000014782 0.261999994516 105.0
0.944999992847 -0.284000009298 0.266999989748 108.0
0.929000020027 -0.284999996424 0.263000011444 105.0
0.972000002861 -0.305000007153 0.275999993086 112.0
0.957000017166 -0.305999994278 0.272000014782 112.0
0.962000012398 -0.314999997616 0.273999989033 100.0
0.925000011921 -0.308999985456 0.263999998569 99.0
0.936999976635 -0.319000005722 0.268000006676 101.0
0.96899998188 -0.337000012398 0.277999997139 108.0
0.922999978065 -0.326999992132 0.264999985695 107.0
0.981000006199 -0.354000002146 0.282999992371 98.0
0.973999977112 -0.358999997377 0.280999988317 99.0
0.935000002384 -0.351000010967 0.270000010729 108.0
0.967000007629 -0.368999987841 0.280000001192 119.0
0.944000005722 -0.36700001359 0.273999989033 138.0
0.944000005722 -0.374000012875 0.27500000596 204.0
0.953999996185 -0.384999990463 0.277999997139 247.0
0.967000007629 -0.397000014782 0.282999992371 174.0
0.940999984741 -0.393000006676 0.275999993086 143.0
0.945999979973 -0.402000010014 0.277999997139 145.0
0.963999986649 -0.416999995708 0.284000009298 145.0
0.986999988556 -0.433999985456 0.291000008583 145.0
0.977999985218 -0.437999993563 0.289999991655 141.0
0.93599998951 -0.425999999046 0.277999997139 139.0
0.926999986172 -0.428999990225 0.275999993086 123.0
0.907999992371 -0.426999986172 0.270999997854 130.0
0.95300000906 -0.455000013113 0.284999996424 109.0
0.925999999046 -0.449999988079 0.277999997139 111.0
0.940999984741 -0.463999986649 0.282999992371 120.0
0.934000015259 -0.467999994755 0.282000005245 108.0
0.944000005722 -0.481000006199 0.286000013351 92.0
0.949000000954 -0.490999996662 0.287999987602 93.0
0.976999998093 -0.513999998569 0.298000007868 84.0
1.1779999733 -0.629000008106 0.360000014305 100.0
1.23599994183 -0.671000003815 0.379999995232 221.0
1.23699998856 -0.681999981403 0.381000012159 395.0
1.23399996758 -0.690999984741 0.381000012159 528.0
1.22300004959 -0.694999992847 0.379000008106 551.0
1.25 -0.721000015736 0.388999998569 345.0
3.12400007248 1.6289999485 0.916999995708 96.0
3.25600004196 1.67200005054 0.953999996185 84.0
3.41000008583 1.72399997711 0.995999991894 108.0
3.46199989319 1.72300004959 1.00800001621 115.0
3.49799990654 1.71399998665 1.01699995995 122.0
3.60199999809 1.73699998856 1.04400002956 95.0
3.60400009155 1.71000003815 1.04200005531 78.0
3.80999994278 1.77900004387 1.09899997711 74.0
3.85299992561 1.76900005341 1.10899996758 95.0
3.85299992561 1.74000000954 1.10599994659 125.0
3.83100008965 1.70200002193 1.09700000286 120.0
3.87599992752 1.69299995899 1.10800004005 124.0
3.88199996948 1.66700005531 1.10699999332 122.0
3.87299990654 1.63499999046 1.10199999809 119.0
3.89199995995 1.61399996281 1.10500001907 126.0
3.86400008202 1.57500004768 1.09500002861 115.0
3.81699991226 1.52799999714 1.07899999619 121.0
3.87400007248 1.52400004864 1.09300005436 118.0
3.85500001907 1.48899996281 1.08599996567 121.0
3.87800002098 1.47000002861 1.09000003338 120.0
3.97600007057 1.48000001907 1.11600005627 117.0
3.90199995041 1.42499995232 1.09300005436 120.0
3.85400009155 1.38100004196 1.07700002193 114.0
3.91400003433 1.375 1.09200000763 107.0
3.91400003433 1.34899997711 1.09000003338 117.0
3.89400005341 1.31500005722 1.08299994469 121.0
3.97900009155 1.31700003147 1.10500001907 114.0
3.91499996185 1.26900005341 1.08500003815 115.0
3.9279999733 1.24699997902 1.0870000124 115.0
3.92600011826 1.22000002861 1.08500003815 112.0
3.94000005722 1.19799995422 1.0870000124 119.0
3.95499992371 1.17700004578 1.09000003338 101.0
1.01300001144 -0.0780000016093 0.270000010729 109.0
1.03199994564 -0.0860000029206 0.27500000596 201.0
1.00499999523 -0.0890000015497 0.268000006676 164.0
0.975000023842 -0.0920000001788 0.259999990463 184.0
1.00100004673 -0.101000003517 0.266999989748 102.0
1.04200005531 -0.112000003457 0.277999997139 97.0
0.976000010967 -0.109999999404 0.261000007391 96.0
0.990999996662 -0.118000000715 0.264999985695 101.0
1.02100002766 -0.12800000608 0.273000001907 102.0
0.981999993324 -0.128999993205 0.263000011444 95.0
1.00100004673 -0.136999994516 0.268000006676 98.0
0.994000017643 -0.142000004649 0.266000002623 101.0
1.00199997425 -0.149000003934 0.268999993801 104.0
0.999000012875 -0.155000001192 0.268000006676 101.0
0.998000025749 -0.16099999845 0.268000006676 105.0
0.991999983788 -0.165999993682 0.266999989748 101.0
0.972999989986 -0.168999999762 0.261999994516 101.0
0.977999985218 -0.175999999046 0.263999998569 101.0
0.98299998045 -0.182999998331 0.264999985695 97.0
0.953999996185 -0.182999998331 0.256999999285 108.0
0.981999993324 -0.194000005722 0.264999985695 106.0
0.987999975681 -0.202000007033 0.266999989748 99.0
0.981000006199 -0.206000000238 0.266000002623 99.0
0.987999975681 -0.21400000155 0.268000006676 109.0
0.987999975681 -0.219999998808 0.268000006676 103.0
0.986999988556 -0.225999996066 0.268999993801 113.0
0.967999994755 -0.228000000119 0.263999998569 109.0
0.964999973774 -0.232999995351 0.263000011444 112.0
0.93599998951 -0.231999993324 0.254999995232 108.0
0.97000002861 -0.24699999392 0.264999985695 109.0
0.975000023842 -0.254999995232 0.266999989748 107.0
0.954999983311 -0.254999995232 0.261999994516 107.0
0.981000006199 -0.268999993801 0.270000010729 105.0
0.930000007153 -0.259999990463 0.256000012159 103.0
0.962999999523 -0.275999993086 0.264999985695 100.0
0.976999998093 -0.286000013351 0.270000010729 104.0
0.98299998045 -0.294999986887 0.272000014782 103.0
0.976999998093 -0.300000011921 0.270999997854 112.0
0.972999989986 -0.305000007153 0.270000010729 106.0
0.944999992847 -0.301999986172 0.263000011444 102.0
0.963999986649 -0.314999997616 0.268000006676 104.0
0.948000013828 -0.316000014544 0.263999998569 102.0
0.93599998951 -0.317999988794 0.261000007391 104.0
0.967999994755 -0.33599999547 0.270999997854 104.0
0.915000021458 -0.324000000954 0.256999999285 100.0
0.958999991417 -0.345999985933 0.270000010729 105.0
0.944000005722 -0.347000002861 0.266000002623 100.0
0.949000000954 -0.356000006199 0.268000006676 97.0
0.959999978542 -0.365999996662 0.272000014782 105.0
0.949000000954 -0.368999987841 0.268999993801 98.0
0.941999971867 -0.372999995947 0.268000006676 95.0
0.939999997616 -0.379000008106 0.268000006676 102.0
0.940999984741 -0.386000007391 0.268000006676 99.0
0.944999992847 -0.393999993801 0.270000010729 96.0
0.987999975681 -0.419999986887 0.284000009298 100.0
0.927999973297 -0.400999993086 0.266999989748 101.0
0.944000005722 -0.414999991655 0.272000014782 103.0
0.894999980927 -0.40000000596 0.259000003338 103.0
0.887000024319 -0.402999997139 0.256999999285 96.0
0.92199999094 -0.425999999046 0.268000006676 99.0
0.958999991417 -0.449999988079 0.279000014067 98.0
0.949000000954 -0.45300000906 0.277000010014 101.0
0.93900001049 -0.455000013113 0.27500000596 94.0
0.922999978065 -0.453999996185 0.270999997854 88.0
0.925000011921 -0.462999999523 0.273000001907 97.0
0.938000023365 -0.476999998093 0.277000010014 88.0
0.916999995708 -0.474000006914 0.272000014782 91.0
0.996999979019 -0.523000001907 0.296000003815 88.0
1.23000001907 -0.657000005245 0.368000000715 83.0
1.21899998188 -0.661000013351 0.365000009537 190.0
1.22500002384 -0.674000024796 0.368999987841 313.0
1.22699999809 -0.685000002384 0.370000004768 381.0
1.22899997234 -0.697000026703 0.372000008821 409.0
1.25 -0.72000002861 0.379999995232 309.0
3.08899998665 1.63300001621 0.888000011444 116.0
3.1400001049 1.63499999046 0.899999976158 98.0
3.40799999237 1.72000002861 0.971000015736 105.0
3.48699998856 1.73300004005 0.991999983788 130.0
3.51999998093 1.72200000286 0.998000025749 117.0
3.57699990273 1.72200000286 1.01199996471 88.0
3.79200005531 1.73800003529 1.06500005722 104.0
3.882999897 1.75100004673 1.08800005913 128.0
3.85599994659 1.71000003815 1.07799994946 119.0
3.81699991226 1.66499996185 1.06500005722 119.0
3.83899998665 1.64600002766 1.06900000572 115.0
3.84100008011 1.61800003052 1.06700003147 114.0
3.86400008202 1.60000002384 1.07099997997 122.0
3.85500001907 1.56900000572 1.06599998474 117.0
3.92000007629 1.56700003147 1.08200001717 115.0
3.91199994087 1.53600001335 1.07799994946 112.0
3.94899988174 1.52199995518 1.08599996567 124.0
3.93400001526 1.48899996281 1.08000004292 119.0
3.89599990845 1.4470000267 1.06700003147 112.0
3.92300009727 1.42999994755 1.0720000267 116.0
3.91199994087 1.39900004864 1.06700003147 117.0
3.88700008392 1.36300003529 1.05900001526 116.0
3.96499991417 1.36399996281 1.07799994946 119.0
3.92899990082 1.32500004768 1.06700003147 116.0
3.95600008965 1.30700004101 1.0720000267 119.0
3.94799995422 1.27799999714 1.06799995899 124.0
3.92199993134 1.24300003052 1.05999994278 118.0
3.97900009155 1.23500001431 1.07400000095 112.0
3.93700003624 1.19599997997 1.05999994278 107.0
3.93000006676 1.16799998283 1.05700004101 96.0
0.991999983788 -0.0759999975562 0.25799998641 98.0
1.00199997425 -0.082999996841 0.259999990463 290.0
0.981000006199 -0.0869999974966 0.254999995232 652.0
0.972999989986 -0.0920000001788 0.252999991179 186.0
0.985000014305 -0.0989999994636 0.256000012159 96.0
1.00199997425 -0.107000000775 0.261000007391 97.0
0.999000012875 -0.112999998033 0.259999990463 99.0
0.975000023842 -0.115999996662 0.254000008106 100.0
0.976000010967 -0.122000001371 0.254999995232 94.0
0.999000012875 -0.130999997258 0.261000007391 100.0
0.964999973774 -0.131999999285 0.252000004053 100.0
0.98400002718 -0.141000002623 0.25799998641 99.0
0.990999996662 -0.148000001907 0.259999990463 107.0
0.96899998188 -0.15000000596 0.254000008106 99.0
1.01699995995 -0.16400000453 0.266999989748 105.0
0.972000002861 -0.162000000477 0.254999995232 101.0
0.954999983311 -0.165000006557 0.250999987125 109.0
0.96899998188 -0.173999994993 0.254999995232 106.0
0.98299998045 -0.181999996305 0.259000003338 110.0
0.978999972343 -0.187999993563 0.25799998641 105.0
0.986000001431 -0.194999992847 0.259999990463 110.0
0.962999999523 -0.195999994874 0.254000008106 107.0
0.977999985218 -0.204999998212 0.259000003338 108.0
0.948000013828 -0.204999998212 0.250999987125 109.0
0.962999999523 -0.21400000155 0.254999995232 109.0
0.96899998188 -0.222000002861 0.256999999285 106.0
0.967000007629 -0.226999998093 0.256999999285 109.0
0.978999972343 -0.236000001431 0.261000007391 113.0
0.958000004292 -0.237000003457 0.254999995232 108.0
0.936999976635 -0.238000005484 0.25 115.0
0.994000017643 -0.259000003338 0.266000002623 109.0
0.953999996185 -0.254999995232 0.256000012159 111.0
0.971000015736 -0.266000002623 0.259999990463 102.0
0.966000020504 -0.270000010729 0.259000003338 108.0
0.96899998188 -0.277000010014 0.261000007391 107.0
0.944000005722 -0.275999993086 0.254000008106 105.0
0.957000017166 -0.286000013351 0.25799998641 103.0
0.963999986649 -0.294999986887 0.261000007391 101.0
0.96899998188 -0.303000003099 0.261999994516 107.0
0.938000023365 -0.300000011921 0.254999995232 102.0
0.981999993324 -0.319999992847 0.266999989748 101.0
0.95300000906 -0.317000001669 0.259999990463 105.0
0.936999976635 -0.317999988794 0.256000012159 104.0
0.986000001431 -0.342000007629 0.270000010729 109.0
0.940999984741 -0.331999987364 0.25799998641 98.0
0.917999982834 -0.331000000238 0.252000004053 103.0
0.985000014305 -0.361999988556 0.270999997854 103.0
0.929000020027 -0.347000002861 0.256000012159 102.0
0.916000008583 -0.349000006914 0.252999991179 104.0
0.924000024796 -0.358000010252 0.256000012159 99.0
0.930000007153 -0.36700001359 0.25799998641 99.0
0.975000023842 -0.391999989748 0.270999997854 95.0
0.971000015736 -0.397000014782 0.270999997854 94.0
0.986000001431 -0.411000013351 0.275999993086 98.0
0.916999995708 -0.388000011444 0.256999999285 94.0
0.971000015736 -0.418999999762 0.273000001907 103.0
0.927999973297 -0.407000005245 0.261000007391 95.0
0.996999979019 -0.444999992847 0.280999988317 93.0
0.96899998188 -0.439999997616 0.273999989033 94.0
0.908999979496 -0.418999999762 0.25799998641 89.0
0.941999971867 -0.441000014544 0.268000006676 89.0
0.963999986649 -0.458999991417 0.27500000596 86.0
0.92199999094 -0.446000009775 0.263999998569 85.0
0.935000002384 -0.460000008345 0.268000006676 92.0
0.917999982834 -0.458999991417 0.263999998569 98.0
0.931999981403 -0.472999989986 0.268999993801 85.0
0.95300000906 -0.490999996662 0.275999993086 88.0
0.971000015736 -0.509000003338 0.282000005245 84.0
1.07299995422 -0.570999979973 0.312999993563 82.0
1.08500003815 -0.586000025272 0.317000001669 96.0
1.13399994373 -0.623000025749 0.333000004292 141.0
1.13800001144 -0.634000003338 0.335000008345 156.0
1.1779999733 -0.666999995708 0.347999989986 177.0
1.17200005054 -0.672999978065 0.347999989986 177.0
3.08699989319 1.6289999485 0.865000009537 117.0
3.11500000954 1.61899995804 0.870999991894 95.0
3.32100009918 1.70000004768 0.925999999046 85.0
3.49099993706 1.75899994373 0.971000015736 118.0
3.51799988747 1.74500000477 0.976000010967 119.0
3.49499988556 1.70599997044 0.967000007629 104.0
3.87599992752 1.77400004864 1.06200003624 107.0
3.81900000572 1.71899998188 1.04400002956 125.0
3.91300010681 1.73300004005 1.06700003147 120.0
3.84500002861 1.6740000248 1.04700005054 117.0
3.8900001049 1.66499996185 1.05599999428 119.0
3.8789999485 1.63199996948 1.05099999905 120.0
3.89700007439 1.61199998856 1.05400002003 118.0
3.88800001144 1.57899999619 1.0490000248 117.0
3.84899997711 1.53600001335 1.03699994087 124.0
3.91899991035 1.53600001335 1.0529999733 114.0
3.91100001335 1.50600004196 1.0490000248 120.0
3.84800004959 1.45399999619 1.02999997139 118.0
3.89499998093 1.44500005245 1.04100000858 115.0
3.88400006294 1.41400003433 1.03600001335 115.0
3.94199991226 1.40799999237 1.04999995232 120.0
3.85400009155 1.35000002384 1.02400004864 114.0
3.90599989891 1.3409999609 1.03600001335 121.0
3.90300011635 1.31400001049 1.0340000391 118.0
3.96199989319 1.30700004101 1.04799997807 125.0
3.95700001717 1.27900004387 1.04499995708 120.0
