ply
format ascii 1.0
element vertex 921
property float x
property float y
property float z
property float intensity
end_header
0.935000002384 -0.238000005484 0.0170000009239 207.0
0.925000011921 -0.240999996662 0.0170000009239 213.0
0.927999973297 -0.24699999392 0.0170000009239 202.0
0.940999984741 -0.256999999285 0.0170000009239 206.0
0.929000020027 -0.259000003338 0.0170000009239 213.0
0.922999978065 -0.263000011444 0.0170000009239 451.0
0.943000018597 -0.27500000596 0.0170000009239 1383.0
0.945999979973 -0.282000005245 0.0170000009239 1504.0
0.944000005722 -0.287000000477 0.0170000009239 1512.0
0.940999984741 -0.293000012636 0.0170000009239 1525.0
0.940999984741 -0.298999994993 0.0170000009239 1517.0
0.941999971867 -0.305000007153 0.0170000009239 1525.0
0.93599998951 -0.308999985456 0.0170000009239 1520.0
0.944000005722 -0.317999988794 0.0179999992251 1546.0
0.935000002384 -0.321000009775 0.0170000009239 1530.0
0.933000028133 -0.326999992132 0.0170000009239 1539.0
0.925999999046 -0.330000013113 0.0170000009239 1525.0
0.925999999046 -0.33599999547 0.0170000009239 1541.0
0.921000003815 -0.340999990702 0.0170000009239 1527.0
0.925000011921 -0.349000006914 0.0179999992251 1524.0
0.948000013828 -0.363999992609 0.0179999992251 699.0
0.930000007153 -0.363000005484 0.0179999992251 266.0
0.910000026226 -0.361999988556 0.0170000009239 249.0
0.89099997282 -0.360000014305 0.0170000009239 249.0
0.89099997282 -0.365999996662 0.0170000009239 262.0
0.90499997139 -0.379000008106 0.0179999992251 273.0
0.89099997282 -0.379000008106 0.0170000009239 279.0
0.898000001907 -0.388000011444 0.0179999992251 292.0
0.89200001955 -0.391999989748 0.0170000009239 294.0
0.907000005245 -0.405000001192 0.0179999992251 312.0
0.899999976158 -0.409000009298 0.0179999992251 326.0
0.898000001907 -0.41400000453 0.0179999992251 327.0
0.898000001907 -0.421000003815 0.0179999992251 352.0
0.89099997282 -0.425000011921 0.0179999992251 370.0
0.888000011444 -0.430000007153 0.0179999992251 1069.0
0.898999989033 -0.442000001669 0.0179999992251 1363.0
0.896000027657 -0.446999996901 0.0179999992251 1357.0
0.89200001955 -0.451999992132 0.0179999992251 1348.0
0.889999985695 -0.458000004292 0.0179999992251 1322.0
0.887000024319 -0.462999999523 0.0179999992251 1276.0
0.89099997282 -0.472000002861 0.0179999992251 1255.0
0.885999977589 -0.476999998093 0.0179999992251 1229.0
0.888000011444 -0.485000014305 0.0189999993891 1190.0
0.887000024319 -0.49200001359 0.0189999993891 1152.0
2.75699996948 1.51300001144 0.0289999991655 90.0
3.14199995995 1.5759999752 0.0329999998212 73.0
3.23200011253 1.54799997807 0.0340000018477 77.0
3.32699990273 1.56900000572 0.035000000149 79.0
3.35500001907 1.55700004101 0.035000000149 76.0
3.94199991226 1.77199995518 0.0419999994338 80.0
3.75300002098 1.65999996662 0.0399999991059 86.0
3.8900001049 1.69200003147 0.0410000011325 82.0
4.25899982452 1.73199999332 0.0450000017881 73.0
4.13500022888 1.65199995041 0.0439999997616 90.0
4.16499996185 1.63600003719 0.0439999997616 91.0
4.15999984741 1.60500001907 0.0439999997616 85.0
4.10799980164 1.55700004101 0.0439999997616 82.0
4.13700008392 1.53999996185 0.0439999997616 78.0
4.19099998474 1.53199994564 0.0450000017881 81.0
4.16099977493 1.49199998379 0.0450000017881 84.0
4.19500017166 1.47699999809 0.0450000017881 84.0
4.19600009918 1.44900000095 0.0450000017881 81.0
4.1779999733 1.41499996185 0.0450000017881 81.0
4.18800020218 1.39100003242 0.0450000017881 81.0
4.22300004959 1.375 0.0450000017881 77.0
4.17000007629 1.33099997044 0.0450000017881 80.0
4.17399978638 1.30499994755 0.0450000017881 79.0
4.1859998703 1.28199994564 0.0450000017881 76.0
4.26599979401 1.27900004387 0.0460000000894 80.0
4.15199995041 1.21800005436 0.0450000017881 78.0
4.25199985504 1.22000002861 0.0460000000894 78.0
4.16800022125 1.16999995708 0.0450000017881 84.0
4.23500013351 1.16199994087 0.0460000000894 77.0
4.15000009537 1.11199998856 0.0450000017881 77.0
4.20499992371 1.10099995136 0.0460000000894 81.0
4.22800016403 1.08099997044 0.0460000000894 81.0
4.05800008774 1.01199996471 0.0439999997616 75.0
1.01800000668 -0.0250000003725 0.0109999999404 1021.0
1.03100001812 -0.0309999994934 0.0109999999404 314.0
0.981999993324 -0.035000000149 0.00999999977648 154.0
0.976000010967 -0.0410000011325 0.00999999977648 155.0
0.962000012398 -0.0460000000894 0.00999999977648 159.0
0.990999996662 -0.0529999993742 0.0109999999404 159.0
0.96899998188 -0.0570000000298 0.00999999977648 161.0
0.972000002861 -0.0630000010133 0.00999999977648 160.0
0.975000023842 -0.0689999982715 0.0109999999404 159.0
0.996999979019 -0.0759999975562 0.0109999999404 156.0
0.976000010967 -0.0799999982119 0.0109999999404 160.0
0.976000010967 -0.0860000029206 0.0109999999404 164.0
0.967000007629 -0.0900000035763 0.0109999999404 167.0
0.950999975204 -0.0939999967813 0.00999999977648 170.0
0.957000017166 -0.101000003517 0.0109999999404 180.0
0.966000020504 -0.107000000775 0.0109999999404 761.0
0.986000001431 -0.115000002086 0.0109999999404 1284.0
0.990000009537 -0.120999999344 0.0109999999404 1306.0
0.98400002718 -0.126000002027 0.0109999999404 1306.0
0.986000001431 -0.131999999285 0.0109999999404 1306.0
0.98400002718 -0.137999996543 0.0109999999404 1329.0
0.980000019073 -0.143000006676 0.0109999999404 1335.0
0.987999975681 -0.15000000596 0.0109999999404 1339.0
0.978999972343 -0.153999999166 0.0109999999404 1352.0
0.976999998093 -0.159999996424 0.0109999999404 1392.0
0.97000002861 -0.16400000453 0.0109999999404 1379.0
0.976999998093 -0.172000005841 0.0109999999404 1382.0
0.972000002861 -0.175999999046 0.0109999999404 1385.0
0.976000010967 -0.182999998331 0.0109999999404 1401.0
0.976000010967 -0.188999995589 0.0109999999404 1323.0
0.994000017643 -0.197999998927 0.0120000001043 424.0
0.944999992847 -0.194000005722 0.0109999999404 196.0
0.935000002384 -0.197999998927 0.0109999999404 195.0
0.930000007153 -0.202000007033 0.0109999999404 197.0
0.934000015259 -0.209000006318 0.0109999999404 198.0
0.936999976635 -0.215000003576 0.0109999999404 194.0
0.925000011921 -0.217999994755 0.0109999999404 201.0
0.936999976635 -0.226999998093 0.0109999999404 197.0
0.945999979973 -0.233999997377 0.0109999999404 195.0
0.927999973297 -0.236000001431 0.0109999999404 208.0
0.919000029564 -0.238999992609 0.0109999999404 205.0
0.934000015259 -0.248999997973 0.0109999999404 198.0
0.945999979973 -0.25799998641 0.0109999999404 203.0
0.919000029564 -0.256000012159 0.0109999999404 208.0
0.90499997139 -0.25799998641 0.0109999999404 466.0
0.940999984741 -0.273999989033 0.0120000001043 1396.0
0.944999992847 -0.282000005245 0.0120000001043 1497.0
0.943000018597 -0.287000000477 0.0120000001043 1526.0
0.940999984741 -0.293000012636 0.0120000001043 1530.0
0.941999971867 -0.298999994993 0.0120000001043 1536.0
0.936999976635 -0.303999990225 0.0120000001043 1533.0
0.93599998951 -0.308999985456 0.0120000001043 1541.0
0.935000002384 -0.314999997616 0.0120000001043 1531.0
0.93599998951 -0.321999996901 0.0120000001043 1547.0
0.929000020027 -0.324999988079 0.0120000001043 1539.0
0.930999994278 -0.331999987364 0.0120000001043 1547.0
0.925999999046 -0.337000012398 0.0120000001043 1550.0
0.924000024796 -0.342000007629 0.0120000001043 1545.0
0.925999999046 -0.349000006914 0.0120000001043 1561.0
0.95300000906 -0.365999996662 0.0120000001043 688.0
0.889999985695 -0.347999989986 0.0120000001043 238.0
0.878000020981 -0.349000006914 0.0109999999404 213.0
0.902000010014 -0.365000009537 0.0120000001043 211.0
0.89099997282 -0.365999996662 0.0120000001043 213.0
0.884999990463 -0.370000004768 0.0120000001043 218.0
0.875 -0.372000008821 0.0120000001043 212.0
0.878000020981 -0.379999995232 0.0120000001043 208.0
0.887000024319 -0.389999985695 0.0120000001043 210.0
0.887000024319 -0.397000014782 0.0120000001043 203.0
0.893999993801 -0.405999988317 0.0120000001043 216.0
0.879999995232 -0.405999988317 0.0120000001043 211.0
0.887000024319 -0.416000008583 0.0120000001043 222.0
0.860000014305 -0.409000009298 0.0120000001043 231.0
0.882000029087 -0.426999986172 0.0120000001043 1124.0
0.893000006676 -0.43900001049 0.0120000001043 1564.0
0.898999989033 -0.449000000954 0.0130000002682 1590.0
0.894999980927 -0.453999996185 0.0130000002682 1615.0
0.898000001907 -0.462000012398 0.0130000002682 1601.0
0.893000006676 -0.467000007629 0.0130000002682 1587.0
0.889999985695 -0.472000002861 0.0130000002682 1590.0
0.889999985695 -0.479000002146 0.0130000002682 1593.0
0.89099997282 -0.486000001431 0.0130000002682 1585.0
0.884000003338 -0.490000009537 0.0130000002682 1596.0
3.08899998665 1.54999995232 0.0130000002682 72.0
3.33200001717 1.57099997997 0.0140000004321 90.0
3.42499995232 1.58899998665 0.0149999996647 84.0
3.84599995613 1.75699996948 0.0170000009239 75.0
3.82800006866 1.72000002861 0.0170000009239 94.0
3.77999997139 1.67100000381 0.0170000009239 110.0
3.77300000191 1.64100003242 0.0170000009239 113.0
3.79800009727 1.625 0.0170000009239 99.0
4.15899991989 1.75 0.0189999993891 74.0
4.17600011826 1.72699999809 0.0189999993891 70.0
4.13199996948 1.67999994755 0.0189999993891 87.0
4.06199979782 1.62300002575 0.0179999992251 126.0
4.11100006104 1.61399996281 0.0189999993891 122.0
4.08199977875 1.57500004768 0.0189999993891 119.0
4.08699989319 1.5490000248 0.0189999993891 113.0
4.09800004959 1.52499997616 0.0189999993891 115.0
4.09899997711 1.49800002575 0.0189999993891 103.0
4.00500011444 1.43700003624 0.0189999993891 113.0
4.14200019836 1.45799994469 0.0189999993891 106.0
4.07499980927 1.40699994564 0.0189999993891 103.0
4.14400005341 1.40299999714 0.0189999993891 113.0
4.10500001907 1.36300003529 0.0189999993891 109.0
4.18800020218 1.36300003529 0.019999999553 107.0
4.16400003433 1.32899999619 0.019999999553 103.0
4.10599994659 1.28299999237 0.019999999553 109.0
4.14799976349 1.26999998093 0.019999999553 99.0
4.12900018692 1.23800003529 0.019999999553 106.0
4.16699981689 1.22200000286 0.019999999553 105.0
4.15299987793 1.19200003147 0.019999999553 106.0
4.14200019836 1.16199994087 0.019999999553 106.0
4.1360001564 1.13499999046 0.019999999553 113.0
4.14300012589 1.11000001431 0.019999999553 118.0
4.14599990845 1.08500003815 0.0209999997169 122.0
4.11600017548 1.05200004578 0.019999999553 122.0
4.19500017166 1.04600000381 0.0209999997169 103.0
0.98400002718 -0.0179999992251 0.00499999988824 337.0
1.01699995995 -0.0250000003725 0.00499999988824 1020.0
1.03299999237 -0.0309999994934 0.00499999988824 302.0
1.00999999046 -0.0359999984503 0.00499999988824 158.0
0.995999991894 -0.0419999994338 0.00499999988824 153.0
0.977999985218 -0.0460000000894 0.00499999988824 154.0
0.98400002718 -0.0520000010729 0.00499999988824 157.0
0.973999977112 -0.0570000000298 0.00499999988824 156.0
0.971000015736 -0.0630000010133 0.00499999988824 166.0
0.949000000954 -0.0670000016689 0.00499999988824 162.0
0.98400002718 -0.0750000029802 0.00499999988824 160.0
0.955999970436 -0.0780000016093 0.00499999988824 164.0
0.986000001431 -0.0860000029206 0.00499999988824 159.0
0.976999998093 -0.0909999981523 0.00499999988824 164.0
0.962999999523 -0.0960000008345 0.00499999988824 166.0
0.943000018597 -0.0989999994636 0.00499999988824 181.0
0.967000007629 -0.107000000775 0.00499999988824 778.0
0.987999975681 -0.115000002086 0.00499999988824 1284.0
0.990999996662 -0.120999999344 0.00499999988824 1305.0
0.98400002718 -0.126000002027 0.00499999988824 1311.0
0.98400002718 -0.131999999285 0.00499999988824 1318.0
0.986000001431 -0.137999996543 0.00499999988824 1336.0
0.981000006199 -0.143000006676 0.00499999988824 1338.0
0.981000006199 -0.149000003934 0.00499999988824 1347.0
0.978999972343 -0.153999999166 0.00499999988824 1356.0
0.976999998093 -0.159999996424 0.00499999988824 1377.0
0.973999977112 -0.165000006557 0.00499999988824 1378.0
0.971000015736 -0.170000001788 0.00499999988824 1394.0
0.977999985218 -0.177000001073 0.00600000005215 1401.0
0.971000015736 -0.181999996305 0.00600000005215 1409.0
0.978999972343 -0.188999995589 0.00600000005215 1314.0
0.986999988556 -0.196999996901 0.00600000005215 414.0
0.93900001049 -0.193000003695 0.00499999988824 199.0
0.943000018597 -0.199000000954 0.00499999988824 194.0
0.939999997616 -0.203999996185 0.00499999988824 192.0
0.947000026703 -0.211999997497 0.00600000005215 195.0
0.933000028133 -0.21400000155 0.00600000005215 190.0
0.92199999094 -0.216999992728 0.00499999988824 197.0
0.940999984741 -0.228000000119 0.00600000005215 197.0
0.959999978542 -0.238000005484 0.00600000005215 198.0
0.926999986172 -0.234999999404 0.00600000005215 201.0
0.907999992371 -0.236000001431 0.00499999988824 203.0
0.910000026226 -0.241999998689 0.00600000005215 203.0
0.908999979496 -0.247999995947 0.00600000005215 204.0
0.920000016689 -0.256999999285 0.00600000005215 211.0
0.912000000477 -0.259999990463 0.00600000005215 481.0
0.93900001049 -0.273999989033 0.00600000005215 1394.0
0.941999971867 -0.280999988317 0.00600000005215 1504.0
0.945999979973 -0.287999987602 0.00600000005215 1524.0
0.943000018597 -0.293000012636 0.00600000005215 1526.0
0.936999976635 -0.29699999094 0.00600000005215 1532.0
0.935000002384 -0.303000003099 0.00600000005215 1549.0
0.936999976635 -0.310000002384 0.00600000005215 1535.0
0.939999997616 -0.317000001669 0.00600000005215 1540.0
0.935000002384 -0.321000009775 0.00600000005215 1553.0
0.927999973297 -0.324999988079 0.00600000005215 1552.0
0.929000020027 -0.331000000238 0.00600000005215 1560.0
0.929000020027 -0.337999999523 0.00600000005215 1574.0
0.925000011921 -0.342000007629 0.00600000005215 1561.0
0.925000011921 -0.349000006914 0.00600000005215 1550.0
0.955999970436 -0.36700001359 0.00700000021607 671.0
0.916000008583 -0.358000010252 0.00600000005215 239.0
0.89200001955 -0.354000002146 0.00600000005215 214.0
0.902999997139 -0.365000009537 0.00600000005215 209.0
0.89099997282 -0.365999996662 0.00600000005215 214.0
0.89200001955 -0.372999995947 0.00600000005215 211.0
0.888000011444 -0.377999991179 0.00600000005215 205.0
0.888999998569 -0.384999990463 0.00600000005215 211.0
0.876999974251 -0.386000007391 0.00600000005215 209.0
0.869000017643 -0.388000011444 0.00600000005215 210.0
0.882000029087 -0.400999993086 0.00600000005215 211.0
0.884999990463 -0.407999992371 0.00700000021607 207.0
0.883000016212 -0.41400000453 0.00700000021607 214.0
0.864000022411 -0.412000000477 0.00600000005215 230.0
0.884000003338 -0.428000003099 0.00700000021607 1133.0
0.898000001907 -0.441000014544 0.00700000021607 1572.0
0.901000022888 -0.449999988079 0.00700000021607 1592.0
0.89200001955 -0.451999992132 0.00700000021607 1598.0
0.893999993801 -0.460000008345 0.00700000021607 1600.0
0.887000024319 -0.462999999523 0.00700000021607 1593.0
0.889999985695 -0.472000002861 0.00700000021607 1600.0
0.89200001955 -0.479999989271 0.00700000021607 1591.0
0.888999998569 -0.485000014305 0.00700000021607 1603.0
0.89200001955 -0.495000004768 0.00700000021607 1625.0
3.22600007057 1.54499995708 -0.00600000005215 100.0
3.33400011063 1.5720000267 -0.00600000005215 93.0
3.37400007248 1.56599998474 -0.00600000005215 90.0
3.71799993515 1.67100000381 -0.00600000005215 92.0
3.79500007629 1.6779999733 -0.00600000005215 123.0
3.80500006676 1.65499997139 -0.00600000005215 117.0
3.85599994659 1.64900004864 -0.00600000005215 97.0
4.22599983215 1.77699995041 -0.00600000005215 65.0
4.14400005341 1.71399998665 -0.00600000005215 78.0
4.08699989319 1.66100001335 -0.00600000005215 99.0
4.05499982834 1.62000000477 -0.00600000005215 147.0
4.06199979782 1.59500002861 -0.00499999988824 139.0
4.05700016022 1.56500005722 -0.00499999988824 140.0
4.02899980545 1.52699995041 -0.00499999988824 122.0
4.11899995804 1.53299999237 -0.00499999988824 125.0
4.08199977875 1.49100005627 -0.00499999988824 117.0
4.0689997673 1.45899999142 -0.00499999988824 122.0
4.09600019455 1.44099998474 -0.00499999988824 119.0
4.117000103 1.42200005054 -0.00499999988824 128.0
4.07800006866 1.38100004196 -0.00400000018999 122.0
4.17500019073 1.38600003719 -0.00400000018999 123.0
4.13000011444 1.34500002861 -0.00400000018999 121.0
4.13399982452 1.31900000572 -0.00400000018999 120.0
4.15299987793 1.29799997807 -0.00400000018999 125.0
4.132999897 1.26499998569 -0.00400000018999 121.0
4.12300014496 1.23599994183 -0.00400000018999 120.0
4.13199996948 1.2120000124 -0.00400000018999 116.0
4.14499998093 1.18900001049 -0.00400000018999 121.0
4.16400003433 1.16799998283 -0.00300000002608 120.0
4.13399982452 1.13399994373 -0.00300000002608 128.0
4.18200016022 1.1210000515 -0.00300000002608 126.0
4.14900016785 1.08599996567 -0.00300000002608 123.0
4.17399978638 1.06599998474 -0.00300000002608 131.0
4.14200019836 1.03299999237 -0.00300000002608 112.0
0.989000022411 -0.0189999993891 0.0 367.0
1.01600003242 -0.0250000003725 0.0 1021.0
1.01600003242 -0.0309999994934 0.0 290.0
0.987999975681 -0.0359999984503 0.0 155.0
0.976000010967 -0.0410000011325 0.0 154.0
0.978999972343 -0.0460000000894 0.0 154.0
0.972000002861 -0.0520000010729 0.0 164.0
0.978999972343 -0.0579999983311 0.0 159.0
0.981999993324 -0.0640000030398 0.0 158.0
0.945999979973 -0.0670000016689 0.0 161.0
0.961000025272 -0.0729999989271 0.0 160.0
0.959999978542 -0.0790000036359 0.0 162.0
0.962000012398 -0.0839999988675 0.0 160.0
0.980000019073 -0.0920000001788 0.0 164.0
0.952000021935 -0.0939999967813 0.0 172.0
0.950999975204 -0.10000000149 0.0 179.0
0.967000007629 -0.107000000775 0.0 802.0
0.98299998045 -0.115000002086 0.0 1289.0
0.985000014305 -0.120999999344 0.0 1309.0
0.986999988556 -0.127000004053 0.0 1316.0
0.985000014305 -0.131999999285 0.0 1316.0
0.98400002718 -0.137999996543 0.0 1346.0
0.981999993324 -0.143000006676 0.0 1348.0
0.975000023842 -0.148000001907 0.0 1348.0
0.973999977112 -0.153999999166 0.0 1366.0
0.980000019073 -0.159999996424 0.0 1387.0
0.976000010967 -0.165999993682 0.0 1389.0
0.971000015736 -0.170000001788 0.0 1395.0
0.971000015736 -0.175999999046 0.0 1408.0
0.973999977112 -0.182999998331 0.0 1409.0
0.975000023842 -0.188999995589 0.0 1303.0
0.994000017643 -0.197999998927 0.0 406.0
0.949000000954 -0.194999992847 0.0 194.0
0.941999971867 -0.199000000954 0.0 194.0
0.935000002384 -0.202999994159 0.0 199.0
0.949000000954 -0.211999997497 0.0 195.0
0.93900001049 -0.216000005603 0.0 191.0
0.944999992847 -0.223000004888 0.0 195.0
0.944000005722 -0.228000000119 0.0 195.0
0.930999994278 -0.231000006199 0.0 202.0
0.919000029564 -0.232999995351 0.0 200.0
0.938000023365 -0.244000002742 0.0 203.0
0.907999992371 -0.241999998689 0.0 206.0
0.925999999046 -0.252999991179 0.0 201.0
0.933000028133 -0.259999990463 0.0 215.0
0.901000022888 -0.256999999285 0.0 500.0
0.93599998951 -0.273000001907 0.0 1400.0
0.943000018597 -0.280999988317 0.0 1497.0
0.941999971867 -0.287000000477 0.0 1528.0
0.940999984741 -0.293000012636 0.0 1543.0
0.93900001049 -0.298000007868 0.0 1544.0
0.93599998951 -0.303000003099 0.0 1535.0
0.934000015259 -0.307999998331 0.0010000000475 1544.0
0.931999981403 -0.31400001049 0.0010000000475 1552.0
0.930999994278 -0.319999992847 0.0010000000475 1546.0
0.930999994278 -0.326000005007 0.0010000000475 1548.0
0.925999999046 -0.331000000238 0.0010000000475 1559.0
0.925000011921 -0.33599999547 0.0010000000475 1568.0
0.931999981403 -0.344999998808 0.0010000000475 1550.0
0.92199999094 -0.347000002861 0.0010000000475 1554.0
0.945999979973 -0.363000005484 0.0010000000475 665.0
0.907999992371 -0.354999989271 0.0010000000475 232.0
0.89099997282 -0.354000002146 0.0010000000475 212.0
0.896000027657 -0.361999988556 0.0010000000475 210.0
0.89200001955 -0.36700001359 0.0010000000475 212.0
0.896000027657 -0.375 0.0010000000475 212.0
0.888999998569 -0.377999991179 0.0010000000475 212.0
0.894999980927 -0.386999994516 0.0010000000475 208.0
0.894999980927 -0.393999993801 0.0010000000475 216.0
0.889999985695 -0.398000001907 0.0010000000475 208.0
0.878000020981 -0.398999989033 0.0010000000475 208.0
0.865000009537 -0.398999989033 0.0010000000475 215.0
0.876999974251 -0.411000013351 0.0010000000475 216.0
0.85900002718 -0.409000009298 0.0010000000475 234.0
0.884000003338 -0.428000003099 0.0010000000475 1133.0
0.897000014782 -0.441000014544 0.0010000000475 1571.0
0.897000014782 -0.448000013828 0.0010000000475 1597.0
0.898999989033 -0.456000000238 0.0010000000475 1606.0
0.894999980927 -0.46099999547 0.0010000000475 1609.0
0.896000027657 -0.467999994755 0.0010000000475 1593.0
0.893000006676 -0.474000006914 0.0010000000475 1609.0
0.893000006676 -0.481000006199 0.0010000000475 1612.0
0.887000024319 -0.485000014305 0.0010000000475 1594.0
0.882000029087 -0.488999992609 0.0010000000475 1606.0
3.27999997139 1.57099997997 -0.0260000005364 106.0
3.3180000782 1.56400001049 -0.0270000007004 91.0
3.46099996567 1.60599994659 -0.0280000008643 89.0
3.8220000267 1.71700000763 -0.0299999993294 97.0
3.72499990463 1.64699995518 -0.0289999991655 127.0
3.80500006676 1.65499997139 -0.0289999991655 114.0
3.98399996758 1.70399999619 -0.0309999994934 100.0
4.09000015259 1.72000002861 -0.0309999994934 89.0
4.12300014496 1.70500004292 -0.0309999994934 96.0
4.10500001907 1.66900002956 -0.0309999994934 125.0
4.06300020218 1.62300002575 -0.0309999994934 168.0
4.06599998474 1.59700000286 -0.0299999993294 166.0
4.10400009155 1.58299994469 -0.0299999993294 149.0
4.13999986649 1.56900000572 -0.0309999994934 133.0
4.09899997711 1.52499997616 -0.0299999993294 132.0
4.125 1.50699996948 -0.0299999993294 130.0
4.14099979401 1.48500001431 -0.0299999993294 126.0
4.09399986267 1.44099998474 -0.0299999993294 132.0
4.06300020218 1.40299999714 -0.0289999991655 122.0
4.12099981308 1.39600002766 -0.0289999991655 128.0
4.15399980545 1.3789999485 -0.0289999991655 130.0
4.117000103 1.34000003338 -0.0289999991655 124.0
4.19600009918 1.33899998665 -0.0289999991655 127.0
4.13500022888 1.29200005531 -0.0289999991655 130.0
4.11499977112 1.25999999046 -0.0289999991655 124.0
4.11299991608 1.23199999332 -0.0280000008643 122.0
4.14499998093 1.2159999609 -0.0280000008643 121.0
4.17299985886 1.1970000267 -0.0280000008643 123.0
4.1810002327 1.17299997807 -0.0280000008643 126.0
4.14099979401 1.13600003719 -0.0280000008643 128.0
4.15100002289 1.11199998856 -0.0280000008643 136.0
4.09999990463 1.07299995422 -0.0270000007004 130.0
4.13100004196 1.05499994755 -0.0270000007004 137.0
4.16300010681 1.0379999876 -0.0270000007004 121.0
4.28999996185 1.04299998283 -0.0280000008643 53.0
0.978999972343 -0.0179999992251 -0.00600000005215 386.0
1.01499998569 -0.0250000003725 -0.00600000005215 1012.0
1.03100001812 -0.0309999994934 -0.00600000005215 282.0
0.96899998188 -0.035000000149 -0.00499999988824 160.0
0.990000009537 -0.0410000011325 -0.00499999988824 153.0
0.967999994755 -0.0460000000894 -0.00499999988824 157.0
0.978999972343 -0.0520000010729 -0.00499999988824 157.0
0.971000015736 -0.0570000000298 -0.00499999988824 157.0
0.971000015736 -0.0630000010133 -0.00499999988824 164.0
0.973999977112 -0.0689999982715 -0.00499999988824 159.0
0.971000015736 -0.0740000009537 -0.00499999988824 164.0
0.953999996185 -0.0780000016093 -0.00499999988824 164.0
0.96899998188 -0.0850000008941 -0.00499999988824 162.0
0.98400002718 -0.0920000001788 -0.00499999988824 162.0
0.98400002718 -0.097999997437 -0.00499999988824 170.0
0.955999970436 -0.10000000149 -0.00499999988824 186.0
0.964999973774 -0.107000000775 -0.00499999988824 825.0
0.985000014305 -0.115000002086 -0.00499999988824 1289.0
0.986000001431 -0.120999999344 -0.00499999988824 1306.0
0.985000014305 -0.127000004053 -0.00499999988824 1306.0
0.98299998045 -0.131999999285 -0.00499999988824 1327.0
0.978999972343 -0.136999994516 -0.00499999988824 1341.0
0.981000006199 -0.143000006676 -0.00499999988824 1342.0
0.976000010967 -0.148000001907 -0.00499999988824 1347.0
0.980000019073 -0.155000001192 -0.00499999988824 1365.0
0.976000010967 -0.159999996424 -0.00499999988824 1383.0
0.976999998093 -0.165999993682 -0.00499999988824 1376.0
0.97000002861 -0.170000001788 -0.00499999988824 1388.0
0.972999989986 -0.177000001073 -0.00499999988824 1387.0
0.963999986649 -0.180999994278 -0.00499999988824 1399.0
0.978999972343 -0.188999995589 -0.00499999988824 1291.0
0.990000009537 -0.196999996901 -0.00499999988824 392.0
0.936999976635 -0.192000001669 -0.00499999988824 195.0
0.934000015259 -0.196999996901 -0.00499999988824 199.0
0.929000020027 -0.202000007033 -0.00400000018999 197.0
0.95300000906 -0.212999999523 -0.00499999988824 199.0
0.950999975204 -0.217999994755 -0.00499999988824 199.0
0.936999976635 -0.221000000834 -0.00400000018999 194.0
0.925999999046 -0.224000006914 -0.00400000018999 196.0
0.944000005722 -0.233999997377 -0.00400000018999 206.0
0.938000023365 -0.238000005484 -0.00400000018999 198.0
0.927999973297 -0.241999998689 -0.00400000018999 199.0
0.936999976635 -0.25 -0.00400000018999 205.0
0.898999989033 -0.245000004768 -0.00400000018999 205.0
0.925999999046 -0.25799998641 -0.00400000018999 208.0
0.908999979496 -0.259000003338 -0.00400000018999 522.0
0.938000023365 -0.273999989033 -0.00400000018999 1414.0
0.93900001049 -0.280000001192 -0.00400000018999 1512.0
0.936999976635 -0.284999996424 -0.00400000018999 1519.0
0.944999992847 -0.293999999762 -0.00400000018999 1523.0
0.939999997616 -0.298000007868 -0.00400000018999 1532.0
0.93599998951 -0.303000003099 -0.00400000018999 1542.0
0.934000015259 -0.307999998331 -0.00400000018999 1552.0
0.936999976635 -0.316000014544 -0.00400000018999 1551.0
0.930999994278 -0.319999992847 -0.00400000018999 1545.0
0.929000020027 -0.324999988079 -0.00400000018999 1550.0
0.926999986172 -0.331000000238 -0.00400000018999 1557.0
0.930999994278 -0.338999986649 -0.00400000018999 1551.0
0.925000011921 -0.342999994755 -0.00400000018999 1557.0
0.930000007153 -0.351000010967 -0.00400000018999 1549.0
0.941999971867 -0.361999988556 -0.00400000018999 649.0
0.92199999094 -0.360000014305 -0.00400000018999 237.0
0.901000022888 -0.358000010252 -0.00400000018999 213.0
0.89099997282 -0.360000014305 -0.00400000018999 213.0
0.861000001431 -0.354000002146 -0.00400000018999 209.0
0.896000027657 -0.375 -0.00400000018999 215.0
0.89200001955 -0.379999995232 -0.00400000018999 215.0
0.888000011444 -0.384000003338 -0.00400000018999 208.0
0.893999993801 -0.393000006676 -0.00400000018999 209.0
0.883000016212 -0.395000010729 -0.00400000018999 217.0
0.861000001431 -0.391000002623 -0.00300000002608 215.0
0.879999995232 -0.405999988317 -0.00400000018999 211.0
0.866999983788 -0.407000005245 -0.00300000002608 216.0
0.861000001431 -0.409999996424 -0.00300000002608 241.0
0.885999977589 -0.428999990225 -0.00300000002608 1160.0
0.896000027657 -0.439999997616 -0.00300000002608 1573.0
0.898000001907 -0.448000013828 -0.00300000002608 1610.0
0.902000010014 -0.456999987364 -0.00300000002608 1621.0
0.89200001955 -0.458999991417 -0.00300000002608 1599.0
0.89200001955 -0.465999990702 -0.00300000002608 1593.0
0.888000011444 -0.470999985933 -0.00300000002608 1596.0
0.885999977589 -0.476999998093 -0.00300000002608 1622.0
0.888000011444 -0.485000014305 -0.00300000002608 1608.0
0.888000011444 -0.49200001359 -0.00300000002608 1604.0
3.242000103 1.5529999733 -0.0469999983907 121.0
3.37599992752 1.5909999609 -0.0480000004172 95.0
3.40300011635 1.57899999619 -0.0480000004172 93.0
3.7539999485 1.71399998665 -0.0529999993742 68.0
3.77600002289 1.6970000267 -0.0529999993742 93.0
3.76300001144 1.6629999876 -0.0529999993742 126.0
3.78600001335 1.64600002766 -0.0529999993742 120.0
3.99699997902 1.70899999142 -0.054999999702 101.0
4.07100009918 1.7120000124 -0.0560000017285 96.0
4.11600017548 1.70200002193 -0.0570000000298 99.0
4.08500003815 1.65999996662 -0.0560000017285 132.0
4.06199979782 1.62300002575 -0.054999999702 182.0
4.03399991989 1.58399999142 -0.054999999702 186.0
4.0640001297 1.56799995899 -0.054999999702 160.0
4.12900018692 1.56500005722 -0.0560000017285 147.0
4.11899995804 1.53299999237 -0.054999999702 136.0
4.117000103 1.5039999485 -0.054999999702 130.0
4.08699989319 1.46500003338 -0.0540000014007 136.0
4.07399988174 1.43400001526 -0.0540000014007 138.0
4.10599994659 1.41799998283 -0.0540000014007 135.0
4.11499977112 1.39300000668 -0.0540000014007 137.0
4.10400009155 1.36300003529 -0.0540000014007 133.0
4.11199998856 1.33800005913 -0.0540000014007 135.0
4.12400007248 1.31500005722 -0.0540000014007 138.0
4.12900018692 1.28999996185 -0.0540000014007 139.0
4.10099983215 1.25499999523 -0.0529999993742 137.0
4.16099977493 1.24699997902 -0.0540000014007 141.0
4.1360001564 1.21300005913 -0.0529999993742 138.0
4.13700008392 1.18700003624 -0.0529999993742 138.0
4.15299987793 1.16499996185 -0.0529999993742 137.0
4.16900014877 1.14300000668 -0.0529999993742 144.0
4.14900016785 1.11199998856 -0.0520000010729 145.0
4.11600017548 1.07700002193 -0.0520000010729 138.0
4.12099981308 1.0529999733 -0.0520000010729 145.0
4.11899995804 1.02699995041 -0.0509999990463 114.0
4.52299976349 1.09899997711 -0.0560000017285 65.0
4.57399988174 1.08299994469 -0.0570000000298 68.0
4.57299995422 1.05499994755 -0.0570000000298 68.0
4.56300020218 1.02499997616 -0.0560000017285 70.0
4.64799976349 1.01600003242 -0.0570000000298 63.0
4.65399980545 0.989000022411 -0.0570000000298 58.0
4.67999982834 0.966000020504 -0.0570000000298 56.0
4.66099977493 0.934000015259 -0.0570000000298 60.0
4.66099977493 0.90600001812 -0.0560000017285 63.0
4.71400022507 0.888000011444 -0.0570000000298 56.0
4.77600002289 0.870999991894 -0.0570000000298 63.0
4.72399997711 0.833000004292 -0.0570000000298 62.0
4.68400001526 0.797999978065 -0.0560000017285 59.0
4.78200006485 0.786000013351 -0.0570000000298 58.0
4.77500009537 0.757000029087 -0.0570000000298 58.0
4.75199985504 0.725000023842 -0.0560000017285 54.0
4.78299999237 0.700999975204 -0.0570000000298 57.0
4.8029999733 0.675999999046 -0.0570000000298 54.0
4.76800012589 0.643000006676 -0.0560000017285 59.0
4.85699987411 0.625999987125 -0.0570000000298 49.0
4.89699983597 0.602999985218 -0.0570000000298 57.0
4.88700008392 0.51599997282 -0.0570000000298 53.0
4.89699983597 0.488999992609 -0.0560000017285 58.0
4.83500003815 0.453999996185 -0.0560000017285 50.0
4.82100009918 0.397000014782 -0.054999999702 51.0
1.01900005341 -0.0250000003725 -0.0120000001043 1009.0
1.02400004864 -0.0309999994934 -0.0120000001043 269.0
0.992999970913 -0.0359999984503 -0.0109999999404 160.0
0.991999983788 -0.0410000011325 -0.0109999999404 156.0
0.987999975681 -0.0469999983907 -0.0109999999404 152.0
0.985000014305 -0.0520000010729 -0.0109999999404 155.0
0.975000023842 -0.0570000000298 -0.0109999999404 155.0
0.981999993324 -0.0640000030398 -0.0109999999404 159.0
0.987999975681 -0.070000000298 -0.0109999999404 161.0
0.950999975204 -0.0719999969006 -0.0109999999404 160.0
0.972999989986 -0.0799999982119 -0.0109999999404 159.0
0.958999991417 -0.0839999988675 -0.0109999999404 165.0
0.944000005722 -0.0879999995232 -0.00999999977648 170.0
0.98400002718 -0.097999997437 -0.0109999999404 174.0
0.966000020504 -0.101999998093 -0.0109999999404 185.0
0.972999989986 -0.108000002801 -0.0109999999404 854.0
0.981000006199 -0.115000002086 -0.0109999999404 1293.0
0.986999988556 -0.120999999344 -0.0109999999404 1307.0
0.990000009537 -0.127000004053 -0.0109999999404 1318.0
0.985000014305 -0.131999999285 -0.0109999999404 1328.0
0.986999988556 -0.137999996543 -0.0109999999404 1339.0
0.978999972343 -0.143000006676 -0.0109999999404 1335.0
0.977999985218 -0.149000003934 -0.0109999999404 1344.0
0.986000001431 -0.156000003219 -0.0109999999404 1367.0
0.978999972343 -0.159999996424 -0.0109999999404 1378.0
0.981000006199 -0.165999993682 -0.0109999999404 1381.0
0.972000002861 -0.171000003815 -0.00999999977648 1400.0
0.973999977112 -0.177000001073 -0.00999999977648 1390.0
0.971000015736 -0.181999996305 -0.00999999977648 1399.0
0.971000015736 -0.187999993563 -0.00999999977648 1280.0
0.981999993324 -0.195999994874 -0.00999999977648 372.0
0.948000013828 -0.194999992847 -0.00999999977648 193.0
0.940999984741 -0.199000000954 -0.00999999977648 197.0
0.944999992847 -0.206000000238 -0.00999999977648 191.0
0.929000020027 -0.208000004292 -0.00999999977648 196.0
0.930999994278 -0.21400000155 -0.00999999977648 195.0
0.947000026703 -0.223000004888 -0.00999999977648 203.0
0.952000021935 -0.230000004172 -0.00999999977648 199.0
0.930999994278 -0.231000006199 -0.00999999977648 200.0
0.911000013351 -0.231999993324 -0.00999999977648 204.0
0.917999982834 -0.238999992609 -0.00999999977648 203.0
0.938000023365 -0.25 -0.00999999977648 207.0
0.940999984741 -0.256999999285 -0.00999999977648 203.0
0.925999999046 -0.25799998641 -0.00999999977648 210.0
0.913999974728 -0.261000007391 -0.00999999977648 538.0
0.939999997616 -0.273999989033 -0.00999999977648 1438.0
0.938000023365 -0.280000001192 -0.00999999977648 1510.0
0.943000018597 -0.287000000477 -0.00999999977648 1526.0
0.941999971867 -0.293000012636 -0.00999999977648 1542.0
0.947000026703 -0.300999999046 -0.00999999977648 1524.0
0.938000023365 -0.303999990225 -0.00999999977648 1545.0
0.934000015259 -0.308999985456 -0.00999999977648 1546.0
0.935000002384 -0.314999997616 -0.00999999977648 1549.0
0.933000028133 -0.321000009775 -0.00999999977648 1552.0
0.931999981403 -0.326999992132 -0.00999999977648 1549.0
0.931999981403 -0.333000004292 -0.00999999977648 1549.0
0.930999994278 -0.337999999523 -0.00999999977648 1569.0
0.933000028133 -0.344999998808 -0.00999999977648 1561.0
0.925000011921 -0.349000006914 -0.00999999977648 1549.0
0.944000005722 -0.361999988556 -0.00999999977648 625.0
0.916999995708 -0.358000010252 -0.00899999961257 229.0
0.885999977589 -0.351999998093 -0.00899999961257 213.0
0.907999992371 -0.36700001359 -0.00899999961257 215.0
0.898000001907 -0.368999987841 -0.00899999961257 214.0
0.89099997282 -0.372999995947 -0.00899999961257 209.0
0.897000014782 -0.381999999285 -0.00899999961257 216.0
0.884999990463 -0.38299998641 -0.00899999961257 213.0
0.865000009537 -0.379999995232 -0.00899999961257 211.0
0.870999991894 -0.388999998569 -0.00899999961257 203.0
0.878000020981 -0.398999989033 -0.00899999961257 206.0
0.885999977589 -0.409000009298 -0.00899999961257 222.0
0.864000022411 -0.405000001192 -0.00899999961257 214.0
0.875 -0.416999995708 -0.00899999961257 244.0
0.885999977589 -0.428999990225 -0.00899999961257 1181.0
0.897000014782 -0.441000014544 -0.00899999961257 1572.0
0.894999980927 -0.446999996901 -0.00899999961257 1598.0
0.89200001955 -0.451999992132 -0.00899999961257 1607.0
0.896000027657 -0.46099999547 -0.00899999961257 1613.0
0.889999985695 -0.465000003576 -0.00899999961257 1585.0
0.894999980927 -0.47499999404 -0.00899999961257 1593.0
0.889999985695 -0.479000002146 -0.00899999961257 1606.0
0.887000024319 -0.485000014305 -0.00899999961257 1610.0
0.879999995232 -0.488000005484 -0.00899999961257 1602.0
3.21900010109 1.54100000858 -0.0659999996424 119.0
3.40499997139 1.60500001907 -0.070000000298 92.0
3.42199993134 1.58800005913 -0.070000000298 98.0
3.80100011826 1.73599994183 -0.0780000016093 75.0
3.77099990845 1.69400000572 -0.0769999995828 101.0
3.6970000267 1.63399994373 -0.0750000029802 130.0
3.76799988747 1.63900005817 -0.0759999975562 109.0
3.97499990463 1.70000004768 -0.0799999982119 99.0
4.05100011826 1.70399999619 -0.0810000002384 101.0
4.02799987793 1.66600000858 -0.0799999982119 103.0
4.06599998474 1.65299999714 -0.0810000002384 151.0
4.05700016022 1.6210000515 -0.0799999982119 181.0
4.03200006485 1.58299994469 -0.0799999982119 186.0
4.05700016022 1.56500005722 -0.0799999982119 160.0
4.09700012207 1.55200004578 -0.0799999982119 138.0
4.09800004959 1.52499997616 -0.0799999982119 131.0
4.09200000763 1.49500000477 -0.0799999982119 133.0
4.07100009918 1.46000003815 -0.0790000036359 134.0
4.09100008011 1.43900001049 -0.0790000036359 135.0
4.09000015259 1.41199994087 -0.0790000036359 142.0
4.09700012207 1.38699996471 -0.0790000036359 142.0
4.12400007248 1.36899995804 -0.0790000036359 135.0
4.132999897 1.34500002861 -0.0790000036359 143.0
4.1810002327 1.33399999142 -0.0799999982119 135.0
4.07399988174 1.27300000191 -0.0769999995828 141.0
4.14200019836 1.26800000668 -0.0780000016093 141.0
4.15600013733 1.24500000477 -0.0780000016093 144.0
4.132999897 1.2120000124 -0.0780000016093 138.0
4.09800004959 1.17499995232 -0.0769999995828 132.0
4.13000011444 1.1590000391 -0.0769999995828 143.0
4.10200023651 1.125 -0.0759999975562 152.0
4.08099985123 1.09399998188 -0.0759999975562 148.0
4.11199998856 1.0759999752 -0.0759999975562 139.0
4.13800001144 1.05700004101 -0.0759999975562 141.0
4.16900014877 1.03900003433 -0.0769999995828 117.0
4.54799985886 1.10500001907 -0.082999996841 64.0
4.54799985886 1.07700002193 -0.082999996841 82.0
4.57999992371 1.05700004101 -0.0839999988675 78.0
4.58799982071 1.03100001812 -0.0839999988675 86.0
4.59700012207 1.0039999485 -0.082999996841 75.0
4.58900022507 0.975000023842 -0.082999996841 79.0
4.61499977112 0.952000021935 -0.082999996841 76.0
4.61299991608 0.924000024796 -0.082999996841 69.0
4.62300014496 0.898000001907 -0.082999996841 75.0
4.66200017929 0.878000020981 -0.0839999988675 72.0
4.68800020218 0.853999972343 -0.0839999988675 76.0
4.67299985886 0.824000000954 -0.082999996841 70.0
4.69999980927 0.800999999046 -0.0839999988675 68.0
4.74800014496 0.78100001812 -0.0839999988675 65.0
4.71700000763 0.746999979019 -0.0839999988675 60.0
4.71600008011 0.71899998188 -0.082999996841 66.0
4.70300006866 0.689999997616 -0.082999996841 64.0
4.76700019836 0.671000003815 -0.0839999988675 71.0
4.79699993134 0.647000014782 -0.0839999988675 64.0
4.79400014877 0.617999970913 -0.0839999988675 64.0
4.75 0.584999978542 -0.082999996841 66.0
4.79199981689 0.561999976635 -0.0839999988675 71.0
4.8220000267 0.537000000477 -0.0839999988675 64.0
4.83599996567 0.510999977589 -0.0839999988675 66.0
4.85500001907 0.483999997377 -0.0839999988675 60.0
4.8639998436 0.456999987364 -0.0839999988675 63.0
4.85699987411 0.428000003099 -0.0839999988675 57.0
4.867000103 0.400999993086 -0.0839999988675 59.0
4.88000011444 0.374000012875 -0.0839999988675 58.0
4.94899988174 0.34999999404 -0.0850000008941 51.0
1.01800000668 -0.0250000003725 -0.0170000009239 991.0
1.02799999714 -0.0309999994934 -0.0179999992251 258.0
1.00800001621 -0.0359999984503 -0.0170000009239 162.0
0.990000009537 -0.0410000011325 -0.0170000009239 156.0
0.976999998093 -0.0460000000894 -0.0170000009239 154.0
0.980000019073 -0.0520000010729 -0.0170000009239 162.0
0.987999975681 -0.0579999983311 -0.0170000009239 157.0
0.952000021935 -0.0619999989867 -0.01600000076 159.0
0.995999991894 -0.070000000298 -0.0170000009239 159.0
0.971000015736 -0.0740000009537 -0.01600000076 163.0
0.985000014305 -0.0810000002384 -0.0170000009239 167.0
0.962000012398 -0.0839999988675 -0.01600000076 161.0
0.955999970436 -0.0890000015497 -0.01600000076 169.0
0.948000013828 -0.0939999967813 -0.01600000076 170.0
0.945999979973 -0.0989999994636 -0.01600000076 195.0
0.96899998188 -0.108000002801 -0.01600000076 874.0
0.985000014305 -0.115000002086 -0.01600000076 1300.0
0.98400002718 -0.120999999344 -0.01600000076 1322.0
0.986000001431 -0.127000004053 -0.01600000076 1314.0
0.98299998045 -0.131999999285 -0.01600000076 1330.0
0.981999993324 -0.137999996543 -0.01600000076 1348.0
0.981000006199 -0.143000006676 -0.01600000076 1352.0
0.981999993324 -0.149000003934 -0.01600000076 1363.0
0.978999972343 -0.155000001192 -0.01600000076 1362.0
0.976999998093 -0.159999996424 -0.01600000076 1375.0
0.971000015736 -0.165000006557 -0.01600000076 1391.0
0.976000010967 -0.171000003815 -0.01600000076 1384.0
0.976000010967 -0.177000001073 -0.01600000076 1402.0
0.972000002861 -0.181999996305 -0.01600000076 1406.0
0.978999972343 -0.188999995589 -0.01600000076 1254.0
0.985000014305 -0.195999994874 -0.01600000076 355.0
0.953999996185 -0.195999994874 -0.01600000076 195.0
0.936999976635 -0.197999998927 -0.0149999996647 195.0
0.944999992847 -0.204999998212 -0.01600000076 197.0
0.93599998951 -0.209000006318 -0.0149999996647 196.0
0.925999999046 -0.212999999523 -0.0149999996647 199.0
0.930999994278 -0.218999996781 -0.0149999996647 195.0
0.93599998951 -0.225999996066 -0.0149999996647 198.0
0.95300000906 -0.236000001431 -0.01600000076 195.0
0.921000003815 -0.233999997377 -0.0149999996647 204.0
0.939999997616 -0.245000004768 -0.0149999996647 208.0
0.930999994278 -0.247999995947 -0.0149999996647 208.0
0.920000016689 -0.250999987125 -0.0149999996647 213.0
0.922999978065 -0.25799998641 -0.0149999996647 216.0
0.916999995708 -0.261999994516 -0.0149999996647 570.0
0.939999997616 -0.273999989033 -0.0149999996647 1430.0
0.945999979973 -0.282000005245 -0.01600000076 1525.0
0.941999971867 -0.287000000477 -0.0149999996647 1531.0
0.93900001049 -0.291999995708 -0.0149999996647 1530.0
0.939999997616 -0.298000007868 -0.0149999996647 1542.0
0.936999976635 -0.303000003099 -0.0149999996647 1546.0
0.938000023365 -0.310000002384 -0.0149999996647 1550.0
0.935000002384 -0.314999997616 -0.0149999996647 1560.0
0.930000007153 -0.319999992847 -0.0149999996647 1559.0
0.933000028133 -0.326999992132 -0.0149999996647 1553.0
0.927999973297 -0.331000000238 -0.0149999996647 1556.0
0.929000020027 -0.337999999523 -0.0149999996647 1578.0
0.925999999046 -0.342999994755 -0.0149999996647 1551.0
0.925000011921 -0.349000006914 -0.0149999996647 1539.0
0.949999988079 -0.365000009537 -0.01600000076 602.0
0.902999997139 -0.352999985218 -0.0149999996647 237.0
0.89099997282 -0.354000002146 -0.0149999996647 210.0
0.889999985695 -0.360000014305 -0.0149999996647 214.0
0.898999989033 -0.370000004768 -0.0149999996647 209.0
0.894999980927 -0.374000012875 -0.0149999996647 208.0
0.90499997139 -0.384999990463 -0.0149999996647 215.0
0.893000006676 -0.386000007391 -0.0149999996647 206.0
0.873000025749 -0.384000003338 -0.0140000004321 207.0
0.879999995232 -0.393000006676 -0.0140000004321 214.0
0.888999998569 -0.404000014067 -0.0149999996647 209.0
0.880999982357 -0.407000005245 -0.0149999996647 214.0
0.889999985695 -0.418000012636 -0.0149999996647 217.0
0.85799998045 -0.409000009298 -0.0140000004321 246.0
0.880999982357 -0.425999999046 -0.0149999996647 1185.0
0.903999984264 -0.444999992847 -0.0149999996647 1573.0
0.894999980927 -0.446999996901 -0.0149999996647 1586.0
0.893000006676 -0.45300000906 -0.0149999996647 1606.0
0.89099997282 -0.458999991417 -0.0149999996647 1607.0
0.893999993801 -0.467000007629 -0.0149999996647 1598.0
0.89099997282 -0.472999989986 -0.0149999996647 1597.0
0.888000011444 -0.477999985218 -0.0149999996647 1606.0
0.888999998569 -0.486000001431 -0.0149999996647 1602.0
0.884000003338 -0.490000009537 -0.0149999996647 1607.0
3.33599996567 1.57299995422 -0.0900000035763 93.0
3.42100000381 1.5870000124 -0.0920000001788 85.0
3.78299999237 1.70000004768 -0.10000000149 100.0
3.71099996567 1.63999998569 -0.097999997437 128.0
3.79600000381 1.65100002289 -0.10000000149 120.0
3.98399996758 1.70399999619 -0.104999996722 95.0
4.08900022507 1.72000002861 -0.107000000775 98.0
4.09100008011 1.69200003147 -0.107000000775 106.0
4.04799985886 1.64600002766 -0.104999996722 144.0
4.0689997673 1.62600004673 -0.105999998748 177.0
4.07100009918 1.59800004959 -0.104999996722 184.0
4.08400011063 1.57500004768 -0.104999996722 159.0
4.08500003815 1.54799997807 -0.104999996722 139.0
4.11299991608 1.52999997139 -0.104999996722 138.0
4.14599990845 1.51499998569 -0.105999998748 135.0
4.08699989319 1.4659999609 -0.104000002146 141.0
4.10200023651 1.44299995899 -0.104000002146 136.0
4.10799980164 1.41799998283 -0.104000002146 140.0
4.12099981308 1.39499998093 -0.104000002146 137.0
4.1360001564 1.37300002575 -0.104000002146 143.0
4.10599994659 1.33599996567 -0.103000000119 137.0
4.14499998093 1.3220000267 -0.104000002146 133.0
4.09800004959 1.27999997139 -0.101999998093 136.0
4.11600017548 1.25999999046 -0.101999998093 141.0
4.12699985504 1.23599994183 -0.101999998093 135.0
4.14200019836 1.21399998665 -0.103000000119 141.0
4.09200000763 1.1740000248 -0.101000003517 143.0
4.10900020599 1.15299999714 -0.101000003517 139.0
4.11199998856 1.12800002098 -0.101000003517 149.0
4.13500022888 1.10800004005 -0.101000003517 135.0
4.10599994659 1.07500004768 -0.10000000149 135.0
4.13000011444 1.05499994755 -0.101000003517 143.0
4.07899999619 1.01699995995 -0.0989999994636 113.0
4.54199981689 1.10399997234 -0.109999999404 67.0
4.60799980164 1.0909999609 -0.112000003457 75.0
4.53999996185 1.04700005054 -0.109999999404 86.0
4.61199998856 1.03600001335 -0.111000001431 85.0
4.59399986267 1.0039999485 -0.109999999404 78.0
4.59700012207 0.976000010967 -0.109999999404 77.0
4.64599990845 0.958999991417 -0.111000001431 74.0
4.63000011444 0.926999986172 -0.111000001431 80.0
4.61199998856 0.896000027657 -0.109999999404 80.0
4.68200016022 0.880999982357 -0.111000001431 75.0
4.70599985123 0.85799998045 -0.112000003457 78.0
4.71000003815 0.829999983311 -0.112000003457 73.0
4.71700000763 0.802999973297 -0.111000001431 69.0
4.72599983215 0.777000010014 -0.111000001431 67.0
4.6939997673 0.744000017643 -0.111000001431 72.0
4.72100019455 0.72000002861 -0.111000001431 73.0
4.75099992752 0.695999979973 -0.111000001431 70.0
4.73199987411 0.666000008583 -0.111000001431 67.0
4.77299976349 0.643000006676 -0.112000003457 71.0
4.72599983215 0.60900002718 -0.109999999404 69.0
4.77699995041 0.587999999523 -0.111000001431 63.0
4.78700017929 0.56099998951 -0.111000001431 66.0
4.8140001297 0.536000013351 -0.112000003457 63.0
4.88199996948 0.514999985695 -0.112999998033 66.0
4.84299993515 0.483000010252 -0.112000003457 67.0
4.875 0.458000004292 -0.112999998033 63.0
4.90000009537 0.432000011206 -0.112999998033 55.0
4.88199996948 0.402000010014 -0.112000003457 64.0
4.90799999237 0.375 -0.112999998033 61.0
4.88199996948 0.344999998808 -0.112000003457 51.0
2.65000009537 0.157000005245 -0.0610000006855 50.0
0.989000022411 -0.0189999993891 -0.0230000000447 467.0
1.01600003242 -0.0250000003725 -0.0230000000447 990.0
1.02900004387 -0.0309999994934 -0.0230000000447 250.0
1.00300002098 -0.0359999984503 -0.0230000000447 157.0
0.989000022411 -0.0410000011325 -0.0230000000447 160.0
0.957000017166 -0.0450000017881 -0.0219999998808 158.0
0.986000001431 -0.0529999993742 -0.0219999998808 158.0
0.962999999523 -0.0570000000298 -0.0219999998808 159.0
0.967000007629 -0.0630000010133 -0.0219999998808 164.0
0.971000015736 -0.0680000036955 -0.0219999998808 162.0
0.971000015736 -0.0740000009537 -0.0219999998808 159.0
0.972000002861 -0.0799999982119 -0.0219999998808 162.0
0.967999994755 -0.0850000008941 -0.0219999998808 165.0
0.977999985218 -0.0920000001788 -0.0219999998808 165.0
0.964999973774 -0.0960000008345 -0.0219999998808 171.0
0.952000021935 -0.10000000149 -0.0209999997169 198.0
0.97000002861 -0.108000002801 -0.0219999998808 914.0
0.990000009537 -0.115999996662 -0.0219999998808 1298.0
0.986999988556 -0.120999999344 -0.0219999998808 1310.0
0.985000014305 -0.127000004053 -0.0219999998808 1325.0
0.986000001431 -0.131999999285 -0.0219999998808 1335.0
0.981000006199 -0.137999996543 -0.0219999998808 1346.0
0.978999972343 -0.143000006676 -0.0219999998808 1353.0
0.976999998093 -0.148000001907 -0.0219999998808 1354.0
0.981999993324 -0.155000001192 -0.0219999998808 1367.0
0.971000015736 -0.158999994397 -0.0219999998808 1383.0
0.975000023842 -0.165000006557 -0.0219999998808 1383.0
0.972000002861 -0.171000003815 -0.0219999998808 1397.0
0.972000002861 -0.177000001073 -0.0219999998808 1405.0
0.96899998188 -0.181999996305 -0.0219999998808 1407.0
0.973999977112 -0.188999995589 -0.0219999998808 1251.0
0.990999996662 -0.197999998927 -0.0219999998808 346.0
0.930999994278 -0.190999999642 -0.0209999997169 196.0
0.940999984741 -0.199000000954 -0.0209999997169 193.0
0.962000012398 -0.209000006318 -0.0209999997169 198.0
0.948000013828 -0.211999997497 -0.0209999997169 201.0
0.929000020027 -0.212999999523 -0.0209999997169 192.0
0.944999992847 -0.223000004888 -0.0209999997169 205.0
0.938000023365 -0.226999998093 -0.0209999997169 207.0
0.936999976635 -0.231999993324 -0.0209999997169 200.0
0.941999971867 -0.239999994636 -0.0209999997169 207.0
0.924000024796 -0.240999996662 -0.0209999997169 210.0
0.931999981403 -0.248999997973 -0.0209999997169 204.0
0.929000020027 -0.254000008106 -0.0209999997169 209.0
0.925999999046 -0.259000003338 -0.0209999997169 214.0
0.911000013351 -0.259999990463 -0.019999999553 600.0
0.93900001049 -0.273999989033 -0.0209999997169 1438.0
0.944000005722 -0.282000005245 -0.0209999997169 1515.0
0.941999971867 -0.287000000477 -0.0209999997169 1534.0
0.935000002384 -0.291000008583 -0.0209999997169 1547.0
