ply
format ascii 1.0
element vertex 927
property float x
property float y
property float z
property float intensity
end_header
0.883000016212 0.509000003338 -0.135000005364 290.0
0.921000003815 0.523999989033 -0.141000002623 349.0
0.903999984264 0.507000029087 -0.137999996543 302.0
0.572000026703 0.314999997616 -0.0869999974966 181.0
0.76700001955 0.416999995708 -0.115999996662 255.0
0.298999994993 0.159999996424 -0.0450000017881 155.0
0.537999987602 0.284000009298 -0.0810000002384 104.0
0.852999985218 0.444000005722 -0.12800000608 93.0
1.12199997902 0.574999988079 -0.167999997735 96.0
1.52300000191 0.768999993801 -0.226999998093 173.0
1.51800000668 0.754999995232 -0.225999996066 144.0
1.04499995708 0.512000024319 -0.155000001192 75.0
1.11099994183 0.535000026226 -0.16400000453 78.0
1.2539999485 0.59500002861 -0.185000002384 73.0
0.216999992728 0.101000003517 -0.0320000015199 78.0
0.0270000007004 0.0120000001043 -0.00400000018999 90.0
0.0850000008941 0.0379999987781 -0.0120000001043 81.0
0.0949999988079 0.0419999994338 -0.0140000004321 74.0
2.23900008202 0.963999986649 -0.324999988079 77.0
2.29099988937 0.97000002861 -0.331999987364 89.0
2.24000000954 0.933000028133 -0.323000013828 98.0
2.24000000954 0.916999995708 -0.323000013828 93.0
2.42300009727 0.924000024796 -0.345999985933 151.0
2.53299999237 0.948000013828 -0.361000001431 69.0
4.71500015259 1.7009999752 -0.669000029564 83.0
4.73600006104 1.67700004578 -0.670000016689 82.0
4.69899988174 1.63199996948 -0.663999974728 84.0
4.71700000763 1.60699999332 -0.665000021458 75.0
4.64900016785 1.52199995518 -0.652999997139 80.0
4.71600008011 1.51300001144 -0.661000013351 83.0
4.67700004578 1.47000002861 -0.653999984264 73.0
4.48000001907 1.3789999485 -0.625999987125 69.0
4.72300004959 1.42299997807 -0.657999992371 83.0
4.75899982452 1.40299999714 -0.662000000477 86.0
4.5110001564 1.30099999905 -0.626999974251 67.0
4.72300004959 1.33200001717 -0.65499997139 88.0
4.78499984741 1.31900000572 -0.662999987602 82.0
4.53700017929 1.22200000286 -0.626999974251 79.0
4.76599979401 1.2539999485 -0.657999992371 88.0
4.78900003433 1.22899997234 -0.660000026226 86.0
4.61499977112 1.15600001812 -0.634999990463 92.0
4.15700006485 1.01499998569 -0.570999979973 103.0
4.34700012207 1.03499996662 -0.597000002861 105.0
4.60699987411 1.06799995899 -0.630999982357 99.0
4.67600011826 1.05499994755 -0.639999985695 107.0
4.55000019073 0.999000012875 -0.621999979019 136.0
4.42100000381 0.943000018597 -0.603999972343 162.0
4.47300004959 0.926999986172 -0.610000014305 152.0
4.61499977112 0.927999973297 -0.629000008106 134.0
4.50899982452 0.879999995232 -0.614000022411 165.0
4.57000017166 0.864000022411 -0.620999991894 151.0
4.67600011826 0.856000006199 -0.634999990463 135.0
4.70499992371 0.833000004292 -0.638000011444 122.0
4.73600006104 0.810000002384 -0.64099997282 116.0
4.73000001907 0.77999997139 -0.639999985695 118.0
4.72100019455 0.750999987125 -0.638000011444 115.0
4.79400014877 0.73400002718 -0.647000014782 108.0
4.78800010681 0.703999996185 -0.646000027657 107.0
4.76700019836 0.672999978065 -0.643000006676 115.0
4.73000001907 0.639999985695 -0.637000024319 117.0
4.75899982452 0.615000009537 -0.64099997282 113.0
4.73199987411 0.583999991417 -0.635999977589 105.0
4.76900005341 0.560000002384 -0.64099997282 101.0
4.76399993896 0.532000005245 -0.639999985695 104.0
4.74300003052 0.500999987125 -0.635999977589 101.0
4.73400020599 0.472999989986 -0.634999990463 99.0
4.72100019455 0.444000005722 -0.632000029087 111.0
4.74599981308 0.418000012636 -0.634999990463 118.0
4.70300006866 0.386999994516 -0.629000008106 133.0
4.6810002327 0.358000010252 -0.625999987125 132.0
4.65999984741 0.328999996185 -0.623000025749 139.0
4.59899997711 0.298000007868 -0.614000022411 155.0
4.59999990463 0.272000014782 -0.614000022411 161.0
4.58699989319 0.244000002742 -0.611999988556 163.0
4.59700012207 0.217999994755 -0.612999975681 162.0
4.66499996185 0.194000005722 -0.621999979019 141.0
4.91400003433 0.175999999046 -0.65499997139 121.0
4.93400001526 0.148000001907 -0.657000005245 120.0
4.89599990845 0.118000000715 -0.652000010014 143.0
4.86100006104 0.0890000015497 -0.647000014782 155.0
4.86600017548 0.0610000006855 -0.648000001907 151.0
4.89200019836 0.0329999998212 -0.651000022888 141.0
4.88999986649 0.00499999988824 -0.651000022888 143.0
4.87599992752 -0.0219999998808 -0.648999989033 139.0
4.91300010681 -0.0509999990463 -0.652999997139 144.0
4.90899991989 -0.0790000036359 -0.652999997139 139.0
4.92700004578 -0.108000002801 -0.65499997139 136.0
4.90500020981 -0.136000007391 -0.652000010014 139.0
4.90399980545 -0.16400000453 -0.652000010014 139.0
4.92000007629 -0.193000003695 -0.653999984264 136.0
4.92500019073 -0.222000002861 -0.65499997139 135.0
4.91099977493 -0.25 -0.652999997139 137.0
4.94799995422 -0.280999988317 -0.657999992371 140.0
4.92399978638 -0.307999998331 -0.65499997139 133.0
4.95900011063 -0.338999986649 -0.658999979496 133.0
4.90700006485 -0.363999992609 -0.652000010014 140.0
4.92000007629 -0.393999993801 -0.653999984264 136.0
4.9390001297 -0.423999994993 -0.657000005245 139.0
4.9359998703 -0.451999992132 -0.657000005245 140.0
4.94500017166 -0.481999993324 -0.657999992371 137.0
4.95599985123 -0.512000024319 -0.660000026226 139.0
4.93400001526 -0.538999974728 -0.657000005245 141.0
4.94000005722 -0.569000005722 -0.657999992371 134.0
4.96500015259 -0.601000010967 -0.661000013351 130.0
4.95900011063 -0.629000008106 -0.661000013351 133.0
0.0170000009239 0.0 -0.00200000009499 101.0
0.0460000000894 -0.00300000002608 -0.00600000005215 79.0
0.22499999404 -0.0289999991655 -0.0299999993294 86.0
0.275999993086 -0.0379999987781 -0.0370000004768 85.0
0.374000012875 -0.054999999702 -0.0500000007451 92.0
0.168999999762 -0.0240000002086 -0.0230000000447 81.0
0.156000003219 -0.0230000000447 -0.0209999997169 78.0
0.115000002086 -0.01600000076 -0.0149999996647 83.0
0.0949999988079 -0.0140000004321 -0.0130000002682 80.0
0.156000003219 -0.0260000005364 -0.0209999997169 81.0
0.163000002503 -0.0280000008643 -0.0219999998808 79.0
0.149000003934 -0.0260000005364 -0.019999999553 83.0
0.150999993086 -0.0270000007004 -0.019999999553 74.0
0.097000002861 -0.0170000009239 -0.0130000002682 78.0
0.118000000715 -0.0219999998808 -0.01600000076 80.0
0.109999999404 -0.0209999997169 -0.0149999996647 81.0
0.975000023842 -0.219999998808 -0.130999997258 690.0
0.964999973774 -0.224000006914 -0.129999995232 1191.0
0.958000004292 -0.228000000119 -0.128999993205 1113.0
0.952000021935 -0.232999995351 -0.12800000608 1120.0
0.950999975204 -0.238000005484 -0.128999993205 1159.0
0.95300000906 -0.245000004768 -0.128999993205 1195.0
0.947000026703 -0.248999997973 -0.12800000608 1217.0
0.941999971867 -0.254000008106 -0.12800000608 1257.0
0.936999976635 -0.25799998641 -0.127000004053 1272.0
0.93900001049 -0.264999985695 -0.12800000608 1287.0
0.944000005722 -0.272000014782 -0.12800000608 1328.0
0.940999984741 -0.277999997139 -0.12800000608 1328.0
0.936999976635 -0.282000005245 -0.12800000608 1333.0
0.929000020027 -0.286000013351 -0.127000004053 1365.0
0.933000028133 -0.293000012636 -0.12800000608 1383.0
0.875999987125 -0.280999988317 -0.119999997318 826.0
0.749000012875 -0.244000002742 -0.103000000119 292.0
0.714999973774 -0.238000005484 -0.097999997437 247.0
0.700999975204 -0.238000005484 -0.097000002861 250.0
0.723999977112 -0.25 -0.10000000149 244.0
0.708999991417 -0.25 -0.097999997437 244.0
0.685000002384 -0.246000006795 -0.0949999988079 244.0
0.70300000906 -0.256999999285 -0.097000002861 246.0
0.697000026703 -0.259999990463 -0.097000002861 257.0
0.708000004292 -0.268999993801 -0.097999997437 261.0
0.685000002384 -0.263999998569 -0.0949999988079 257.0
0.703999996185 -0.277000010014 -0.097999997437 250.0
0.688000023365 -0.27500000596 -0.0960000008345 267.0
0.671000003815 -0.273000001907 -0.0939999967813 265.0
0.893000006676 -0.370999991894 -0.125 921.0
0.887000024319 -0.375 -0.125 1541.0
0.888000011444 -0.381999999285 -0.125 1586.0
0.887000024319 -0.388000011444 -0.125 1595.0
0.882000029087 -0.391999989748 -0.125 1610.0
0.876999974251 -0.395999997854 -0.123999997973 1633.0
0.875999987125 -0.402000010014 -0.123999997973 1634.0
0.871999979019 -0.407000005245 -0.123999997973 1633.0
0.870000004768 -0.412000000477 -0.123999997973 1664.0
0.866999983788 -0.416999995708 -0.123999997973 1664.0
0.861999988556 -0.42199999094 -0.123999997973 1678.0
0.861000001431 -0.426999986172 -0.123999997973 1694.0
0.861999988556 -0.435000002384 -0.123999997973 1674.0
0.847000002861 -0.433999985456 -0.122000001371 1669.0
0.772000014782 -0.400999993086 -0.112000003457 713.0
0.633000016212 -0.331999987364 -0.0920000001788 329.0
0.625 -0.333000004292 -0.0909999981523 290.0
0.612999975681 -0.331999987364 -0.0900000035763 288.0
0.605000019073 -0.331999987364 -0.0890000015497 291.0
0.597999989986 -0.333000004292 -0.0879999995232 307.0
0.512000024319 0.294999986887 -0.082000002265 181.0
0.885999977589 0.504000008106 -0.141000002623 411.0
0.899999976158 0.504999995232 -0.143000006676 449.0
0.869000017643 0.479999989271 -0.137999996543 400.0
0.874000012875 0.476000010967 -0.137999996543 403.0
0.837999999523 0.449000000954 -0.131999999285 329.0
0.830999970436 0.43900001049 -0.129999995232 293.0
0.864000022411 0.449999988079 -0.135000005364 248.0
0.897000014782 0.460000008345 -0.140000000596 230.0
1.03299999237 0.522000014782 -0.16099999845 212.0
1.01900005341 0.507000029087 -0.158000007272 183.0
0.773999989033 0.379000008106 -0.119999997318 143.0
0.754000008106 0.363000005484 -0.115999996662 134.0
0.42199999094 0.196999996901 -0.0649999976158 97.0
0.423999994993 0.194999992847 -0.0649999976158 82.0
0.0320000015199 0.0120000001043 -0.00499999988824 79.0
4.61999988556 1.82700002193 -0.691999971867 68.0
2.51099991798 0.958000004292 -0.374000012875 81.0
4.6360001564 1.70599997044 -0.688000023365 67.0
0.0240000002086 0.00800000037998 -0.00300000002608 101.0
4.72599983215 1.6740000248 -0.698000013828 90.0
4.69000005722 1.62999999523 -0.691999971867 91.0
4.71000003815 1.60599994659 -0.693000018597 80.0
4.59000015259 1.5340000391 -0.674000024796 74.0
4.70699977875 1.54200005531 -0.689999997616 87.0
4.73999977112 1.52199995518 -0.694000005722 89.0
4.70900011063 1.48099994659 -0.688000023365 77.0
4.60699987411 1.41900002956 -0.67199999094 69.0
4.76999998093 1.43799996376 -0.694000005722 86.0
4.73500013351 1.39699995518 -0.688000023365 93.0
4.63399982452 1.3370000124 -0.67199999094 79.0
4.742000103 1.33800005913 -0.686999976635 78.0
4.76900005341 1.31500005722 -0.689999997616 93.0
4.6139998436 1.24399995804 -0.666000008583 81.0
4.74300003052 1.24800002575 -0.684000015259 90.0
4.76999998093 1.22500002384 -0.68599998951 90.0
4.6890001297 1.17499995232 -0.674000024796 88.0
4.20599985123 1.02799999714 -0.603999972343 97.0
4.31699991226 1.02799999714 -0.619000017643 104.0
4.58400011063 1.06299996376 -0.65600001812 94.0
4.62599992752 1.04499995708 -0.661000013351 119.0
4.54600000381 0.998000025749 -0.648999989033 129.0
4.49499988556 0.959999978542 -0.64099997282 148.0
4.51700019836 0.936999976635 -0.643000006676 139.0
4.62400007248 0.930999994278 -0.657999992371 138.0
4.49700021744 0.878000020981 -0.638999998569 169.0
4.58799982071 0.867999970913 -0.651000022888 146.0
4.77099990845 0.874000012875 -0.675999999046 103.0
4.76499986649 0.84399998188 -0.675000011921 101.0
4.74800014496 0.811999976635 -0.67199999094 92.0
4.81599998474 0.795000016689 -0.680000007153 101.0
4.81199979782 0.764999985695 -0.679000020027 101.0
4.79199981689 0.73400002718 -0.675999999046 100.0
4.77799987793 0.70300000906 -0.672999978065 107.0
4.79400014877 0.676999986172 -0.675000011921 106.0
4.76900005341 0.644999980927 -0.671000003815 106.0
4.76499986649 0.615999996662 -0.670000016689 100.0
4.73400020599 0.583999991417 -0.665000021458 95.0
4.77799987793 0.561999976635 -0.670000016689 97.0
4.80499982834 0.536000013351 -0.674000024796 107.0
4.84499979019 0.512000024319 -0.679000020027 99.0
4.81500005722 0.481000006199 -0.674000024796 95.0
4.71999979019 0.444000005722 -0.660000026226 100.0
4.82100009918 0.425000011921 -0.674000024796 101.0
4.83799982071 0.398000001907 -0.675999999046 102.0
4.79500007629 0.36700001359 -0.670000016689 99.0
4.81500005722 0.340000003576 -0.67199999094 103.0
4.69099998474 0.303999990225 -0.653999984264 136.0
4.60400009155 0.272000014782 -0.64200001955 162.0
4.60699987411 0.245000004768 -0.64200001955 166.0
4.6139998436 0.218999996781 -0.643000006676 165.0
4.6810002327 0.194999992847 -0.652000010014 153.0
4.89099979401 0.17499999702 -0.680999994278 122.0
4.94799995422 0.148000001907 -0.688000023365 122.0
4.89099979401 0.118000000715 -0.680000007153 138.0
4.87599992752 0.0900000035763 -0.677999973297 155.0
4.85200023651 0.0610000006855 -0.674000024796 145.0
4.89200019836 0.0329999998212 -0.680000007153 143.0
4.89200019836 0.00499999988824 -0.680000007153 146.0
4.90399980545 -0.0219999998808 -0.680999994278 140.0
4.88100004196 -0.0509999990463 -0.677999973297 138.0
4.90199995041 -0.0790000036359 -0.680999994278 141.0
4.92199993134 -0.108000002801 -0.683000028133 137.0
4.92500019073 -0.136999994516 -0.684000015259 135.0
4.91099977493 -0.165000006557 -0.681999981403 133.0
4.94500017166 -0.194999992847 -0.68599998951 132.0
4.92600011826 -0.222000002861 -0.684000015259 130.0
4.92600011826 -0.250999987125 -0.684000015259 129.0
4.95100021362 -0.280999988317 -0.686999976635 133.0
4.9470000267 -0.310000002384 -0.686999976635 132.0
4.90299987793 -0.335000008345 -0.680999994278 133.0
4.93400001526 -0.365999996662 -0.685000002384 133.0
4.92199993134 -0.393999993801 -0.684000015259 137.0
4.95599985123 -0.425999999046 -0.688000023365 139.0
4.93300008774 -0.45300000906 -0.685000002384 137.0
4.93800020218 -0.481999993324 -0.68599998951 136.0
4.95100021362 -0.512000024319 -0.688000023365 141.0
4.9359998703 -0.540000021458 -0.68599998951 134.0
4.94799995422 -0.569999992847 -0.688000023365 140.0
4.93200016022 -0.597000002861 -0.68599998951 137.0
4.95399999619 -0.629000008106 -0.689999997616 140.0
0.0419999994338 -0.00200000009499 -0.00600000005215 98.0
0.142000004649 -0.01600000076 -0.019999999553 81.0
0.233999997377 -0.0309999994934 -0.0320000015199 85.0
0.180999994278 -0.0240000002086 -0.0250000003725 83.0
0.263999998569 -0.0379999987781 -0.0370000004768 87.0
0.177000001073 -0.0250000003725 -0.0250000003725 88.0
0.097000002861 -0.0130000002682 -0.0140000004321 84.0
0.0939999967813 -0.0130000002682 -0.0130000002682 83.0
0.0640000030398 -0.00800000037998 -0.00899999961257 84.0
0.0810000002384 -0.0120000001043 -0.0109999999404 83.0
0.138999998569 -0.0230000000447 -0.0189999993891 83.0
0.119000002742 -0.019999999553 -0.0170000009239 81.0
0.131999999285 -0.0230000000447 -0.0179999992251 80.0
0.119999997318 -0.0219999998808 -0.0170000009239 84.0
0.0680000036955 -0.0109999999404 -0.00899999961257 81.0
0.190999999642 -0.0390000008047 -0.0270000007004 87.0
0.972000002861 -0.219999998808 -0.136999994516 716.0
0.922999978065 -0.21400000155 -0.129999995232 881.0
0.818000018597 -0.194000005722 -0.115000002086 328.0
0.827000021935 -0.202000007033 -0.116999998689 305.0
0.822000026703 -0.206000000238 -0.115999996662 321.0
0.846000015736 -0.216999992728 -0.119999997318 353.0
0.856000006199 -0.22499999404 -0.120999999344 384.0
0.867999970913 -0.233999997377 -0.123000003397 423.0
0.875999987125 -0.240999996662 -0.123999997973 457.0
0.879999995232 -0.247999995947 -0.125 510.0
0.875 -0.252000004053 -0.123999997973 557.0
0.888000011444 -0.261999994516 -0.126000002027 586.0
0.887000024319 -0.266999989748 -0.126000002027 634.0
0.89200001955 -0.273999989033 -0.127000004053 684.0
0.899999976158 -0.282999992371 -0.128999993205 730.0
0.89099997282 -0.286000013351 -0.12800000608 759.0
0.888999998569 -0.291000008583 -0.127000004053 805.0
0.888000011444 -0.296000003815 -0.127000004053 779.0
0.879999995232 -0.300000011921 -0.127000004053 758.0
0.870000004768 -0.301999986172 -0.125 724.0
0.871999979019 -0.307999998331 -0.126000002027 699.0
0.861999988556 -0.31099998951 -0.125 671.0
0.851000010967 -0.312000006437 -0.123000003397 639.0
0.855000019073 -0.319999992847 -0.123999997973 610.0
0.846000015736 -0.321999996901 -0.123000003397 580.0
0.836000025272 -0.324000000954 -0.122000001371 557.0
0.824000000954 -0.324999988079 -0.119999997318 526.0
0.824999988079 -0.331000000238 -0.119999997318 508.0
0.816999971867 -0.333999991417 -0.119999997318 494.0
0.889999985695 -0.370000004768 -0.129999995232 1011.0
0.876999974251 -0.370999991894 -0.128999993205 1334.0
0.878000020981 -0.377999991179 -0.128999993205 1371.0
0.879000008106 -0.384000003338 -0.129999995232 1396.0
0.871999979019 -0.388000011444 -0.128999993205 1412.0
0.873000025749 -0.395000010729 -0.128999993205 1425.0
0.866999983788 -0.398000001907 -0.128999993205 1440.0
0.861999988556 -0.402000010014 -0.12800000608 1471.0
0.867999970913 -0.412000000477 -0.129999995232 1482.0
0.856999993324 -0.412999987602 -0.12800000608 1511.0
0.85900002718 -0.419999986887 -0.128999993205 1508.0
0.85900002718 -0.426999986172 -0.128999993205 1534.0
0.852999985218 -0.430999994278 -0.128999993205 1540.0
0.847000002861 -0.433999985456 -0.12800000608 1501.0
0.755999982357 -0.393000006676 -0.11400000006 658.0
0.699999988079 -0.368999987841 -0.105999998748 401.0
0.68900001049 -0.368000000715 -0.104999996722 388.0
0.694000005722 -0.377000004053 -0.105999998748 397.0
0.671000003815 -0.370000004768 -0.103000000119 396.0
0.689999997616 -0.386000007391 -0.105999998748 401.0
0.490999996662 0.282999992371 -0.082000002265 188.0
0.911000013351 0.518999993801 -0.150999993086 510.0
0.913999974728 0.513000011444 -0.150999993086 557.0
0.925999999046 0.512000024319 -0.152999997139 569.0
0.931999981403 0.508000016212 -0.152999997139 569.0
0.936999976635 0.503000020981 -0.153999999166 566.0
0.929000020027 0.49200001359 -0.151999995112 557.0
0.944999992847 0.49200001359 -0.153999999166 551.0
0.93599998951 0.481000006199 -0.151999995112 537.0
0.929000020027 0.469999998808 -0.150999993086 522.0
0.939999997616 0.467999994755 -0.151999995112 516.0
0.925999999046 0.453999996185 -0.149000003934 492.0
0.913999974728 0.441000014544 -0.146999999881 461.0
0.913999974728 0.433999985456 -0.145999997854 447.0
0.921000003815 0.430999994278 -0.146999999881 418.0
0.90499997139 0.416000008583 -0.143999993801 378.0
0.915000021458 0.41400000453 -0.144999995828 346.0
0.920000016689 0.409999996424 -0.145999997854 321.0
0.924000024796 0.405000001192 -0.145999997854 287.0
0.894999980927 0.386000007391 -0.141000002623 254.0
0.880999982357 0.372999995947 -0.138999998569 224.0
0.933000028133 0.388999998569 -0.145999997854 300.0
0.911000013351 0.372999995947 -0.143000006676 255.0
0.739000022411 0.298000007868 -0.115000002086 173.0
0.712999999523 0.282000005245 -0.111000001431 151.0
0.827000021935 0.321000009775 -0.128999993205 157.0
1.06400001049 0.405999988317 -0.165000006557 88.0
0.193000003695 0.0710000023246 -0.0299999993294 80.0
0.15000000596 0.0540000014007 -0.0230000000447 104.0
0.0500000007451 0.0179999992251 -0.00800000037998 94.0
0.0640000030398 0.0219999998808 -0.00999999977648 94.0
4.7389998436 1.61699998379 -0.726999998093 93.0
4.71799993515 1.57799994946 -0.722000002861 72.0
4.74399995804 1.55499994755 -0.725000023842 87.0
4.77099990845 1.53299999237 -0.727999985218 96.0
4.75199985504 1.4960000515 -0.722999989986 89.0
4.74399995804 1.4620000124 -0.721000015736 77.0
4.79199981689 1.44599997997 -0.726999998093 91.0
4.78800010681 1.41400003433 -0.725000023842 94.0
4.73299980164 1.36699998379 -0.716000020504 76.0
4.79699993134 1.35500001907 -0.723999977112 88.0
4.83199977875 1.33399999142 -0.727999985218 94.0
4.7389998436 1.27799999714 -0.712999999523 83.0
4.79600000381 1.26300001144 -0.721000015736 90.0
4.83199977875 1.24199998379 -0.725000023842 94.0
4.76700019836 1.19599997997 -0.713999986649 90.0
4.50400018692 1.10099995136 -0.674000024796 92.0
4.57899999619 1.0909999609 -0.684000015259 92.0
4.70300006866 1.09200000763 -0.702000021935 97.0
4.8140001297 1.08800005913 -0.717000007629 96.0
4.79699993134 1.05400002003 -0.713999986649 103.0
4.66400003433 0.995999991894 -0.693000018597 126.0
4.59399986267 0.95300000906 -0.681999981403 126.0
4.69299983978 0.944999992847 -0.695999979973 119.0
4.59700012207 0.898000001907 -0.680999994278 146.0
4.70300006866 0.889999985695 -0.695999979973 128.0
4.81300020218 0.882000029087 -0.711000025272 100.0
4.79899978638 0.850000023842 -0.708000004292 101.0
4.74399995804 0.811999976635 -0.699000000954 97.0
4.757999897 0.786000013351 -0.700999975204 100.0
4.69799995422 0.748000025749 -0.690999984741 97.0
4.69500017166 0.71899998188 -0.689999997616 98.0
4.68200016022 0.68900001049 -0.688000023365 95.0
4.70200014114 0.663999974728 -0.689999997616 98.0
4.7389998436 0.64099997282 -0.694999992847 93.0
4.72200012207 0.611000001431 -0.691999971867 89.0
4.70399999619 0.580999970436 -0.688000023365 91.0
4.75 0.559000015259 -0.694999992847 96.0
4.71999979019 0.527000010014 -0.689999997616 101.0
4.72399997711 0.5 -0.689999997616 96.0
4.70699977875 0.469999998808 -0.686999976635 100.0
4.72100019455 0.444000005722 -0.688000023365 96.0
4.74499988556 0.418999999762 -0.691999971867 92.0
4.77699995041 0.393000006676 -0.695999979973 95.0
4.81199979782 0.368000000715 -0.699999988079 92.0
4.86000013351 0.344000011683 -0.707000017166 96.0
4.72499990463 0.305999994278 -0.686999976635 121.0
4.59600019455 0.270999997854 -0.667999982834 162.0
4.59100008011 0.244000002742 -0.666999995708 163.0
4.58699989319 0.217999994755 -0.666000008583 161.0
4.67600011826 0.194999992847 -0.679000020027 149.0
4.88399982452 0.17499999702 -0.708999991417 120.0
4.94500017166 0.148000001907 -0.717000007629 125.0
4.8639998436 0.118000000715 -0.704999983311 141.0
4.86100006104 0.0890000015497 -0.704999983311 154.0
4.87400007248 0.0610000006855 -0.705999970436 151.0
4.875 0.0329999998212 -0.705999970436 144.0
4.92600011826 0.00499999988824 -0.712999999523 143.0
4.91300010681 -0.0230000000447 -0.712000012398 142.0
4.89200019836 -0.0509999990463 -0.708000004292 142.0
4.89599990845 -0.0790000036359 -0.708999991417 136.0
4.9310002327 -0.108999997377 -0.713999986649 132.0
4.90000009537 -0.136000007391 -0.708999991417 137.0
4.93300008774 -0.165999993682 -0.713999986649 134.0
4.91300010681 -0.194000005722 -0.711000025272 135.0
4.93699979782 -0.223000004888 -0.713999986649 135.0
4.92600011826 -0.250999987125 -0.712999999523 139.0
4.93200016022 -0.280000001192 -0.713999986649 135.0
4.9310002327 -0.308999985456 -0.713999986649 132.0
4.9390001297 -0.337999999523 -0.714999973774 140.0
4.93499994278 -0.36700001359 -0.714999973774 139.0
4.9470000267 -0.397000014782 -0.716000020504 142.0
4.92999982834 -0.423999994993 -0.713999986649 141.0
4.93499994278 -0.45300000906 -0.714999973774 135.0
4.93499994278 -0.481999993324 -0.714999973774 145.0
4.95499992371 -0.513000011444 -0.717999994755 141.0
4.96400022507 -0.542999982834 -0.72000002861 136.0
4.94000005722 -0.569999992847 -0.716000020504 137.0
4.9310002327 -0.597999989986 -0.714999973774 139.0
4.95200014114 -0.629999995232 -0.71899998188 138.0
0.0810000002384 -0.00700000021607 -0.0120000001043 100.0
0.0780000016093 -0.00700000021607 -0.0109999999404 87.0
0.141000002623 -0.0170000009239 -0.019999999553 85.0
0.156000003219 -0.019999999553 -0.0230000000447 82.0
0.125 -0.01600000076 -0.0179999992251 88.0
0.0710000023246 -0.00800000037998 -0.00999999977648 87.0
0.12800000608 -0.0179999992251 -0.0189999993891 90.0
0.108999997377 -0.0149999996647 -0.01600000076 89.0
0.125 -0.0189999993891 -0.0179999992251 99.0
0.118000000715 -0.0179999992251 -0.0170000009239 96.0
0.0489999987185 -0.00600000005215 -0.00700000021607 84.0
0.194999992847 -0.035000000149 -0.0280000008643 89.0
0.0960000008345 -0.01600000076 -0.0140000004321 89.0
0.131999999285 -0.0240000002086 -0.0189999993891 89.0
0.202000007033 -0.0399999991059 -0.0299999993294 91.0
0.175999999046 -0.0359999984503 -0.0260000005364 88.0
0.975000023842 -0.221000000834 -0.143000006676 764.0
0.920000016689 -0.21400000155 -0.135000005364 821.0
0.748000025749 -0.178000003099 -0.109999999404 234.0
0.697000026703 -0.170000001788 -0.103000000119 205.0
0.708000004292 -0.177000001073 -0.104000002146 205.0
0.711000025272 -0.181999996305 -0.104999996722 208.0
0.722999989986 -0.189999997616 -0.107000000775 208.0
0.708999991417 -0.189999997616 -0.104999996722 215.0
0.694000005722 -0.190999999642 -0.103000000119 219.0
0.699999988079 -0.196999996901 -0.104000002146 213.0
0.684000015259 -0.196999996901 -0.101000003517 221.0
0.708999991417 -0.208000004292 -0.104999996722 215.0
0.691999971867 -0.208000004292 -0.103000000119 226.0
0.681999981403 -0.209000006318 -0.101000003517 233.0
0.71899998188 -0.22499999404 -0.107000000775 237.0
0.930000007153 -0.298999994993 -0.138999998569 879.0
0.925000011921 -0.303000003099 -0.137999996543 1391.0
0.924000024796 -0.308999985456 -0.137999996543 1428.0
0.919000029564 -0.312999993563 -0.137999996543 1429.0
0.917999982834 -0.319000005722 -0.137999996543 1432.0
0.912000000477 -0.323000013828 -0.136999994516 1420.0
0.908999979496 -0.32800000906 -0.136999994516 1419.0
0.90600001812 -0.333000004292 -0.136999994516 1429.0
0.902000010014 -0.337999999523 -0.136000007391 1426.0
0.898000001907 -0.342999994755 -0.136000007391 1421.0
0.893999993801 -0.347000002861 -0.136000007391 1407.0
0.897000014782 -0.354000002146 -0.136000007391 1425.0
0.887000024319 -0.356999993324 -0.135000005364 1401.0
0.879999995232 -0.360000014305 -0.134000003338 1380.0
0.828999996185 -0.344999998808 -0.127000004053 780.0
0.786000013351 -0.331999987364 -0.119999997318 446.0
0.788999974728 -0.338999986649 -0.120999999344 449.0
0.796000003815 -0.347999989986 -0.123000003397 477.0
0.797999978065 -0.354999989271 -0.123000003397 497.0
0.800000011921 -0.361000001431 -0.123999997973 519.0
0.796000003815 -0.365000009537 -0.123000003397 557.0
0.801999986172 -0.374000012875 -0.125 579.0
0.804000020027 -0.381000012159 -0.125 613.0
0.804000020027 -0.386999994516 -0.125 634.0
0.800000011921 -0.391000002623 -0.125 673.0
0.805999994278 -0.400999993086 -0.126000002027 705.0
0.810000002384 -0.409000009298 -0.127000004053 738.0
0.813000023365 -0.416999995708 -0.12800000608 788.0
0.825999975204 -0.430000007153 -0.129999995232 1016.0
0.82800000906 -0.437999993563 -0.130999997258 1111.0
0.816999971867 -0.437999993563 -0.129999995232 1101.0
0.815999984741 -0.444000005722 -0.129999995232 1098.0
0.810000002384 -0.446999996901 -0.128999993205 1070.0
0.804000020027 -0.451000005007 -0.128999993205 1059.0
0.412000000477 0.237000003457 -0.0710000023246 186.0
0.79699999094 0.453999996185 -0.137999996543 340.0
0.832000017166 0.467000007629 -0.143000006676 367.0
0.842000007629 0.465999990702 -0.144999995828 371.0
0.912000000477 0.497000008821 -0.156000003219 471.0
0.880999982357 0.472999989986 -0.15000000596 433.0
0.883000016212 0.467999994755 -0.15000000596 448.0
0.916000008583 0.477999985218 -0.155000001192 472.0
0.916000008583 0.469999998808 -0.155000001192 500.0
0.926999986172 0.469000011683 -0.156000003219 529.0
0.935000002384 0.465999990702 -0.157000005245 549.0
0.922999978065 0.45300000906 -0.155000001192 555.0
0.941999971867 0.455000013113 -0.157000005245 567.0
0.941999971867 0.448000013828 -0.157000005245 588.0
0.940999984741 0.439999997616 -0.156000003219 586.0
0.953999996185 0.43900001049 -0.158000007272 600.0
0.947000026703 0.428999990225 -0.157000005245 617.0
0.949000000954 0.423000007868 -0.156000003219 617.0
0.949000000954 0.416000008583 -0.156000003219 626.0
0.949000000954 0.409000009298 -0.156000003219 624.0
0.950999975204 0.402999997139 -0.156000003219 627.0
0.95300000906 0.397000014782 -0.156000003219 629.0
0.944000005722 0.386999994516 -0.153999999166 608.0
0.959999978542 0.386999994516 -0.156000003219 595.0
0.944999992847 0.374000012875 -0.152999997139 582.0
0.940999984741 0.365999996662 -0.151999995112 563.0
0.945999979973 0.361000001431 -0.152999997139 526.0
0.952000021935 0.356999993324 -0.152999997139 504.0
0.929000020027 0.342000007629 -0.149000003934 464.0
0.908999979496 0.328999996185 -0.145999997854 434.0
0.89099997282 0.316000014544 -0.143000006676 413.0
0.883000016212 0.307000011206 -0.141000002623 367.0
0.866999983788 0.296000003815 -0.137999996543 333.0
0.878000020981 0.293999999762 -0.140000000596 285.0
0.828999996185 0.272000014782 -0.131999999285 267.0
0.783999979496 0.252000004053 -0.123999997973 242.0
0.714999973774 0.22499999404 -0.112999998033 214.0
0.694000005722 0.21400000155 -0.109999999404 179.0
0.621999979019 0.187999993563 -0.097999997437 161.0
0.532999992371 0.158000007272 -0.0839999988675 151.0
0.485000014305 0.140000000596 -0.0759999975562 121.0
0.324999988079 0.0920000001788 -0.0509999990463 114.0
0.21099999547 0.0579999983311 -0.0329999998212 113.0
0.123999997973 0.0340000018477 -0.0189999993891 98.0
0.115000002086 0.0309999994934 -0.0179999992251 100.0
0.0570000000298 0.0149999996647 -0.00899999961257 98.0
4.875 1.22300004959 -0.759999990463 86.0
4.58799982071 1.12300002575 -0.713999986649 95.0
4.65500020981 1.11000001431 -0.723999977112 90.0
4.78599977493 1.11199998856 -0.742999970913 106.0
4.88899993896 1.10500001907 -0.758000016212 97.0
4.86299991608 1.06900000572 -0.753000020981 96.0
4.74900007248 1.01499998569 -0.73400002718 109.0
4.7389998436 0.98400002718 -0.731999993324 116.0
4.80000019073 0.967000007629 -0.740000009537 116.0
4.67500019073 0.913999974728 -0.72000002861 124.0
4.71500015259 0.893000006676 -0.726000010967 117.0
4.86199998856 0.89099997282 -0.746999979019 103.0
4.82299995422 0.855000019073 -0.740999996662 96.0
4.867000103 0.833000004292 -0.746999979019 95.0
4.81199979782 0.795000016689 -0.737999975681 93.0
4.80999994278 0.76599997282 -0.736000001431 98.0
4.76800012589 0.731000006199 -0.728999972343 91.0
4.78800010681 0.704999983311 -0.731999993324 90.0
4.79199981689 0.676999986172 -0.731999993324 89.0
4.80000019073 0.649999976158 -0.731999993324 92.0
4.77799987793 0.619000017643 -0.727999985218 90.0
4.8060002327 0.59399998188 -0.731999993324 98.0
4.81199979782 0.565999984741 -0.731999993324 93.0
4.78599977493 0.535000026226 -0.727999985218 91.0
4.83300018311 0.512000024319 -0.735000014305 92.0
4.8109998703 0.481000006199 -0.731000006199 95.0
4.80499982834 0.451999992132 -0.728999972343 93.0
4.88899993896 0.430999994278 -0.740999996662 88.0
4.86800003052 0.400999993086 -0.737999975681 92.0
4.90700006485 0.375999987125 -0.742999970913 90.0
4.882999897 0.344999998808 -0.739000022411 92.0
4.79899978638 0.31099998951 -0.726000010967 125.0
4.6890001297 0.277000010014 -0.708999991417 135.0
4.69199991226 0.25 -0.708999991417 138.0
4.70100021362 0.223000004888 -0.709999978542 143.0
4.75 0.197999998927 -0.717999994755 134.0
4.94099998474 0.177000001073 -0.745999991894 109.0
4.96999979019 0.149000003934 -0.75 109.0
4.90199995041 0.118000000715 -0.740000009537 128.0
4.90999984741 0.0900000035763 -0.740999996662 136.0
4.90399980545 0.0619999989867 -0.740000009537 129.0
4.90799999237 0.0329999998212 -0.740000009537 136.0
4.91200017929 0.00499999988824 -0.740000009537 132.0
4.9279999733 -0.0230000000447 -0.742999970913 135.0
4.91900014877 -0.0509999990463 -0.740999996662 131.0
4.92100000381 -0.0799999982119 -0.741999983788 131.0
4.92199993134 -0.108999997377 -0.741999983788 130.0
4.95100021362 -0.137999996543 -0.745999991894 130.0
4.94000005722 -0.165999993682 -0.744000017643 127.0
4.93400001526 -0.194999992847 -0.742999970913 128.0
4.94199991226 -0.224000006914 -0.744000017643 129.0
4.93200016022 -0.252000004053 -0.742999970913 121.0
4.96500015259 -0.282999992371 -0.748000025749 132.0
4.96500015259 -0.312000006437 -0.748000025749 137.0
4.93699979782 -0.338999986649 -0.744000017643 129.0
4.93499994278 -0.36700001359 -0.744000017643 139.0
4.97300004959 -0.398999989033 -0.75 136.0
4.93800020218 -0.425000011921 -0.744000017643 137.0
4.94799995422 -0.455000013113 -0.745999991894 138.0
4.94099998474 -0.483000010252 -0.745000004768 140.0
4.9439997673 -0.513000011444 -0.745999991894 141.0
4.96000003815 -0.542999982834 -0.749000012875 136.0
4.95800018311 -0.572000026703 -0.749000012875 131.0
4.92999982834 -0.597999989986 -0.745000004768 141.0
4.94000005722 -0.629000008106 -0.745999991894 140.0
0.0219999998808 0.0 -0.00300000002608 111.0
0.107000000775 -0.0109999999404 -0.01600000076 88.0
0.0949999988079 -0.00999999977648 -0.0140000004321 87.0
0.0520000010729 -0.00400000018999 -0.00800000037998 85.0
0.0989999994636 -0.0120000001043 -0.0149999996647 80.0
0.0960000008345 -0.0120000001043 -0.0140000004321 87.0
0.108999997377 -0.0149999996647 -0.01600000076 91.0
0.0879999995232 -0.0120000001043 -0.0130000002682 91.0
0.119999997318 -0.0179999992251 -0.0179999992251 104.0
0.129999995232 -0.0209999997169 -0.019999999553 107.0
0.0780000016093 -0.0109999999404 -0.0120000001043 86.0
0.112999998033 -0.0189999993891 -0.0170000009239 88.0
0.103000000119 -0.0170000009239 -0.01600000076 92.0
0.168999999762 -0.0320000015199 -0.0260000005364 95.0
0.128999993205 -0.0240000002086 -0.0189999993891 93.0
0.962000012398 -0.217999994755 -0.146999999881 799.0
0.913999974728 -0.212999999523 -0.140000000596 802.0
0.744000017643 -0.177000001073 -0.11400000006 238.0
0.68900001049 -0.167999997735 -0.104999996722 205.0
0.697000026703 -0.173999994993 -0.107000000775 207.0
0.693000018597 -0.177000001073 -0.105999998748 209.0
0.684000015259 -0.179000005126 -0.104999996722 211.0
0.68900001049 -0.185000002384 -0.105999998748 212.0
0.663999974728 -0.181999996305 -0.101999998093 206.0
0.662000000477 -0.186000004411 -0.101999998093 211.0
0.700999975204 -0.202000007033 -0.108000002801 218.0
0.680999994278 -0.20000000298 -0.104999996722 219.0
0.700999975204 -0.21099999547 -0.108000002801 218.0
0.674000024796 -0.207000002265 -0.104000002146 226.0
0.693000018597 -0.216999992728 -0.108000002801 237.0
0.930000007153 -0.298999994993 -0.144999995828 923.0
0.925000011921 -0.303999990225 -0.143999993801 1418.0
0.920000016689 -0.307999998331 -0.143000006676 1455.0
0.921000003815 -0.31400001049 -0.143999993801 1473.0
0.913999974728 -0.317999988794 -0.143000006676 1460.0
0.911000013351 -0.323000013828 -0.143000006676 1468.0
0.912000000477 -0.330000013113 -0.143000006676 1485.0
0.908999979496 -0.335000008345 -0.143000006676 1499.0
0.912000000477 -0.342000007629 -0.143999993801 1507.0
0.902999997139 -0.344999998808 -0.142000004649 1505.0
0.896000027657 -0.347999989986 -0.142000004649 1534.0
0.897000014782 -0.354999989271 -0.142000004649 1538.0
0.889999985695 -0.358000010252 -0.141000002623 1564.0
0.889999985695 -0.363999992609 -0.141000002623 1535.0
0.819999992847 -0.342000007629 -0.130999997258 685.0
0.666000008583 -0.280999988317 -0.105999998748 278.0
0.662999987602 -0.284000009298 -0.105999998748 258.0
0.660000026226 -0.287999987602 -0.105999998748 274.0
0.625 -0.277000010014 -0.10000000149 268.0
0.67199999094 -0.303000003099 -0.108000002801 271.0
0.64099997282 -0.293999999762 -0.103000000119 277.0
0.629000008106 -0.293000012636 -0.101999998093 275.0
0.638000011444 -0.301999986172 -0.103000000119 279.0
0.65600001812 -0.314999997616 -0.105999998748 285.0
0.64200001955 -0.312999993563 -0.104999996722 289.0
0.638000011444 -0.316000014544 -0.104000002146 293.0
0.620000004768 -0.312000006437 -0.101000003517 287.0
0.759999990463 -0.388999998569 -0.125 411.0
0.851000010967 -0.442999988794 -0.140000000596 1416.0
0.847999989986 -0.448000013828 -0.140000000596 1667.0
0.838999986649 -0.451000005007 -0.138999998569 1691.0
0.842000007629 -0.458999991417 -0.140000000596 1702.0
0.836000025272 -0.462999999523 -0.138999998569 1702.0
0.828999996185 -0.465000003576 -0.137999996543 1691.0
0.51700001955 0.298999994993 -0.0930000022054 221.0
0.598999977112 0.340999990702 -0.107000000775 241.0
0.474000006914 0.266000002623 -0.0850000008941 201.0
0.351000010967 0.194000005722 -0.0619999989867 173.0
0.89099997282 0.486999988556 -0.158000007272 430.0
0.758000016212 0.407999992371 -0.134000003338 308.0
0.433999985456 0.229000002146 -0.0759999975562 174.0
0.602999985218 0.314999997616 -0.105999998748 157.0
0.748000025749 0.384999990463 -0.130999997258 178.0
0.856000006199 0.432999998331 -0.15000000596 210.0
0.871999979019 0.435000002384 -0.151999995112 243.0
0.824999988079 0.405000001192 -0.143999993801 261.0
0.834999978542 0.402999997139 -0.144999995828 294.0
0.865999996662 0.412000000477 -0.15000000596 332.0
0.885999977589 0.414999991655 -0.152999997139 356.0
0.911000013351 0.419999986887 -0.157000005245 394.0
0.912000000477 0.412999987602 -0.157000005245 444.0
0.926999986172 0.41400000453 -0.158999994397 485.0
0.930000007153 0.407999992371 -0.158999994397 509.0
0.938000023365 0.405000001192 -0.159999996424 539.0
0.948000013828 0.402000010014 -0.16099999845 570.0
0.941999971867 0.393000006676 -0.159999996424 610.0
0.953999996185 0.391000002623 -0.16099999845 632.0
0.950999975204 0.38299998641 -0.16099999845 664.0
0.962000012398 0.381000012159 -0.162000000477 681.0
0.961000025272 0.374000012875 -0.162000000477 702.0
0.963999986649 0.368000000715 -0.162000000477 738.0
0.959999978542 0.361000001431 -0.16099999845 742.0
0.967000007629 0.356000006199 -0.16099999845 732.0
0.972000002861 0.351999998093 -0.162000000477 762.0
0.972000002861 0.344999998808 -0.162000000477 757.0
0.955999970436 0.333000004292 -0.158999994397 769.0
0.971000015736 0.331999987364 -0.16099999845 770.0
0.964999973774 0.323000013828 -0.159999996424 773.0
0.967000007629 0.317999988794 -0.159999996424 767.0
0.97000002861 0.312000006437 -0.159999996424 762.0
0.97000002861 0.305999994278 -0.158999994397 760.0
0.957000017166 0.294999986887 -0.157000005245 745.0
0.967000007629 0.291999995708 -0.158000007272 719.0
0.962999999523 0.284999996424 -0.158000007272 704.0
0.958999991417 0.277000010014 -0.157000005245 669.0
0.954999983311 0.270000010729 -0.156000003219 650.0
0.962000012398 0.266000002623 -0.157000005245 608.0
0.949000000954 0.256000012159 -0.153999999166 580.0
0.938000023365 0.247999995947 -0.151999995112 539.0
0.934000015259 0.240999996662 -0.150999993086 511.0
0.915000021458 0.230000004172 -0.148000001907 464.0
0.908999979496 0.223000004888 -0.146999999881 414.0
0.889999985695 0.212999999523 -0.143999993801 375.0
0.864000022411 0.201000005007 -0.138999998569 345.0
0.85799998045 0.194000005722 -0.137999996543 313.0
0.829999983311 0.182999998331 -0.133000001311 277.0
0.736000001431 0.158000007272 -0.118000000715 244.0
0.693000018597 0.144999995828 -0.111000001431 210.0
0.606000006199 0.123000003397 -0.097000002861 193.0
0.519999980927 0.101999998093 -0.082999996841 175.0
0.465000003576 0.0890000015497 -0.0740000009537 157.0
0.425999999046 0.0790000036359 -0.0680000036955 143.0
0.354999989271 0.0640000030398 -0.0560000017285 128.0
0.277999997139 0.0480000004172 -0.0439999997616 119.0
0.180000007153 0.0309999994934 -0.0280000008643 109.0
0.0930000022054 0.01600000076 -0.0149999996647 99.0
0.0790000036359 0.0130000002682 -0.0120000001043 93.0
0.0149999996647 0.00300000002608 -0.00200000009499 89.0
4.94899988174 0.699999988079 -0.785000026226 96.0
4.90199995041 0.663999974728 -0.777000010014 92.0
4.87799978256 0.632000029087 -0.773000001907 90.0
4.85099983215 0.600000023842 -0.768000006676 86.0
4.89200019836 0.575999975204 -0.773999989033 92.0
4.87400007248 0.545000016689 -0.769999980927 92.0
4.89200019836 0.518000006676 -0.773000001907 88.0
4.86999988556 0.486999988556 -0.768999993801 86.0
4.867000103 0.458000004292 -0.768000006676 88.0
4.90999984741 0.432999998331 -0.773999989033 93.0
4.96000003815 0.409000009298 -0.78100001812 92.0
4.94999980927 0.379000008106 -0.778999984264 90.0
4.92000007629 0.347999989986 -0.773999989033 96.0
4.79199981689 0.31099998951 -0.754000008106 116.0
4.73699998856 0.280000001192 -0.745000004768 128.0
4.72399997711 0.252000004053 -0.741999983788 133.0
4.73699998856 0.22499999404 -0.744000017643 130.0
4.79400014877 0.199000000954 -0.753000020981 124.0
4.97100019455 0.178000003099 -0.77999997139 101.0
0.0179999992251 0.00200000009499 -0.00300000002608 110.0
4.9310002327 0.119000002742 -0.773000001907 121.0
4.94199991226 0.0909999981523 -0.774999976158 127.0
4.92299985886 0.0619999989867 -0.772000014782 133.0
4.94600009918 0.0329999998212 -0.774999976158 123.0
4.92399978638 0.00499999988824 -0.772000014782 123.0
4.96000003815 -0.0230000000447 -0.777000010014 124.0
4.95699977875 -0.0520000010729 -0.776000022888 126.0
4.98199987411 -0.0810000002384 -0.77999997139 117.0
5.0110001564 -0.111000001431 -0.785000026226 117.0
4.95800018311 -0.137999996543 -0.776000022888 111.0
4.96700000763 -0.167999997735 -0.777999997139 115.0
4.97800016403 -0.196999996901 -0.778999984264 115.0
4.96099996567 -0.22499999404 -0.777000010014 114.0
4.99399995804 -0.256000012159 -0.782000005245 114.0
4.99499988556 -0.284999996424 -0.782000005245 117.0
4.99700021744 -0.31400001049 -0.782999992371 117.0
4.96400022507 -0.340999990702 -0.777000010014 115.0
4.97300004959 -0.370000004768 -0.778999984264 122.0
4.98999977112 -0.400999993086 -0.782000005245 124.0
4.99599981308 -0.430999994278 -0.782999992371 116.0
4.97700023651 -0.458000004292 -0.77999997139 117.0
4.97100019455 -0.486999988556 -0.778999984264 116.0
4.98699998856 -0.518000006676 -0.782000005245 115.0
4.97499990463 -0.546000003815 -0.78100001812 113.0
4.96600008011 -0.574000000954 -0.778999984264 118.0
4.96799993515 -0.602999985218 -0.77999997139 123.0
4.95100021362 -0.630999982357 -0.777999997139 117.0
0.0120000001043 0.0010000000475 -0.00200000009499 93.0
0.0769999995828 -0.00700000021607 -0.0120000001043 83.0
0.0529999993742 -0.00400000018999 -0.00800000037998 87.0
0.0869999974966 -0.00999999977648 -0.0130000002682 82.0
0.123999997973 -0.01600000076 -0.0189999993891 73.0
0.107000000775 -0.0140000004321 -0.0170000009239 85.0
0.0769999995828 -0.00899999961257 -0.0120000001043 82.0
0.0579999983311 -0.00700000021607 -0.00899999961257 90.0
0.105999998748 -0.01600000076 -0.0170000009239 94.0
0.0930000022054 -0.0140000004321 -0.0149999996647 94.0
0.0790000036359 -0.0120000001043 -0.0120000001043 87.0
0.0869999974966 -0.0140000004321 -0.0140000004321 82.0
0.0619999989867 -0.00899999961257 -0.00999999977648 85.0
0.0799999982119 -0.0130000002682 -0.0120000001043 89.0
0.101999998093 -0.0179999992251 -0.01600000076 90.0
0.20000000298 -0.0410000011325 -0.0320000015199 85.0
0.971000015736 -0.219999998808 -0.153999999166 830.0
0.90600001812 -0.21099999547 -0.143999993801 745.0
0.763000011444 -0.181999996305 -0.120999999344 231.0
0.677999973297 -0.165000006557 -0.108000002801 200.0
0.685000002384 -0.171000003815 -0.108999997377 208.0
0.707000017166 -0.180999994278 -0.112999998033 211.0
0.690999984741 -0.180999994278 -0.109999999404 218.0
0.691999971867 -0.186000004411 -0.111000001431 216.0
0.694999992847 -0.190999999642 -0.111000001431 211.0
0.686999976635 -0.193000003695 -0.109999999404 221.0
0.697000026703 -0.201000005007 -0.112000003457 218.0
0.699000000954 -0.206000000238 -0.112000003457 215.0
0.684000015259 -0.206000000238 -0.109999999404 225.0
0.680000007153 -0.209000006318 -0.109999999404 231.0
0.722999989986 -0.226999998093 -0.116999998689 234.0
0.929000020027 -0.298999994993 -0.15000000596 982.0
0.925000011921 -0.303999990225 -0.15000000596 1418.0
0.922999978065 -0.308999985456 -0.15000000596 1447.0
0.92199999094 -0.314999997616 -0.15000000596 1466.0
0.916000008583 -0.319000005722 -0.149000003934 1478.0
0.908999979496 -0.323000013828 -0.148000001907 1473.0
0.910000026226 -0.328999996185 -0.148000001907 1470.0
0.90499997139 -0.333000004292 -0.148000001907 1501.0
0.899999976158 -0.337999999523 -0.146999999881 1506.0
0.902999997139 -0.344999998808 -0.148000001907 1523.0
0.896000027657 -0.347999989986 -0.146999999881 1529.0
0.893000006676 -0.354000002146 -0.146999999881 1539.0
0.89200001955 -0.358999997377 -0.146999999881 1562.0
0.884999990463 -0.363000005484 -0.145999997854 1515.0
0.79699999094 -0.331999987364 -0.131999999285 635.0
0.665000021458 -0.280999988317 -0.109999999404 275.0
0.657000005245 -0.282000005245 -0.108999997377 264.0
0.64200001955 -0.280000001192 -0.107000000775 262.0
0.639999985695 -0.284000009298 -0.107000000775 260.0
0.648000001907 -0.293000012636 -0.108000002801 270.0
0.638000011444 -0.293000012636 -0.107000000775 273.0
0.626999974251 -0.291999995708 -0.104999996722 276.0
0.611999988556 -0.289999991655 -0.103000000119 282.0
0.628000020981 -0.301999986172 -0.105999998748 272.0
0.634999990463 -0.310000002384 -0.108000002801 285.0
0.624000012875 -0.308999985456 -0.105999998748 290.0
0.612999975681 -0.308999985456 -0.104000002146 281.0
0.760999977589 -0.389999985695 -0.129999995232 452.0
0.855000019073 -0.446000009775 -0.145999997854 1455.0
0.847000002861 -0.449000000954 -0.144999995828 1670.0
0.838999986649 -0.451000005007 -0.143999993801 1728.0
0.834999978542 -0.456000000238 -0.143999993801 1724.0
0.834999978542 -0.462000012398 -0.143999993801 1718.0
0.830999970436 -0.467000007629 -0.143999993801 1748.0
0.259999990463 0.15000000596 -0.0480000004172 183.0
0.224000006914 0.127000004053 -0.0410000011325 169.0
0.143999993801 0.0799999982119 -0.0270000007004 156.0
0.208000004292 0.11400000006 -0.0379999987781 160.0
0.90600001812 0.495000004768 -0.166999995708 431.0
0.772000014782 0.414999991655 -0.142000004649 336.0
0.17499999702 0.0920000001788 -0.0320000015199 143.0
0.476000010967 0.247999995947 -0.0869999974966 101.0
0.722999989986 0.372000008821 -0.131999999285 95.0
1.08899998665 0.551999986172 -0.197999998927 103.0
0.991999983788 0.495000004768 -0.180000007153 91.0
0.499000012875 0.245000004768 -0.0900000035763 85.0
0.397000014782 0.190999999642 -0.0710000023246 99.0
0.425000011921 0.202000007033 -0.0759999975562 94.0
0.363000005484 0.170000001788 -0.0649999976158 103.0
0.363999992609 0.167999997735 -0.0649999976158 96.0
0.56099998951 0.254000008106 -0.10000000149 104.0
0.688000023365 0.307000011206 -0.122000001371 123.0
0.583000004292 0.256000012159 -0.103000000119 126.0
0.652000010014 0.282000005245 -0.115000002086 153.0
0.76599997282 0.324999988079 -0.135000005364 170.0
0.833999991417 0.347999989986 -0.146999999881 202.0
0.864000022411 0.354999989271 -0.151999995112 242.0
0.84399998188 0.340000003576 -0.148000001907 287.0
0.862999975681 0.342000007629 -0.150999993086 332.0
0.894999980927 0.349000006914 -0.156000003219 382.0
0.924000024796 0.354000002146 -0.16099999845 420.0
0.919000029564 0.344999998808 -0.159999996424 453.0
0.922999978065 0.340000003576 -0.159999996424 497.0
0.925999999046 0.335000008345 -0.159999996424 538.0
0.940999984741 0.333999991417 -0.162000000477 584.0
0.948000013828 0.331000000238 -0.163000002503 623.0
0.949999988079 0.324999988079 -0.163000002503 668.0
0.962000012398 0.323000013828 -0.165000006557 716.0
0.967000007629 0.317999988794 -0.165999993682 740.0
0.966000020504 0.31099998951 -0.165000006557 767.0
0.972999989986 0.307000011206 -0.165999993682 804.0
0.967000007629 0.298999994993 -0.165000006557 835.0
0.972999989986 0.293999999762 -0.165000006557 849.0
0.978999972343 0.289999991655 -0.165999993682 848.0
0.980000019073 0.284000009298 -0.165999993682 867.0
0.972999989986 0.275999993086 -0.165000006557 902.0
0.976000010967 0.270000010729 -0.165000006557 918.0
0.977999985218 0.264999985695 -0.165000006557 929.0
0.97000002861 0.256000012159 -0.163000002503 922.0
0.975000023842 0.250999987125 -0.16400000453 944.0
0.973999977112 0.245000004768 -0.16400000453 944.0
0.978999972343 0.239999994636 -0.16400000453 929.0
0.973999977112 0.232999995351 -0.163000002503 919.0
0.977999985218 0.228000000119 -0.16400000453 921.0
0.97000002861 0.219999998808 -0.162000000477 911.0
0.975000023842 0.215000003576 -0.163000002503 899.0
0.973999977112 0.209000006318 -0.162000000477 886.0
0.976000010967 0.202999994159 -0.162000000477 890.0
0.971000015736 0.195999994874 -0.16099999845 853.0
0.967000007629 0.189999997616 -0.16099999845 829.0
0.959999978542 0.182999998331 -0.158999994397 812.0
0.97000002861 0.179000005126 -0.16099999845 777.0
0.961000025272 0.171000003815 -0.158999994397 743.0
0.949000000954 0.163000002503 -0.157000005245 704.0
0.95300000906 0.158000007272 -0.157000005245 679.0
0.949999988079 0.151999995112 -0.157000005245 642.0
0.941999971867 0.144999995828 -0.155000001192 596.0
0.933000028133 0.137999996543 -0.153999999166 564.0
0.926999986172 0.131999999285 -0.151999995112 536.0
