ply
format ascii 1.0
element vertex 929
property float x
property float y
property float z
property float intensity
end_header
0.912999987602 -0.308999985456 -0.21099999547 1451.0
0.910000026226 -0.314999997616 -0.21099999547 1463.0
0.912000000477 -0.321999996901 -0.211999997497 1451.0
0.907999992371 -0.326000005007 -0.21099999547 1455.0
0.902999997139 -0.331000000238 -0.21099999547 1450.0
0.901000022888 -0.33599999547 -0.209999993443 1391.0
0.829999983311 -0.314999997616 -0.194000005722 497.0
0.648000001907 -0.248999997973 -0.151999995112 251.0
0.646000027657 -0.252999991179 -0.151999995112 244.0
0.661000013351 -0.263999998569 -0.155000001192 247.0
0.623000025749 -0.252999991179 -0.146999999881 240.0
0.617999970913 -0.254999995232 -0.145999997854 246.0
0.657999992371 -0.277000010014 -0.156000003219 249.0
0.634999990463 -0.270999997854 -0.15000000596 244.0
0.646000027657 -0.280999988317 -0.152999997139 244.0
0.638000011444 -0.282000005245 -0.151999995112 248.0
0.620999991894 -0.279000014067 -0.148000001907 246.0
0.646000027657 -0.296000003815 -0.155000001192 243.0
0.64099997282 -0.298000007868 -0.153999999166 247.0
0.839999973774 -0.398000001907 -0.202000007033 772.0
0.876999974251 -0.42199999094 -0.21099999547 1396.0
0.883000016212 -0.432999998331 -0.21400000155 1484.0
0.873000025749 -0.433999985456 -0.211999997497 1475.0
0.873000025749 -0.441000014544 -0.211999997497 1473.0
0.870999991894 -0.446999996901 -0.211999997497 1446.0
0.866999983788 -0.451000005007 -0.211999997497 1471.0
0.867999970913 -0.458999991417 -0.212999999523 1458.0
0.861999988556 -0.462999999523 -0.211999997497 1431.0
0.864000022411 -0.470999985933 -0.212999999523 1423.0
0.860000014305 -0.476000010967 -0.212999999523 1440.0
0.856000006199 -0.481000006199 -0.211999997497 1416.0
0.851999998093 -0.486000001431 -0.211999997497 1315.0
4.23600006104 2.49099993706 -1.11500000954 194.0
4.28700017929 2.4849998951 -1.125 187.0
0.00700000021607 0.00300000002608 -0.0010000000475 193.0
0.00999999977648 0.00499999988824 -0.00200000009499 182.0
0.0179999992251 0.00899999961257 -0.00400000018999 186.0
4.35300016403 2.37700009346 -1.12800002098 181.0
4.36600017548 2.34899997711 -1.12800002098 185.0
4.38000011444 2.32100009918 -1.12800002098 176.0
4.38700008392 2.28900003433 -1.12600004673 173.0
4.39300012589 2.25699996948 -1.12399995327 185.0
4.41200017929 2.23200011253 -1.12600004673 172.0
4.34100008011 2.16199994087 -1.10500001907 167.0
4.23099994659 2.07399988174 -1.07400000095 177.0
4.30800008774 2.07899999619 -1.09000003338 165.0
4.36899995804 2.07500004768 -1.10300004482 165.0
4.43200016022 2.07100009918 -1.11500000954 177.0
4.46199989319 2.05100011826 -1.12000000477 171.0
4.47100019455 2.02200007439 -1.12000000477 169.0
4.48799991608 1.9960000515 -1.1210000515 160.0
4.5110001564 1.97300004959 -1.12399995327 160.0
4.53599977493 1.9509999752 -1.12699997425 160.0
4.54699993134 1.92200005054 -1.12699997425 161.0
4.57800006866 1.90199995041 -1.13199996948 153.0
4.5529999733 1.85899996758 -1.12300002575 155.0
4.58300018311 1.83899998665 -1.12800002098 150.0
4.59499979019 1.81099998951 -1.1289999485 147.0
4.58199977875 1.77300000191 -1.12300002575 144.0
4.5689997673 1.73599994183 -1.11699998379 151.0
4.57100009918 1.70500004292 -1.11600005627 140.0
4.58500003815 1.67900002003 -1.11699998379 145.0
4.58799982071 1.64800000191 -1.11500000954 140.0
4.61600017548 1.62699997425 -1.12000000477 145.0
4.60500001907 1.5909999609 -1.11500000954 136.0
4.66900014877 1.58200001717 -1.12800002098 137.0
4.69500017166 1.55900001526 -1.13199996948 130.0
4.6859998703 1.52499997616 -1.12800002098 132.0
0.00700000021607 0.00200000009499 -0.0010000000475 139.0
4.72399997711 1.47399997711 -1.13300001621 137.0
4.72900009155 1.44500005245 -1.13199996948 138.0
4.70699977875 1.40699994564 -1.125 135.0
4.73600006104 1.38499999046 -1.12999999523 129.0
4.70800018311 1.34599995613 -1.12199997902 130.0
4.72200012207 1.31900000572 -1.12300002575 131.0
4.71899986267 1.2879999876 -1.1210000515 125.0
4.73999977112 1.26300001144 -1.12399995327 123.0
4.76300001144 1.23899996281 -1.12800002098 122.0
4.78200006485 1.21399998665 -1.13100004196 120.0
0.00800000037998 0.00200000009499 -0.0010000000475 122.0
4.80000019073 1.15699994564 -1.13199996948 125.0
4.82600021362 1.13300001621 -1.13699996471 124.0
4.8109998703 1.10000002384 -1.13199996948 118.0
4.79799985886 1.06700003147 -1.12699997425 118.0
4.81300020218 1.03999996185 -1.1289999485 118.0
4.82899999619 1.01300001144 -1.13199996948 119.0
4.8109998703 0.980000019073 -1.12600004673 118.0
4.83900022507 0.955999970436 -1.13100004196 114.0
4.83599996567 0.925000011921 -1.1289999485 108.0
4.84800004959 0.898000001907 -1.13100004196 106.0
4.85599994659 0.869000017643 -1.13199996948 100.0
4.78000020981 0.827000021935 -1.11300003529 108.0
4.83099985123 0.805999994278 -1.12300002575 110.0
4.80499982834 0.773000001907 -1.11600005627 106.0
4.80900001526 0.744000017643 -1.11600005627 108.0
4.867000103 0.723999977112 -1.1289999485 110.0
4.86299991608 0.694000005722 -1.12699997425 111.0
4.90100002289 0.670000016689 -1.13499999046 111.0
0.01600000076 0.00300000002608 -0.00300000002608 104.0
0.01600000076 0.00300000002608 -0.00300000002608 115.0
4.91400003433 0.583000004292 -1.13499999046 112.0
4.91800022125 0.554000020027 -1.13499999046 113.0
0.0140000004321 0.00300000002608 -0.00300000002608 109.0
4.91599988937 0.495999991894 -1.13300001621 104.0
0.0149999996647 0.00300000002608 -0.00300000002608 102.0
4.90100002289 0.43599998951 -1.1289999485 103.0
0.019999999553 0.00300000002608 -0.00400000018999 94.0
0.0109999999404 0.00200000009499 -0.00200000009499 90.0
4.94299983978 0.351999998093 -1.13600003719 93.0
0.0399999991059 0.00400000018999 -0.00899999961257 93.0
4.94299983978 0.293000012636 -1.13499999046 86.0
0.0240000002086 0.00300000002608 -0.00499999988824 85.0
0.0280000008643 0.00300000002608 -0.00600000005215 89.0
4.95200014114 0.206000000238 -1.13600003719 87.0
0.01600000076 0.00200000009499 -0.00300000002608 87.0
4.9390001297 0.148000001907 -1.13300001621 85.0
0.0149999996647 0.00200000009499 -0.00300000002608 84.0
0.0460000000894 0.00200000009499 -0.00999999977648 88.0
4.92199993134 0.0610000006855 -1.12800002098 76.0
0.00899999961257 0.00200000009499 -0.00200000009499 82.0
0.0189999993891 0.00200000009499 -0.00400000018999 81.0
0.00600000005215 0.00200000009499 -0.0010000000475 81.0
4.95300006866 -0.0540000014007 -1.13399994373 84.0
0.150999993086 0.0 -0.0340000018477 93.0
0.949999988079 -0.0189999993891 -0.216999992728 714.0
0.980000019073 -0.0260000005364 -0.224000006914 1176.0
0.976000010967 -0.0309999994934 -0.223000004888 1189.0
0.981999993324 -0.0370000004768 -0.224000006914 1195.0
0.980000019073 -0.0430000014603 -0.224000006914 1189.0
0.973999977112 -0.0480000004172 -0.223000004888 1205.0
0.978999972343 -0.0540000014007 -0.224000006914 1219.0
0.97000002861 -0.0599999986589 -0.222000002861 1205.0
0.973999977112 -0.0649999976158 -0.223000004888 1220.0
0.967999994755 -0.0710000023246 -0.222000002861 1234.0
0.97000002861 -0.0769999995828 -0.222000002861 1233.0
0.966000020504 -0.082000002265 -0.221000000834 1230.0
0.972000002861 -0.0879999995232 -0.223000004888 1227.0
0.967000007629 -0.0930000022054 -0.221000000834 1228.0
0.964999973774 -0.0989999994636 -0.221000000834 1231.0
0.941999971867 -0.101999998093 -0.216000005603 822.0
0.809000015259 -0.0920000001788 -0.185000002384 270.0
0.801999986172 -0.0960000008345 -0.184000000358 259.0
0.801999986172 -0.101000003517 -0.184000000358 275.0
0.82800000906 -0.108999997377 -0.189999997616 294.0
0.824000000954 -0.112999998033 -0.188999995589 312.0
0.841000020504 -0.120999999344 -0.193000003695 344.0
0.842999994755 -0.126000002027 -0.194000005722 359.0
0.866999983788 -0.135000005364 -0.20000000298 404.0
0.861999988556 -0.138999998569 -0.197999998927 433.0
0.875 -0.146999999881 -0.202000007033 465.0
0.885999977589 -0.153999999166 -0.203999996185 508.0
0.879000008106 -0.158000007272 -0.202999994159 531.0
0.888000011444 -0.165000006557 -0.204999998212 567.0
0.907999992371 -0.17499999702 -0.209999993443 659.0
0.913999974728 -0.181999996305 -0.21099999547 858.0
0.915000021458 -0.187000006437 -0.211999997497 874.0
0.917999982834 -0.194000005722 -0.212999999523 842.0
0.911000013351 -0.197999998927 -0.21099999547 820.0
0.907999992371 -0.202999994159 -0.21099999547 798.0
0.902999997139 -0.207000002265 -0.209999993443 769.0
0.893999993801 -0.21099999547 -0.208000004292 717.0
0.896000027657 -0.216999992728 -0.209000006318 694.0
0.889999985695 -0.221000000834 -0.208000004292 671.0
0.879000008106 -0.224000006914 -0.204999998212 648.0
0.875999987125 -0.228000000119 -0.204999998212 622.0
0.867999970913 -0.231999993324 -0.202999994159 602.0
0.875 -0.239999994636 -0.204999998212 585.0
0.869000017643 -0.243000000715 -0.203999996185 598.0
0.903999984264 -0.259000003338 -0.211999997497 1000.0
0.908999979496 -0.266000002623 -0.21400000155 1077.0
0.90499997139 -0.270999997854 -0.212999999523 1104.0
0.908999979496 -0.277999997139 -0.215000003576 1106.0
0.90600001812 -0.284000009298 -0.21400000155 1122.0
0.903999984264 -0.28900000453 -0.21400000155 1136.0
0.899999976158 -0.293000012636 -0.212999999523 1138.0
0.899999976158 -0.300000011921 -0.21400000155 1164.0
0.89200001955 -0.303000003099 -0.211999997497 1169.0
0.902999997139 -0.312999993563 -0.215000003576 1176.0
0.894999980927 -0.316000014544 -0.21400000155 1180.0
0.894999980927 -0.321999996901 -0.21400000155 1184.0
0.89099997282 -0.326999992132 -0.212999999523 1196.0
0.888000011444 -0.331999987364 -0.212999999523 1117.0
0.820999979973 -0.312000006437 -0.196999996901 533.0
0.805999994278 -0.312000006437 -0.194000005722 458.0
0.799000024796 -0.314999997616 -0.193000003695 456.0
0.796000003815 -0.319000005722 -0.192000001669 456.0
0.790000021458 -0.321999996901 -0.190999999642 460.0
0.800999999046 -0.333000004292 -0.194000005722 465.0
0.791999995708 -0.335000008345 -0.193000003695 481.0
0.820999979973 -0.352999985218 -0.20000000298 477.0
0.804000020027 -0.351000010967 -0.195999994874 481.0
0.816999971867 -0.363000005484 -0.20000000298 493.0
0.814999997616 -0.368999987841 -0.20000000298 492.0
0.811999976635 -0.372999995947 -0.20000000298 508.0
0.804000020027 -0.375999987125 -0.197999998927 528.0
0.84399998188 -0.400999993086 -0.209000006318 892.0
0.85900002718 -0.414999991655 -0.212999999523 1077.0
0.865999996662 -0.423999994993 -0.215000003576 1093.0
0.855000019073 -0.425999999046 -0.212999999523 1081.0
0.851000010967 -0.430000007153 -0.212999999523 1057.0
0.852999985218 -0.437999993563 -0.21400000155 1033.0
0.848999977112 -0.442999988794 -0.212999999523 1025.0
0.84399998188 -0.446999996901 -0.211999997497 989.0
0.837999999523 -0.449999988079 -0.211999997497 973.0
0.837000012398 -0.456999987364 -0.211999997497 947.0
0.833000004292 -0.462000012398 -0.211999997497 941.0
0.829999983311 -0.467000007629 -0.21099999547 909.0
0.813000023365 -0.463999986649 -0.208000004292 833.0
4.26300001144 2.51099991798 -1.15299999714 195.0
0.0109999999404 0.00499999988824 -0.00200000009499 199.0
4.29199981689 2.45499992371 -1.15299999714 195.0
0.0130000002682 0.00600000005215 -0.00300000002608 183.0
4.32399988174 2.40100002289 -1.15400004387 193.0
4.33599996567 2.3710000515 -1.15400004387 190.0
4.36000013351 2.34899997711 -1.15600001812 182.0
4.36800003052 2.3180000782 -1.15499997139 179.0
4.35699987411 2.27699995041 -1.14900004864 190.0
4.37200021744 2.24900007248 -1.14900004864 173.0
4.41300010681 2.23600006104 -1.15600001812 177.0
4.34200000763 2.16499996185 -1.13499999046 174.0
4.20699977875 2.06500005722 -1.09599995613 175.0
4.27299976349 2.06500005722 -1.11000001431 171.0
4.38500022888 2.08500003815 -1.13600003719 170.0
4.44099998474 2.07800006866 -1.14800000191 172.0
4.4390001297 2.04399991035 -1.14400005341 167.0
4.47900009155 2.02800011635 -1.15199995041 171.0
4.51800012589 2.01200008392 -1.1590000391 166.0
4.52699995041 1.98300004005 -1.15799999237 160.0
0.00499999988824 0.00200000009499 -0.0010000000475 160.0
0.0109999999404 0.00400000018999 -0.00200000009499 165.0
4.56300020218 1.89800000191 -1.1590000391 161.0
0.0170000009239 0.00700000021607 -0.00400000018999 152.0
4.57299995422 1.8370000124 -1.15600001812 154.0
4.60400009155 1.81700003147 -1.16100001335 153.0
4.59600019455 1.78100001812 -1.15699994564 146.0
4.58799982071 1.7460000515 -1.15199995041 153.0
4.62400007248 1.72699999809 -1.1590000391 148.0
4.57499980927 1.67700004578 -1.14400005341 147.0
4.61299991608 1.6590000391 -1.15100002289 150.0
4.62799978256 1.63300001621 -1.15299999714 142.0
4.63999986649 1.60599994659 -1.15299999714 141.0
4.65500020981 1.57899999619 -1.15499997139 143.0
4.65700006485 1.54799997807 -1.15299999714 138.0
4.6970000267 1.52999997139 -1.16100001335 133.0
4.70599985123 1.50199997425 -1.16100001335 138.0
4.70100021362 1.46899998188 -1.15799999237 141.0
4.69000005722 1.43400001526 -1.15299999714 138.0
0.019999999553 0.00600000005215 -0.00400000018999 135.0
4.71899986267 1.38100004196 -1.15600001812 125.0
4.67600011826 1.33800005913 -1.14400005341 135.0
4.75400018692 1.33000004292 -1.16100001335 128.0
4.70100021362 1.28499996662 -1.14600002766 133.0
4.69999980927 1.2539999485 -1.14499998093 126.0
4.75199985504 1.23699998856 -1.15499997139 126.0
4.79600000381 1.21800005436 -1.16499996185 114.0
4.78700017929 1.18599998951 -1.16100001335 125.0
4.75199985504 1.14699995518 -1.15100002289 129.0
4.76900005341 1.1210000515 -1.15299999714 123.0
4.80499982834 1.09899997711 -1.15999996662 121.0
0.00700000021607 0.00200000009499 -0.0010000000475 121.0
4.80800008774 1.03999996185 -1.15799999237 116.0
4.82600021362 1.01400005817 -1.16100001335 117.0
4.8029999733 0.978999972343 -1.15400004387 122.0
4.81500005722 0.952000021935 -1.15600001812 117.0
4.82299995422 0.924000024796 -1.15600001812 109.0
4.8029999733 0.889999985695 -1.14999997616 110.0
4.79799985886 0.860000014305 -1.14800000191 109.0
4.78700017929 0.828999996185 -1.14400005341 108.0
4.83199977875 0.806999981403 -1.15400004387 111.0
4.84499979019 0.77999997139 -1.15600001812 111.0
4.86299991608 0.753000020981 -1.1590000391 99.0
4.88800001144 0.726999998093 -1.16400003433 107.0
0.0140000004321 0.00300000002608 -0.00300000002608 109.0
4.882999897 0.667999982834 -1.16100001335 112.0
0.0289999991655 0.00499999988824 -0.00600000005215 114.0
4.88000011444 0.60900002718 -1.15799999237 114.0
4.91099977493 0.583000004292 -1.16499996185 112.0
0.0170000009239 0.00300000002608 -0.00300000002608 111.0
4.90500020981 0.523999989033 -1.16199994087 111.0
4.92000007629 0.495999991894 -1.16499996185 110.0
4.90899991989 0.465999990702 -1.16199994087 107.0
4.90100002289 0.43599998951 -1.1590000391 97.0
4.90799999237 0.407999992371 -1.15999996662 97.0
4.9279999733 0.379999995232 -1.16400003433 95.0
4.89300012589 0.347999989986 -1.15499997139 92.0
4.94000005722 0.323000013828 -1.16600000858 87.0
4.90899991989 0.291999995708 -1.15799999237 86.0
4.88999986649 0.261999994516 -1.15299999714 87.0
4.92399978638 0.233999997377 -1.16100001335 86.0
4.91900014877 0.204999998212 -1.1590000391 86.0
0.00899999961257 0.00200000009499 -0.00200000009499 92.0
4.91699981689 0.146999999881 -1.15799999237 89.0
4.94000005722 0.119000002742 -1.1629999876 82.0
4.93800020218 0.0900000035763 -1.16199994087 85.0
0.0280000008643 0.00200000009499 -0.00600000005215 88.0
0.0149999996647 0.00200000009499 -0.00300000002608 90.0
0.0370000004768 0.00200000009499 -0.00800000037998 86.0
0.00800000037998 0.00200000009499 -0.0010000000475 84.0
0.00600000005215 0.00200000009499 -0.0010000000475 79.0
0.135000005364 0.0 -0.0309999994934 89.0
0.958999991417 -0.019999999553 -0.22499999404 747.0
0.981999993324 -0.0260000005364 -0.230000004172 1177.0
0.980000019073 -0.0320000015199 -0.230000004172 1185.0
0.976999998093 -0.0370000004768 -0.229000002146 1186.0
0.981999993324 -0.0430000014603 -0.231000006199 1196.0
0.980000019073 -0.0489999987185 -0.230000004172 1207.0
0.977999985218 -0.0540000014007 -0.229000002146 1224.0
0.973999977112 -0.0599999986589 -0.229000002146 1218.0
0.975000023842 -0.0659999996424 -0.229000002146 1225.0
0.97000002861 -0.0710000023246 -0.228000000119 1242.0
0.967999994755 -0.0769999995828 -0.226999998093 1237.0
0.964999973774 -0.082000002265 -0.226999998093 1236.0
0.967000007629 -0.0879999995232 -0.226999998093 1243.0
0.963999986649 -0.0930000022054 -0.226999998093 1241.0
0.962999999523 -0.0989999994636 -0.226999998093 1249.0
0.939999997616 -0.101999998093 -0.221000000834 794.0
0.76599997282 -0.0869999974966 -0.180000007153 226.0
0.714999973774 -0.0850000008941 -0.167999997735 206.0
0.713999986649 -0.0890000015497 -0.167999997735 203.0
0.708000004292 -0.0930000022054 -0.166999995708 208.0
0.707000017166 -0.097000002861 -0.166999995708 212.0
0.707000017166 -0.101000003517 -0.166999995708 214.0
0.694999992847 -0.104000002146 -0.16400000453 216.0
0.685000002384 -0.105999998748 -0.162000000477 218.0
0.713999986649 -0.115000002086 -0.168999999762 222.0
0.680000007153 -0.11400000006 -0.16099999845 220.0
0.705999970436 -0.122000001371 -0.166999995708 225.0
0.708000004292 -0.127000004053 -0.167999997735 221.0
0.705999970436 -0.130999997258 -0.166999995708 219.0
0.860000014305 -0.165999993682 -0.203999996185 475.0
0.936999976635 -0.186000004411 -0.223000004888 1278.0
0.940999984741 -0.193000003695 -0.224000006914 1351.0
0.939999997616 -0.199000000954 -0.224000006914 1367.0
0.936999976635 -0.203999996185 -0.223000004888 1379.0
0.938000023365 -0.209999993443 -0.224000006914 1365.0
0.935000002384 -0.215000003576 -0.223000004888 1363.0
0.93900001049 -0.222000002861 -0.224000006914 1367.0
0.931999981403 -0.225999996066 -0.223000004888 1373.0
0.924000024796 -0.230000004172 -0.221000000834 1382.0
0.925000011921 -0.236000001431 -0.222000002861 1355.0
0.927999973297 -0.243000000715 -0.223000004888 1379.0
0.925999999046 -0.247999995947 -0.223000004888 1368.0
0.926999986172 -0.254000008106 -0.223000004888 1363.0
0.912000000477 -0.256000012159 -0.219999998808 1230.0
0.837000012398 -0.239999994636 -0.202000007033 426.0
0.73400002718 -0.215000003576 -0.177000001073 287.0
0.740000009537 -0.221000000834 -0.179000005126 294.0
0.740999996662 -0.225999996066 -0.179000005126 299.0
0.737999975681 -0.230000004172 -0.179000005126 305.0
0.754999995232 -0.240999996662 -0.182999998331 305.0
0.763999998569 -0.248999997973 -0.186000004411 325.0
0.753000020981 -0.25 -0.182999998331 329.0
0.754000008106 -0.256000012159 -0.184000000358 325.0
0.754000008106 -0.261000007391 -0.184000000358 332.0
0.78100001812 -0.275999993086 -0.190999999642 340.0
0.768000006676 -0.275999993086 -0.187999993563 340.0
0.754999995232 -0.275999993086 -0.186000004411 350.0
0.802999973297 -0.300000011921 -0.197999998927 466.0
0.887000024319 -0.337999999523 -0.218999996781 1177.0
0.888000011444 -0.344999998808 -0.219999998808 1314.0
0.888999998569 -0.351000010967 -0.219999998808 1310.0
0.89099997282 -0.358000010252 -0.221000000834 1317.0
0.888999998569 -0.363999992609 -0.221000000834 1296.0
0.884000003338 -0.368000000715 -0.219999998808 1287.0
0.885999977589 -0.375999987125 -0.222000002861 1308.0
0.887000024319 -0.381999999285 -0.222000002861 1315.0
0.884999990463 -0.388000011444 -0.222000002861 1300.0
0.880999982357 -0.391999989748 -0.222000002861 1305.0
0.876999974251 -0.397000014782 -0.221000000834 1298.0
0.878000020981 -0.404000014067 -0.222000002861 1307.0
0.873000025749 -0.409000009298 -0.221000000834 1298.0
0.842000007629 -0.40000000596 -0.21400000155 721.0
0.748000025749 -0.361000001431 -0.189999997616 374.0
0.709999978542 -0.347999989986 -0.180999994278 348.0
0.691999971867 -0.344000011683 -0.177000001073 343.0
0.72000002861 -0.363999992609 -0.185000002384 345.0
0.697000026703 -0.358000010252 -0.179000005126 341.0
0.670000016689 -0.349000006914 -0.172999992967 332.0
0.680000007153 -0.360000014305 -0.175999999046 323.0
0.680000007153 -0.365000009537 -0.175999999046 325.0
0.65499997139 -0.356999993324 -0.170000001788 319.0
0.634000003338 -0.34999999404 -0.165000006557 305.0
0.629000008106 -0.352999985218 -0.16400000453 307.0
0.717000007629 -0.409000009298 -0.187999993563 443.0
4.25899982452 2.51200008392 -1.18200004101 196.0
4.25400018692 2.47199988365 -1.17700004578 197.0
4.25400018692 2.43600010872 -1.17299997807 198.0
0.0260000005364 0.0130000002682 -0.00600000005215 194.0
4.31199979782 2.39700007439 -1.18099999428 193.0
0.00899999961257 0.00400000018999 -0.00200000009499 197.0
4.32800006866 2.33500003815 -1.1779999733 195.0
4.34999990463 2.31100010872 -1.17999994755 187.0
4.35500001907 2.27900004387 -1.1779999733 184.0
4.38000011444 2.25699996948 -1.18200004101 184.0
4.37599992752 2.22000002861 -1.17700004578 180.0
4.40000009537 2.1970000267 -1.17999994755 180.0
4.28599977493 2.10700011253 -1.14600002766 175.0
4.31500005722 2.08800005913 -1.15100002289 173.0
4.40000009537 2.09500002861 -1.16999995708 172.0
4.45699977875 2.08800005913 -1.18200004101 180.0
4.46099996567 2.05599999428 -1.17999994755 170.0
4.492000103 2.03699994087 -1.18499994278 174.0
4.49599981308 2.00500011444 -1.18299996853 169.0
4.52799987793 1.98599994183 -1.18900001049 173.0
4.51900005341 1.94900000095 -1.18400001526 168.0
4.53800010681 1.9240000248 -1.18599998951 171.0
4.54899978638 1.89499998093 -1.18599998951 164.0
4.55900001526 1.86600005627 -1.18499994278 164.0
4.57499980927 1.84000003338 -1.18700003624 154.0
4.58199977875 1.80999994278 -1.18599998951 150.0
4.58400011063 1.77900004387 -1.18400001526 152.0
4.59200000763 1.75 -1.18299996853 152.0
4.59399986267 1.71800005436 -1.18099999428 144.0
4.62900018692 1.69900000095 -1.18799996376 148.0
4.625 1.66600000858 -1.18499994278 142.0
4.62799978256 1.63499999046 -1.18299996853 152.0
4.65000009537 1.61099994183 -1.18599998951 146.0
4.65999984741 1.58299994469 -1.18700003624 138.0
4.67700004578 1.55700004101 -1.18900001049 148.0
4.6890001297 1.52999997139 -1.18900001049 143.0
4.6810002327 1.49500000477 -1.18499994278 132.0
4.6810002327 1.46500003338 -1.18299996853 134.0
4.68699979782 1.43499994278 -1.18299996853 142.0
4.71299982071 1.41199994087 -1.18700003624 141.0
4.71899986267 1.38300001621 -1.18700003624 141.0
4.71999979019 1.35199999809 -1.18499994278 136.0
4.6859998703 1.31200003624 -1.17499995232 138.0
4.69799995422 1.28499996662 -1.17599999905 127.0
4.72499990463 1.26199996471 -1.18099999428 131.0
4.73000001907 1.23300004005 -1.17999994755 129.0
4.75199985504 1.20899999142 -1.18400001526 128.0
4.76599979401 1.18200004101 -1.18599998951 126.0
4.75600004196 1.14900004864 -1.18200004101 127.0
4.77699995041 1.12399995327 -1.18499994278 124.0
4.78100013733 1.09500002861 -1.18499994278 124.0
4.80700016022 1.07099997997 -1.19000005722 123.0
4.82999992371 1.04600000381 -1.19400000572 119.0
0.00899999961257 0.00300000002608 -0.00200000009499 125.0
4.8029999733 0.980000019073 -1.18499994278 120.0
4.81300020218 0.952000021935 -1.18599998951 115.0
4.82800006866 0.925999999046 -1.18799996376 118.0
4.82700014114 0.896000027657 -1.18700003624 113.0
4.83300018311 0.866999983788 -1.18700003624 116.0
4.82499980927 0.836000025272 -1.18400001526 111.0
4.84200000763 0.810000002384 -1.18700003624 110.0
4.84899997711 0.78100001812 -1.18700003624 112.0
4.84100008011 0.75 -1.18400001526 110.0
4.87400007248 0.726000010967 -1.19099998474 112.0
4.88800001144 0.699000000954 -1.19400000572 109.0
4.882999897 0.669000029564 -1.19099998474 110.0
4.90199995041 0.64200001955 -1.19500005245 111.0
4.882999897 0.610000014305 -1.19000005722 110.0
4.882999897 0.580999970436 -1.18900001049 112.0
4.88999986649 0.551999986172 -1.18900001049 111.0
4.88700008392 0.523000001907 -1.18799996376 112.0
4.89900016785 0.495000004768 -1.19000005722 114.0
4.89200019836 0.465000003576 -1.18799996376 107.0
4.91099977493 0.437000006437 -1.19200003147 101.0
4.89499998093 0.407000005245 -1.18700003624 95.0
0.00999999977648 0.00200000009499 -0.00200000009499 94.0
4.90899991989 0.34999999404 -1.18900001049 91.0
4.91099977493 0.321000009775 -1.18900001049 90.0
4.92999982834 0.293000012636 -1.19299995899 92.0
4.9279999733 0.263999998569 -1.19200003147 86.0
4.8860001564 0.232999995351 -1.18200004101 87.0
4.91499996185 0.204999998212 -1.18799996376 91.0
4.92100000381 0.175999999046 -1.18900001049 92.0
4.89900016785 0.146999999881 -1.18400001526 86.0
4.92899990082 0.119000002742 -1.19099998474 86.0
0.0179999992251 0.00200000009499 -0.00400000018999 85.0
4.9439997673 0.0610000006855 -1.19400000572 91.0
4.92299985886 0.0320000015199 -1.18900001049 88.0
0.01600000076 0.00200000009499 -0.00300000002608 96.0
0.00700000021607 0.00200000009499 -0.0010000000475 92.0
0.0450000017881 0.0010000000475 -0.00999999977648 89.0
0.146999999881 0.0 -0.035000000149 98.0
0.962000012398 -0.019999999553 -0.231999993324 763.0
0.978999972343 -0.0260000005364 -0.236000001431 1182.0
0.976000010967 -0.0309999994934 -0.234999999404 1177.0
0.972999989986 -0.0370000004768 -0.233999997377 1191.0
0.976999998093 -0.0430000014603 -0.234999999404 1202.0
0.971000015736 -0.0480000004172 -0.233999997377 1211.0
0.973999977112 -0.0540000014007 -0.234999999404 1209.0
0.966000020504 -0.0590000003576 -0.232999995351 1216.0
0.976000010967 -0.0659999996424 -0.234999999404 1234.0
0.972999989986 -0.0710000023246 -0.234999999404 1234.0
0.96899998188 -0.0769999995828 -0.233999997377 1237.0
0.97000002861 -0.082999996841 -0.233999997377 1250.0
0.964999973774 -0.0879999995232 -0.232999995351 1247.0
0.962999999523 -0.0930000022054 -0.231999993324 1251.0
0.963999986649 -0.0989999994636 -0.232999995351 1253.0
0.934000015259 -0.101999998093 -0.225999996066 752.0
0.717999994755 -0.082000002265 -0.172999992967 223.0
0.722000002861 -0.0860000029206 -0.173999994993 201.0
0.691999971867 -0.0869999974966 -0.166999995708 208.0
0.68599998951 -0.0900000035763 -0.165999993682 207.0
0.675000011921 -0.0930000022054 -0.163000002503 212.0
0.681999981403 -0.097999997437 -0.165000006557 209.0
0.697000026703 -0.104000002146 -0.168999999762 220.0
0.694000005722 -0.108000002801 -0.167999997735 219.0
0.669000029564 -0.108000002801 -0.162000000477 216.0
0.680000007153 -0.11400000006 -0.165000006557 214.0
0.691999971867 -0.119999997318 -0.167999997735 216.0
0.675999999046 -0.120999999344 -0.16400000453 226.0
0.667999982834 -0.123999997973 -0.162000000477 225.0
0.885999977589 -0.171000003815 -0.216000005603 516.0
0.940999984741 -0.187000006437 -0.229000002146 1285.0
0.938000023365 -0.193000003695 -0.229000002146 1363.0
0.943000018597 -0.20000000298 -0.230000004172 1367.0
0.938000023365 -0.203999996185 -0.229000002146 1376.0
0.938000023365 -0.209999993443 -0.230000004172 1384.0
0.93900001049 -0.216000005603 -0.230000004172 1380.0
0.935000002384 -0.221000000834 -0.229000002146 1390.0
0.934000015259 -0.226999998093 -0.229000002146 1387.0
0.933000028133 -0.231999993324 -0.229000002146 1406.0
0.934000015259 -0.238999992609 -0.230000004172 1389.0
0.926999986172 -0.243000000715 -0.229000002146 1403.0
0.924000024796 -0.247999995947 -0.228000000119 1404.0
0.92199999094 -0.252999991179 -0.228000000119 1403.0
0.912000000477 -0.256000012159 -0.225999996066 1218.0
0.797999978065 -0.229000002146 -0.197999998927 371.0
0.666999995708 -0.194999992847 -0.165000006557 231.0
0.661000013351 -0.197999998927 -0.16400000453 239.0
0.643000006676 -0.195999994874 -0.159999996424 229.0
0.648000001907 -0.202000007033 -0.16099999845 234.0
0.64200001955 -0.204999998212 -0.159999996424 235.0
0.666000008583 -0.216999992728 -0.165999993682 239.0
0.652000010014 -0.216000005603 -0.163000002503 236.0
0.652000010014 -0.221000000834 -0.163000002503 245.0
0.64099997282 -0.221000000834 -0.16099999845 238.0
0.652000010014 -0.230000004172 -0.16400000453 244.0
0.670000016689 -0.240999996662 -0.168999999762 247.0
0.635999977589 -0.231999993324 -0.159999996424 242.0
0.785000026226 -0.293999999762 -0.199000000954 449.0
0.898000001907 -0.342999994755 -0.228000000119 1300.0
0.899999976158 -0.34999999404 -0.229000002146 1446.0
0.898999989033 -0.356000006199 -0.229000002146 1453.0
0.896000027657 -0.361000001431 -0.229000002146 1444.0
0.893000006676 -0.365999996662 -0.228000000119 1450.0
0.888999998569 -0.370999991894 -0.228000000119 1432.0
0.884999990463 -0.375 -0.226999998093 1447.0
0.885999977589 -0.381999999285 -0.228000000119 1463.0
0.885999977589 -0.388999998569 -0.228000000119 1430.0
0.887000024319 -0.395999997854 -0.229000002146 1435.0
0.879999995232 -0.398999989033 -0.228000000119 1440.0
0.880999982357 -0.405999988317 -0.229000002146 1442.0
0.878000020981 -0.411000013351 -0.228000000119 1407.0
0.822000026703 -0.391000002623 -0.21400000155 614.0
0.615999996662 -0.296000003815 -0.16099999845 254.0
0.587000012398 -0.287000000477 -0.153999999166 246.0
0.587000012398 -0.291000008583 -0.153999999166 242.0
0.583999991417 -0.294999986887 -0.153999999166 245.0
0.572000026703 -0.293000012636 -0.150999993086 242.0
0.56400001049 -0.293000012636 -0.149000003934 239.0
0.578999996185 -0.305999994278 -0.153999999166 241.0
0.569000005722 -0.305000007153 -0.150999993086 248.0
0.535000026226 -0.291000008583 -0.143000006676 242.0
0.527000010014 -0.291000008583 -0.141000002623 243.0
0.526000022888 -0.294999986887 -0.141000002623 252.0
0.731999993324 -0.418999999762 -0.196999996901 466.0
0.0109999999404 0.00499999988824 -0.00200000009499 206.0
0.00999999977648 0.00400000018999 -0.00200000009499 202.0
4.27500009537 2.45199990273 -1.20899999142 199.0
0.00600000005215 0.00200000009499 -0.0010000000475 203.0
4.30900001526 2.39899992943 -1.21099996567 190.0
4.31300020218 2.36599993706 -1.20799994469 195.0
4.34299993515 2.34599995613 -1.21300005913 192.0
4.35900020599 2.31900000572 -1.21300005913 189.0
4.37099981308 2.29099988937 -1.21300005913 185.0
0.00600000005215 0.00200000009499 -0.0010000000475 186.0
4.36899995804 2.22000002861 -1.20500004292 190.0
4.39799976349 2.20000004768 -1.21000003815 182.0
4.38399982452 2.15799999237 -1.20299994946 181.0
4.41099977493 2.13700008392 -1.20700001717 179.0
4.40199995041 2.09899997711 -1.2009999752 182.0
4.45800018311 2.09200000763 -1.21300005913 170.0
4.45699977875 2.0569999218 -1.20899999142 178.0
4.48600006104 2.03699994087 -1.21399998665 171.0
4.48500013351 2.00300002098 -1.21099996567 175.0
4.51999998093 1.98500001431 -1.21700000763 174.0
4.50099992752 1.94299995899 -1.20899999142 176.0
4.51700019836 1.91700005531 -1.21000003815 159.0
4.54500007629 1.89600002766 -1.21500003338 161.0
4.55100011826 1.86600005627 -1.21399998665 158.0
4.54400014877 1.83000004292 -1.20899999142 159.0
4.57299995422 1.80900001526 -1.21399998665 151.0
4.57800006866 1.77900004387 -1.21300005913 151.0
4.5689997673 1.74300003052 -1.20799994469 148.0
4.57399988174 1.71300005913 -1.20599997044 147.0
4.60400009155 1.69200003147 -1.2120000124 144.0
4.60900020599 1.66199994087 -1.21099996567 154.0
4.60400009155 1.6289999485 -1.20700001717 142.0
4.6139998436 1.60099995136 -1.20700001717 147.0
4.6360001564 1.57700002193 -1.21099996567 142.0
4.63800001144 1.54600000381 -1.20899999142 139.0
4.65199995041 1.51900005341 -1.21000003815 141.0
4.68300008774 1.49800002575 -1.2159999609 140.0
4.68499994278 1.46700000763 -1.21399998665 135.0
4.6939997673 1.43900001049 -1.21500003338 137.0
4.6970000267 1.4090000391 -1.21300005913 142.0
4.70699977875 1.38100004196 -1.21399998665 145.0
4.69899988174 1.34800004959 -1.21000003815 141.0
4.69299983978 1.31599998474 -1.20700001717 139.0
4.69000005722 1.28499996662 -1.20399999619 135.0
4.69000005722 1.2539999485 -1.20200002193 129.0
4.74399995804 1.23800003529 -1.21399998665 128.0
4.77699995041 1.2159999609 -1.22099995613 131.0
4.75500011444 1.17999994755 -1.21300005913 128.0
4.77899980545 1.15600001812 -1.21800005436 131.0
4.78999996185 1.12800002098 -1.21899998188 125.0
4.78999996185 1.09800004959 -1.21800005436 124.0
4.79099988937 1.06799995899 -1.2159999609 122.0
4.81199979782 1.04299998283 -1.22000002861 127.0
4.79699993134 1.00999999046 -1.21500003338 126.0
4.82000017166 0.985000014305 -1.21899998188 125.0
4.81300020218 0.953999996185 -1.2159999609 121.0
4.80700016022 0.922999978065 -1.21300005913 120.0
4.80399990082 0.89200001955 -1.21099996567 120.0
4.82800006866 0.866999983788 -1.2159999609 121.0
4.81799983978 0.836000025272 -1.2120000124 109.0
4.79500007629 0.802999973297 -1.20500004292 113.0
4.85099983215 0.782000005245 -1.21800005436 118.0
4.87200021744 0.755999982357 -1.22200000286 116.0
4.84399986267 0.722000002861 -1.21399998665 112.0
4.86100006104 0.695999979973 -1.21700000763 110.0
0.0130000002682 0.00300000002608 -0.00300000002608 112.0
4.88100004196 0.639999985695 -1.22099995613 111.0
4.89200019836 0.611999988556 -1.22200000286 116.0
4.88700008392 0.582000017166 -1.22000002861 116.0
4.88199996948 0.551999986172 -1.21800005436 115.0
4.87200021744 0.521000027657 -1.21500003338 109.0
4.8860001564 0.493999987841 -1.21800005436 106.0
0.0109999999404 0.00200000009499 -0.00200000009499 108.0
4.88700008392 0.43599998951 -1.2159999609 104.0
4.89300012589 0.407000005245 -1.21700000763 97.0
0.0189999993891 0.00300000002608 -0.00400000018999 95.0
4.91599988937 0.351000010967 -1.22200000286 88.0
4.90899991989 0.321000009775 -1.21899998188 90.0
4.92199993134 0.293000012636 -1.22200000286 87.0
4.88500022888 0.261999994516 -1.2120000124 86.0
4.91900014877 0.233999997377 -1.22000002861 88.0
4.91699981689 0.204999998212 -1.21899998188 88.0
4.89699983597 0.175999999046 -1.21399998665 92.0
0.0289999991655 0.00200000009499 -0.00600000005215 87.0
4.92500019073 0.118000000715 -1.22000002861 89.0
0.0299999993294 0.00200000009499 -0.00700000021607 83.0
4.93400001526 0.0610000006855 -1.22200000286 92.0
0.0250000003725 0.00200000009499 -0.00600000005215 90.0
0.0280000008643 0.00200000009499 -0.00600000005215 85.0
0.0219999998808 0.00200000009499 -0.00499999988824 85.0
0.00999999977648 0.00200000009499 -0.00200000009499 83.0
0.172999992967 0.0 -0.0419999994338 94.0
0.95300000906 -0.0189999993891 -0.234999999404 787.0
0.976999998093 -0.0260000005364 -0.240999996662 1180.0
0.978999972343 -0.0320000015199 -0.241999998689 1179.0
0.976999998093 -0.0370000004768 -0.240999996662 1189.0
0.976999998093 -0.0430000014603 -0.240999996662 1198.0
0.975000023842 -0.0489999987185 -0.240999996662 1219.0
0.973999977112 -0.0540000014007 -0.240999996662 1213.0
0.96899998188 -0.0599999986589 -0.238999992609 1213.0
0.976000010967 -0.0659999996424 -0.240999996662 1237.0
0.97000002861 -0.0710000023246 -0.239999994636 1239.0
0.967999994755 -0.0769999995828 -0.238999992609 1233.0
0.962999999523 -0.082000002265 -0.238000005484 1235.0
0.966000020504 -0.0879999995232 -0.238999992609 1246.0
0.964999973774 -0.0939999967813 -0.238999992609 1251.0
0.959999978542 -0.0989999994636 -0.238000005484 1253.0
0.930999994278 -0.101000003517 -0.231000006199 720.0
0.72000002861 -0.082000002265 -0.178000003099 216.0
0.714999973774 -0.0860000029206 -0.177000001073 208.0
0.695999979973 -0.0869999974966 -0.172000005841 207.0
0.686999976635 -0.0900000035763 -0.170000001788 211.0
0.680000007153 -0.0930000022054 -0.168999999762 209.0
0.681999981403 -0.097999997437 -0.168999999762 215.0
0.714999973774 -0.107000000775 -0.178000003099 219.0
0.688000023365 -0.107000000775 -0.171000003815 217.0
0.679000020027 -0.109999999404 -0.168999999762 213.0
0.671000003815 -0.112000003457 -0.166999995708 217.0
0.699999988079 -0.122000001371 -0.173999994993 213.0
0.68900001049 -0.123999997973 -0.172000005841 221.0
0.670000016689 -0.123999997973 -0.166999995708 214.0
0.875999987125 -0.168999999762 -0.218999996781 570.0
0.941999971867 -0.187999993563 -0.236000001431 1295.0
0.939999997616 -0.193000003695 -0.234999999404 1348.0
0.935000002384 -0.197999998927 -0.233999997377 1370.0
0.931999981403 -0.202999994159 -0.233999997377 1379.0
0.93599998951 -0.209999993443 -0.234999999404 1362.0
0.939999997616 -0.216999992728 -0.236000001431 1384.0
0.935000002384 -0.221000000834 -0.234999999404 1379.0
0.927999973297 -0.225999996066 -0.233999997377 1383.0
0.930999994278 -0.231999993324 -0.234999999404 1387.0
0.930999994278 -0.238000005484 -0.234999999404 1384.0
0.926999986172 -0.243000000715 -0.233999997377 1388.0
0.927999973297 -0.248999997973 -0.234999999404 1388.0
0.922999978065 -0.254000008106 -0.233999997377 1387.0
0.912999987602 -0.256999999285 -0.231999993324 1169.0
0.786000013351 -0.225999996066 -0.20000000298 336.0
0.657000005245 -0.192000001669 -0.166999995708 234.0
0.653999984264 -0.195999994874 -0.166999995708 233.0
0.652999997139 -0.20000000298 -0.166999995708 235.0
0.620000004768 -0.193000003695 -0.158000007272 231.0
0.629999995232 -0.201000005007 -0.16099999845 233.0
0.637000024319 -0.207000002265 -0.163000002503 233.0
0.643999993801 -0.21400000155 -0.165000006557 237.0
0.657000005245 -0.223000004888 -0.168999999762 239.0
0.633000016212 -0.218999996781 -0.163000002503 242.0
0.64200001955 -0.225999996066 -0.165000006557 240.0
0.643999993801 -0.231000006199 -0.165999993682 244.0
0.615999996662 -0.225999996066 -0.159999996424 239.0
0.809000015259 -0.303000003099 -0.209999993443 510.0
0.896000027657 -0.342000007629 -0.232999995351 1316.0
0.89200001955 -0.347000002861 -0.231999993324 1424.0
0.89099997282 -0.352999985218 -0.232999995351 1422.0
0.893000006676 -0.360000014305 -0.233999997377 1448.0
0.885999977589 -0.363000005484 -0.231999993324 1429.0
0.89200001955 -0.372000008821 -0.233999997377 1426.0
0.888999998569 -0.377999991179 -0.233999997377 1426.0
0.883000016212 -0.381999999285 -0.232999995351 1438.0
0.884999990463 -0.388999998569 -0.233999997377 1425.0
0.882000029087 -0.393999993801 -0.233999997377 1420.0
0.876999974251 -0.398999989033 -0.232999995351 1415.0
0.879000008106 -0.405999988317 -0.233999997377 1429.0
0.875 -0.411000013351 -0.233999997377 1363.0
0.791999995708 -0.377000004053 -0.211999997497 533.0
0.60900002718 -0.293000012636 -0.163000002503 244.0
0.573000013828 -0.280999988317 -0.153999999166 248.0
0.572000026703 -0.284999996424 -0.153999999166 237.0
0.54699999094 -0.275999993086 -0.148000001907 235.0
0.542999982834 -0.277999997139 -0.146999999881 235.0
0.564999997616 -0.293999999762 -0.152999997139 237.0
0.544000029564 -0.287999987602 -0.148000001907 237.0
0.57800000906 -0.310000002384 -0.158000007272 242.0
0.501999974251 -0.273000001907 -0.136999994516 243.0
0.508000016212 -0.280999988317 -0.138999998569 233.0
0.495000004768 -0.277000010014 -0.136000007391 234.0
0.759000003338 -0.435000002384 -0.209999993443 525.0
4.242000103 2.50900006294 -1.23800003529 216.0
4.26200008392 2.48399996758 -1.24000000954 211.0
4.27600002289 2.45600008965 -1.24000000954 200.0
4.28200006485 2.42300009727 -1.23699998856 203.0
4.29799985886 2.39599990845 -1.23800003529 203.0
4.3140001297 2.36899995804 -1.23899996281 197.0
0.0109999999404 0.00499999988824 -0.00200000009499 199.0
4.34299993515 2.31399989128 -1.23899996281 204.0
4.34800004959 2.28200006485 -1.23699998856 191.0
4.37200021744 2.25900006294 -1.24000000954 199.0
4.35599994659 2.21600008011 -1.23199999332 188.0
4.38199996948 2.19499993324 -1.23599994183 191.0
4.38899993896 2.16400003433 -1.23399996758 185.0
4.3860001564 2.12800002098 -1.23000001907 191.0
4.41400003433 2.10700011253 -1.23399996758 185.0
4.44299983978 2.08699989319 -1.23899996281 177.0
4.4439997673 2.05399990082 -1.23599994183 180.0
4.46600008011 2.03099989891 -1.23899996281 186.0
4.46199989319 1.99500000477 -1.23500001431 177.0
4.48500013351 1.97200000286 -1.23800003529 182.0
4.49599981308 1.94400000572 -1.23800003529 172.0
4.52400016785 1.92299997807 -1.24300003052 169.0
4.52400016785 1.88999998569 -1.24000000954 171.0
4.54300022125 1.86500000954 -1.24199998379 163.0
4.55200004578 1.83599996567 -1.24199998379 159.0
0.0149999996647 0.00600000005215 -0.00300000002608 157.0
4.5689997673 1.77699995041 -1.24100005627 155.0
4.57700014114 1.74800002575 -1.24000000954 152.0
4.58400011063 1.71899998188 -1.23899996281 159.0
4.60500001907 1.69500005245 -1.24300003052 149.0
4.62400007248 1.66900002956 -1.24500000477 151.0
4.61499977112 1.63499999046 -1.24000000954 146.0
4.65000009537 1.61500000954 -1.24699997902 144.0
4.62799978256 1.5759999752 -1.23899996281 150.0
4.64499998093 1.54999995232 -1.24100005627 140.0
4.63800001144 1.51699995995 -1.23699998856 145.0
4.67600011826 1.49800002575 -1.24500000477 137.0
4.68699979782 1.47000002861 -1.2460000515 141.0
4.68699979782 1.43900001049 -1.24300003052 135.0
4.70399999619 1.4129999876 -1.2460000515 141.0
4.69500017166 1.3789999485 -1.24100005627 137.0
4.70399999619 1.35099995136 -1.24199998379 150.0
4.68400001526 1.31500005722 -1.23399996758 148.0
4.66499996185 1.27900004387 -1.22699999809 137.0
4.67100000381 1.25100004673 -1.22699999809 132.0
4.72900009155 1.23599994183 -1.24100005627 130.0
4.74100017548 1.20899999142 -1.24199998379 130.0
4.72900009155 1.17499995232 -1.23699998856 126.0
4.75600004196 1.15199995041 -1.24199998379 130.0
4.76599979401 1.12399995327 -1.24399995804 123.0
4.75 1.09000003338 -1.23800003529 128.0
4.77600002289 1.06599998474 -1.24300003052 129.0
4.79500007629 1.04100000858 -1.2460000515 125.0
4.8109998703 1.01400005817 -1.24899995327 121.0
4.79699993134 0.981000006199 -1.24399995804 124.0
4.83099985123 0.958000004292 -1.25100004673 121.0
4.82299995422 0.926999986172 -1.24800002575 122.0
4.80000019073 0.893000006676 -1.24000000954 116.0
4.82000017166 0.866999983788 -1.24399995804 119.0
4.81699991226 0.837000012398 -1.24199998379 119.0
4.80800008774 0.805999994278 -1.23899996281 114.0
4.82299995422 0.778999984264 -1.24199998379 118.0
4.85099983215 0.754000008106 -1.24699997902 115.0
4.8220000267 0.72000002861 -1.23899996281 105.0
4.82000017166 0.689999997616 -1.23699998856 114.0
4.882999897 0.670000016689 -1.25300002098 114.0
4.87900018692 0.639999985695 -1.25100004673 115.0
4.85300016403 0.606999993324 -1.24300003052 115.0
4.89200019836 0.583000004292 -1.25199997425 109.0
4.89799976349 0.554000020027 -1.25300002098 113.0
4.87799978256 0.523000001907 -1.24699997902 113.0
0.00700000021607 0.00200000009499 -0.0010000000475 113.0
4.90600013733 0.467000007629 -1.25199997425 105.0
4.87300014496 0.435000002384 -1.24300003052 104.0
4.91200017929 0.409000009298 -1.25199997425 101.0
4.91400003433 0.379999995232 -1.25199997425 96.0
4.91699981689 0.351000010967 -1.25199997425 96.0
4.89699983597 0.321000009775 -1.24699997902 97.0
4.90000009537 0.291999995708 -1.24699997902 92.0
0.0399999991059 0.00400000018999 -0.00899999961257 85.0
4.87900018692 0.232999995351 -1.24100005627 84.0
0.0260000005364 0.00300000002608 -0.00600000005215 85.0
4.89599990845 0.175999999046 -1.24399995804 93.0
4.90500020981 0.146999999881 -1.2460000515 86.0
4.89400005341 0.118000000715 -1.24300003052 90.0
4.92100000381 0.0890000015497 -1.25 91.0
0.0430000014603 0.00200000009499 -0.00999999977648 85.0
0.035000000149 0.00200000009499 -0.00800000037998 89.0
4.90399980545 0.00200000009499 -1.24500000477 88.0
0.0130000002682 0.00200000009499 -0.00300000002608 79.0
0.0450000017881 0.0010000000475 -0.0109999999404 87.0
0.270999997854 -0.00200000009499 -0.0680000036955 99.0
0.958999991417 -0.019999999553 -0.243000000715 817.0
0.973999977112 -0.0260000005364 -0.24699999392 1175.0
0.977999985218 -0.0320000015199 -0.247999995947 1188.0
0.977999985218 -0.0370000004768 -0.247999995947 1197.0
0.972000002861 -0.0430000014603 -0.246000006795 1198.0
0.96899998188 -0.0480000004172 -0.245000004768 1208.0
0.976999998093 -0.054999999702 -0.24699999392 1219.0
0.967999994755 -0.0599999986589 -0.245000004768 1219.0
0.967000007629 -0.0649999976158 -0.245000004768 1223.0
0.971000015736 -0.0710000023246 -0.246000006795 1226.0
0.971000015736 -0.0769999995828 -0.246000006795 1237.0
0.967000007629 -0.082999996841 -0.245000004768 1235.0
0.96899998188 -0.0890000015497 -0.246000006795 1245.0
0.959999978542 -0.0930000022054 -0.244000002742 1257.0
0.959999978542 -0.0989999994636 -0.244000002742 1260.0
0.93599998951 -0.101999998093 -0.238000005484 670.0
0.703999996185 -0.0799999982119 -0.179000005126 220.0
0.693000018597 -0.082999996841 -0.175999999046 209.0
0.691999971867 -0.0869999974966 -0.175999999046 203.0
0.666999995708 -0.0879999995232 -0.170000001788 208.0
0.675999999046 -0.0930000022054 -0.172000005841 207.0
0.675000011921 -0.097000002861 -0.172000005841 209.0
0.694000005722 -0.104000002146 -0.177000001073 212.0
0.697000026703 -0.108999997377 -0.178000003099 216.0
0.67199999094 -0.108999997377 -0.171000003815 211.0
0.663999974728 -0.111000001431 -0.170000001788 212.0
0.662000000477 -0.115000002086 -0.168999999762 222.0
0.691999971867 -0.125 -0.177000001073 219.0
0.677999973297 -0.126000002027 -0.172999992967 217.0
0.888999998569 -0.172000005841 -0.228000000119 616.0
0.939999997616 -0.187999993563 -0.240999996662 1299.0
0.93599998951 -0.193000003695 -0.239999994636 1358.0
0.938000023365 -0.199000000954 -0.240999996662 1344.0
0.933000028133 -0.203999996185 -0.239999994636 1365.0
0.936999976635 -0.21099999547 -0.240999996662 1365.0
0.93599998951 -0.216000005603 -0.240999996662 1361.0
0.934000015259 -0.222000002861 -0.240999996662 1362.0
0.930999994278 -0.226999998093 -0.239999994636 1377.0
0.929000020027 -0.231999993324 -0.239999994636 1379.0
0.926999986172 -0.237000003457 -0.239999994636 1384.0
0.925999999046 -0.243000000715 -0.239999994636 1373.0
0.925999999046 -0.248999997973 -0.239999994636 1388.0
0.925999999046 -0.254999995232 -0.240999996662 1375.0
0.912000000477 -0.256999999285 -0.237000003457 1109.0
0.768999993801 -0.221000000834 -0.20000000298 317.0
0.660000026226 -0.193000003695 -0.172000005841 230.0
0.648000001907 -0.194000005722 -0.168999999762 229.0
0.632000029087 -0.193000003695 -0.165000006557 236.0
0.64200001955 -0.201000005007 -0.167999997735 230.0
0.632000029087 -0.202000007033 -0.165999993682 231.0
0.643999993801 -0.209999993443 -0.168999999762 223.0
0.648000001907 -0.215000003576 -0.170000001788 235.0
0.647000014782 -0.219999998808 -0.171000003815 226.0
0.612999975681 -0.211999997497 -0.162000000477 237.0
0.610000014305 -0.215000003576 -0.16099999845 236.0
0.643999993801 -0.231999993324 -0.171000003815 239.0
0.620999991894 -0.228000000119 -0.165000006557 238.0
0.82800000906 -0.31099998951 -0.219999998808 583.0
0.889999985695 -0.340999990702 -0.237000003457 1332.0
0.89200001955 -0.347999989986 -0.238000005484 1416.0
0.89099997282 -0.354000002146 -0.238999992609 1424.0
0.893000006676 -0.361000001431 -0.239999994636 1411.0
0.89200001955 -0.36700001359 -0.239999994636 1418.0
0.885999977589 -0.370000004768 -0.238999992609 1394.0
0.89099997282 -0.379000008106 -0.240999996662 1406.0
0.884999990463 -0.38299998641 -0.238999992609 1402.0
0.885999977589 -0.389999985695 -0.239999994636 1388.0
0.887000024319 -0.397000014782 -0.240999996662 1391.0
0.879999995232 -0.40000000596 -0.239999994636 1377.0
0.879999995232 -0.407000005245 -0.239999994636 1386.0
0.867999970913 -0.407999992371 -0.238000005484 1243.0
0.76700001955 -0.365999996662 -0.209999993443 454.0
0.587000012398 -0.282999992371 -0.16099999845 240.0
0.579999983311 -0.284999996424 -0.159999996424 245.0
0.535000026226 -0.266000002623 -0.148000001907 231.0
0.533999979496 -0.270000010729 -0.148000001907 229.0
0.540000021458 -0.277000010014 -0.15000000596 234.0
0.538999974728 -0.280999988317 -0.15000000596 222.0
0.533999979496 -0.282000005245 -0.149000003934 236.0
0.503000020981 -0.270000010729 -0.141000002623 231.0
0.537000000477 -0.293000012636 -0.150999993086 229.0
0.490999996662 -0.270999997854 -0.137999996543 231.0
0.522000014782 -0.293000012636 -0.146999999881 234.0
0.785000026226 -0.451000005007 -0.223000004888 573.0
4.21700000763 2.49900007248 -1.26100003719 210.0
0.0120000001043 0.00600000005215 -0.00300000002608 211.0
4.24599981308 2.4430000782 -1.26100003719 202.0
4.25899982452 2.41400003433 -1.26100003719 212.0
4.28800010681 2.39499998093 -1.26600003242 195.0
4.31300020218 2.37299990654 -1.26900005341 206.0
4.32700014114 2.34500002861 -1.26900005341 204.0
0.00999999977648 0.00400000018999 -0.00200000009499 203.0
4.34000015259 2.28099989891 -1.26499998569 195.0
4.37400007248 2.26300001144 -1.27100002766 198.0
4.37900018692 2.23099994659 -1.26900005341 193.0
4.39900016785 2.20700001717 -1.27100002766 190.0
4.38399982452 2.16400003433 -1.26300001144 183.0
4.38999986649 2.132999897 -1.26199996471 186.0
4.41200017929 2.1099998951 -1.26400005817 190.0
4.42999982834 2.08400011063 -1.26600003242 187.0
4.44600009918 2.05800008774 -1.26699995995 174.0
