ply
format ascii 1.0
element vertex 929
property float x
property float y
property float z
property float intensity
end_header
1.02999997139 -0.00899999961257 -0.172999992967 1368.0
1.03100001812 -0.0149999996647 -0.173999994993 1330.0
1.02999997139 -0.0209999997169 -0.172999992967 1290.0
1.03600001335 -0.0270000007004 -0.173999994993 1244.0
1.03499996662 -0.0329999998212 -0.173999994993 1238.0
1.03100001812 -0.0390000008047 -0.173999994993 1218.0
1.03600001335 -0.0450000017881 -0.173999994993 1189.0
1.0340000391 -0.0509999990463 -0.173999994993 1205.0
1.0340000391 -0.0570000000298 -0.173999994993 1179.0
1.03499996662 -0.0630000010133 -0.173999994993 1133.0
1.0340000391 -0.0689999982715 -0.173999994993 1120.0
1.0340000391 -0.0750000029802 -0.173999994993 1130.0
1.03600001335 -0.0810000002384 -0.17499999702 1104.0
1.03199994564 -0.0869999974966 -0.173999994993 1131.0
1.03900003433 -0.0930000022054 -0.17499999702 1091.0
1.04200005531 -0.10000000149 -0.175999999046 1070.0
1.04100000858 -0.105999998748 -0.175999999046 1035.0
1.02999997139 -0.111000001431 -0.173999994993 858.0
2.32999992371 -0.476999998093 -0.397000014782 192.0
2.27300000191 -0.479999989271 -0.388000011444 89.0
1.11800003052 -0.240999996662 -0.190999999642 91.0
0.972000002861 -0.215000003576 -0.165999993682 143.0
0.950999975204 -0.216000005603 -0.162000000477 143.0
0.948000013828 -0.221000000834 -0.162000000477 140.0
0.944999992847 -0.225999996066 -0.162000000477 149.0
0.972999989986 -0.238999992609 -0.166999995708 145.0
0.953999996185 -0.239999994636 -0.16400000453 147.0
0.972999989986 -0.250999987125 -0.166999995708 148.0
0.958999991417 -0.254000008106 -0.165000006557 150.0
0.981000006199 -0.266000002623 -0.168999999762 148.0
0.936999976635 -0.259999990463 -0.162000000477 153.0
0.941999971867 -0.266999989748 -0.162000000477 148.0
0.944999992847 -0.273999989033 -0.163000002503 160.0
0.948000013828 -0.280999988317 -0.16400000453 155.0
0.924000024796 -0.280000001192 -0.159999996424 155.0
0.949000000954 -0.293999999762 -0.165000006557 160.0
0.957000017166 -0.301999986172 -0.165999993682 161.0
0.941999971867 -0.303999990225 -0.16400000453 156.0
0.927999973297 -0.305000007153 -0.162000000477 165.0
0.933000028133 -0.312999993563 -0.163000002503 154.0
0.93900001049 -0.321000009775 -0.16400000453 162.0
0.913999974728 -0.319000005722 -0.159999996424 173.0
0.90499997139 -0.321999996901 -0.158999994397 162.0
0.912000000477 -0.331000000238 -0.159999996424 164.0
0.919000029564 -0.338999986649 -0.162000000477 166.0
0.902000010014 -0.338999986649 -0.158999994397 168.0
0.930000007153 -0.356000006199 -0.16400000453 172.0
0.924000024796 -0.360000014305 -0.16400000453 166.0
0.92199999094 -0.365999996662 -0.16400000453 174.0
0.899999976158 -0.363999992609 -0.159999996424 168.0
0.907999992371 -0.372999995947 -0.162000000477 165.0
0.903999984264 -0.377999991179 -0.16099999845 176.0
0.893000006676 -0.379999995232 -0.159999996424 165.0
0.883000016212 -0.381999999285 -0.158000007272 171.0
0.921000003815 -0.405000001192 -0.165000006557 172.0
0.896000027657 -0.400999993086 -0.16099999845 176.0
0.896000027657 -0.407000005245 -0.16099999845 169.0
0.865999996662 -0.398999989033 -0.156000003219 161.0
0.89200001955 -0.418000012636 -0.16099999845 162.0
0.865000009537 -0.412000000477 -0.157000005245 175.0
0.893999993801 -0.432999998331 -0.163000002503 165.0
0.893000006676 -0.43900001049 -0.163000002503 157.0
0.874000012875 -0.437000006437 -0.159999996424 165.0
0.860000014305 -0.43599998951 -0.158000007272 164.0
0.847000002861 -0.43599998951 -0.156000003219 151.0
0.901000022888 -0.470999985933 -0.165999993682 161.0
0.862999975681 -0.458000004292 -0.159999996424 153.0
0.861000001431 -0.463999986649 -0.159999996424 159.0
0.878000020981 -0.479999989271 -0.163000002503 152.0
0.888999998569 -0.493999987841 -0.165999993682 151.0
0.898000001907 -0.505999982357 -0.167999997735 151.0
1.8029999733 1.04799997807 -0.361999988556 207.0
1.86399996281 1.06799995899 -0.372999995947 205.0
1.99699997902 1.12800002098 -0.398000001907 127.0
2.10700011253 1.17200005054 -0.418999999762 165.0
2.1210000515 1.1629999876 -0.419999986887 222.0
2.13499999046 1.15299999714 -0.42199999094 271.0
2.132999897 1.13499999046 -0.419999986887 287.0
2.14100003242 1.12199997902 -0.419999986887 276.0
2.15599989891 1.11300003529 -0.42199999094 293.0
2.15899991989 1.09700000286 -0.421000003815 291.0
2.17199993134 1.0870000124 -0.42199999094 214.0
2.19899988174 1.08399999142 -0.426999986172 112.0
2.22499990463 1.08000004292 -0.430000007153 155.0
2.24699997902 1.07299995422 -0.432999998331 302.0
2.27800011635 1.07099997997 -0.437999993563 222.0
2.27900004387 1.05400002003 -0.437000006437 119.0
2.66799998283 1.13600003719 -0.505999982357 72.0
3.26399993896 1.09599995613 -0.601000010967 71.0
3.37199997902 1.11000001431 -0.620000004768 64.0
3.35800004005 1.08299994469 -0.615999996662 60.0
1.01999998093 0.194000005722 -0.180999994278 132.0
1.01600003242 0.157000005245 -0.180000007153 334.0
1.00800001621 0.15000000596 -0.178000003099 349.0
0.999000012875 0.142000004649 -0.175999999046 369.0
1.02600002289 0.140000000596 -0.180999994278 400.0
1.02600002289 0.134000003338 -0.180999994278 438.0
1.02499997616 0.12800000608 -0.180000007153 349.0
1.0379999876 0.123000003397 -0.182999998331 315.0
1.03600001335 0.116999998689 -0.181999996305 345.0
1.00899994373 0.108000002801 -0.177000001073 369.0
1.01999998093 0.103000000119 -0.179000005126 398.0
1.03499996662 0.0989999994636 -0.181999996305 426.0
1.03999996185 0.0930000022054 -0.181999996305 440.0
1.03999996185 0.0869999974966 -0.181999996305 470.0
1.03199994564 0.0799999982119 -0.180999994278 487.0
1.03499996662 0.0740000009537 -0.180999994278 526.0
1.03499996662 0.0680000036955 -0.180999994278 557.0
1.04499995708 0.0630000010133 -0.182999998331 580.0
1.03600001335 0.0560000017285 -0.180999994278 589.0
1.0379999876 0.0500000007451 -0.180999994278 599.0
1.03499996662 0.0439999997616 -0.180999994278 621.0
1.0340000391 0.0379999987781 -0.180999994278 636.0
1.0379999876 0.0320000015199 -0.180999994278 647.0
1.03900003433 0.0260000005364 -0.180999994278 679.0
1.03600001335 0.019999999553 -0.180999994278 705.0
1.03699994087 0.0140000004321 -0.180999994278 734.0
1.04200005531 0.00800000037998 -0.181999996305 749.0
1.04299998283 0.00200000009499 -0.181999996305 769.0
1.03199994564 -0.00300000002608 -0.180000007153 797.0
1.03499996662 -0.00899999961257 -0.180000007153 823.0
1.0379999876 -0.0149999996647 -0.180999994278 859.0
1.03600001335 -0.0209999997169 -0.180999994278 860.0
1.03600001335 -0.0270000007004 -0.180999994278 870.0
1.03900003433 -0.0329999998212 -0.180999994278 860.0
1.0379999876 -0.0390000008047 -0.180999994278 855.0
1.03999996185 -0.0450000017881 -0.180999994278 846.0
1.03999996185 -0.0509999990463 -0.180999994278 857.0
1.03199994564 -0.0570000000298 -0.180000007153 852.0
1.04299998283 -0.0630000010133 -0.181999996305 835.0
1.04299998283 -0.0689999982715 -0.181999996305 850.0
1.0340000391 -0.0750000029802 -0.180000007153 847.0
1.03499996662 -0.0810000002384 -0.180000007153 842.0
1.0379999876 -0.0869999974966 -0.180999994278 843.0
1.03699994087 -0.0930000022054 -0.180999994278 851.0
1.03699994087 -0.0989999994636 -0.180999994278 832.0
1.03699994087 -0.104999996722 -0.180999994278 792.0
1.03499996662 -0.111000001431 -0.180999994278 640.0
2.31500005722 -0.46099999547 -0.407999992371 132.0
2.34200000763 -0.481000006199 -0.412999987602 221.0
2.34400010109 -0.495000004768 -0.41400000453 91.0
1.11199998856 -0.239999994636 -0.195999994874 93.0
0.962999999523 -0.212999999523 -0.170000001788 143.0
0.963999986649 -0.218999996781 -0.171000003815 145.0
0.95300000906 -0.223000004888 -0.168999999762 144.0
0.931999981403 -0.223000004888 -0.165000006557 152.0
0.963999986649 -0.237000003457 -0.171000003815 148.0
0.962999999523 -0.243000000715 -0.171000003815 147.0
0.926999986172 -0.239999994636 -0.165000006557 145.0
0.981999993324 -0.259999990463 -0.17499999702 148.0
0.953999996185 -0.259000003338 -0.170000001788 152.0
0.943000018597 -0.261999994516 -0.167999997735 157.0
0.955999970436 -0.270999997854 -0.171000003815 152.0
0.910000026226 -0.263999998569 -0.163000002503 156.0
0.939999997616 -0.279000014067 -0.168999999762 155.0
0.938000023365 -0.284000009298 -0.167999997735 158.0
0.93599998951 -0.289999991655 -0.167999997735 160.0
0.934000015259 -0.294999986887 -0.167999997735 167.0
0.938000023365 -0.303000003099 -0.168999999762 160.0
0.922999978065 -0.303999990225 -0.166999995708 166.0
0.940999984741 -0.316000014544 -0.170000001788 161.0
0.941999971867 -0.323000013828 -0.171000003815 157.0
0.930000007153 -0.324999988079 -0.168999999762 170.0
0.912000000477 -0.324999988079 -0.165999993682 173.0
0.927999973297 -0.337000012398 -0.168999999762 165.0
0.915000021458 -0.337999999523 -0.166999995708 159.0
0.893999993801 -0.337000012398 -0.163000002503 171.0
0.911000013351 -0.349000006914 -0.166999995708 169.0
0.931999981403 -0.363999992609 -0.171000003815 166.0
0.902000010014 -0.358000010252 -0.165999993682 170.0
0.921000003815 -0.372000008821 -0.168999999762 165.0
0.924000024796 -0.379999995232 -0.170000001788 171.0
0.908999979496 -0.379999995232 -0.167999997735 166.0
0.907000005245 -0.386000007391 -0.167999997735 157.0
0.898000001907 -0.388999998569 -0.166999995708 164.0
0.917999982834 -0.404000014067 -0.171000003815 167.0
0.874000012875 -0.391000002623 -0.163000002503 172.0
0.879999995232 -0.40000000596 -0.16400000453 167.0
0.89099997282 -0.412000000477 -0.166999995708 162.0
0.851999998093 -0.40000000596 -0.159999996424 172.0
0.884000003338 -0.42199999094 -0.165999993682 162.0
0.860000014305 -0.416999995708 -0.162000000477 164.0
0.896000027657 -0.441000014544 -0.168999999762 162.0
0.873000025749 -0.437000006437 -0.165999993682 158.0
0.89099997282 -0.45300000906 -0.168999999762 162.0
0.867999970913 -0.448000013828 -0.165000006557 155.0
0.902999997139 -0.472999989986 -0.172999992967 151.0
0.897000014782 -0.476999998093 -0.172000005841 145.0
0.853999972343 -0.46099999547 -0.16400000453 158.0
0.898000001907 -0.49200001359 -0.172999992967 146.0
0.873000025749 -0.485000014305 -0.168999999762 147.0
0.861000001431 -0.486000001431 -0.166999995708 145.0
1.83200001717 1.06599998474 -0.379999995232 210.0
1.84300005436 1.05700004101 -0.381000012159 216.0
2.04099988937 1.15400004387 -0.421000003815 197.0
2.11100006104 1.17599999905 -0.433999985456 266.0
2.117000103 1.16199994087 -0.433999985456 271.0
2.13400006294 1.15400004387 -0.43599998951 262.0
2.14299988747 1.14199995995 -0.43599998951 231.0
2.14100003242 1.12300002575 -0.433999985456 245.0
2.15100002289 1.11099994183 -0.435000002384 276.0
2.14400005341 1.0909999609 -0.432999998331 291.0
2.15199995041 1.07799994946 -0.432999998331 220.0
2.20000004768 1.08500003815 -0.441000014544 118.0
2.1970000267 1.06700003147 -0.43900001049 161.0
2.24499988556 1.07299995422 -0.448000013828 307.0
2.26999998093 1.06799995899 -0.451999992132 246.0
2.30500006676 1.06700003147 -0.456999987364 126.0
2.31599998474 1.05499994755 -0.458000004292 86.0
2.63599991798 1.12300002575 -0.51599997282 76.0
2.85800004005 1.07700002193 -0.550999999046 68.0
3.28099989891 1.125 -0.625999987125 63.0
3.28299999237 1.10300004482 -0.625 97.0
3.25099992752 1.07099997997 -0.617999970913 76.0
3.45399999619 1.11500000954 -0.65600001812 62.0
4.07399988174 0.601999998093 -0.745000004768 66.0
4.09999990463 0.580999970436 -0.749000012875 69.0
4.08599996567 0.555000007153 -0.745999991894 68.0
4.09499979019 0.532000005245 -0.746999979019 67.0
4.24599981308 0.526000022888 -0.773999989033 51.0
1.04600000381 0.00200000009499 -0.188999995589 95.0
1.03900003433 -0.00899999961257 -0.187000006437 127.0
1.04600000381 -0.0149999996647 -0.188999995589 152.0
1.0340000391 -0.0209999997169 -0.186000004411 161.0
1.08599996567 -0.0599999986589 -0.195999994874 184.0
1.08000004292 -0.0780000016093 -0.194999992847 230.0
1.07299995422 -0.0839999988675 -0.194000005722 224.0
1.06099998951 -0.0960000008345 -0.192000001669 232.0
1.03900003433 -0.10000000149 -0.187999993563 236.0
1.07000005245 -0.108999997377 -0.193000003695 232.0
2.34100008011 -0.481000006199 -0.426999986172 198.0
1.09599995613 -0.236000001431 -0.20000000298 96.0
0.981999993324 -0.217999994755 -0.180000007153 135.0
0.958000004292 -0.217999994755 -0.17499999702 140.0
0.920000016689 -0.215000003576 -0.168999999762 138.0
0.967000007629 -0.231999993324 -0.177000001073 143.0
0.962000012398 -0.237000003457 -0.177000001073 142.0
0.945999979973 -0.238999992609 -0.173999994993 149.0
0.911000013351 -0.236000001431 -0.167999997735 152.0
0.929000020027 -0.246000006795 -0.171000003815 152.0
0.944000005722 -0.256000012159 -0.173999994993 154.0
0.936999976635 -0.259999990463 -0.172999992967 157.0
0.938000023365 -0.266999989748 -0.172999992967 150.0
0.945999979973 -0.27500000596 -0.17499999702 157.0
0.936999976635 -0.277999997139 -0.173999994993 154.0
0.929000020027 -0.282000005245 -0.172000005841 152.0
0.972999989986 -0.301999986172 -0.180999994278 158.0
0.929000020027 -0.293999999762 -0.172999992967 164.0
0.912999987602 -0.294999986887 -0.170000001788 162.0
0.929000020027 -0.305999994278 -0.173999994993 166.0
0.925999999046 -0.312000006437 -0.172999992967 158.0
0.913999974728 -0.312999993563 -0.171000003815 161.0
0.93599998951 -0.326999992132 -0.175999999046 170.0
0.913999974728 -0.326000005007 -0.172000005841 160.0
0.920000016689 -0.333999991417 -0.172999992967 166.0
0.903999984264 -0.333999991417 -0.170000001788 163.0
0.90499997139 -0.340999990702 -0.171000003815 161.0
0.912999987602 -0.34999999404 -0.172999992967 172.0
0.897000014782 -0.351000010967 -0.170000001788 167.0
0.929000020027 -0.368999987841 -0.177000001073 171.0
0.924000024796 -0.374000012875 -0.175999999046 164.0
0.912999987602 -0.375999987125 -0.173999994993 170.0
0.917999982834 -0.384999990463 -0.175999999046 166.0
0.901000022888 -0.384000003338 -0.172999992967 174.0
0.911000013351 -0.395000010729 -0.17499999702 174.0
0.912999987602 -0.402000010014 -0.175999999046 168.0
0.880999982357 -0.393999993801 -0.170000001788 163.0
0.888999998569 -0.405000001192 -0.172000005841 172.0
0.873000025749 -0.404000014067 -0.168999999762 163.0
0.893999993801 -0.421000003815 -0.173999994993 171.0
0.894999980927 -0.426999986172 -0.173999994993 173.0
0.876999974251 -0.425999999046 -0.171000003815 161.0
0.852999985218 -0.421000003815 -0.166999995708 164.0
0.867999970913 -0.435000002384 -0.170000001788 160.0
0.870000004768 -0.442000001669 -0.171000003815 151.0
0.893999993801 -0.462000012398 -0.175999999046 154.0
0.864000022411 -0.45300000906 -0.171000003815 156.0
0.883000016212 -0.469999998808 -0.17499999702 153.0
0.875 -0.472999989986 -0.173999994993 144.0
0.864000022411 -0.474000006914 -0.172000005841 147.0
0.870999991894 -0.485000014305 -0.173999994993 143.0
0.861000001431 -0.486000001431 -0.172999992967 145.0
1.84200000763 1.07400000095 -0.395000010729 207.0
1.83599996567 1.05400002003 -0.391999989748 208.0
2.03299999237 1.15100002289 -0.432999998331 168.0
2.09899997711 1.16999995708 -0.446000009775 207.0
2.1099998951 1.1590000391 -0.446000009775 188.0
2.09500002861 1.13399994373 -0.442000001669 177.0
2.11299991608 1.12699997425 -0.444000005722 210.0
2.13000011444 1.11899995804 -0.446999996901 262.0
2.13599991798 1.10500001907 -0.446000009775 295.0
2.12800002098 1.08399999142 -0.444000005722 297.0
2.15499997139 1.08099997044 -0.448000013828 224.0
2.22300004959 1.09800004959 -0.46099999547 116.0
2.2349998951 1.0870000124 -0.462000012398 163.0
2.25999999046 1.08099997044 -0.465999990702 304.0
2.25699996948 1.06299996376 -0.463999986649 262.0
2.34699988365 1.08800005913 -0.481000006199 146.0
2.33500003815 1.06500005722 -0.476999998093 98.0
2.56100010872 1.09200000763 -0.518000006676 77.0
3.14499998093 1.1210000515 -0.623000025749 66.0
3.28200006485 1.10399997234 -0.646000027657 121.0
3.34800004959 1.10399997234 -0.657999992371 93.0
3.33299994469 1.07700002193 -0.653999984264 78.0
3.53200006485 1.11800003052 -0.690999984741 89.0
3.70499992371 0.911000013351 -0.712999999523 66.0
3.64899992943 0.874000012875 -0.700999975204 55.0
3.58999991417 0.837999999523 -0.68900001049 58.0
3.59200000763 0.771000027657 -0.686999976635 55.0
4.10799980164 0.606999993324 -0.776000022888 77.0
4.04300022125 0.574000000954 -0.763000011444 80.0
4.08400011063 0.555000007153 -0.769999980927 84.0
4.08599996567 0.53100001812 -0.769999980927 79.0
2.39499998093 -0.477999985218 -0.451000005007 137.0
2.32100009918 -0.476999998093 -0.437999993563 193.0
2.28800010681 -0.483999997377 -0.432000011206 87.0
1.05200004578 -0.226999998093 -0.199000000954 103.0
0.975000023842 -0.216000005603 -0.184000000358 144.0
0.953999996185 -0.216999992728 -0.180000007153 138.0
0.955999970436 -0.224000006914 -0.180999994278 143.0
0.967000007629 -0.231999993324 -0.182999998331 146.0
0.933000028133 -0.230000004172 -0.177000001073 138.0
0.938000023365 -0.237000003457 -0.178000003099 148.0
0.913999974728 -0.237000003457 -0.173999994993 147.0
0.962999999523 -0.256000012159 -0.182999998331 150.0
0.958000004292 -0.259999990463 -0.182999998331 144.0
0.93599998951 -0.259999990463 -0.179000005126 141.0
0.949999988079 -0.270000010729 -0.180999994278 156.0
0.954999983311 -0.277999997139 -0.182999998331 162.0
0.92199999094 -0.273999989033 -0.177000001073 147.0
0.930000007153 -0.282000005245 -0.178000003099 153.0
0.935000002384 -0.289999991655 -0.180000007153 153.0
0.907000005245 -0.287000000477 -0.173999994993 156.0
0.912999987602 -0.294999986887 -0.175999999046 159.0
0.915000021458 -0.301999986172 -0.177000001073 158.0
0.902000010014 -0.303999990225 -0.173999994993 158.0
0.934000015259 -0.321000009775 -0.180999994278 158.0
0.925000011921 -0.324000000954 -0.180000007153 167.0
0.911000013351 -0.324999988079 -0.177000001073 159.0
0.93900001049 -0.342000007629 -0.182999998331 165.0
0.927999973297 -0.344000011683 -0.180999994278 165.0
0.915000021458 -0.344999998808 -0.179000005126 166.0
0.925000011921 -0.356000006199 -0.180999994278 159.0
0.925000011921 -0.361999988556 -0.180999994278 166.0
0.916000008583 -0.365000009537 -0.180000007153 160.0
0.898000001907 -0.363999992609 -0.177000001073 163.0
0.879000008106 -0.361999988556 -0.172999992967 164.0
0.894999980927 -0.375 -0.177000001073 168.0
0.898999989033 -0.38299998641 -0.178000003099 170.0
0.902000010014 -0.391000002623 -0.179000005126 161.0
0.879000008106 -0.388000011444 -0.17499999702 158.0
0.888999998569 -0.398999989033 -0.177000001073 165.0
0.879999995232 -0.400999993086 -0.175999999046 160.0
0.869000017643 -0.402000010014 -0.173999994993 169.0
0.889999985695 -0.418999999762 -0.179000005126 169.0
0.893000006676 -0.426999986172 -0.180000007153 166.0
0.847999989986 -0.412000000477 -0.171000003815 155.0
0.883000016212 -0.43599998951 -0.179000005126 155.0
0.899999976158 -0.451000005007 -0.181999996305 157.0
0.861999988556 -0.43900001049 -0.17499999702 157.0
0.851999998093 -0.439999997616 -0.173999994993 152.0
0.894999980927 -0.469999998808 -0.182999998331 156.0
0.896000027657 -0.477999985218 -0.184000000358 151.0
0.856000006199 -0.462999999523 -0.175999999046 152.0
0.89099997282 -0.488999992609 -0.184000000358 142.0
0.864000022411 -0.481999993324 -0.179000005126 148.0
0.85900002718 -0.486000001431 -0.178000003099 145.0
1.83800005913 1.0720000267 -0.407000005245 208.0
1.85500001907 1.06599998474 -0.409000009298 208.0
1.97399997711 1.11800003052 -0.433999985456 141.0
2.10199999809 1.1740000248 -0.46099999547 151.0
2.07999992371 1.14400005341 -0.453999996185 186.0
2.1289999485 1.15299999714 -0.462999999523 246.0
2.13800001144 1.14100003242 -0.463999986649 270.0
2.13199996948 1.1210000515 -0.46099999547 293.0
2.15000009537 1.11300003529 -0.463999986649 291.0
2.14100003242 1.09200000763 -0.460000008345 290.0
2.14400005341 1.0759999752 -0.460000008345 239.0
2.21000003815 1.09300005436 -0.472999989986 119.0
2.23300004005 1.0870000124 -0.476000010967 156.0
2.24699997902 1.07700002193 -0.477999985218 296.0
2.27300000191 1.0720000267 -0.481999993324 265.0
2.33100008965 1.08099997044 -0.493000000715 146.0
2.39199995995 1.09200000763 -0.504999995232 103.0
2.50600004196 1.07000005245 -0.523999989033 76.0
2.78399991989 1.10899996758 -0.575999975204 67.0
3.31200003624 1.13699996471 -0.674000024796 66.0
3.28600001335 1.10599994659 -0.667999982834 125.0
3.33800005913 1.10199999809 -0.676999986172 97.0
3.35400009155 1.08500003815 -0.679000020027 86.0
3.50500011444 0.818000018597 -0.694000005722 57.0
3.61999988556 0.754999995232 -0.712999999523 56.0
3.71199989319 0.728999972343 -0.730000019073 56.0
4.0609998703 0.625 -0.792999982834 75.0
4.08300018311 0.603999972343 -0.796000003815 107.0
4.05399990082 0.575999975204 -0.790000021458 112.0
4.06500005722 0.552999973297 -0.791000008583 112.0
4.05900001526 0.527999997139 -0.790000021458 103.0
4.03000020981 0.5 -0.782999992371 82.0
2.33400011063 -0.465999990702 -0.453999996185 163.0
2.34699988365 -0.483000010252 -0.456999987364 234.0
2.34200000763 -0.495999991894 -0.456999987364 105.0
1.05900001526 -0.229000002146 -0.207000002265 105.0
0.959999978542 -0.212999999523 -0.187000006437 132.0
0.967000007629 -0.221000000834 -0.188999995589 145.0
0.945999979973 -0.222000002861 -0.185000002384 135.0
0.95300000906 -0.229000002146 -0.187000006437 136.0
0.943000018597 -0.232999995351 -0.185000002384 141.0
0.940999984741 -0.238000005484 -0.185000002384 141.0
0.941999971867 -0.244000002742 -0.185000002384 139.0
0.925999999046 -0.246000006795 -0.181999996305 142.0
0.930000007153 -0.252999991179 -0.182999998331 153.0
0.935000002384 -0.259999990463 -0.184000000358 149.0
0.93599998951 -0.266000002623 -0.185000002384 153.0
0.92199999094 -0.268000006676 -0.181999996305 151.0
0.967999994755 -0.287999987602 -0.190999999642 148.0
0.93599998951 -0.284999996424 -0.186000004411 155.0
0.941999971867 -0.293000012636 -0.187000006437 160.0
0.920000016689 -0.291999995708 -0.182999998331 161.0
0.938000023365 -0.303999990225 -0.187000006437 161.0
0.949000000954 -0.31400001049 -0.188999995589 150.0
0.924000024796 -0.31099998951 -0.184000000358 162.0
0.926999986172 -0.319000005722 -0.185000002384 159.0
0.912999987602 -0.319999992847 -0.182999998331 159.0
0.912000000477 -0.326000005007 -0.182999998331 168.0
0.898000001907 -0.326999992132 -0.180000007153 168.0
0.916999995708 -0.340000003576 -0.185000002384 158.0
0.911000013351 -0.344000011683 -0.184000000358 165.0
0.896000027657 -0.344000011683 -0.180999994278 162.0
0.887000024319 -0.347000002861 -0.180000007153 155.0
0.931999981403 -0.372000008821 -0.188999995589 168.0
0.926999986172 -0.375999987125 -0.187999993563 164.0
0.912999987602 -0.377000004053 -0.186000004411 167.0
0.882000029087 -0.370000004768 -0.180000007153 162.0
0.913999974728 -0.389999985695 -0.187000006437 167.0
0.899999976158 -0.391000002623 -0.184000000358 163.0
0.897000014782 -0.395999997854 -0.184000000358 166.0
0.875999987125 -0.393000006676 -0.180000007153 166.0
0.888000011444 -0.405000001192 -0.182999998331 168.0
0.893999993801 -0.41400000453 -0.185000002384 167.0
0.882000029087 -0.416000008583 -0.182999998331 164.0
0.879999995232 -0.421000003815 -0.182999998331 168.0
0.883000016212 -0.430000007153 -0.184000000358 160.0
0.899999976158 -0.444999992847 -0.187999993563 161.0
0.884000003338 -0.444000005722 -0.185000002384 152.0
0.856999993324 -0.437000006437 -0.180000007153 163.0
0.853999972343 -0.442000001669 -0.180000007153 154.0
0.887000024319 -0.465999990702 -0.187000006437 148.0
0.883000016212 -0.470999985933 -0.187000006437 149.0
0.815999984741 -0.442000001669 -0.172999992967 155.0
0.882000029087 -0.485000014305 -0.187999993563 150.0
0.85900002718 -0.479000002146 -0.182999998331 139.0
0.856000006199 -0.485000014305 -0.182999998331 141.0
1.81299996376 1.05900001526 -0.41400000453 209.0
1.85800004005 1.07000005245 -0.423000007868 210.0
1.99899995327 1.13399994373 -0.45300000906 184.0
2.12199997902 1.18599998951 -0.479000002146 252.0
2.12299990654 1.16900002956 -0.477999985218 278.0
2.11899995804 1.14900004864 -0.476000010967 283.0
2.132999897 1.13999998569 -0.476999998093 265.0
2.14199995995 1.12800002098 -0.477999985218 235.0
2.132999897 1.10599994659 -0.47499999404 266.0
2.14299988747 1.09399998188 -0.47499999404 299.0
2.11999988556 1.06599998474 -0.469000011683 247.0
2.20700001717 1.09200000763 -0.486999988556 122.0
2.23399996758 1.08800005913 -0.490999996662 153.0
2.23300004005 1.07099997997 -0.490000009537 280.0
2.25300002098 1.06299996376 -0.493000000715 279.0
2.27699995041 1.05700004101 -0.497000008821 140.0
2.27399992943 1.03900003433 -0.495000004768 104.0
2.53900003433 1.08500003815 -0.54699999094 80.0
2.74000000954 1.09300005436 -0.584999978542 70.0
3.2650001049 1.10000002384 -0.684000015259 122.0
3.31399989128 1.09500002861 -0.693000018597 95.0
3.33999991417 1.08099997044 -0.697000026703 86.0
3.6210000515 0.89099997282 -0.740999996662 60.0
3.66599988937 0.879999995232 -0.75 60.0
3.66400003433 0.833000004292 -0.746999979019 57.0
3.58500003815 0.792999982834 -0.730000019073 55.0
3.62299990654 0.778999984264 -0.736999988556 65.0
3.67300009727 0.76700001955 -0.745999991894 60.0
3.65400004387 0.740999996662 -0.741999983788 62.0
3.69899988174 0.726999998093 -0.75 62.0
4.04699993134 0.624000012875 -0.814999997616 80.0
4.10500001907 0.60799998045 -0.825999975204 116.0
4.0609998703 0.577000021935 -0.815999984741 117.0
4.08400011063 0.555999994278 -0.819999992847 131.0
4.02099990845 0.523000001907 -0.806999981403 126.0
4.10400009155 0.509999990463 -0.823000013828 90.0
4.22100019455 0.22499999404 -0.839999973774 57.0
2.34899997711 -0.469999998808 -0.472000002861 211.0
2.34699988365 -0.483999997377 -0.472000002861 255.0
2.28900003433 -0.486000001431 -0.460000008345 132.0
1.08500003815 -0.234999999404 -0.217999994755 107.0
0.96899998188 -0.215000003576 -0.194999992847 138.0
0.944999992847 -0.216000005603 -0.189999997616 138.0
0.958999991417 -0.22499999404 -0.193000003695 140.0
0.952000021935 -0.229000002146 -0.192000001669 146.0
0.916999995708 -0.226999998093 -0.185000002384 142.0
0.967000007629 -0.245000004768 -0.195999994874 143.0
0.958999991417 -0.248999997973 -0.194000005722 141.0
0.944999992847 -0.250999987125 -0.192000001669 146.0
0.944000005722 -0.256999999285 -0.192000001669 145.0
0.93599998951 -0.261000007391 -0.189999997616 146.0
0.931999981403 -0.266000002623 -0.189999997616 138.0
0.926999986172 -0.270000010729 -0.188999995589 147.0
0.944999992847 -0.280999988317 -0.193000003695 156.0
0.93900001049 -0.286000013351 -0.192000001669 157.0
0.935000002384 -0.291000008583 -0.190999999642 154.0
0.940999984741 -0.298999994993 -0.193000003695 155.0
0.930999994278 -0.301999986172 -0.190999999642 155.0
0.936999976635 -0.310000002384 -0.193000003695 154.0
0.955999970436 -0.323000013828 -0.196999996901 159.0
0.925999999046 -0.319000005722 -0.190999999642 157.0
0.93599998951 -0.328999996185 -0.193000003695 154.0
0.935000002384 -0.333999991417 -0.193000003695 160.0
0.916999995708 -0.333999991417 -0.189999997616 164.0
0.897000014782 -0.333000004292 -0.186000004411 164.0
0.908999979496 -0.344000011683 -0.188999995589 153.0
0.916999995708 -0.352999985218 -0.190999999642 160.0
0.897000014782 -0.351999998093 -0.187000006437 150.0
0.89200001955 -0.356000006199 -0.187000006437 160.0
0.924000024796 -0.375 -0.194000005722 166.0
0.894999980927 -0.370000004768 -0.187999993563 157.0
0.90600001812 -0.381000012159 -0.190999999642 165.0
0.902999997139 -0.386000007391 -0.189999997616 162.0
0.888000011444 -0.386000007391 -0.187999993563 165.0
0.897000014782 -0.395999997854 -0.189999997616 165.0
0.885999977589 -0.398000001907 -0.187999993563 161.0
0.883000016212 -0.402999997139 -0.187999993563 151.0
0.888999998569 -0.412999987602 -0.189999997616 165.0
0.902000010014 -0.425999999046 -0.193000003695 159.0
0.89099997282 -0.426999986172 -0.190999999642 158.0
0.916000008583 -0.446000009775 -0.196999996901 150.0
0.888999998569 -0.439999997616 -0.192000001669 166.0
0.89200001955 -0.448000013828 -0.193000003695 152.0
0.90600001812 -0.462999999523 -0.195999994874 159.0
0.884999990463 -0.458999991417 -0.192000001669 157.0
0.901000022888 -0.474000006914 -0.195999994874 145.0
0.825999975204 -0.441000014544 -0.180000007153 144.0
0.90499997139 -0.490999996662 -0.197999998927 145.0
0.888000011444 -0.488999992609 -0.194999992847 147.0
0.873000025749 -0.488000005484 -0.192000001669 136.0
0.871999979019 -0.495000004768 -0.193000003695 146.0
1.84200000763 1.07700002193 -0.432999998331 210.0
1.85599994659 1.06900000572 -0.435000002384 207.0
1.97000002861 1.11899995804 -0.460000008345 194.0
2.11800003052 1.18499994278 -0.493000000715 235.0
2.10700011253 1.16199994087 -0.488999992609 221.0
2.11100006104 1.14600002766 -0.488000005484 205.0
2.1210000515 1.13499999046 -0.488999992609 183.0
2.14100003242 1.12800002098 -0.49200001359 239.0
2.13599991798 1.10800004005 -0.490000009537 285.0
2.15100002289 1.09899997711 -0.49200001359 289.0
2.16799998283 1.0909999609 -0.493999987841 253.0
2.18000006676 1.08000004292 -0.495000004768 121.0
2.21600008011 1.08099997044 -0.501999974251 139.0
2.24499988556 1.07799994946 -0.507000029087 273.0
2.25300002098 1.06500005722 -0.508000016212 288.0
2.29699993134 1.06799995899 -0.51599997282 152.0
2.32500004768 1.06400001049 -0.521000027657 89.0
2.54099988937 1.0870000124 -0.56400001049 87.0
2.68700003624 1.07299995422 -0.591000020504 79.0
3.27300000191 1.10399997234 -0.707000017166 115.0
3.2990000248 1.0909999609 -0.711000025272 99.0
3.65700006485 0.855000019073 -0.768999993801 61.0
3.68099999428 0.837999999523 -0.773999989033 61.0
3.59100008011 0.773000001907 -0.753000020981 63.0
3.61999988556 0.757000029087 -0.758000016212 60.0
3.63000011444 0.736999988556 -0.759000003338 61.0
3.59899997711 0.68599998951 -0.750999987125 55.0
4.05700016022 0.601000010967 -0.841000020504 100.0
4.13899993896 0.588999986649 -0.856999993324 88.0
4.03599977493 0.550000011921 -0.834999978542 99.0
4.09299993515 0.532999992371 -0.846000015736 94.0
4.21700000763 0.25 -0.865000009537 56.0
3.98099994659 0.165999993682 -0.815999984741 53.0
4.08199977875 0.145999997854 -0.837000012398 59.0
2.34699988365 -0.469999998808 -0.486000001431 212.0
2.33299994469 -0.481000006199 -0.483000010252 248.0
2.24399995804 -0.476999998093 -0.465000003576 129.0
1.0529999733 -0.228000000119 -0.217999994755 108.0
0.962000012398 -0.21400000155 -0.20000000298 133.0
0.97000002861 -0.222000002861 -0.201000005007 140.0
0.954999983311 -0.224000006914 -0.197999998927 149.0
0.954999983311 -0.230000004172 -0.199000000954 150.0
0.93900001049 -0.231999993324 -0.195999994874 138.0
0.944999992847 -0.239999994636 -0.196999996901 149.0
0.929000020027 -0.240999996662 -0.194000005722 141.0
0.936999976635 -0.25 -0.195999994874 148.0
0.945999979973 -0.25799998641 -0.197999998927 144.0
0.948000013828 -0.264999985695 -0.199000000954 150.0
0.945999979973 -0.270000010729 -0.197999998927 146.0
0.944999992847 -0.275999993086 -0.199000000954 151.0
0.920000016689 -0.27500000596 -0.194000005722 153.0
0.93599998951 -0.284999996424 -0.196999996901 151.0
0.948000013828 -0.294999986887 -0.20000000298 151.0
0.921000003815 -0.293000012636 -0.194999992847 158.0
0.930999994278 -0.301999986172 -0.196999996901 154.0
0.925999999046 -0.307000011206 -0.195999994874 149.0
0.917999982834 -0.310000002384 -0.194999992847 160.0
0.90499997139 -0.312000006437 -0.192000001669 156.0
0.902999997139 -0.317000001669 -0.192000001669 159.0
0.919000029564 -0.328999996185 -0.195999994874 155.0
0.915000021458 -0.333999991417 -0.194999992847 156.0
0.901000022888 -0.335000008345 -0.193000003695 165.0
0.92199999094 -0.349000006914 -0.197999998927 150.0
0.908999979496 -0.34999999404 -0.194999992847 161.0
0.915000021458 -0.358999997377 -0.196999996901 160.0
0.919000029564 -0.36700001359 -0.197999998927 157.0
0.903999984264 -0.368000000715 -0.194999992847 166.0
0.907999992371 -0.375999987125 -0.196999996901 162.0
0.913999974728 -0.384999990463 -0.197999998927 164.0
0.893000006676 -0.381999999285 -0.194000005722 163.0
0.870000004768 -0.379000008106 -0.189999997616 162.0
0.884999990463 -0.391999989748 -0.193000003695 162.0
0.871999979019 -0.391999989748 -0.190999999642 157.0
0.902000010014 -0.412999987602 -0.197999998927 159.0
0.885999977589 -0.412000000477 -0.194999992847 150.0
0.871999979019 -0.412000000477 -0.192000001669 158.0
0.908999979496 -0.43599998951 -0.201000005007 151.0
0.884999990463 -0.432000011206 -0.195999994874 157.0
0.884999990463 -0.437999993563 -0.196999996901 152.0
0.874000012875 -0.439999997616 -0.194999992847 156.0
0.865000009537 -0.442000001669 -0.193000003695 151.0
0.893999993801 -0.463999986649 -0.20000000298 148.0
0.884999990463 -0.465999990702 -0.199000000954 144.0
0.865000009537 -0.462000012398 -0.194999992847 143.0
0.870999991894 -0.472999989986 -0.196999996901 140.0
0.885999977589 -0.488000005484 -0.201000005007 141.0
0.878000020981 -0.490999996662 -0.20000000298 141.0
0.876999974251 -0.497999995947 -0.20000000298 148.0
1.82700002193 1.07000005245 -0.442000001669 212.0
1.83299994469 1.05700004101 -0.442000001669 209.0
1.93900001049 1.10199999809 -0.465999990702 167.0
2.10400009155 1.17900002003 -0.504000008106 142.0
2.09400010109 1.15600001812 -0.5 178.0
2.10500001907 1.14499998093 -0.500999987125 207.0
2.125 1.13800001144 -0.504999995232 261.0
2.11899995804 1.11800003052 -0.501999974251 276.0
2.1400001049 1.11199998856 -0.504999995232 292.0
2.1400001049 1.09500002861 -0.503000020981 294.0
2.13800001144 1.07700002193 -0.501999974251 271.0
2.11400008202 1.0490000248 -0.495000004768 119.0
2.23099994659 1.08899998665 -0.521000027657 149.0
2.22399997711 1.06900000572 -0.51700001955 267.0
2.26799988747 1.07299995422 -0.526000022888 304.0
2.2990000248 1.07000005245 -0.532000005245 154.0
2.34699988365 1.07500004768 -0.541999995708 99.0
2.55900001526 1.09599995613 -0.584999978542 76.0
2.69400000572 1.09599995613 -0.611000001431 66.0
2.70399999619 1.08099997044 -0.611999988556 74.0
3.26900005341 1.10399997234 -0.726000010967 125.0
3.28999996185 1.08899998665 -0.730000019073 102.0
3.3900001049 1.09899997711 -0.750999987125 91.0
3.67300009727 0.883000016212 -0.79699999094 57.0
3.59200000763 0.841000020504 -0.777999997139 57.0
3.61899995804 0.801999986172 -0.782000005245 67.0
3.6400001049 0.783999979496 -0.786000013351 57.0
3.64700007439 0.763000011444 -0.786000013351 60.0
3.67700004578 0.746999979019 -0.791999995708 61.0
3.5759999752 0.703999996185 -0.768999993801 58.0
3.84299993515 0.137999996543 -0.81099998951 59.0
3.88800001144 0.116999998689 -0.819999992847 64.0
2.35299992561 -0.470999985933 -0.500999987125 220.0
2.34200000763 -0.483999997377 -0.499000012875 246.0
2.21700000763 -0.470999985933 -0.472999989986 122.0
1.0340000391 -0.224000006914 -0.221000000834 119.0
0.973999977112 -0.216999992728 -0.208000004292 139.0
0.966000020504 -0.221000000834 -0.207000002265 134.0
0.973999977112 -0.229000002146 -0.209000006318 145.0
0.944999992847 -0.228000000119 -0.202000007033 143.0
0.943000018597 -0.233999997377 -0.202000007033 142.0
0.944999992847 -0.239999994636 -0.202999994159 144.0
0.959999978542 -0.25 -0.206000000238 144.0
0.919000029564 -0.245000004768 -0.197999998927 147.0
0.972999989986 -0.266000002623 -0.209999993443 145.0
0.954999983311 -0.266999989748 -0.206000000238 154.0
0.948000013828 -0.270999997854 -0.204999998212 147.0
0.957000017166 -0.280000001192 -0.207000002265 152.0
0.939999997616 -0.280999988317 -0.203999996185 156.0
0.930999994278 -0.284000009298 -0.202000007033 148.0
0.93900001049 -0.293000012636 -0.203999996185 149.0
0.930999994278 -0.296000003815 -0.202999994159 146.0
0.922999978065 -0.300000011921 -0.201000005007 158.0
0.93900001049 -0.312000006437 -0.204999998212 155.0
0.93900001049 -0.317999988794 -0.204999998212 158.0
0.921000003815 -0.317999988794 -0.202000007033 159.0
0.919000029564 -0.323000013828 -0.202000007033 158.0
0.925000011921 -0.331999987364 -0.202999994159 158.0
0.912000000477 -0.333000004292 -0.201000005007 162.0
0.885999977589 -0.328999996185 -0.194999992847 157.0
0.899999976158 -0.340999990702 -0.199000000954 153.0
0.90499997139 -0.349000006914 -0.20000000298 163.0
0.910000026226 -0.358000010252 -0.202000007033 161.0
0.916000008583 -0.365999996662 -0.202999994159 150.0
0.888000011444 -0.361000001431 -0.197999998927 156.0
0.898999989033 -0.372000008821 -0.201000005007 166.0
0.90499997139 -0.381999999285 -0.202000007033 164.0
0.90499997139 -0.388000011444 -0.202999994159 164.0
0.89099997282 -0.388000011444 -0.20000000298 159.0
0.893000006676 -0.395999997854 -0.201000005007 160.0
0.876999974251 -0.395000010729 -0.197999998927 157.0
0.915000021458 -0.418999999762 -0.207000002265 162.0
0.917999982834 -0.426999986172 -0.208000004292 160.0
0.865999996662 -0.409000009298 -0.196999996901 157.0
0.889999985695 -0.428000003099 -0.202999994159 158.0
0.888999998569 -0.433999985456 -0.202999994159 154.0
0.883000016212 -0.437999993563 -0.202000007033 154.0
0.903999984264 -0.456000000238 -0.208000004292 146.0
0.90499997139 -0.462999999523 -0.208000004292 151.0
0.855000019073 -0.444000005722 -0.196999996901 153.0
0.871999979019 -0.460000008345 -0.202000007033 151.0
0.865000009537 -0.462999999523 -0.201000005007 139.0
0.841000020504 -0.456999987364 -0.195999994874 144.0
0.856999993324 -0.472999989986 -0.20000000298 142.0
0.887000024319 -0.497000008821 -0.208000004292 143.0
0.853999972343 -0.485000014305 -0.20000000298 136.0
1.7879999876 1.04799997807 -0.444999992847 212.0
1.86899995804 1.07899999619 -0.463999986649 219.0
1.95200002193 1.11099994183 -0.483000010252 190.0
2.12700009346 1.19299995899 -0.523999989033 218.0
2.10800004005 1.16499996185 -0.518000006676 264.0
2.12800002098 1.1590000391 -0.522000014782 297.0
2.12599992752 1.13999998569 -0.518999993801 280.0
2.13899993896 1.12999999523 -0.521000027657 261.0
2.13000011444 1.10800004005 -0.51700001955 265.0
2.13000011444 1.0909999609 -0.51599997282 287.0
2.1400001049 1.08000004292 -0.51700001955 268.0
2.21700000763 1.10099995136 -0.533999979496 137.0
2.21600008011 1.08299994469 -0.532000005245 144.0
2.23399996758 1.07500004768 -0.535000026226 250.0
2.25500011444 1.06799995899 -0.537999987602 304.0
2.2650001049 1.05499994755 -0.538999974728 169.0
2.32699990273 1.06700003147 -0.552999973297 91.0
3.27399992943 1.10699999332 -0.749000012875 120.0
3.3069999218 1.09599995613 -0.754999995232 96.0
3.37299990654 1.09500002861 -0.768000006676 90.0
3.5490000248 0.832000017166 -0.791000008583 62.0
3.65499997139 0.833999991417 -0.81400001049 61.0
3.63499999046 0.739000022411 -0.805000007153 55.0
3.74799990654 0.178000003099 -0.81400001049 67.0
3.79099988937 0.158000007272 -0.823000013828 56.0
3.79800009727 0.136000007391 -0.824000000954 55.0
3.75999999046 0.112999998033 -0.815999984741 59.0
3.82100009918 0.0920000001788 -0.828999996185 61.0
3.81200003624 0.070000000298 -0.827000021935 54.0
2.35400009155 -0.472000002861 -0.51599997282 229.0
2.33599996567 -0.483000010252 -0.513000011444 243.0
2.21499991417 -0.470999985933 -0.486000001431 124.0
1.0 -0.216999992728 -0.219999998808 115.0
0.959999978542 -0.21400000155 -0.21099999547 136.0
0.958000004292 -0.219999998808 -0.21099999547 136.0
0.945999979973 -0.223000004888 -0.208000004292 138.0
0.971000015736 -0.234999999404 -0.21400000155 140.0
0.957000017166 -0.237000003457 -0.21099999547 140.0
0.947000026703 -0.240999996662 -0.209000006318 141.0
0.943000018597 -0.246000006795 -0.209000006318 135.0
0.927999973297 -0.247999995947 -0.206000000238 144.0
0.947000026703 -0.259000003338 -0.209999993443 138.0
0.954999983311 -0.266999989748 -0.211999997497 152.0
0.943000018597 -0.270000010729 -0.209999993443 147.0
0.952000021935 -0.279000014067 -0.211999997497 153.0
0.953999996185 -0.284999996424 -0.212999999523 146.0
0.941999971867 -0.287999987602 -0.209999993443 147.0
0.947000026703 -0.296000003815 -0.211999997497 154.0
0.931999981403 -0.29699999094 -0.209000006318 151.0
0.926999986172 -0.301999986172 -0.208000004292 158.0
0.907999992371 -0.300999999046 -0.203999996185 156.0
0.927999973297 -0.31400001049 -0.209000006318 153.0
0.953999996185 -0.330000013113 -0.215000003576 155.0
0.907000005245 -0.319000005722 -0.204999998212 159.0
0.926999986172 -0.333000004292 -0.209999993443 156.0
0.920000016689 -0.337000012398 -0.208000004292 157.0
0.912000000477 -0.340000003576 -0.207000002265 160.0
0.898000001907 -0.340999990702 -0.203999996185 155.0
0.893999993801 -0.345999985933 -0.203999996185 155.0
0.884999990463 -0.347999989986 -0.202000007033 155.0
0.912000000477 -0.365000009537 -0.209000006318 160.0
0.917999982834 -0.374000012875 -0.209999993443 158.0
0.884000003338 -0.36700001359 -0.202999994159 161.0
0.90499997139 -0.381999999285 -0.208000004292 153.0
0.898000001907 -0.384999990463 -0.207000002265 156.0
0.902000010014 -0.393999993801 -0.209000006318 152.0
0.899999976158 -0.398999989033 -0.208000004292 157.0
0.89099997282 -0.402000010014 -0.207000002265 149.0
0.876999974251 -0.402000010014 -0.203999996185 156.0
0.851000010967 -0.395999997854 -0.197999998927 165.0
0.897000014782 -0.425000011921 -0.209999993443 158.0
0.903999984264 -0.435000002384 -0.211999997497 154.0
0.893000006676 -0.437000006437 -0.209999993443 155.0
0.90600001812 -0.449999988079 -0.21400000155 146.0
0.853999972343 -0.430999994278 -0.202000007033 152.0
0.869000017643 -0.444999992847 -0.206000000238 148.0
0.893999993801 -0.465000003576 -0.211999997497 150.0
0.898000001907 -0.47499999404 -0.21400000155 144.0
0.875 -0.469000011683 -0.209000006318 151.0
0.864000022411 -0.470999985933 -0.207000002265 153.0
0.867999970913 -0.479999989271 -0.209000006318 142.0
0.846000015736 -0.474000006914 -0.203999996185 141.0
0.879000008106 -0.500999987125 -0.211999997497 140.0
1.8029999733 1.05799996853 -0.462000012398 213.0
1.82000005245 1.0529999733 -0.463999986649 207.0
1.90999996662 1.08899998665 -0.486000001431 203.0
2.10599994659 1.18299996853 -0.533999979496 259.0
2.13000011444 1.17900002003 -0.537999987602 278.0
2.11299991608 1.15199995041 -0.532000005245 254.0
2.12299990654 1.13999998569 -0.532999992371 221.0
2.1210000515 1.12199997902 -0.53100001812 232.0
2.13100004196 1.11000001431 -0.532000005245 262.0
2.14299988747 1.09899997711 -0.532999992371 294.0
2.13899993896 1.08000004292 -0.53100001812 285.0
2.17199993134 1.08000004292 -0.537999987602 138.0
2.23000001907 1.0909999609 -0.550000011921 145.0
2.23300004005 1.0759999752 -0.550000011921 236.0
2.2349998951 1.05999994278 -0.549000024796 310.0
2.28099989891 1.06400001049 -0.558000028133 181.0
3.29299998283 1.11500000954 -0.773999989033 120.0
3.35800004005 1.11399996281 -0.787999987602 101.0
3.3789999485 1.09800004959 -0.791000008583 87.0
3.67100000381 0.861000001431 -0.841000020504 58.0
3.7009999752 0.84500002861 -0.847000002861 61.0
3.61899995804 0.150999993086 -0.808000028133 54.0
3.74000000954 0.134000003338 -0.834999978542 54.0
3.89599990845 0.116999998689 -0.869000017643 51.0
3.78800010681 0.0689999982715 -0.84500002861 51.0
2.3259999752 -0.467000007629 -0.524999976158 231.0
2.34500002861 -0.486000001431 -0.528999984264 238.0
2.1779999733 -0.463999986649 -0.49200001359 115.0
1.04400002956 -0.226999998093 -0.236000001431 118.0
0.961000025272 -0.215000003576 -0.216999992728 134.0
0.962999999523 -0.221000000834 -0.217999994755 139.0
0.944999992847 -0.223000004888 -0.21400000155 135.0
0.961000025272 -0.232999995351 -0.217999994755 138.0
0.944999992847 -0.234999999404 -0.21400000155 131.0
0.93599998951 -0.238000005484 -0.212999999523 139.0
0.93599998951 -0.244000002742 -0.212999999523 144.0
0.976999998093 -0.261000007391 -0.223000004888 143.0
0.947000026703 -0.259000003338 -0.216000005603 138.0
0.947000026703 -0.264999985695 -0.216000005603 141.0
0.948000013828 -0.272000014782 -0.216999992728 138.0
0.949999988079 -0.277999997139 -0.216999992728 148.0
0.929000020027 -0.277999997139 -0.212999999523 147.0
0.938000023365 -0.287000000477 -0.216000005603 155.0
0.902000010014 -0.282000005245 -0.207000002265 153.0
0.925000011921 -0.294999986887 -0.212999999523 156.0
0.917999982834 -0.298999994993 -0.211999997497 145.0
0.944999992847 -0.31400001049 -0.217999994755 154.0
0.902999997139 -0.305999994278 -0.209000006318 146.0
0.90499997139 -0.312999993563 -0.209999993443 152.0
0.908999979496 -0.319999992847 -0.21099999547 154.0
0.924000024796 -0.331999987364 -0.215000003576 157.0
0.939999997616 -0.344000011683 -0.218999996781 156.0
0.901000022888 -0.33599999547 -0.209999993443 159.0
0.931999981403 -0.354000002146 -0.217999994755 152.0
0.898999989033 -0.347999989986 -0.21099999547 158.0
0.879999995232 -0.347000002861 -0.207000002265 157.0
0.879999995232 -0.352999985218 -0.207000002265 152.0
0.899999976158 -0.36700001359 -0.211999997497 158.0
0.888999998569 -0.368999987841 -0.209999993443 158.0
0.910000026226 -0.384999990463 -0.215000003576 157.0
0.883000016212 -0.379000008106 -0.209000006318 157.0
0.878000020981 -0.384000003338 -0.209000006318 151.0
0.894999980927 -0.398000001907 -0.212999999523 158.0
0.893000006676 -0.402999997139 -0.212999999523 165.0
0.865999996662 -0.398000001907 -0.207000002265 158.0
0.884999990463 -0.412999987602 -0.211999997497 159.0
0.869000017643 -0.412000000477 -0.209000006318 156.0
0.885999977589 -0.426999986172 -0.21400000155 155.0
0.876999974251 -0.428999990225 -0.211999997497 148.0
0.879000008106 -0.437000006437 -0.212999999523 146.0
0.84500002861 -0.426999986172 -0.204999998212 139.0
0.873000025749 -0.448000013828 -0.212999999523 150.0
0.865999996662 -0.451000005007 -0.211999997497 147.0
0.876999974251 -0.463999986649 -0.215000003576 147.0
0.865999996662 -0.465000003576 -0.212999999523 143.0
0.888999998569 -0.485000014305 -0.218999996781 141.0
0.884999990463 -0.490000009537 -0.218999996781 140.0
0.836000025272 -0.469000011683 -0.207000002265 145.0
0.856000006199 -0.488000005484 -0.212999999523 137.0
1.80900001526 1.06299996376 -0.476000010967 207.0
1.86199998856 1.07799994946 -0.488000005484 210.0
1.90100002289 1.08500003815 -0.497000008821 200.0
2.08500003815 1.17299997807 -0.542999982834 177.0
2.11999988556 1.17499995232 -0.550999999046 194.0
2.125 1.15999996662 -0.550000011921 194.0
2.13400006294 1.14800000191 -0.550999999046 230.0
2.1289999485 1.12800002098 -0.547999978065 242.0
2.13499999046 1.11399996281 -0.547999978065 226.0
2.13700008392 1.09800004959 -0.54699999094 286.0
2.14199995995 1.08299994469 -0.546000003815 284.0
2.15599989891 1.07299995422 -0.547999978065 156.0
2.20000004768 1.07799994946 -0.558000028133 125.0
2.23399996758 1.07700002193 -0.564999997616 234.0
2.24399995804 1.06500005722 -0.565999984741 319.0
2.29699993134 1.07299995422 -0.57800000906 184.0
2.30500006676 1.05900001526 -0.57800000906 89.0
3.26099991798 1.10500001907 -0.787999987602 121.0
3.29299998283 1.09399998188 -0.794000029564 101.0
3.35599994659 1.09200000763 -0.808000028133 81.0
2.36400008202 -0.46099999547 -0.54699999094 98.0
2.34599995613 -0.472000002861 -0.544000029564 230.0
2.34100008011 -0.485000014305 -0.542999982834 228.0
2.11999988556 -0.451999992132 -0.49200001359 105.0
1.02100002766 -0.222000002861 -0.237000003457 122.0
0.958000004292 -0.21400000155 -0.222000002861 131.0
0.975000023842 -0.224000006914 -0.226999998093 126.0
0.962000012398 -0.226999998093 -0.224000006914 132.0
0.948000013828 -0.230000004172 -0.221000000834 137.0
0.929000020027 -0.231000006199 -0.216999992728 134.0
0.967000007629 -0.24699999392 -0.225999996066 138.0
0.924000024796 -0.240999996662 -0.216000005603 142.0
0.957000017166 -0.256000012159 -0.224000006914 139.0
0.935000002384 -0.256000012159 -0.218999996781 141.0
0.940999984741 -0.263999998569 -0.221000000834 147.0
0.939999997616 -0.270000010729 -0.221000000834 141.0
0.958999991417 -0.282000005245 -0.225999996066 142.0
0.967000007629 -0.289999991655 -0.228000000119 149.0
0.943000018597 -0.28900000453 -0.223000004888 152.0
0.930999994278 -0.291999995708 -0.219999998808 152.0
0.919000029564 -0.293999999762 -0.217999994755 149.0
0.925000011921 -0.301999986172 -0.218999996781 144.0
0.916000008583 -0.305000007153 -0.217999994755 151.0
0.896000027657 -0.303999990225 -0.212999999523 149.0
0.907999992371 -0.31400001049 -0.216000005603 152.0
0.922999978065 -0.326000005007 -0.219999998808 150.0
0.911000013351 -0.32800000906 -0.217999994755 145.0
0.907000005245 -0.333000004292 -0.216999992728 159.0
0.915000021458 -0.342000007629 -0.219999998808 156.0
