ply
format ascii 1.0
element vertex 909
property float x
property float y
property float z
property float intensity
end_header
0.856000006199 -0.379999995232 -0.203999996185 1695.0
0.855000019073 -0.386000007391 -0.203999996185 1678.0
0.851000010967 -0.391000002623 -0.203999996185 1725.0
0.853999972343 -0.398000001907 -0.204999998212 1686.0
0.851000010967 -0.402999997139 -0.204999998212 1690.0
0.850000023842 -0.409000009298 -0.204999998212 1711.0
0.851000010967 -0.416999995708 -0.206000000238 1731.0
0.847999989986 -0.421000003815 -0.204999998212 1699.0
0.842999994755 -0.425999999046 -0.204999998212 1700.0
0.84500002861 -0.432999998331 -0.206000000238 1675.0
0.841000020504 -0.437999993563 -0.204999998212 1680.0
0.841000020504 -0.444999992847 -0.206000000238 1713.0
0.842000007629 -0.451999992132 -0.207000002265 1698.0
0.841000020504 -0.458000004292 -0.207000002265 1704.0
0.837000012398 -0.462999999523 -0.207000002265 1679.0
0.842000007629 -0.472999989986 -0.209000006318 1675.0
0.836000025272 -0.476999998093 -0.208000004292 1668.0
1.84500002861 1.08399999142 -0.485000014305 204.0
2.02099990845 1.17100000381 -0.52999997139 199.0
2.03299999237 1.16100001335 -0.53100001812 226.0
2.07100009918 1.16499996185 -0.540000021458 252.0
2.03999996185 1.13100004196 -0.52999997139 219.0
2.05200004578 1.12000000477 -0.53100001812 175.0
2.0720000267 1.11399996281 -0.535000026226 179.0
2.0759999752 1.09899997711 -0.533999979496 306.0
2.10100007057 1.09599995613 -0.538999974728 266.0
2.10500001907 1.08099997044 -0.537999987602 137.0
2.13899993896 1.08200001717 -0.546000003815 145.0
2.1970000267 1.09399998188 -0.559000015259 281.0
2.20900011063 1.08200001717 -0.560000002384 296.0
2.23799991608 1.08000004292 -0.565999984741 130.0
3.31299996376 1.16799998283 -0.802999973297 95.0
3.31999993324 1.14800000191 -0.804000020027 86.0
0.940999984741 -0.0630000010133 -0.215000003576 404.0
0.910000026226 -0.0659999996424 -0.208000004292 1448.0
0.898000001907 -0.0710000023246 -0.204999998212 1489.0
0.902999997139 -0.0759999975562 -0.207000002265 1517.0
0.90499997139 -0.082000002265 -0.207000002265 1519.0
0.899999976158 -0.0869999974966 -0.206000000238 1530.0
0.898000001907 -0.0920000001788 -0.206000000238 1520.0
0.897000014782 -0.097000002861 -0.206000000238 1521.0
0.903999984264 -0.103000000119 -0.207000002265 1520.0
0.898000001907 -0.108000002801 -0.206000000238 1521.0
0.893999993801 -0.112999998033 -0.204999998212 1545.0
0.896000027657 -0.118000000715 -0.206000000238 1580.0
0.896000027657 -0.123999997973 -0.206000000238 1561.0
0.894999980927 -0.128999993205 -0.206000000238 1571.0
0.893999993801 -0.134000003338 -0.204999998212 1587.0
0.897000014782 -0.140000000596 -0.207000002265 1584.0
0.893000006676 -0.144999995828 -0.206000000238 1593.0
0.89099997282 -0.15000000596 -0.204999998212 1586.0
0.888999998569 -0.155000001192 -0.204999998212 1592.0
0.885999977589 -0.159999996424 -0.204999998212 1598.0
0.894999980927 -0.166999995708 -0.207000002265 1593.0
0.889999985695 -0.171000003815 -0.206000000238 1610.0
0.888999998569 -0.177000001073 -0.206000000238 1601.0
0.889999985695 -0.181999996305 -0.206000000238 1601.0
0.887000024319 -0.187000006437 -0.206000000238 1607.0
0.888999998569 -0.193000003695 -0.206000000238 1624.0
0.887000024319 -0.197999998927 -0.206000000238 1606.0
0.882000029087 -0.202000007033 -0.204999998212 1618.0
0.882000029087 -0.208000004292 -0.204999998212 1610.0
0.880999982357 -0.212999999523 -0.204999998212 1648.0
0.880999982357 -0.218999996781 -0.204999998212 1639.0
0.875 -0.223000004888 -0.203999996185 1646.0
0.878000020981 -0.229000002146 -0.204999998212 1665.0
0.879999995232 -0.234999999404 -0.206000000238 1654.0
0.874000012875 -0.238999992609 -0.204999998212 1668.0
0.875999987125 -0.245000004768 -0.206000000238 1688.0
0.870999991894 -0.25 -0.204999998212 1683.0
0.875 -0.256000012159 -0.206000000238 1671.0
0.873000025749 -0.261000007391 -0.206000000238 1677.0
0.870000004768 -0.266000002623 -0.204999998212 1671.0
0.871999979019 -0.273000001907 -0.206000000238 1683.0
0.869000017643 -0.277000010014 -0.206000000238 1673.0
0.869000017643 -0.282999992371 -0.206000000238 1656.0
0.875 -0.291000008583 -0.208000004292 1671.0
0.869000017643 -0.294999986887 -0.207000002265 1673.0
0.867999970913 -0.300000011921 -0.207000002265 1674.0
0.866999983788 -0.305999994278 -0.207000002265 1675.0
0.861999988556 -0.310000002384 -0.206000000238 1677.0
0.865000009537 -0.317000001669 -0.207000002265 1673.0
0.865999996662 -0.323000013828 -0.208000004292 1685.0
0.85799998045 -0.326000005007 -0.206000000238 1676.0
0.861999988556 -0.333999991417 -0.208000004292 1674.0
0.864000022411 -0.340999990702 -0.208000004292 1670.0
0.85799998045 -0.344000011683 -0.207000002265 1682.0
0.864000022411 -0.352999985218 -0.209000006318 1683.0
0.860000014305 -0.356999993324 -0.209000006318 1670.0
0.856999993324 -0.361999988556 -0.208000004292 1662.0
0.85799998045 -0.368999987841 -0.209000006318 1695.0
0.852999985218 -0.372999995947 -0.209000006318 1679.0
0.851000010967 -0.377999991179 -0.208000004292 1671.0
0.848999977112 -0.384000003338 -0.208000004292 1670.0
0.851000010967 -0.391000002623 -0.209000006318 1705.0
0.850000023842 -0.397000014782 -0.209999993443 1683.0
0.851999998093 -0.405000001192 -0.21099999547 1653.0
0.847000002861 -0.407999992371 -0.209999993443 1705.0
0.847000002861 -0.414999991655 -0.21099999547 1703.0
0.848999977112 -0.423000007868 -0.21099999547 1692.0
0.841000020504 -0.425000011921 -0.209999993443 1675.0
0.839999973774 -0.430999994278 -0.209999993443 1677.0
0.84399998188 -0.439999997616 -0.211999997497 1690.0
0.842999994755 -0.446999996901 -0.211999997497 1714.0
0.839999973774 -0.451999992132 -0.211999997497 1697.0
0.832000017166 -0.453999996185 -0.21099999547 1711.0
0.841000020504 -0.465999990702 -0.21400000155 1677.0
0.833999991417 -0.469000011683 -0.212999999523 1656.0
0.836000025272 -0.476999998093 -0.21400000155 1660.0
1.83099997044 1.07799994946 -0.495000004768 202.0
2.00200009346 1.16100001335 -0.538999974728 178.0
2.06699991226 1.18200004101 -0.555000007153 191.0
2.04399991035 1.15100002289 -0.54699999094 150.0
2.0150001049 1.11800003052 -0.537000000477 97.0
2.0150001049 1.10199999809 -0.536000013351 112.0
2.08100008965 1.12000000477 -0.551999986172 215.0
2.08400011063 1.10500001907 -0.550999999046 298.0
2.07399988174 1.08299994469 -0.546000003815 269.0
2.08699989319 1.07299995422 -0.547999978065 151.0
2.11999988556 1.07400000095 -0.555000007153 126.0
2.17700004578 1.08500003815 -0.569000005722 255.0
2.20700001717 1.08299994469 -0.574999988079 296.0
2.22799992561 1.0759999752 -0.578999996185 154.0
3.24699997902 1.16799998283 -0.810000002384 76.0
3.25 1.14699995518 -0.809000015259 100.0
0.922999978065 -0.0619999989867 -0.216999992728 440.0
0.90600001812 -0.0659999996424 -0.212999999523 1462.0
0.902999997139 -0.0710000023246 -0.211999997497 1475.0
0.902000010014 -0.0759999975562 -0.211999997497 1503.0
0.90499997139 -0.082000002265 -0.212999999523 1520.0
0.901000022888 -0.0869999974966 -0.211999997497 1529.0
0.899999976158 -0.0920000001788 -0.211999997497 1540.0
0.902000010014 -0.097999997437 -0.211999997497 1546.0
0.897000014782 -0.103000000119 -0.21099999547 1553.0
0.899999976158 -0.108000002801 -0.211999997497 1547.0
0.897000014782 -0.112999998033 -0.21099999547 1557.0
0.897000014782 -0.119000002742 -0.21099999547 1573.0
0.893999993801 -0.123999997973 -0.21099999547 1573.0
0.894999980927 -0.128999993205 -0.21099999547 1585.0
0.89200001955 -0.134000003338 -0.21099999547 1589.0
0.896000027657 -0.140000000596 -0.211999997497 1579.0
0.888000011444 -0.143999993801 -0.209999993443 1605.0
0.89200001955 -0.15000000596 -0.21099999547 1602.0
0.893999993801 -0.156000003219 -0.211999997497 1622.0
0.893000006676 -0.16099999845 -0.211999997497 1615.0
0.887000024319 -0.165000006557 -0.209999993443 1607.0
0.888000011444 -0.171000003815 -0.21099999547 1596.0
0.888999998569 -0.177000001073 -0.21099999547 1611.0
0.887000024319 -0.181999996305 -0.21099999547 1615.0
0.884999990463 -0.187000006437 -0.21099999547 1634.0
0.884999990463 -0.192000001669 -0.21099999547 1629.0
0.876999974251 -0.195999994874 -0.209000006318 1625.0
0.884000003338 -0.202999994159 -0.21099999547 1621.0
0.883000016212 -0.208000004292 -0.21099999547 1614.0
0.885999977589 -0.215000003576 -0.211999997497 1638.0
0.875999987125 -0.217999994755 -0.209999993443 1643.0
0.879000008106 -0.224000006914 -0.21099999547 1631.0
0.876999974251 -0.229000002146 -0.21099999547 1628.0
0.876999974251 -0.234999999404 -0.21099999547 1630.0
0.878000020981 -0.240999996662 -0.21099999547 1649.0
0.875 -0.245000004768 -0.21099999547 1672.0
0.875 -0.250999987125 -0.21099999547 1655.0
0.878000020981 -0.25799998641 -0.211999997497 1673.0
0.871999979019 -0.261999994516 -0.21099999547 1676.0
0.871999979019 -0.266999989748 -0.21099999547 1676.0
0.869000017643 -0.272000014782 -0.21099999547 1686.0
0.866999983788 -0.277000010014 -0.21099999547 1679.0
0.870999991894 -0.284000009298 -0.211999997497 1675.0
0.870000004768 -0.289999991655 -0.211999997497 1672.0
0.870999991894 -0.296000003815 -0.212999999523 1686.0
0.866999983788 -0.300000011921 -0.211999997497 1686.0
0.866999983788 -0.305999994278 -0.212999999523 1676.0
0.862999975681 -0.31099998951 -0.211999997497 1672.0
0.865000009537 -0.317999988794 -0.212999999523 1677.0
0.860000014305 -0.321999996901 -0.211999997497 1690.0
0.861000001431 -0.32800000906 -0.212999999523 1680.0
0.861999988556 -0.333999991417 -0.212999999523 1674.0
0.865000009537 -0.342000007629 -0.215000003576 1678.0
0.851999998093 -0.342999994755 -0.211999997497 1668.0
0.85799998045 -0.351000010967 -0.212999999523 1662.0
0.85799998045 -0.356999993324 -0.21400000155 1673.0
0.85799998045 -0.363000005484 -0.21400000155 1670.0
0.855000019073 -0.368000000715 -0.21400000155 1691.0
0.853999972343 -0.374000012875 -0.21400000155 1670.0
0.856999993324 -0.381999999285 -0.216000005603 1664.0
0.851000010967 -0.386000007391 -0.215000003576 1669.0
0.851000010967 -0.391999989748 -0.215000003576 1696.0
0.847999989986 -0.397000014782 -0.215000003576 1672.0
0.850000023842 -0.404000014067 -0.216000005603 1669.0
0.851000010967 -0.411000013351 -0.216999992728 1692.0
0.84500002861 -0.414999991655 -0.216000005603 1689.0
0.848999977112 -0.423000007868 -0.216999992728 1677.0
0.848999977112 -0.430000007153 -0.217999994755 1681.0
0.846000015736 -0.435000002384 -0.217999994755 1665.0
0.84399998188 -0.441000014544 -0.217999994755 1663.0
0.850000023842 -0.451000005007 -0.219999998808 1682.0
0.839999973774 -0.451999992132 -0.217999994755 1710.0
0.838999986649 -0.458999991417 -0.217999994755 1702.0
0.837000012398 -0.465000003576 -0.218999996781 1661.0
0.837999999523 -0.472000002861 -0.218999996781 1639.0
0.837000012398 -0.477999985218 -0.219999998808 1650.0
1.77300000191 1.04499995708 -0.49200001359 194.0
1.87600004673 1.09000003338 -0.518999993801 115.0
1.93900001049 1.06099998951 -0.528999984264 98.0
2.01699995995 1.0870000124 -0.549000024796 127.0
2.04699993134 1.0870000124 -0.555000007153 171.0
2.07999992371 1.08800005913 -0.561999976635 174.0
2.06699991226 1.06500005722 -0.556999981403 122.0
2.0759999752 1.0529999733 -0.558000028133 120.0
2.15100002289 1.07400000095 -0.577000021935 190.0
2.18700003624 1.07500004768 -0.584999978542 282.0
2.22799992561 1.07799994946 -0.59399998188 168.0
2.22000002861 1.05700004101 -0.589999973774 91.0
0.919000029564 -0.0619999989867 -0.221000000834 475.0
0.908999979496 -0.0659999996424 -0.218999996781 1469.0
0.903999984264 -0.0710000023246 -0.217999994755 1519.0
0.899999976158 -0.0759999975562 -0.216999992728 1523.0
0.903999984264 -0.082000002265 -0.217999994755 1508.0
0.903999984264 -0.0869999974966 -0.217999994755 1529.0
0.902999997139 -0.0930000022054 -0.217999994755 1530.0
0.901000022888 -0.097999997437 -0.216999992728 1536.0
0.898000001907 -0.103000000119 -0.216999992728 1527.0
0.899999976158 -0.108000002801 -0.216999992728 1533.0
0.893000006676 -0.112999998033 -0.216000005603 1549.0
0.896000027657 -0.119000002742 -0.216999992728 1561.0
0.896000027657 -0.123999997973 -0.216999992728 1576.0
0.893000006676 -0.128999993205 -0.216000005603 1598.0
0.889999985695 -0.134000003338 -0.216000005603 1598.0
0.89099997282 -0.138999998569 -0.216000005603 1602.0
0.893999993801 -0.144999995828 -0.216999992728 1615.0
0.889999985695 -0.15000000596 -0.216000005603 1616.0
0.89200001955 -0.156000003219 -0.216999992728 1609.0
0.884000003338 -0.159999996424 -0.215000003576 1609.0
0.888000011444 -0.165999993682 -0.216000005603 1603.0
0.884000003338 -0.171000003815 -0.215000003576 1604.0
0.887000024319 -0.177000001073 -0.216000005603 1597.0
0.887000024319 -0.181999996305 -0.216999992728 1595.0
0.884000003338 -0.187000006437 -0.216000005603 1617.0
0.884000003338 -0.192000001669 -0.216000005603 1634.0
0.887000024319 -0.199000000954 -0.216999992728 1616.0
0.887000024319 -0.203999996185 -0.216999992728 1632.0
0.882000029087 -0.208000004292 -0.216000005603 1619.0
0.879000008106 -0.212999999523 -0.216000005603 1654.0
0.879000008106 -0.218999996781 -0.216000005603 1644.0
0.879999995232 -0.22499999404 -0.216000005603 1642.0
0.879000008106 -0.230000004172 -0.216999992728 1633.0
0.873000025749 -0.233999997377 -0.215000003576 1640.0
0.874000012875 -0.239999994636 -0.216000005603 1641.0
0.874000012875 -0.245000004768 -0.216000005603 1661.0
0.873000025749 -0.250999987125 -0.216000005603 1668.0
0.871999979019 -0.256000012159 -0.216000005603 1659.0
0.871999979019 -0.261999994516 -0.216999992728 1665.0
0.865000009537 -0.264999985695 -0.215000003576 1668.0
0.867999970913 -0.272000014782 -0.216000005603 1669.0
0.873000025749 -0.279000014067 -0.217999994755 1671.0
0.871999979019 -0.284999996424 -0.217999994755 1659.0
0.869000017643 -0.289999991655 -0.217999994755 1667.0
0.866999983788 -0.294999986887 -0.216999992728 1677.0
0.867999970913 -0.300999999046 -0.217999994755 1672.0
0.865999996662 -0.305999994278 -0.217999994755 1684.0
0.865000009537 -0.312000006437 -0.217999994755 1674.0
0.862999975681 -0.317000001669 -0.217999994755 1690.0
0.860000014305 -0.321999996901 -0.217999994755 1689.0
0.861000001431 -0.32800000906 -0.217999994755 1668.0
0.862999975681 -0.335000008345 -0.218999996781 1670.0
0.861999988556 -0.340999990702 -0.218999996781 1665.0
0.861999988556 -0.347000002861 -0.219999998808 1678.0
0.85799998045 -0.351999998093 -0.218999996781 1671.0
0.851999998093 -0.354999989271 -0.217999994755 1660.0
0.852999985218 -0.361999988556 -0.218999996781 1658.0
0.85799998045 -0.370000004768 -0.221000000834 1681.0
0.855000019073 -0.375 -0.219999998808 1662.0
0.848999977112 -0.379000008106 -0.218999996781 1657.0
0.851999998093 -0.386000007391 -0.221000000834 1676.0
0.848999977112 -0.391000002623 -0.219999998808 1682.0
0.847999989986 -0.397000014782 -0.221000000834 1655.0
0.842999994755 -0.400999993086 -0.219999998808 1652.0
0.84500002861 -0.409000009298 -0.221000000834 1678.0
0.84500002861 -0.414999991655 -0.221000000834 1675.0
0.842000007629 -0.421000003815 -0.221000000834 1662.0
0.847000002861 -0.430000007153 -0.223000004888 1673.0
0.839999973774 -0.432000011206 -0.222000002861 1644.0
0.842999994755 -0.441000014544 -0.223000004888 1652.0
0.841000020504 -0.446999996901 -0.223000004888 1690.0
0.836000025272 -0.451000005007 -0.223000004888 1686.0
0.839999973774 -0.460000008345 -0.224000006914 1676.0
0.837000012398 -0.465000003576 -0.224000006914 1659.0
0.837999999523 -0.472999989986 -0.22499999404 1634.0
0.833999991417 -0.477999985218 -0.22499999404 1662.0
1.78299999237 1.05200004578 -0.507000029087 203.0
1.90799999237 1.11000001431 -0.541000008583 137.0
1.92299997807 1.0379999876 -0.537000000477 100.0
2.02099990845 1.07500004768 -0.561999976635 129.0
2.007999897 1.05200004578 -0.556999981403 126.0
2.01300001144 1.0379999876 -0.555999994278 130.0
2.03699994087 1.0340000391 -0.561999976635 123.0
2.17300009727 1.08599996567 -0.597000002861 188.0
2.18600010872 1.0759999752 -0.598999977112 292.0
2.23000001907 1.08000004292 -0.610000014305 178.0
0.922999978065 -0.0619999989867 -0.228000000119 495.0
0.908999979496 -0.0670000016689 -0.22499999404 1448.0
0.898999989033 -0.0710000023246 -0.222000002861 1462.0
0.90499997139 -0.0769999995828 -0.224000006914 1501.0
0.899999976158 -0.082000002265 -0.223000004888 1510.0
0.898000001907 -0.0869999974966 -0.222000002861 1522.0
0.901000022888 -0.0930000022054 -0.223000004888 1529.0
0.893999993801 -0.097000002861 -0.221000000834 1533.0
0.896000027657 -0.103000000119 -0.222000002861 1528.0
0.899999976158 -0.108999997377 -0.223000004888 1535.0
0.893999993801 -0.112999998033 -0.222000002861 1534.0
0.893000006676 -0.118000000715 -0.222000002861 1545.0
0.894999980927 -0.123999997973 -0.222000002861 1562.0
0.889999985695 -0.128999993205 -0.221000000834 1586.0
0.888999998569 -0.134000003338 -0.221000000834 1589.0
0.889999985695 -0.138999998569 -0.221000000834 1588.0
0.889999985695 -0.144999995828 -0.222000002861 1601.0
0.89200001955 -0.150999993086 -0.222000002861 1587.0
0.89099997282 -0.156000003219 -0.222000002861 1587.0
0.885999977589 -0.159999996424 -0.221000000834 1607.0
0.885999977589 -0.165999993682 -0.221000000834 1600.0
0.888999998569 -0.172000005841 -0.222000002861 1599.0
0.888000011444 -0.177000001073 -0.222000002861 1612.0
0.885999977589 -0.181999996305 -0.222000002861 1607.0
0.885999977589 -0.187999993563 -0.222000002861 1611.0
0.883000016212 -0.192000001669 -0.222000002861 1635.0
0.883000016212 -0.197999998927 -0.222000002861 1620.0
0.887000024319 -0.203999996185 -0.223000004888 1618.0
0.880999982357 -0.208000004292 -0.222000002861 1609.0
0.876999974251 -0.212999999523 -0.221000000834 1631.0
0.880999982357 -0.219999998808 -0.222000002861 1638.0
0.878000020981 -0.224000006914 -0.222000002861 1650.0
0.875999987125 -0.230000004172 -0.221000000834 1646.0
0.876999974251 -0.234999999404 -0.222000002861 1669.0
0.875999987125 -0.240999996662 -0.222000002861 1644.0
0.878000020981 -0.24699999392 -0.223000004888 1665.0
0.873000025749 -0.250999987125 -0.222000002861 1635.0
0.871999979019 -0.256999999285 -0.222000002861 1654.0
0.873000025749 -0.263000011444 -0.222000002861 1642.0
0.873000025749 -0.268000006676 -0.223000004888 1651.0
0.862999975681 -0.270999997854 -0.221000000834 1660.0
0.866999983788 -0.277999997139 -0.222000002861 1681.0
0.865999996662 -0.284000009298 -0.222000002861 1680.0
0.866999983788 -0.289999991655 -0.223000004888 1686.0
0.861999988556 -0.293999999762 -0.222000002861 1678.0
0.861999988556 -0.300000011921 -0.222000002861 1691.0
0.867999970913 -0.307000011206 -0.224000006914 1668.0
0.861999988556 -0.31099998951 -0.223000004888 1689.0
0.85900002718 -0.316000014544 -0.222000002861 1674.0
0.862999975681 -0.324000000954 -0.224000006914 1681.0
0.861000001431 -0.328999996185 -0.224000006914 1673.0
0.862999975681 -0.33599999547 -0.22499999404 1648.0
0.860000014305 -0.340000003576 -0.224000006914 1656.0
0.856000006199 -0.344999998808 -0.224000006914 1679.0
0.860000014305 -0.352999985218 -0.225999996066 1681.0
0.853999972343 -0.356000006199 -0.224000006914 1671.0
0.85900002718 -0.365000009537 -0.225999996066 1670.0
0.852999985218 -0.368000000715 -0.22499999404 1677.0
0.851999998093 -0.374000012875 -0.22499999404 1660.0
0.851999998093 -0.381000012159 -0.225999996066 1654.0
0.848999977112 -0.386000007391 -0.225999996066 1658.0
0.850000023842 -0.393000006676 -0.225999996066 1667.0
0.851999998093 -0.40000000596 -0.226999998093 1633.0
0.846000015736 -0.402999997139 -0.225999996066 1653.0
0.84500002861 -0.409999996424 -0.226999998093 1666.0
0.84500002861 -0.416000008583 -0.226999998093 1688.0
0.84500002861 -0.42199999094 -0.228000000119 1656.0
0.846000015736 -0.430000007153 -0.229000002146 1657.0
0.84500002861 -0.43599998951 -0.229000002146 1659.0
0.839999973774 -0.439999997616 -0.228000000119 1651.0
0.837999999523 -0.446000009775 -0.228000000119 1684.0
0.842000007629 -0.455000013113 -0.230000004172 1681.0
0.834999978542 -0.458000004292 -0.229000002146 1664.0
0.834999978542 -0.465000003576 -0.230000004172 1663.0
0.834999978542 -0.472000002861 -0.230000004172 1658.0
0.834999978542 -0.479000002146 -0.231000006199 1652.0
1.77199995518 1.04700005054 -0.51700001955 218.0
1.78100001812 1.0379999876 -0.518000006676 111.0
1.81700003147 1.04299998283 -0.526000022888 87.0
1.79799997807 1.01699995995 -0.518999993801 84.0
1.87300002575 1.04400002956 -0.538999974728 91.0
1.8710000515 1.02699995041 -0.537000000477 104.0
1.92200005054 1.03900003433 -0.550000011921 120.0
1.93900001049 1.03299999237 -0.552999973297 133.0
2.00999999046 1.05400002003 -0.570999979973 138.0
2.03800010681 1.0529999733 -0.57800000906 128.0
2.1099998951 1.07299995422 -0.596000015736 139.0
2.16300010681 1.08299994469 -0.610000014305 224.0
2.19600009918 1.08200001717 -0.616999983788 326.0
2.22600007057 1.08000004292 -0.624000012875 194.0
2.18300008774 1.04200005531 -0.610000014305 91.0
0.927999973297 -0.0630000010133 -0.234999999404 545.0
0.902000010014 -0.0659999996424 -0.229000002146 1424.0
0.90600001812 -0.0719999969006 -0.230000004172 1388.0
0.898000001907 -0.0769999995828 -0.228000000119 1476.0
0.899999976158 -0.082000002265 -0.228000000119 1511.0
0.902999997139 -0.0879999995232 -0.229000002146 1515.0
0.899999976158 -0.0930000022054 -0.228000000119 1504.0
0.901000022888 -0.097999997437 -0.229000002146 1516.0
0.896000027657 -0.103000000119 -0.228000000119 1514.0
0.902000010014 -0.108999997377 -0.229000002146 1527.0
0.896000027657 -0.11400000006 -0.228000000119 1527.0
0.894999980927 -0.119000002742 -0.228000000119 1565.0
0.897000014782 -0.125 -0.228000000119 1569.0
0.897000014782 -0.129999995232 -0.228000000119 1579.0
0.894999980927 -0.135000005364 -0.228000000119 1566.0
0.893000006676 -0.140000000596 -0.228000000119 1576.0
0.889999985695 -0.144999995828 -0.226999998093 1589.0
0.888000011444 -0.15000000596 -0.226999998093 1603.0
0.89200001955 -0.156000003219 -0.228000000119 1593.0
0.884999990463 -0.159999996424 -0.225999996066 1592.0
0.884999990463 -0.165999993682 -0.225999996066 1595.0
0.883000016212 -0.171000003815 -0.225999996066 1616.0
0.879000008106 -0.17499999702 -0.22499999404 1608.0
0.884999990463 -0.181999996305 -0.226999998093 1600.0
0.879999995232 -0.187000006437 -0.225999996066 1599.0
0.880999982357 -0.192000001669 -0.226999998093 1616.0
0.887000024319 -0.199000000954 -0.228000000119 1621.0
0.879000008106 -0.202999994159 -0.226999998093 1633.0
0.875999987125 -0.208000004292 -0.225999996066 1622.0
0.879000008106 -0.21400000155 -0.226999998093 1637.0
0.882000029087 -0.219999998808 -0.228000000119 1639.0
0.876999974251 -0.224000006914 -0.226999998093 1646.0
0.882000029087 -0.231000006199 -0.229000002146 1623.0
0.875 -0.234999999404 -0.226999998093 1671.0
0.880999982357 -0.241999998689 -0.229000002146 1645.0
0.876999974251 -0.24699999392 -0.228000000119 1663.0
0.874000012875 -0.252000004053 -0.228000000119 1646.0
0.874000012875 -0.25799998641 -0.228000000119 1653.0
0.871999979019 -0.263000011444 -0.228000000119 1660.0
0.869000017643 -0.268000006676 -0.226999998093 1655.0
0.869000017643 -0.273000001907 -0.228000000119 1667.0
0.870000004768 -0.279000014067 -0.228000000119 1680.0
0.870000004768 -0.284999996424 -0.229000002146 1667.0
0.866999983788 -0.289999991655 -0.228000000119 1685.0
0.870000004768 -0.29699999094 -0.229000002146 1696.0
0.861999988556 -0.300000011921 -0.228000000119 1688.0
0.861999988556 -0.305999994278 -0.228000000119 1675.0
0.865999996662 -0.312999993563 -0.230000004172 1669.0
0.865999996662 -0.319000005722 -0.230000004172 1666.0
0.861000001431 -0.323000013828 -0.229000002146 1695.0
0.864000022411 -0.331000000238 -0.230000004172 1655.0
0.856000006199 -0.333000004292 -0.229000002146 1656.0
0.856999993324 -0.340000003576 -0.229000002146 1672.0
0.853999972343 -0.344999998808 -0.229000002146 1671.0
0.85900002718 -0.352999985218 -0.231000006199 1664.0
0.85900002718 -0.358999997377 -0.231000006199 1662.0
0.855000019073 -0.363999992609 -0.231000006199 1647.0
0.853999972343 -0.370000004768 -0.231000006199 1683.0
0.855000019073 -0.375999987125 -0.231999993324 1673.0
0.855000019073 -0.38299998641 -0.231999993324 1681.0
0.856000006199 -0.388999998569 -0.232999995351 1673.0
0.847999989986 -0.391999989748 -0.231999993324 1690.0
0.847000002861 -0.398000001907 -0.231999993324 1660.0
0.84500002861 -0.404000014067 -0.231999993324 1647.0
0.847000002861 -0.411000013351 -0.232999995351 1662.0
0.841000020504 -0.414999991655 -0.231999993324 1674.0
0.842999994755 -0.423000007868 -0.232999995351 1685.0
0.84500002861 -0.430000007153 -0.233999997377 1679.0
0.842000007629 -0.435000002384 -0.233999997377 1664.0
0.842999994755 -0.442000001669 -0.234999999404 1658.0
0.842000007629 -0.449000000954 -0.234999999404 1683.0
0.838999986649 -0.453999996185 -0.234999999404 1673.0
0.836000025272 -0.458999991417 -0.234999999404 1688.0
0.837999999523 -0.467000007629 -0.236000001431 1662.0
0.833999991417 -0.472000002861 -0.236000001431 1663.0
0.837999999523 -0.481000006199 -0.238000005484 1662.0
1.79299998283 1.06200003624 -0.536000013351 233.0
1.79400002956 1.04700005054 -0.533999979496 136.0
1.81299996376 1.04200005531 -0.537999987602 89.0
1.81799995899 1.02999997139 -0.537999987602 105.0
1.875 1.04700005054 -0.552999973297 112.0
1.89499998093 1.04200005531 -0.556999981403 138.0
1.91900002956 1.03900003433 -0.563000023365 151.0
1.95500004292 1.04299998283 -0.570999979973 136.0
1.99000000954 1.04499995708 -0.579999983311 143.0
2.06100010872 1.06599998474 -0.598999977112 132.0
2.15700006485 1.09899997711 -0.625 126.0
2.15899991989 1.08200001717 -0.623000025749 216.0
2.17899990082 1.07500004768 -0.626999974251 338.0
2.20199990273 1.07000005245 -0.632000029087 204.0
2.22000002861 1.06099998951 -0.635999977589 106.0
0.922999978065 -0.0619999989867 -0.239999994636 575.0
0.902999997139 -0.0659999996424 -0.234999999404 1442.0
0.902000010014 -0.0719999969006 -0.233999997377 1451.0
0.902000010014 -0.0769999995828 -0.233999997377 1499.0
0.898000001907 -0.082000002265 -0.232999995351 1516.0
0.902999997139 -0.0879999995232 -0.234999999404 1517.0
0.898999989033 -0.0930000022054 -0.233999997377 1510.0
0.899999976158 -0.097999997437 -0.233999997377 1508.0
0.898000001907 -0.103000000119 -0.233999997377 1520.0
0.899999976158 -0.108999997377 -0.233999997377 1533.0
0.898000001907 -0.11400000006 -0.233999997377 1533.0
0.894999980927 -0.119000002742 -0.232999995351 1553.0
0.89200001955 -0.123999997973 -0.232999995351 1569.0
0.893000006676 -0.128999993205 -0.232999995351 1583.0
0.897000014782 -0.135000005364 -0.233999997377 1590.0
0.889999985695 -0.140000000596 -0.232999995351 1590.0
0.888999998569 -0.144999995828 -0.231999993324 1594.0
0.888999998569 -0.15000000596 -0.232999995351 1594.0
0.884999990463 -0.155000001192 -0.231999993324 1598.0
0.885999977589 -0.16099999845 -0.231999993324 1603.0
0.887000024319 -0.165999993682 -0.232999995351 1597.0
0.893000006676 -0.172999992967 -0.233999997377 1613.0
0.884999990463 -0.177000001073 -0.232999995351 1595.0
0.884000003338 -0.181999996305 -0.231999993324 1581.0
0.882000029087 -0.187000006437 -0.231999993324 1597.0
0.883000016212 -0.193000003695 -0.232999995351 1607.0
0.885999977589 -0.199000000954 -0.233999997377 1604.0
0.879000008106 -0.202999994159 -0.231999993324 1610.0
0.880999982357 -0.209000006318 -0.232999995351 1626.0
0.880999982357 -0.215000003576 -0.232999995351 1634.0
0.875999987125 -0.218999996781 -0.231999993324 1634.0
0.871999979019 -0.224000006914 -0.231000006199 1618.0
0.874000012875 -0.230000004172 -0.231999993324 1614.0
0.875999987125 -0.236000001431 -0.232999995351 1636.0
0.878000020981 -0.241999998689 -0.233999997377 1629.0
0.876999974251 -0.247999995947 -0.233999997377 1637.0
0.876999974251 -0.252999991179 -0.233999997377 1648.0
0.871999979019 -0.256999999285 -0.232999995351 1646.0
0.867999970913 -0.261999994516 -0.232999995351 1640.0
0.873000025749 -0.268999993801 -0.233999997377 1643.0
0.875 -0.275999993086 -0.234999999404 1666.0
0.865000009537 -0.277999997139 -0.232999995351 1676.0
0.873000025749 -0.286000013351 -0.234999999404 1670.0
0.865000009537 -0.289999991655 -0.232999995351 1673.0
0.85799998045 -0.293000012636 -0.231999993324 1672.0
0.864000022411 -0.300999999046 -0.233999997377 1666.0
0.861999988556 -0.305999994278 -0.233999997377 1669.0
0.865999996662 -0.31400001049 -0.234999999404 1676.0
0.860000014305 -0.317000001669 -0.233999997377 1673.0
0.861000001431 -0.324000000954 -0.234999999404 1675.0
0.865999996662 -0.331999987364 -0.237000003457 1680.0
0.861000001431 -0.33599999547 -0.236000001431 1658.0
0.856000006199 -0.340000003576 -0.234999999404 1667.0
0.85799998045 -0.347000002861 -0.236000001431 1673.0
0.855000019073 -0.351999998093 -0.236000001431 1674.0
0.85900002718 -0.360000014305 -0.237000003457 1653.0
0.856999993324 -0.365000009537 -0.237000003457 1665.0
0.853999972343 -0.370000004768 -0.237000003457 1685.0
0.853999972343 -0.375999987125 -0.237000003457 1674.0
0.851000010967 -0.381000012159 -0.237000003457 1678.0
0.847000002861 -0.386000007391 -0.237000003457 1665.0
0.847000002861 -0.391999989748 -0.237000003457 1680.0
0.847000002861 -0.398999989033 -0.238000005484 1661.0
0.846000015736 -0.405000001192 -0.238000005484 1655.0
0.848999977112 -0.412999987602 -0.238999992609 1659.0
0.838999986649 -0.41400000453 -0.237000003457 1672.0
0.842999994755 -0.423000007868 -0.238999992609 1686.0
0.84399998188 -0.430000007153 -0.239999994636 1690.0
0.84399998188 -0.437000006437 -0.240999996662 1676.0
0.834999978542 -0.43900001049 -0.238999992609 1680.0
0.837999999523 -0.446999996901 -0.239999994636 1678.0
0.839999973774 -0.455000013113 -0.240999996662 1662.0
0.839999973774 -0.462000012398 -0.241999998689 1670.0
0.833999991417 -0.465999990702 -0.240999996662 1660.0
0.837999999523 -0.47499999404 -0.243000000715 1665.0
0.836000025272 -0.481000006199 -0.243000000715 1678.0
1.77699995041 1.05400002003 -0.544000029564 302.0
1.81099998951 1.05900001526 -0.551999986172 214.0
1.8220000267 1.0490000248 -0.554000020027 134.0
1.82400000095 1.03499996662 -0.552999973297 147.0
1.85199999809 1.03499996662 -0.559000015259 163.0
1.91499996185 1.05400002003 -0.575999975204 164.0
1.93799996376 1.05099999905 -0.582000017166 147.0
1.97899997234 1.05700004101 -0.592000007629 138.0
2.03699994087 1.0720000267 -0.60799998045 126.0
2.06900000572 1.0720000267 -0.615999996662 139.0
2.14700007439 1.09500002861 -0.637000024319 138.0
2.17300009727 1.0909999609 -0.643000006676 206.0
2.18899989128 1.08200001717 -0.646000027657 333.0
2.20199990273 1.07099997997 -0.648000001907 220.0
2.2460000515 1.07500004768 -0.658999979496 115.0
0.920000016689 -0.0619999989867 -0.245000004768 619.0
0.898999989033 -0.0659999996424 -0.238999992609 1460.0
0.902000010014 -0.0719999969006 -0.239999994636 1459.0
0.899999976158 -0.0769999995828 -0.238999992609 1511.0
0.901000022888 -0.082000002265 -0.239999994636 1509.0
0.899999976158 -0.0879999995232 -0.239999994636 1520.0
0.901000022888 -0.0930000022054 -0.239999994636 1532.0
0.896000027657 -0.097999997437 -0.238999992609 1547.0
0.902999997139 -0.104000002146 -0.240999996662 1533.0
0.898000001907 -0.108999997377 -0.239999994636 1534.0
0.893000006676 -0.11400000006 -0.238000005484 1530.0
0.89099997282 -0.119000002742 -0.238000005484 1552.0
0.894999980927 -0.125 -0.238999992609 1572.0
0.894999980927 -0.129999995232 -0.238999992609 1585.0
0.894999980927 -0.135000005364 -0.238999992609 1594.0
0.89200001955 -0.140000000596 -0.238999992609 1595.0
0.894999980927 -0.145999997854 -0.239999994636 1588.0
0.89099997282 -0.150999993086 -0.238999992609 1605.0
0.89099997282 -0.157000005245 -0.238999992609 1611.0
0.888000011444 -0.16099999845 -0.238000005484 1597.0
0.888000011444 -0.166999995708 -0.238000005484 1594.0
0.888999998569 -0.172999992967 -0.238999992609 1590.0
0.883000016212 -0.177000001073 -0.238000005484 1610.0
0.889999985695 -0.184000000358 -0.239999994636 1599.0
0.883000016212 -0.187999993563 -0.238000005484 1588.0
0.880999982357 -0.193000003695 -0.238000005484 1582.0
0.878000020981 -0.197999998927 -0.237000003457 1609.0
0.884999990463 -0.204999998212 -0.238999992609 1606.0
0.874000012875 -0.208000004292 -0.237000003457 1616.0
0.879999995232 -0.215000003576 -0.238000005484 1640.0
0.875999987125 -0.218999996781 -0.238000005484 1640.0
0.880999982357 -0.225999996066 -0.238999992609 1618.0
0.878000020981 -0.231000006199 -0.238999992609 1611.0
0.876999974251 -0.237000003457 -0.238999992609 1626.0
0.875999987125 -0.241999998689 -0.238999992609 1627.0
0.867999970913 -0.245000004768 -0.237000003457 1628.0
0.871999979019 -0.252000004053 -0.238999992609 1624.0
0.873000025749 -0.25799998641 -0.238999992609 1636.0
0.874000012875 -0.263999998569 -0.239999994636 1639.0
0.869000017643 -0.268000006676 -0.238999992609 1634.0
0.873000025749 -0.27500000596 -0.239999994636 1653.0
0.866999983788 -0.279000014067 -0.238999992609 1672.0
0.866999983788 -0.284999996424 -0.238999992609 1660.0
0.866999983788 -0.291000008583 -0.239999994636 1664.0
0.869000017643 -0.29699999094 -0.240999996662 1660.0
0.862999975681 -0.300999999046 -0.238999992609 1664.0
0.865999996662 -0.307999998331 -0.240999996662 1661.0
0.860000014305 -0.312000006437 -0.239999994636 1651.0
0.85799998045 -0.317000001669 -0.238999992609 1654.0
0.861000001431 -0.324000000954 -0.239999994636 1669.0
0.862999975681 -0.331000000238 -0.241999998689 1667.0
0.853999972343 -0.333999991417 -0.239999994636 1673.0
0.860000014305 -0.342000007629 -0.241999998689 1666.0
0.855000019073 -0.345999985933 -0.240999996662 1662.0
0.856999993324 -0.352999985218 -0.241999998689 1668.0
0.861000001431 -0.361000001431 -0.243000000715 1649.0
0.856000006199 -0.365000009537 -0.243000000715 1653.0
0.850000023842 -0.368999987841 -0.240999996662 1672.0
0.850000023842 -0.375 -0.241999998689 1668.0
0.851000010967 -0.381999999285 -0.243000000715 1661.0
0.847999989986 -0.386999994516 -0.243000000715 1658.0
0.847000002861 -0.393000006676 -0.243000000715 1654.0
0.848999977112 -0.40000000596 -0.244000002742 1625.0
0.84500002861 -0.405000001192 -0.244000002742 1645.0
0.846000015736 -0.412000000477 -0.245000004768 1662.0
0.842999994755 -0.416999995708 -0.244000002742 1667.0
0.842000007629 -0.423000007868 -0.244000002742 1669.0
0.838999986649 -0.428000003099 -0.244000002742 1676.0
0.847000002861 -0.43900001049 -0.24699999392 1658.0
0.842000007629 -0.444000005722 -0.24699999392 1636.0
0.838999986649 -0.449000000954 -0.246000006795 1654.0
0.833000004292 -0.451999992132 -0.245000004768 1657.0
0.833999991417 -0.460000008345 -0.246000006795 1659.0
0.838999986649 -0.469999998808 -0.248999997973 1674.0
0.829999983311 -0.470999985933 -0.246000006795 1658.0
0.836000025272 -0.481999993324 -0.248999997973 1652.0
1.78499996662 1.06099998951 -0.559000015259 400.0
1.79400002956 1.04999995232 -0.560000002384 407.0
1.80799996853 1.04299998283 -0.563000023365 254.0
1.80999994278 1.02900004387 -0.56099998951 172.0
1.82799994946 1.02400004864 -0.564999997616 164.0
1.86899995804 1.03100001812 -0.575999975204 160.0
1.94500005245 1.05700004101 -0.597999989986 150.0
1.97000002861 1.05400002003 -0.603999972343 129.0
2.02300000191 1.06599998474 -0.617999970913 140.0
2.08400011063 1.08099997044 -0.634999990463 135.0
2.11599993706 1.08099997044 -0.643000006676 133.0
2.16799998283 1.09000003338 -0.65600001812 187.0
2.19199991226 1.08500003815 -0.662000000477 340.0
2.21000003815 1.07700002193 -0.666000008583 221.0
2.27500009537 1.0909999609 -0.683000028133 138.0
0.919000029564 -0.0619999989867 -0.25 634.0
0.90499997139 -0.0670000016689 -0.246000006795 1446.0
0.902999997139 -0.0719999969006 -0.246000006795 1460.0
0.897000014782 -0.0769999995828 -0.244000002742 1512.0
0.902999997139 -0.082999996841 -0.246000006795 1518.0
0.899999976158 -0.0879999995232 -0.245000004768 1528.0
0.90499997139 -0.0939999967813 -0.24699999392 1542.0
0.898000001907 -0.097999997437 -0.245000004768 1553.0
0.898000001907 -0.104000002146 -0.245000004768 1532.0
0.898000001907 -0.108999997377 -0.245000004768 1537.0
0.897000014782 -0.11400000006 -0.245000004768 1542.0
0.893999993801 -0.119000002742 -0.244000002742 1557.0
0.89099997282 -0.123999997973 -0.244000002742 1569.0
0.893000006676 -0.129999995232 -0.244000002742 1584.0
0.893999993801 -0.136000007391 -0.245000004768 1583.0
0.89200001955 -0.141000002623 -0.244000002742 1573.0
0.888000011444 -0.144999995828 -0.244000002742 1584.0
0.888999998569 -0.150999993086 -0.244000002742 1603.0
0.885999977589 -0.156000003219 -0.243000000715 1589.0
0.888999998569 -0.162000000477 -0.244000002742 1612.0
0.888000011444 -0.166999995708 -0.244000002742 1592.0
0.888000011444 -0.172999992967 -0.244000002742 1602.0
0.884000003338 -0.177000001073 -0.244000002742 1609.0
0.884000003338 -0.182999998331 -0.244000002742 1594.0
0.885999977589 -0.188999995589 -0.245000004768 1600.0
0.888000011444 -0.194999992847 -0.245000004768 1604.0
0.882000029087 -0.199000000954 -0.244000002742 1605.0
0.883000016212 -0.204999998212 -0.245000004768 1600.0
0.875 -0.208000004292 -0.243000000715 1621.0
0.875 -0.21400000155 -0.243000000715 1620.0
0.876999974251 -0.219999998808 -0.244000002742 1617.0
0.875 -0.22499999404 -0.244000002742 1637.0
0.867999970913 -0.229000002146 -0.241999998689 1621.0
0.876999974251 -0.237000003457 -0.245000004768 1619.0
0.871999979019 -0.240999996662 -0.243000000715 1618.0
0.873000025749 -0.24699999392 -0.244000002742 1645.0
0.873000025749 -0.252999991179 -0.244000002742 1655.0
0.875 -0.259000003338 -0.245000004768 1634.0
0.867999970913 -0.263000011444 -0.244000002742 1631.0
0.869000017643 -0.268999993801 -0.244000002742 1632.0
0.870000004768 -0.27500000596 -0.245000004768 1654.0
0.871999979019 -0.280999988317 -0.246000006795 1669.0
0.869000017643 -0.286000013351 -0.246000006795 1648.0
0.865000009537 -0.291000008583 -0.245000004768 1650.0
0.85900002718 -0.294999986887 -0.244000002742 1648.0
0.869000017643 -0.303999990225 -0.24699999392 1655.0
0.864000022411 -0.307999998331 -0.246000006795 1647.0
0.866999983788 -0.314999997616 -0.24699999392 1657.0
0.861000001431 -0.319000005722 -0.246000006795 1653.0
0.865000009537 -0.326000005007 -0.24699999392 1683.0
0.862999975681 -0.331999987364 -0.24699999392 1652.0
0.860000014305 -0.337000012398 -0.24699999392 1652.0
0.85900002718 -0.342000007629 -0.24699999392 1677.0
0.856000006199 -0.347000002861 -0.24699999392 1659.0
0.851000010967 -0.351000010967 -0.246000006795 1646.0
0.855000019073 -0.358999997377 -0.247999995947 1651.0
0.851000010967 -0.363999992609 -0.24699999392 1673.0
0.855000019073 -0.372000008821 -0.248999997973 1651.0
0.851999998093 -0.377000004053 -0.248999997973 1646.0
0.855000019073 -0.384000003338 -0.25 1647.0
0.850000023842 -0.388999998569 -0.248999997973 1652.0
0.847000002861 -0.393999993801 -0.248999997973 1645.0
0.846000015736 -0.398999989033 -0.248999997973 1610.0
0.838999986649 -0.402999997139 -0.24699999392 1640.0
0.847000002861 -0.412999987602 -0.250999987125 1640.0
0.846000015736 -0.418999999762 -0.250999987125 1669.0
0.84399998188 -0.425000011921 -0.250999987125 1661.0
0.842999994755 -0.430999994278 -0.250999987125 1657.0
0.841000020504 -0.437000006437 -0.252000004053 1644.0
0.842000007629 -0.444000005722 -0.252999991179 1638.0
0.838999986649 -0.449000000954 -0.252000004053 1640.0
0.830999970436 -0.451999992132 -0.250999987125 1619.0
0.837000012398 -0.462000012398 -0.252999991179 1666.0
0.82800000906 -0.463999986649 -0.250999987125 1648.0
0.837999999523 -0.476999998093 -0.254999995232 1651.0
0.837000012398 -0.483000010252 -0.254999995232 1644.0
1.77999997139 1.05900001526 -0.570999979973 376.0
1.79100000858 1.04999995232 -0.572000026703 449.0
1.7879999876 1.03299999237 -0.569000005722 295.0
1.82700002193 1.03999996185 -0.579999983311 172.0
1.8710000515 1.04999995232 -0.592000007629 156.0
1.92900002003 1.06599998474 -0.60900002718 142.0
1.9470000267 1.05900001526 -0.611999988556 149.0
2.0150001049 1.08000004292 -0.632000029087 151.0
2.03200006485 1.0720000267 -0.634999990463 138.0
2.08699989319 1.08500003815 -0.649999976158 137.0
2.09899997711 1.07400000095 -0.652000010014 129.0
2.18300008774 1.10000002384 -0.675999999046 181.0
2.18700003624 1.08500003815 -0.675999999046 327.0
2.22699999809 1.0870000124 -0.68599998951 235.0
2.24900007248 1.08000004292 -0.690999984741 124.0
0.92199999094 -0.0630000010133 -0.256999999285 661.0
0.902999997139 -0.0670000016689 -0.250999987125 1457.0
0.907000005245 -0.0719999969006 -0.252999991179 1469.0
0.899999976158 -0.0769999995828 -0.250999987125 1502.0
0.898999989033 -0.082000002265 -0.25 1517.0
0.899999976158 -0.0879999995232 -0.250999987125 1528.0
0.893999993801 -0.0930000022054 -0.248999997973 1532.0
0.898999989033 -0.0989999994636 -0.250999987125 1514.0
0.896000027657 -0.104000002146 -0.25 1531.0
0.896000027657 -0.108999997377 -0.25 1534.0
0.896000027657 -0.11400000006 -0.25 1529.0
0.894999980927 -0.119999997318 -0.25 1533.0
0.893000006676 -0.125 -0.25 1534.0
0.89200001955 -0.129999995232 -0.25 1559.0
0.89099997282 -0.135000005364 -0.25 1557.0
0.89099997282 -0.141000002623 -0.25 1567.0
0.893000006676 -0.146999999881 -0.250999987125 1569.0
0.887000024319 -0.150999993086 -0.248999997973 1571.0
0.884999990463 -0.156000003219 -0.248999997973 1569.0
0.884999990463 -0.16099999845 -0.248999997973 1593.0
0.884000003338 -0.166999995708 -0.248999997973 1587.0
0.880999982357 -0.171000003815 -0.247999995947 1602.0
0.880999982357 -0.177000001073 -0.247999995947 1602.0
0.887000024319 -0.184000000358 -0.25 1592.0
0.879999995232 -0.187999993563 -0.248999997973 1604.0
0.882000029087 -0.194000005722 -0.248999997973 1614.0
0.879999995232 -0.199000000954 -0.248999997973 1599.0
0.878000020981 -0.203999996185 -0.248999997973 1615.0
0.879000008106 -0.209999993443 -0.248999997973 1610.0
0.882000029087 -0.216000005603 -0.25 1621.0
0.875 -0.219999998808 -0.248999997973 1627.0
0.879999995232 -0.226999998093 -0.25 1640.0
0.873000025749 -0.230000004172 -0.248999997973 1626.0
0.871999979019 -0.236000001431 -0.248999997973 1623.0
0.874000012875 -0.241999998689 -0.25 1610.0
0.875 -0.247999995947 -0.25 1634.0
0.873000025749 -0.252999991179 -0.25 1653.0
0.867999970913 -0.256999999285 -0.248999997973 1646.0
0.873000025749 -0.264999985695 -0.250999987125 1625.0
0.866999983788 -0.268999993801 -0.25 1634.0
0.869000017643 -0.27500000596 -0.25 1646.0
0.866999983788 -0.280000001192 -0.25 1657.0
0.869000017643 -0.287000000477 -0.250999987125 1646.0
0.862999975681 -0.289999991655 -0.25 1643.0
0.867999970913 -0.298000007868 -0.252000004053 1641.0
0.865000009537 -0.303000003099 -0.250999987125 1633.0
0.860000014305 -0.307000011206 -0.25 1653.0
0.861000001431 -0.312999993563 -0.250999987125 1643.0
0.856999993324 -0.317999988794 -0.250999987125 1653.0
0.860000014305 -0.324999988079 -0.252000004053 1649.0
0.856999993324 -0.330000013113 -0.250999987125 1645.0
0.85799998045 -0.33599999547 -0.252000004053 1640.0
0.85900002718 -0.342999994755 -0.252999991179 1648.0
0.855000019073 -0.347000002861 -0.252000004053 1658.0
0.860000014305 -0.356000006199 -0.254000008106 1655.0
0.852999985218 -0.358999997377 -0.252999991179 1636.0
0.856999993324 -0.36700001359 -0.254999995232 1643.0
0.847000002861 -0.368999987841 -0.252000004053 1640.0
0.852999985218 -0.377999991179 -0.254000008106 1623.0
0.850000023842 -0.38299998641 -0.254000008106 1637.0
0.853999972343 -0.391000002623 -0.256000012159 1616.0
0.84500002861 -0.393000006676 -0.254000008106 1613.0
0.846000015736 -0.40000000596 -0.254999995232 1603.0
0.846000015736 -0.407000005245 -0.256000012159 1625.0
0.84399998188 -0.412000000477 -0.256000012159 1640.0
0.84500002861 -0.418999999762 -0.256999999285 1661.0
0.842000007629 -0.425000011921 -0.256000012159 1662.0
0.838999986649 -0.430000007153 -0.256000012159 1644.0
0.846000015736 -0.439999997616 -0.259000003338 1631.0
0.837000012398 -0.442000001669 -0.256999999285 1624.0
0.841000020504 -0.451000005007 -0.259000003338 1628.0
0.836000025272 -0.456000000238 -0.25799998641 1634.0
0.839999973774 -0.463999986649 -0.259999990463 1629.0
0.838999986649 -0.470999985933 -0.261000007391 1653.0
0.832000017166 -0.474000006914 -0.259000003338 1619.0
0.834999978542 -0.483000010252 -0.261000007391 1619.0
1.77300000191 1.05700004101 -0.582000017166 319.0
1.80499994755 1.05999994278 -0.589999973774 422.0
1.80999994278 1.04700005054 -0.589999973774 238.0
1.84500002861 1.05200004578 -0.598999977112 162.0
1.9129999876 1.07500004768 -0.619000017643 144.0
1.93700003624 1.0720000267 -0.625 164.0
1.9509999752 1.06400001049 -0.628000020981 162.0
1.99500000477 1.07099997997 -0.639999985695 141.0
2.04800009727 1.08299994469 -0.65499997139 138.0
2.06900000572 1.07700002193 -0.660000026226 130.0
2.08599996567 1.06900000572 -0.662999987602 135.0
2.14199995995 1.08099997044 -0.679000020027 150.0
2.16400003433 1.07500004768 -0.684000015259 261.0
2.21099996567 1.08099997044 -0.697000026703 248.0
2.23799991608 1.0759999752 -0.70300000906 128.0
0.912000000477 -0.0619999989867 -0.259999990463 731.0
0.902000010014 -0.0670000016689 -0.256999999285 1427.0
0.902000010014 -0.0719999969006 -0.256999999285 1427.0
0.897000014782 -0.0769999995828 -0.256000012159 1481.0
0.902000010014 -0.082999996841 -0.256999999285 1498.0
0.902999997139 -0.0879999995232 -0.25799998641 1507.0
0.894999980927 -0.0930000022054 -0.254999995232 1497.0
0.896000027657 -0.097999997437 -0.256000012159 1489.0
0.893000006676 -0.103000000119 -0.254999995232 1491.0
0.896000027657 -0.108999997377 -0.256000012159 1506.0
0.893000006676 -0.11400000006 -0.254999995232 1513.0
0.896000027657 -0.119999997318 -0.256000012159 1506.0
0.893999993801 -0.125 -0.256000012159 1509.0
0.89200001955 -0.129999995232 -0.254999995232 1539.0
0.888000011444 -0.135000005364 -0.254000008106 1549.0
0.888999998569 -0.141000002623 -0.254999995232 1551.0
0.885999977589 -0.144999995828 -0.254000008106 1545.0
0.885999977589 -0.150999993086 -0.254000008106 1544.0
0.889999985695 -0.157000005245 -0.256000012159 1552.0
0.887000024319 -0.162000000477 -0.254999995232 1553.0
0.884000003338 -0.166999995708 -0.254000008106 1572.0
0.884999990463 -0.172999992967 -0.254999995232 1575.0
0.884000003338 -0.178000003099 -0.254999995232 1594.0
0.883000016212 -0.182999998331 -0.254999995232 1571.0
0.879000008106 -0.187999993563 -0.254000008106 1583.0
0.885999977589 -0.194999992847 -0.256000012159 1604.0
0.880999982357 -0.199000000954 -0.254999995232 1594.0
0.879999995232 -0.204999998212 -0.254999995232 1588.0
0.879999995232 -0.209999993443 -0.254999995232 1605.0
0.875999987125 -0.215000003576 -0.254000008106 1624.0
0.875999987125 -0.219999998808 -0.254999995232 1620.0
0.875999987125 -0.225999996066 -0.254999995232 1617.0
0.871999979019 -0.231000006199 -0.254000008106 1610.0
0.870999991894 -0.236000001431 -0.254000008106 1625.0
0.874000012875 -0.241999998689 -0.254999995232 1617.0
0.878000020981 -0.248999997973 -0.256999999285 1633.0
0.875 -0.254000008106 -0.256999999285 1621.0
0.865999996662 -0.256999999285 -0.254000008106 1630.0
0.869000017643 -0.263999998569 -0.254999995232 1630.0
0.865999996662 -0.268999993801 -0.254999995232 1631.0
0.869000017643 -0.27500000596 -0.256000012159 1638.0
0.869000017643 -0.280999988317 -0.256999999285 1645.0
0.861999988556 -0.284999996424 -0.254999995232 1625.0
0.866999983788 -0.291999995708 -0.256999999285 1635.0
0.866999983788 -0.298000007868 -0.256999999285 1630.0
0.861999988556 -0.301999986172 -0.256000012159 1631.0
0.861999988556 -0.307999998331 -0.256999999285 1647.0
0.85900002718 -0.312999993563 -0.256000012159 1653.0
0.856000006199 -0.317999988794 -0.256000012159 1653.0
0.856000006199 -0.324000000954 -0.256000012159 1641.0
0.861000001431 -0.331999987364 -0.25799998641 1637.0
0.85799998045 -0.337000012398 -0.25799998641 1640.0
0.856999993324 -0.342999994755 -0.25799998641 1637.0
0.856999993324 -0.349000006914 -0.259000003338 1641.0
0.860000014305 -0.356999993324 -0.259999990463 1640.0
0.852999985218 -0.360000014305 -0.259000003338 1639.0
0.851999998093 -0.365999996662 -0.259000003338 1625.0
0.851000010967 -0.370999991894 -0.259000003338 1627.0
0.848999977112 -0.377000004053 -0.259000003338 1626.0
0.847999989986 -0.38299998641 -0.259999990463 1609.0
0.848999977112 -0.389999985695 -0.261000007391 1611.0
0.846000015736 -0.393999993801 -0.259999990463 1614.0
0.84399998188 -0.40000000596 -0.259999990463 1591.0
0.84399998188 -0.405999988317 -0.261000007391 1613.0
