ply
format ascii 1.0
element vertex 921
property float x
property float y
property float z
property float intensity
end_header
0.95300000906 0.370999991894 -0.172000005841 476.0
0.952000021935 0.363999992609 -0.172000005841 505.0
0.954999983311 0.358999997377 -0.172000005841 547.0
0.957000017166 0.352999985218 -0.172000005841 602.0
0.958999991417 0.347000002861 -0.172000005841 633.0
0.964999973774 0.342999994755 -0.172000005841 658.0
0.962999999523 0.33599999547 -0.172000005841 697.0
0.966000020504 0.331000000238 -0.172000005841 748.0
0.97000002861 0.324999988079 -0.172000005841 797.0
0.967000007629 0.317999988794 -0.172000005841 836.0
0.967999994755 0.312000006437 -0.172000005841 867.0
0.967999994755 0.305999994278 -0.171000003815 911.0
0.97000002861 0.300000011921 -0.171000003815 948.0
0.97000002861 0.293999999762 -0.171000003815 995.0
0.966000020504 0.286000013351 -0.170000001788 1040.0
0.973999977112 0.282000005245 -0.171000003815 1042.0
0.972999989986 0.275999993086 -0.171000003815 1091.0
0.980000019073 0.270999997854 -0.171000003815 1142.0
0.976999998093 0.263999998569 -0.171000003815 1155.0
0.980000019073 0.259000003338 -0.171000003815 1176.0
0.980000019073 0.252999991179 -0.171000003815 1173.0
0.98400002718 0.247999995947 -0.171000003815 1192.0
0.98299998045 0.240999996662 -0.171000003815 1184.0
0.985000014305 0.236000001431 -0.171000003815 1236.0
0.985000014305 0.230000004172 -0.171000003815 1267.0
0.981000006199 0.223000004888 -0.170000001788 1284.0
0.986000001431 0.217999994755 -0.170000001788 1307.0
0.989000022411 0.211999997497 -0.171000003815 1303.0
0.990999996662 0.207000002265 -0.171000003815 1323.0
0.991999983788 0.201000005007 -0.171000003815 1329.0
0.995999991894 0.195999994874 -0.171000003815 1334.0
0.990000009537 0.187999993563 -0.170000001788 1326.0
0.995999991894 0.184000000358 -0.171000003815 1364.0
0.995000004768 0.177000001073 -0.171000003815 1361.0
0.999000012875 0.172000005841 -0.171000003815 1342.0
1.00100004673 0.165999993682 -0.171000003815 1350.0
1.00199997425 0.16099999845 -0.171000003815 1338.0
1.00199997425 0.155000001192 -0.171000003815 1335.0
1.00100004673 0.149000003934 -0.171000003815 1329.0
1.0 0.142000004649 -0.171000003815 1303.0
1.00600004196 0.136999994516 -0.171000003815 1325.0
1.0039999485 0.130999997258 -0.171000003815 1333.0
1.00899994373 0.126000002027 -0.172000005841 1315.0
1.01199996471 0.119999997318 -0.172000005841 1271.0
1.00999999046 0.11400000006 -0.172000005841 1201.0
1.00999999046 0.108000002801 -0.171000003815 1135.0
1.01600003242 0.103000000119 -0.172000005841 1131.0
1.01600003242 0.097000002861 -0.172000005841 1147.0
1.01300001144 0.0909999981523 -0.172000005841 1102.0
1.01300001144 0.0850000008941 -0.172000005841 1073.0
1.01800000668 0.0790000036359 -0.172000005841 1066.0
1.01699995995 0.0729999989271 -0.172000005841 1034.0
1.02300000191 0.0680000036955 -0.172999992967 1029.0
1.02699995041 0.0619999989867 -0.173999994993 1032.0
1.01300001144 0.054999999702 -0.171000003815 1016.0
1.02300000191 0.0500000007451 -0.172999992967 989.0
1.02499997616 0.0439999997616 -0.172999992967 990.0
1.02900004387 0.0379999987781 -0.173999994993 984.0
1.02699995041 0.0320000015199 -0.172999992967 967.0
1.03499996662 0.0260000005364 -0.173999994993 963.0
1.02999997139 0.019999999553 -0.173999994993 955.0
1.0340000391 0.0140000004321 -0.173999994993 927.0
1.0379999876 0.00800000037998 -0.17499999702 892.0
1.02999997139 0.00200000009499 -0.173999994993 831.0
2.38000011444 -0.120999999344 -0.400999993086 169.0
2.42100000381 -0.136999994516 -0.407999992371 157.0
2.367000103 -0.146999999881 -0.398999989033 123.0
2.30100011826 -0.157000005245 -0.388000011444 202.0
2.38100004196 -0.175999999046 -0.400999993086 118.0
2.28600001335 -0.223000004888 -0.386000007391 114.0
2.29600000381 -0.237000003457 -0.386999994516 165.0
1.31099998951 -0.142000004649 -0.221000000834 85.0
0.981000006199 -0.111000001431 -0.165000006557 140.0
0.972999989986 -0.115999996662 -0.16400000453 149.0
0.995999991894 -0.123999997973 -0.167999997735 144.0
0.977999985218 -0.12800000608 -0.165000006557 150.0
0.963999986649 -0.131999999285 -0.163000002503 144.0
0.986000001431 -0.141000002623 -0.166999995708 143.0
0.981999993324 -0.145999997854 -0.165999993682 142.0
0.953999996185 -0.146999999881 -0.162000000477 143.0
0.972999989986 -0.156000003219 -0.165000006557 139.0
1.01100003719 -0.167999997735 -0.171000003815 148.0
0.987999975681 -0.170000001788 -0.167999997735 150.0
0.995999991894 -0.178000003099 -0.168999999762 152.0
0.976999998093 -0.180000007153 -0.165999993682 140.0
0.967999994755 -0.184000000358 -0.165000006557 142.0
0.977999985218 -0.192000001669 -0.165999993682 150.0
0.97000002861 -0.196999996901 -0.165000006557 148.0
0.944000005722 -0.196999996901 -0.16099999845 149.0
0.952000021935 -0.204999998212 -0.162000000477 146.0
0.95300000906 -0.21099999547 -0.163000002503 141.0
0.943000018597 -0.21400000155 -0.16099999845 143.0
0.953999996185 -0.223000004888 -0.163000002503 143.0
0.964999973774 -0.231000006199 -0.165000006557 151.0
0.958999991417 -0.236000001431 -0.16400000453 142.0
0.957000017166 -0.240999996662 -0.16400000453 142.0
0.957000017166 -0.24699999392 -0.16400000453 147.0
0.947000026703 -0.25 -0.163000002503 138.0
0.949000000954 -0.256999999285 -0.163000002503 138.0
0.948000013828 -0.263000011444 -0.163000002503 140.0
0.949999988079 -0.268999993801 -0.16400000453 138.0
0.961000025272 -0.279000014067 -0.165999993682 138.0
0.975000023842 -0.28900000453 -0.168999999762 138.0
0.93599998951 -0.282999992371 -0.162000000477 130.0
0.945999979973 -0.293000012636 -0.16400000453 134.0
0.925999999046 -0.293000012636 -0.16099999845 133.0
0.934000015259 -0.300999999046 -0.163000002503 128.0
0.967999994755 -0.319000005722 -0.168999999762 133.0
0.93599998951 -0.31400001049 -0.163000002503 133.0
0.93900001049 -0.321000009775 -0.16400000453 135.0
0.961000025272 -0.33599999547 -0.167999997735 133.0
0.955999970436 -0.340000003576 -0.167999997735 133.0
0.916999995708 -0.331999987364 -0.16099999845 128.0
0.938000023365 -0.345999985933 -0.165000006557 122.0
0.955999970436 -0.360000014305 -0.168999999762 120.0
0.949000000954 -0.363999992609 -0.167999997735 119.0
0.93900001049 -0.365999996662 -0.165999993682 114.0
0.930999994278 -0.370000004768 -0.165000006557 111.0
0.938000023365 -0.379000008106 -0.166999995708 111.0
0.924000024796 -0.379999995232 -0.165000006557 114.0
0.926999986172 -0.388000011444 -0.165000006557 118.0
0.916000008583 -0.389999985695 -0.16400000453 107.0
0.958000004292 -0.41400000453 -0.172000005841 106.0
0.92199999094 -0.405999988317 -0.165999993682 112.0
0.913999974728 -0.409000009298 -0.165000006557 106.0
0.920000016689 -0.418000012636 -0.165999993682 115.0
0.929000020027 -0.428999990225 -0.167999997735 111.0
0.917999982834 -0.430999994278 -0.165999993682 107.0
0.95300000906 -0.455000013113 -0.172999992967 104.0
0.930000007153 -0.451000005007 -0.168999999762 108.0
0.925999999046 -0.456000000238 -0.168999999762 96.0
0.936999976635 -0.467999994755 -0.171000003815 103.0
0.887000024319 -0.449999988079 -0.163000002503 99.0
0.940999984741 -0.485000014305 -0.172999992967 102.0
0.955999970436 -0.5 -0.175999999046 96.0
0.931999981403 -0.495000004768 -0.172000005841 92.0
0.934000015259 -0.504000008106 -0.172999992967 95.0
0.944999992847 -0.518000006676 -0.175999999046 89.0
0.908999979496 -0.504999995232 -0.170000001788 91.0
0.898999989033 -0.507000029087 -0.167999997735 91.0
3.10500001907 1.60300004482 -0.60799998045 74.0
3.21499991417 1.63499999046 -0.626999974251 89.0
0.952000021935 0.312999993563 -0.17499999702 76.0
0.280000001192 0.0900000035763 -0.0509999990463 47.0
4.70599985123 1.48699998856 -0.861999988556 49.0
0.0230000000447 0.00700000021607 -0.00400000018999 49.0
0.268000006676 0.0810000002384 -0.0489999987185 60.0
0.711000025272 0.21099999547 -0.128999993205 96.0
0.962000012398 0.279000014067 -0.17499999702 188.0
0.945999979973 0.261999994516 -0.171000003815 256.0
0.955999970436 0.259000003338 -0.172999992967 277.0
0.991999983788 0.256000012159 -0.179000005126 289.0
0.98299998045 0.247999995947 -0.177000001073 318.0
1.00600004196 0.24699999392 -0.180999994278 335.0
0.998000025749 0.238999992609 -0.179000005126 355.0
0.986000001431 0.230000004172 -0.177000001073 380.0
0.995999991894 0.225999996066 -0.178000003099 404.0
1.01600003242 0.217999994755 -0.180999994278 451.0
1.00800001621 0.209999993443 -0.180000007153 268.0
1.00300002098 0.202999994159 -0.179000005126 277.0
1.01699995995 0.20000000298 -0.180999994278 286.0
0.995000004768 0.189999997616 -0.177000001073 293.0
1.0 0.184000000358 -0.178000003099 315.0
0.996999979019 0.178000003099 -0.177000001073 341.0
0.996999979019 0.172000005841 -0.177000001073 357.0
1.01699995995 0.168999999762 -0.180000007153 363.0
1.01699995995 0.163000002503 -0.180000007153 376.0
1.01400005817 0.156000003219 -0.179000005126 373.0
1.0039999485 0.149000003934 -0.177000001073 375.0
1.01100003719 0.143999993801 -0.179000005126 370.0
1.00699996948 0.136999994516 -0.178000003099 387.0
1.01400005817 0.131999999285 -0.179000005126 390.0
1.01400005817 0.126000002027 -0.179000005126 385.0
1.00999999046 0.119999997318 -0.178000003099 389.0
1.02999997139 0.115999996662 -0.180999994278 371.0
1.02799999714 0.109999999404 -0.180999994278 353.0
1.02699995041 0.104000002146 -0.180000007153 364.0
1.03699994087 0.0989999994636 -0.181999996305 391.0
1.01999998093 0.0909999981523 -0.179000005126 395.0
1.03100001812 0.0860000029206 -0.180999994278 391.0
1.02400004864 0.0799999982119 -0.179000005126 391.0
1.01999998093 0.0729999989271 -0.179000005126 386.0
1.02699995041 0.0680000036955 -0.180000007153 380.0
1.03699994087 0.0619999989867 -0.180999994278 369.0
1.03199994564 0.0560000017285 -0.180000007153 363.0
1.05400002003 0.0509999990463 -0.184000000358 351.0
1.04499995708 0.0450000017881 -0.182999998331 359.0
1.02900004387 0.0379999987781 -0.180000007153 371.0
1.03100001812 0.0320000015199 -0.180000007153 361.0
1.03999996185 0.0260000005364 -0.181999996305 351.0
1.0379999876 0.019999999553 -0.180999994278 356.0
1.04999995232 0.0140000004321 -0.182999998331 346.0
1.03999996185 0.00800000037998 -0.180999994278 322.0
1.03100001812 0.00200000009499 -0.180000007153 268.0
2.3789999485 -0.120999999344 -0.414999991655 175.0
2.42300009727 -0.136999994516 -0.423000007868 160.0
2.33299994469 -0.145999997854 -0.407000005245 115.0
2.29500007629 -0.156000003219 -0.40000000596 220.0
2.36800003052 -0.17499999702 -0.412999987602 116.0
2.25200009346 -0.218999996781 -0.393000006676 122.0
2.29500007629 -0.237000003457 -0.400999993086 167.0
1.26699995995 -0.136999994516 -0.221000000834 88.0
0.990999996662 -0.112000003457 -0.172999992967 141.0
0.957000017166 -0.11400000006 -0.166999995708 146.0
0.985000014305 -0.123000003397 -0.172000005841 139.0
0.947000026703 -0.123999997973 -0.165999993682 147.0
0.973999977112 -0.133000001311 -0.171000003815 148.0
0.986000001431 -0.141000002623 -0.172999992967 146.0
0.989000022411 -0.146999999881 -0.172999992967 143.0
1.0 -0.155000001192 -0.17499999702 143.0
0.95300000906 -0.152999997139 -0.166999995708 147.0
0.955999970436 -0.158999994397 -0.167999997735 145.0
0.962999999523 -0.165999993682 -0.168999999762 144.0
0.973999977112 -0.173999994993 -0.171000003815 147.0
0.962000012398 -0.178000003099 -0.168999999762 147.0
0.961000025272 -0.182999998331 -0.168999999762 144.0
0.986000001431 -0.194000005722 -0.173999994993 141.0
0.981999993324 -0.199000000954 -0.172999992967 146.0
0.958000004292 -0.20000000298 -0.168999999762 148.0
0.985000014305 -0.211999997497 -0.173999994993 149.0
0.989000022411 -0.218999996781 -0.17499999702 150.0
0.958000004292 -0.217999994755 -0.168999999762 138.0
0.96899998188 -0.225999996066 -0.172000005841 142.0
0.925999999046 -0.222000002861 -0.16400000453 144.0
0.958000004292 -0.236000001431 -0.170000001788 140.0
0.976000010967 -0.246000006795 -0.172999992967 145.0
0.947000026703 -0.245000004768 -0.167999997735 141.0
0.953999996185 -0.252999991179 -0.170000001788 140.0
0.977999985218 -0.264999985695 -0.173999994993 139.0
0.977999985218 -0.272000014782 -0.17499999702 143.0
0.930000007153 -0.263999998569 -0.165999993682 136.0
0.952000021935 -0.275999993086 -0.170000001788 136.0
0.917999982834 -0.272000014782 -0.165000006557 134.0
0.954999983311 -0.289999991655 -0.171000003815 130.0
0.952000021935 -0.294999986887 -0.171000003815 134.0
0.925999999046 -0.293000012636 -0.166999995708 136.0
0.947000026703 -0.305999994278 -0.171000003815 132.0
0.957000017166 -0.314999997616 -0.172999992967 134.0
0.931999981403 -0.312999993563 -0.167999997735 129.0
0.947000026703 -0.324999988079 -0.171000003815 129.0
0.944999992847 -0.330000013113 -0.171000003815 133.0
0.907999992371 -0.323000013828 -0.165000006557 126.0
0.952000021935 -0.344999998808 -0.172999992967 118.0
0.949000000954 -0.351000010967 -0.172999992967 122.0
0.944999992847 -0.356000006199 -0.172999992967 113.0
0.902000010014 -0.345999985933 -0.165000006557 123.0
0.962999999523 -0.375999987125 -0.177000001073 126.0
0.954999983311 -0.379999995232 -0.17499999702 116.0
0.944000005722 -0.381999999285 -0.173999994993 116.0
0.935000002384 -0.384999990463 -0.172000005841 112.0
0.976000010967 -0.409000009298 -0.180000007153 117.0
0.925000011921 -0.393999993801 -0.171000003815 111.0
0.907999992371 -0.393000006676 -0.168999999762 106.0
0.920000016689 -0.405000001192 -0.171000003815 114.0
0.920000016689 -0.412000000477 -0.171000003815 110.0
0.915000021458 -0.416000008583 -0.171000003815 113.0
0.893999993801 -0.412999987602 -0.166999995708 108.0
0.964999973774 -0.453999996185 -0.180999994278 110.0
0.924000024796 -0.441000014544 -0.173999994993 115.0
0.939999997616 -0.456000000238 -0.177000001073 111.0
0.929000020027 -0.458000004292 -0.175999999046 102.0
0.896000027657 -0.448000013828 -0.170000001788 94.0
0.934000015259 -0.47499999404 -0.178000003099 94.0
0.921000003815 -0.47499999404 -0.175999999046 92.0
0.916999995708 -0.479999989271 -0.17499999702 96.0
0.907999992371 -0.483000010252 -0.173999994993 101.0
0.911000013351 -0.49200001359 -0.17499999702 97.0
0.930000007153 -0.509999990463 -0.179000005126 89.0
0.929000020027 -0.51700001955 -0.179000005126 90.0
0.902999997139 -0.509999990463 -0.17499999702 97.0
2.98699998856 1.5909999609 -0.60799998045 97.0
3.00999999046 1.57899999619 -0.611000001431 110.0
3.10500001907 1.60500001907 -0.628000020981 95.0
3.25300002098 1.65600001812 -0.65600001812 90.0
3.91000008583 1.26199996471 -0.741999983788 79.0
3.9319999218 1.24300003052 -0.745000004768 84.0
3.90899991989 1.21000003815 -0.740000009537 82.0
3.92199993134 1.18900001049 -0.740999996662 80.0
3.97099995613 1.1779999733 -0.749000012875 67.0
2.38800001144 -0.120999999344 -0.430999994278 152.0
2.41599988937 -0.136999994516 -0.43599998951 150.0
2.3220000267 -0.144999995828 -0.418999999762 132.0
2.3180000782 -0.158000007272 -0.418000012636 218.0
2.37599992752 -0.175999999046 -0.428999990225 113.0
2.24099993706 -0.218999996781 -0.405000001192 154.0
2.27699995041 -0.236000001431 -0.412000000477 179.0
1.22399997711 -0.131999999285 -0.221000000834 97.0
0.991999983788 -0.112000003457 -0.179000005126 141.0
0.957000017166 -0.11400000006 -0.172999992967 143.0
0.98400002718 -0.123000003397 -0.178000003099 136.0
1.0039999485 -0.131999999285 -0.181999996305 140.0
0.980000019073 -0.134000003338 -0.177000001073 144.0
0.981999993324 -0.140000000596 -0.178000003099 140.0
0.952000021935 -0.142000004649 -0.172999992967 142.0
0.977999985218 -0.150999993086 -0.177000001073 138.0
0.976000010967 -0.157000005245 -0.177000001073 141.0
0.954999983311 -0.158999994397 -0.172999992967 140.0
0.964999973774 -0.166999995708 -0.17499999702 149.0
0.986000001431 -0.175999999046 -0.179000005126 143.0
0.971000015736 -0.179000005126 -0.177000001073 140.0
0.987999975681 -0.188999995589 -0.180000007153 143.0
0.986000001431 -0.194000005722 -0.180000007153 146.0
0.948000013828 -0.192000001669 -0.172999992967 143.0
0.986999988556 -0.207000002265 -0.180000007153 147.0
0.978999972343 -0.21099999547 -0.179000005126 143.0
0.945999979973 -0.209999993443 -0.172999992967 146.0
0.976999998093 -0.222000002861 -0.179000005126 147.0
0.98299998045 -0.230000004172 -0.180000007153 137.0
0.944000005722 -0.225999996066 -0.172999992967 140.0
0.955999970436 -0.234999999404 -0.175999999046 142.0
0.953999996185 -0.240999996662 -0.17499999702 144.0
0.959999978542 -0.247999995947 -0.177000001073 143.0
0.940999984741 -0.25 -0.172999992967 134.0
0.964999973774 -0.261999994516 -0.178000003099 139.0
0.958999991417 -0.266000002623 -0.177000001073 139.0
0.973999977112 -0.277000010014 -0.180000007153 139.0
0.945999979973 -0.27500000596 -0.17499999702 142.0
0.93599998951 -0.277999997139 -0.173999994993 136.0
0.952000021935 -0.28900000453 -0.177000001073 139.0
0.950999975204 -0.294999986887 -0.177000001073 137.0
0.93900001049 -0.29699999094 -0.17499999702 132.0
0.952000021935 -0.307999998331 -0.177000001073 129.0
0.935000002384 -0.307999998331 -0.17499999702 127.0
0.962999999523 -0.324000000954 -0.180000007153 125.0
0.93599998951 -0.321000009775 -0.17499999702 129.0
0.949000000954 -0.331999987364 -0.178000003099 129.0
0.950999975204 -0.338999986649 -0.179000005126 130.0
0.924000024796 -0.33599999547 -0.173999994993 122.0
0.929000020027 -0.344000011683 -0.17499999702 118.0
0.93900001049 -0.354000002146 -0.178000003099 124.0
0.948000013828 -0.363999992609 -0.180000007153 120.0
0.93900001049 -0.36700001359 -0.178000003099 121.0
0.910000026226 -0.361999988556 -0.172999992967 115.0
0.929000020027 -0.375999987125 -0.177000001073 119.0
0.897000014782 -0.368999987841 -0.171000003815 112.0
0.902000010014 -0.377999991179 -0.172000005841 115.0
0.921000003815 -0.393000006676 -0.175999999046 110.0
0.936999976635 -0.405999988317 -0.180000007153 102.0
0.911000013351 -0.400999993086 -0.17499999702 112.0
0.955999970436 -0.428999990225 -0.184000000358 107.0
0.925000011921 -0.421000003815 -0.179000005126 104.0
0.874000012875 -0.404000014067 -0.168999999762 105.0
0.947000026703 -0.446000009775 -0.184000000358 106.0
0.899999976158 -0.430000007153 -0.17499999702 100.0
0.934000015259 -0.453999996185 -0.181999996305 99.0
0.931999981403 -0.460000008345 -0.181999996305 95.0
0.907999992371 -0.455000013113 -0.178000003099 103.0
0.925000011921 -0.469999998808 -0.181999996305 99.0
0.925999999046 -0.479000002146 -0.182999998331 98.0
0.913999974728 -0.479000002146 -0.180999994278 103.0
0.929000020027 -0.495000004768 -0.184000000358 95.0
0.935000002384 -0.505999982357 -0.186000004411 97.0
0.898000001907 -0.493000000715 -0.179000005126 95.0
0.938000023365 -0.523000001907 -0.187999993563 96.0
0.888000011444 -0.501999974251 -0.178000003099 99.0
3.03800010681 1.59599995613 -0.637000024319 133.0
3.08299994469 1.59500002861 -0.644999980927 104.0
3.34699988365 1.37999999523 -0.674000024796 68.0
3.35100007057 1.28699994087 -0.669000029564 64.0
3.89499998093 1.23300004005 -0.763000011444 93.0
3.88599991798 1.20399999619 -0.759000003338 104.0
3.85199999809 1.16799998283 -0.750999987125 98.0
3.89400005341 1.15600001812 -0.758000016212 75.0
2.34200000763 -0.104999996722 -0.437000006437 93.0
2.36999988556 -0.120999999344 -0.442000001669 200.0
2.40899991989 -0.136999994516 -0.449000000954 188.0
2.35899996758 -0.148000001907 -0.439999997616 144.0
2.32699990273 -0.158999994397 -0.433999985456 199.0
2.40899991989 -0.179000005126 -0.449000000954 103.0
2.26799988747 -0.222000002861 -0.423999994993 141.0
2.27900004387 -0.236000001431 -0.425999999046 148.0
1.23500001431 -0.134000003338 -0.231000006199 96.0
0.976999998093 -0.111000001431 -0.181999996305 140.0
0.986000001431 -0.118000000715 -0.184000000358 144.0
0.978999972343 -0.123000003397 -0.182999998331 139.0
0.98400002718 -0.128999993205 -0.184000000358 137.0
0.963999986649 -0.131999999285 -0.180000007153 142.0
0.962000012398 -0.137999996543 -0.180000007153 142.0
0.972000002861 -0.144999995828 -0.181999996305 142.0
0.967000007629 -0.15000000596 -0.180999994278 135.0
0.971000015736 -0.156000003219 -0.181999996305 136.0
0.966000020504 -0.16099999845 -0.180999994278 148.0
0.955999970436 -0.165000006557 -0.180000007153 143.0
0.98400002718 -0.175999999046 -0.185000002384 147.0
0.977999985218 -0.180999994278 -0.184000000358 144.0
0.98299998045 -0.187999993563 -0.185000002384 142.0
0.980000019073 -0.193000003695 -0.185000002384 145.0
0.989000022411 -0.201000005007 -0.186000004411 141.0
0.958000004292 -0.201000005007 -0.180999994278 139.0
0.967999994755 -0.209000006318 -0.182999998331 146.0
0.981999993324 -0.217999994755 -0.186000004411 142.0
0.955999970436 -0.217999994755 -0.180999994278 137.0
0.954999983311 -0.224000006914 -0.180999994278 137.0
0.975000023842 -0.233999997377 -0.185000002384 135.0
0.954999983311 -0.236000001431 -0.180999994278 143.0
0.944999992847 -0.238999992609 -0.179000005126 132.0
0.938000023365 -0.243000000715 -0.178000003099 131.0
0.955999970436 -0.254000008106 -0.181999996305 139.0
0.930999994278 -0.252999991179 -0.178000003099 131.0
0.944999992847 -0.263000011444 -0.180000007153 131.0
0.955999970436 -0.272000014782 -0.182999998331 137.0
0.941999971867 -0.273999989033 -0.180000007153 136.0
0.943000018597 -0.280000001192 -0.180999994278 133.0
0.96899998188 -0.293999999762 -0.186000004411 132.0
0.952000021935 -0.294999986887 -0.182999998331 139.0
0.947000026703 -0.300000011921 -0.181999996305 134.0
0.945999979973 -0.305999994278 -0.181999996305 130.0
0.925000011921 -0.305000007153 -0.179000005126 130.0
0.957000017166 -0.321999996901 -0.185000002384 126.0
0.929000020027 -0.319000005722 -0.180000007153 126.0
0.945999979973 -0.331000000238 -0.184000000358 125.0
0.943000018597 -0.337000012398 -0.182999998331 126.0
0.93599998951 -0.340000003576 -0.181999996305 119.0
0.947000026703 -0.351000010967 -0.185000002384 115.0
0.967999994755 -0.365000009537 -0.188999995589 116.0
0.919000029564 -0.352999985218 -0.180000007153 118.0
0.957000017166 -0.374000012875 -0.187999993563 122.0
0.930000007153 -0.370000004768 -0.182999998331 116.0
0.955999970436 -0.388000011444 -0.187999993563 118.0
0.972999989986 -0.400999993086 -0.192000001669 115.0
0.852999985218 -0.358000010252 -0.168999999762 115.0
0.927999973297 -0.395999997854 -0.184000000358 112.0
0.92199999094 -0.40000000596 -0.182999998331 107.0
0.903999984264 -0.398999989033 -0.180000007153 108.0
0.915000021458 -0.409999996424 -0.181999996305 115.0
0.916000008583 -0.418000012636 -0.182999998331 101.0
0.908999979496 -0.421000003815 -0.181999996305 107.0
0.921000003815 -0.433999985456 -0.185000002384 105.0
0.938000023365 -0.449000000954 -0.188999995589 106.0
0.916999995708 -0.446000009775 -0.185000002384 103.0
0.883000016212 -0.43599998951 -0.179000005126 100.0
0.919000029564 -0.46099999547 -0.186000004411 98.0
0.944999992847 -0.481999993324 -0.192000001669 102.0
0.926999986172 -0.479999989271 -0.188999995589 100.0
0.930000007153 -0.488999992609 -0.189999997616 88.0
0.95300000906 -0.508000016212 -0.194999992847 93.0
0.930999994278 -0.504000008106 -0.190999999642 95.0
0.97000002861 -0.532999992371 -0.20000000298 90.0
0.93900001049 -0.523999989033 -0.194000005722 92.0
0.943000018597 -0.533999979496 -0.194999992847 97.0
3.01200008392 1.58399999142 -0.652000010014 144.0
3.09800004959 1.60399997234 -0.669000029564 112.0
3.12700009346 1.59500002861 -0.672999978065 78.0
3.53299999237 1.48300004005 -0.736000001431 68.0
3.30999994278 1.31900000572 -0.685000002384 65.0
3.46799993515 1.33299994469 -0.714999973774 75.0
3.51900005341 1.30400002003 -0.722000002861 63.0
3.87400007248 1.25300002098 -0.783999979496 94.0
3.87800002098 1.22800004482 -0.783999979496 131.0
3.89599990845 1.20799994469 -0.786000013351 128.0
3.92300009727 1.19099998474 -0.790000021458 137.0
3.89499998093 1.15699994564 -0.782999992371 101.0
2.38800001144 -0.122000001371 -0.460000008345 247.0
2.39499998093 -0.136000007391 -0.46099999547 234.0
2.33100008965 -0.145999997854 -0.449000000954 180.0
2.30800008774 -0.158000007272 -0.444000005722 206.0
2.34800004959 -0.17499999702 -0.451999992132 122.0
2.27200007439 -0.222000002861 -0.437999993563 161.0
2.27800011635 -0.236000001431 -0.43900001049 155.0
1.17299997807 -0.127000004053 -0.225999996066 101.0
1.00699996948 -0.11400000006 -0.194000005722 137.0
0.967999994755 -0.115999996662 -0.187000006437 144.0
0.986000001431 -0.123999997973 -0.189999997616 146.0
0.981000006199 -0.128999993205 -0.188999995589 146.0
0.96899998188 -0.133000001311 -0.187000006437 143.0
0.985000014305 -0.141000002623 -0.189999997616 141.0
0.97000002861 -0.144999995828 -0.187000006437 144.0
0.964999973774 -0.15000000596 -0.187000006437 144.0
0.995000004768 -0.159999996424 -0.193000003695 140.0
0.966000020504 -0.16099999845 -0.187000006437 139.0
0.98299998045 -0.170000001788 -0.190999999642 141.0
0.991999983788 -0.178000003099 -0.192000001669 138.0
0.964999973774 -0.179000005126 -0.187000006437 140.0
0.978999972343 -0.187000006437 -0.189999997616 141.0
0.955999970436 -0.188999995589 -0.186000004411 145.0
0.975000023842 -0.199000000954 -0.189999997616 140.0
0.971000015736 -0.203999996185 -0.188999995589 140.0
0.97000002861 -0.209000006318 -0.188999995589 139.0
0.962999999523 -0.21400000155 -0.187999993563 138.0
0.935000002384 -0.212999999523 -0.182999998331 145.0
0.952000021935 -0.223000004888 -0.186000004411 136.0
0.967999994755 -0.232999995351 -0.188999995589 141.0
0.948000013828 -0.233999997377 -0.186000004411 138.0
0.975000023842 -0.24699999392 -0.190999999642 136.0
0.958999991417 -0.248999997973 -0.187999993563 135.0
0.941999971867 -0.25 -0.185000002384 140.0
0.958000004292 -0.261000007391 -0.188999995589 133.0
0.963999986649 -0.268000006676 -0.189999997616 135.0
0.93599998951 -0.266999989748 -0.185000002384 134.0
0.958999991417 -0.279000014067 -0.189999997616 138.0
0.958000004292 -0.284999996424 -0.188999995589 129.0
0.936999976635 -0.284999996424 -0.186000004411 129.0
0.941999971867 -0.293000012636 -0.187000006437 136.0
0.961000025272 -0.305000007153 -0.190999999642 135.0
0.945999979973 -0.305999994278 -0.187999993563 125.0
0.933000028133 -0.307999998331 -0.186000004411 126.0
0.963999986649 -0.324999988079 -0.192000001669 132.0
0.945999979973 -0.324999988079 -0.188999995589 120.0
0.917999982834 -0.321999996901 -0.184000000358 132.0
0.958999991417 -0.342999994755 -0.192000001669 126.0
0.931999981403 -0.338999986649 -0.187000006437 125.0
0.947000026703 -0.351000010967 -0.190999999642 118.0
0.884000003338 -0.333999991417 -0.178000003099 118.0
0.933000028133 -0.358999997377 -0.188999995589 119.0
0.929000020027 -0.363999992609 -0.187999993563 116.0
0.933000028133 -0.372000008821 -0.188999995589 115.0
0.93900001049 -0.381000012159 -0.190999999642 111.0
0.97000002861 -0.400999993086 -0.196999996901 113.0
0.938000023365 -0.393999993801 -0.190999999642 115.0
0.954999983311 -0.407999992371 -0.194999992847 110.0
0.915000021458 -0.398000001907 -0.187999993563 106.0
0.929000020027 -0.409999996424 -0.190999999642 110.0
0.925999999046 -0.416000008583 -0.190999999642 100.0
0.85900002718 -0.391999989748 -0.177000001073 102.0
0.902000010014 -0.418000012636 -0.187000006437 111.0
0.921000003815 -0.433999985456 -0.190999999642 105.0
0.940999984741 -0.451000005007 -0.195999994874 96.0
0.899999976158 -0.437999993563 -0.187999993563 98.0
0.90600001812 -0.448000013828 -0.188999995589 99.0
0.947000026703 -0.476000010967 -0.197999998927 99.0
0.888000011444 -0.45300000906 -0.186000004411 99.0
0.889999985695 -0.46099999547 -0.187000006437 97.0
0.971000015736 -0.510999977589 -0.204999998212 99.0
0.926999986172 -0.495000004768 -0.195999994874 88.0
0.944000005722 -0.512000024319 -0.201000005007 90.0
0.916999995708 -0.504999995232 -0.194999992847 88.0
0.867999970913 -0.483999997377 -0.185000002384 97.0
0.943000018597 -0.535000026226 -0.202000007033 97.0
3.0569999218 1.63399994373 -0.684000015259 81.0
2.98000001907 1.56900000572 -0.665000021458 129.0
3.06699991226 1.59000003338 -0.683000028133 108.0
3.38000011444 1.44500005245 -0.727999985218 68.0
3.41199994087 1.38499999046 -0.730000019073 71.0
3.32699990273 1.30400002003 -0.708999991417 66.0
3.34299993515 1.28699994087 -0.711000025272 68.0
3.35199999809 1.26699995995 -0.711000025272 66.0
3.44099998474 1.27699995041 -0.727999985218 69.0
3.84899997711 1.2460000515 -0.804000020027 101.0
3.83899998665 1.21700000763 -0.800000011921 124.0
3.87299990654 1.20299994946 -0.805999994278 129.0
3.90700006485 1.18700003624 -0.81099998951 131.0
3.86999988556 1.15100002289 -0.801999986172 105.0
4.05000019073 0.896000027657 -0.824999988079 63.0
2.33500003815 -0.104999996722 -0.462999999523 156.0
2.3710000515 -0.120999999344 -0.470999985933 245.0
2.38100004196 -0.135000005364 -0.472999989986 236.0
2.33800005913 -0.146999999881 -0.463999986649 207.0
2.30399990082 -0.158000007272 -0.456999987364 190.0
2.32100009918 -0.172999992967 -0.46099999547 137.0
2.24300003052 -0.180000007153 -0.446000009775 51.0
2.19099998474 -0.202000007033 -0.435000002384 60.0
2.2539999485 -0.221000000834 -0.448000013828 202.0
2.25900006294 -0.234999999404 -0.449000000954 168.0
1.17900002003 -0.12800000608 -0.233999997377 107.0
0.990000009537 -0.112999998033 -0.196999996901 135.0
0.972000002861 -0.115999996662 -0.193000003695 138.0
0.989000022411 -0.123999997973 -0.196999996901 142.0
0.967999994755 -0.127000004053 -0.193000003695 140.0
0.961000025272 -0.131999999285 -0.190999999642 136.0
0.975000023842 -0.140000000596 -0.194000005722 141.0
0.986000001431 -0.146999999881 -0.196999996901 137.0
0.957000017166 -0.149000003934 -0.190999999642 135.0
0.961000025272 -0.155000001192 -0.192000001669 138.0
0.962000012398 -0.16099999845 -0.192000001669 138.0
0.957000017166 -0.165999993682 -0.190999999642 146.0
0.967000007629 -0.173999994993 -0.193000003695 137.0
0.962000012398 -0.178000003099 -0.193000003695 143.0
0.953999996185 -0.182999998331 -0.190999999642 143.0
0.992999970913 -0.195999994874 -0.199000000954 140.0
0.961000025272 -0.195999994874 -0.193000003695 139.0
0.967999994755 -0.202999994159 -0.194000005722 136.0
1.00300002098 -0.216999992728 -0.202000007033 141.0
0.952000021935 -0.21099999547 -0.190999999642 136.0
0.95300000906 -0.217999994755 -0.192000001669 138.0
0.958999991417 -0.22499999404 -0.193000003695 139.0
0.948000013828 -0.228000000119 -0.190999999642 140.0
0.943000018597 -0.232999995351 -0.190999999642 139.0
0.962999999523 -0.244000002742 -0.194999992847 138.0
0.958999991417 -0.248999997973 -0.194000005722 136.0
0.955999970436 -0.254000008106 -0.194000005722 136.0
0.953999996185 -0.259999990463 -0.194000005722 129.0
0.936999976635 -0.261000007391 -0.189999997616 136.0
0.958999991417 -0.273000001907 -0.194999992847 140.0
0.944999992847 -0.275999993086 -0.193000003695 133.0
0.926999986172 -0.275999993086 -0.188999995589 134.0
0.96899998188 -0.294999986887 -0.197999998927 128.0
0.967000007629 -0.300999999046 -0.197999998927 125.0
0.962999999523 -0.305999994278 -0.197999998927 134.0
0.952000021935 -0.308999985456 -0.194999992847 127.0
0.955999970436 -0.316000014544 -0.196999996901 125.0
0.955999970436 -0.323000013828 -0.196999996901 126.0
0.949999988079 -0.326999992132 -0.195999994874 120.0
0.924000024796 -0.324000000954 -0.190999999642 121.0
0.938000023365 -0.33599999547 -0.194000005722 118.0
0.952000021935 -0.347000002861 -0.196999996901 120.0
0.920000016689 -0.342000007629 -0.190999999642 116.0
0.976999998093 -0.370000004768 -0.202999994159 123.0
0.916000008583 -0.352999985218 -0.190999999642 116.0
0.954999983311 -0.375 -0.199000000954 119.0
0.913999974728 -0.365000009537 -0.190999999642 118.0
0.931999981403 -0.377999991179 -0.194999992847 113.0
0.930000007153 -0.384000003338 -0.194999992847 114.0
0.925000011921 -0.388999998569 -0.194999992847 109.0
0.913999974728 -0.391000002623 -0.193000003695 109.0
0.95300000906 -0.414999991655 -0.202000007033 106.0
0.919000029564 -0.407000005245 -0.194999992847 109.0
0.973999977112 -0.437999993563 -0.207000002265 111.0
0.938000023365 -0.428999990225 -0.20000000298 101.0
0.915000021458 -0.425000011921 -0.194999992847 109.0
0.955999970436 -0.451999992132 -0.204999998212 104.0
0.889999985695 -0.426999986172 -0.190999999642 102.0
0.931999981403 -0.453999996185 -0.20000000298 104.0
0.940999984741 -0.465999990702 -0.202999994159 96.0
0.90600001812 -0.456000000238 -0.195999994874 100.0
0.948000013828 -0.483999997377 -0.204999998212 99.0
0.915000021458 -0.474000006914 -0.199000000954 98.0
0.889999985695 -0.467999994755 -0.194000005722 93.0
0.879999995232 -0.469999998808 -0.192000001669 91.0
0.90499997139 -0.490999996662 -0.197999998927 90.0
0.931999981403 -0.513999998569 -0.204999998212 91.0
0.930000007153 -0.519999980927 -0.204999998212 87.0
0.898000001907 -0.509000003338 -0.197999998927 85.0
3.02500009537 1.59399998188 -0.695999979973 141.0
3.09899997711 1.60899996758 -0.711000025272 110.0
3.09800004959 1.58299994469 -0.708000004292 79.0
3.35299992561 1.38699996471 -0.740999996662 71.0
3.35500001907 1.36300003529 -0.740000009537 69.0
3.50699996948 1.39999997616 -0.771000027657 67.0
3.49099993706 1.37000000477 -0.76599997282 72.0
3.41300010681 1.29100000858 -0.745999991894 71.0
3.92100000381 1.26999998093 -0.842999994755 91.0
3.89899992943 1.23699998856 -0.837000012398 91.0
3.875 1.17900002003 -0.828999996185 92.0
3.88599991798 1.15699994564 -0.829999983311 77.0
3.73699998856 0.735000014305 -0.78100001812 60.0
3.71199989319 0.708000004292 -0.773999989033 60.0
2.34699988365 -0.105999998748 -0.479999989271 164.0
2.38800001144 -0.122000001371 -0.488000005484 242.0
2.35299992561 -0.134000003338 -0.481000006199 238.0
2.3220000267 -0.145999997854 -0.47499999404 207.0
2.31299996376 -0.158999994397 -0.472999989986 181.0
2.3069999218 -0.172000005841 -0.472000002861 134.0
2.22399997711 -0.204999998212 -0.455000013113 66.0
2.27300000191 -0.223000004888 -0.465999990702 211.0
2.24000000954 -0.232999995351 -0.458999991417 168.0
1.16700005531 -0.127000004053 -0.238999992609 104.0
0.97000002861 -0.109999999404 -0.199000000954 142.0
0.952000021935 -0.11400000006 -0.194999992847 138.0
0.985000014305 -0.123999997973 -0.202000007033 142.0
0.976000010967 -0.128999993205 -0.20000000298 142.0
0.962000012398 -0.131999999285 -0.196999996901 137.0
0.976000010967 -0.140000000596 -0.20000000298 140.0
0.961000025272 -0.143999993801 -0.196999996901 138.0
0.986999988556 -0.153999999166 -0.202999994159 139.0
0.955999970436 -0.153999999166 -0.196999996901 143.0
0.93900001049 -0.157000005245 -0.193000003695 140.0
0.958999991417 -0.165999993682 -0.197999998927 134.0
0.955999970436 -0.172000005841 -0.196999996901 142.0
0.96899998188 -0.180000007153 -0.20000000298 144.0
0.944999992847 -0.180999994278 -0.194999992847 141.0
0.954999983311 -0.188999995589 -0.196999996901 136.0
0.973999977112 -0.199000000954 -0.201000005007 144.0
0.972000002861 -0.203999996185 -0.201000005007 135.0
0.947000026703 -0.204999998212 -0.195999994874 140.0
0.958999991417 -0.212999999523 -0.199000000954 145.0
0.966000020504 -0.221000000834 -0.201000005007 144.0
0.98299998045 -0.231000006199 -0.203999996185 138.0
0.949999988079 -0.229000002146 -0.197999998927 138.0
0.97000002861 -0.239999994636 -0.202000007033 139.0
0.976000010967 -0.247999995947 -0.202999994159 132.0
0.985000014305 -0.256000012159 -0.206000000238 138.0
0.958000004292 -0.254999995232 -0.20000000298 134.0
0.967000007629 -0.263999998569 -0.202000007033 135.0
0.971000015736 -0.270999997854 -0.202999994159 134.0
0.941999971867 -0.268999993801 -0.197999998927 127.0
0.944000005722 -0.275999993086 -0.197999998927 137.0
0.933000028133 -0.277999997139 -0.195999994874 127.0
0.947000026703 -0.28900000453 -0.20000000298 131.0
0.947000026703 -0.294999986887 -0.20000000298 136.0
0.961000025272 -0.305999994278 -0.202999994159 131.0
0.959999978542 -0.312000006437 -0.202999994159 126.0
0.952000021935 -0.314999997616 -0.202000007033 127.0
0.962999999523 -0.326000005007 -0.203999996185 134.0
0.943000018597 -0.324999988079 -0.201000005007 123.0
0.893999993801 -0.31400001049 -0.189999997616 121.0
0.911000013351 -0.326000005007 -0.194000005722 126.0
0.92199999094 -0.33599999547 -0.196999996901 120.0
0.922999978065 -0.342999994755 -0.197999998927 115.0
0.943000018597 -0.356999993324 -0.202000007033 115.0
0.961000025272 -0.370999991894 -0.206000000238 109.0
0.959999978542 -0.377000004053 -0.207000002265 118.0
0.917999982834 -0.36700001359 -0.197999998927 116.0
0.943000018597 -0.384000003338 -0.203999996185 115.0
0.912000000477 -0.377000004053 -0.197999998927 118.0
0.925999999046 -0.389999985695 -0.201000005007 106.0
0.93900001049 -0.402000010014 -0.203999996185 108.0
0.929000020027 -0.405000001192 -0.202999994159 106.0
0.924000024796 -0.409000009298 -0.202000007033 113.0
0.927999973297 -0.418000012636 -0.202999994159 105.0
0.911000013351 -0.416999995708 -0.20000000298 103.0
0.869000017643 -0.404000014067 -0.190999999642 107.0
0.922999978065 -0.43599998951 -0.203999996185 97.0
0.898999989033 -0.432000011206 -0.199000000954 101.0
0.955999970436 -0.467000007629 -0.211999997497 98.0
0.911000013351 -0.451999992132 -0.202999994159 103.0
0.908999979496 -0.458000004292 -0.202999994159 96.0
0.894999980927 -0.458000004292 -0.20000000298 98.0
0.913999974728 -0.47499999404 -0.204999998212 100.0
0.963999986649 -0.508000016212 -0.216000005603 100.0
0.912999987602 -0.488999992609 -0.206000000238 85.0
0.875999987125 -0.476000010967 -0.197999998927 98.0
0.90499997139 -0.499000012875 -0.204999998212 84.0
0.912999987602 -0.510999977589 -0.207000002265 88.0
0.93900001049 -0.533999979496 -0.21400000155 86.0
3.03900003433 1.60399997234 -0.72000002861 141.0
3.06399989128 1.59300005436 -0.723999977112 115.0
3.09500002861 1.58399999142 -0.728999972343 89.0
3.45399999619 1.42999994755 -0.786000013351 69.0
3.36100006104 1.27300000191 -0.755999982357 65.0
3.41700005531 1.26999998093 -0.76700001955 66.0
3.65000009537 0.763999998569 -0.787000000477 58.0
3.71399998665 0.754000008106 -0.800000011921 63.0
3.70799994469 0.730000019073 -0.797999978065 72.0
3.70499992371 0.707000017166 -0.796000003815 72.0
3.6970000267 0.660000026226 -0.792999982834 59.0
2.35500001907 -0.107000000775 -0.495999991894 172.0
2.382999897 -0.122000001371 -0.501999974251 251.0
2.37299990654 -0.135000005364 -0.5 242.0
2.31200003624 -0.144999995828 -0.486999988556 213.0
2.32100009918 -0.159999996424 -0.488999992609 184.0
2.32800006866 -0.173999994993 -0.490999996662 134.0
2.25900006294 -0.208000004292 -0.476000010967 76.0
2.27099990845 -0.223000004888 -0.479000002146 213.0
2.25300002098 -0.234999999404 -0.476000010967 166.0
1.14699995518 -0.125 -0.241999998689 111.0
0.980000019073 -0.112000003457 -0.207000002265 141.0
0.958000004292 -0.115000002086 -0.202000007033 136.0
0.976000010967 -0.123000003397 -0.206000000238 146.0
0.96899998188 -0.12800000608 -0.204999998212 141.0
0.978999972343 -0.135000005364 -0.207000002265 139.0
0.955999970436 -0.136999994516 -0.202000007033 133.0
0.972999989986 -0.145999997854 -0.206000000238 136.0
0.964999973774 -0.15000000596 -0.203999996185 131.0
0.958999991417 -0.155000001192 -0.202999994159 141.0
0.981000006199 -0.165000006557 -0.208000004292 146.0
0.963999986649 -0.167999997735 -0.204999998212 139.0
0.975000023842 -0.17499999702 -0.207000002265 145.0
0.975000023842 -0.180999994278 -0.207000002265 142.0
0.957000017166 -0.184000000358 -0.203999996185 135.0
0.976000010967 -0.193000003695 -0.208000004292 136.0
0.955999970436 -0.194999992847 -0.203999996185 138.0
0.986999988556 -0.208000004292 -0.209999993443 140.0
0.967999994755 -0.209999993443 -0.207000002265 138.0
0.953999996185 -0.212999999523 -0.203999996185 141.0
0.971000015736 -0.222000002861 -0.208000004292 134.0
0.975000023842 -0.229000002146 -0.209000006318 130.0
0.980000019073 -0.237000003457 -0.209999993443 133.0
0.947000026703 -0.233999997377 -0.202999994159 131.0
0.964999973774 -0.245000004768 -0.207000002265 138.0
0.978999972343 -0.254999995232 -0.209999993443 137.0
0.959999978542 -0.256000012159 -0.207000002265 128.0
0.971000015736 -0.264999985695 -0.209000006318 128.0
0.952000021935 -0.266000002623 -0.206000000238 133.0
0.933000028133 -0.266999989748 -0.202000007033 136.0
0.967000007629 -0.282999992371 -0.209000006318 133.0
0.976000010967 -0.291999995708 -0.211999997497 130.0
0.961000025272 -0.293000012636 -0.208000004292 130.0
0.941999971867 -0.293999999762 -0.204999998212 129.0
0.955999970436 -0.303999990225 -0.208000004292 123.0
0.93900001049 -0.305000007153 -0.204999998212 125.0
0.953999996185 -0.317000001669 -0.208000004292 124.0
0.939999997616 -0.317999988794 -0.206000000238 127.0
0.933000028133 -0.321999996901 -0.203999996185 129.0
0.947000026703 -0.333000004292 -0.208000004292 122.0
0.949000000954 -0.340000003576 -0.209000006318 114.0
0.920000016689 -0.33599999547 -0.202000007033 111.0
0.958999991417 -0.356999993324 -0.211999997497 118.0
0.93599998951 -0.354999989271 -0.207000002265 111.0
0.917999982834 -0.354000002146 -0.202999994159 106.0
0.926999986172 -0.363999992609 -0.206000000238 111.0
0.95300000906 -0.381999999285 -0.211999997497 114.0
0.925000011921 -0.377000004053 -0.206000000238 118.0
0.944000005722 -0.391000002623 -0.21099999547 108.0
0.913999974728 -0.384999990463 -0.203999996185 109.0
0.911000013351 -0.389999985695 -0.203999996185 105.0
0.944999992847 -0.412000000477 -0.211999997497 109.0
0.947000026703 -0.419999986887 -0.212999999523 110.0
0.941999971867 -0.425000011921 -0.211999997497 102.0
0.920000016689 -0.421000003815 -0.208000004292 106.0
0.930000007153 -0.432999998331 -0.21099999547 111.0
0.915000021458 -0.432999998331 -0.208000004292 106.0
0.945999979973 -0.455000013113 -0.216000005603 96.0
0.938000023365 -0.458000004292 -0.21400000155 98.0
0.882000029087 -0.437000006437 -0.202000007033 97.0
0.898999989033 -0.45300000906 -0.206000000238 92.0
0.966000020504 -0.495000004768 -0.222000002861 94.0
0.925999999046 -0.481000006199 -0.21400000155 99.0
0.902000010014 -0.476000010967 -0.209000006318 96.0
0.908999979496 -0.486999988556 -0.21099999547 97.0
0.958999991417 -0.522000014782 -0.223000004888 89.0
0.930000007153 -0.513999998569 -0.216999992728 96.0
0.896000027657 -0.501999974251 -0.209999993443 91.0
0.893999993801 -0.509000003338 -0.209999993443 90.0
3.01999998093 1.59599995613 -0.736000001431 143.0
3.06100010872 1.59300005436 -0.742999970913 119.0
3.19099998474 1.63499999046 -0.773000001907 99.0
3.44000005722 1.42599999905 -0.805000007153 71.0
3.45799994469 1.4090000391 -0.808000028133 69.0
3.48200011253 1.36899995804 -0.809000015259 69.0
3.65599989891 0.76599997282 -0.81099998951 57.0
3.72300004959 0.757000029087 -0.824999988079 59.0
3.74300003052 0.737999975681 -0.82800000906 58.0
3.62800002098 0.693000018597 -0.801999986172 61.0
3.76300001144 0.695999979973 -0.830999970436 56.0
3.65300011635 0.652999997139 -0.805999994278 56.0
2.33800005913 -0.105999998748 -0.507000029087 165.0
2.36500000954 -0.120999999344 -0.513000011444 244.0
2.36500000954 -0.135000005364 -0.513000011444 236.0
2.31699991226 -0.145999997854 -0.501999974251 214.0
2.32999992371 -0.159999996424 -0.504999995232 187.0
2.31999993324 -0.172999992967 -0.503000020981 135.0
2.26900005341 -0.223000004888 -0.49200001359 220.0
2.24099993706 -0.233999997377 -0.486999988556 160.0
1.1210000515 -0.122000001371 -0.243000000715 111.0
0.963999986649 -0.109999999404 -0.209000006318 134.0
0.98400002718 -0.118000000715 -0.21400000155 140.0
0.98299998045 -0.123999997973 -0.21400000155 143.0
0.957000017166 -0.126000002027 -0.208000004292 132.0
0.964999973774 -0.133000001311 -0.209999993443 138.0
0.943000018597 -0.136000007391 -0.204999998212 135.0
0.981000006199 -0.146999999881 -0.21400000155 139.0
0.958999991417 -0.15000000596 -0.209000006318 136.0
0.949999988079 -0.153999999166 -0.207000002265 139.0
0.955999970436 -0.16099999845 -0.209000006318 137.0
0.962000012398 -0.166999995708 -0.209999993443 143.0
0.97000002861 -0.17499999702 -0.211999997497 141.0
0.966000020504 -0.180000007153 -0.21099999547 138.0
0.964999973774 -0.186000004411 -0.21099999547 140.0
0.973999977112 -0.193000003695 -0.212999999523 142.0
0.944999992847 -0.193000003695 -0.207000002265 136.0
0.958000004292 -0.202000007033 -0.209999993443 138.0
0.954999983311 -0.207000002265 -0.209999993443 134.0
0.935000002384 -0.208000004292 -0.204999998212 131.0
0.944999992847 -0.216000005603 -0.208000004292 130.0
0.958000004292 -0.225999996066 -0.21099999547 134.0
0.941999971867 -0.228000000119 -0.208000004292 137.0
0.939999997616 -0.232999995351 -0.208000004292 132.0
0.948000013828 -0.240999996662 -0.209999993443 136.0
0.952000021935 -0.247999995947 -0.21099999547 131.0
0.955999970436 -0.254999995232 -0.211999997497 130.0
0.931999981403 -0.254999995232 -0.207000002265 134.0
0.964999973774 -0.270000010729 -0.21400000155 130.0
0.941999971867 -0.268999993801 -0.209000006318 133.0
0.980000019073 -0.287000000477 -0.217999994755 131.0
0.978999972343 -0.293000012636 -0.217999994755 125.0
0.972999989986 -0.29699999094 -0.216999992728 130.0
0.957000017166 -0.298999994993 -0.21400000155 126.0
0.964999973774 -0.307999998331 -0.216000005603 123.0
0.910000026226 -0.296000003815 -0.203999996185 123.0
0.936999976635 -0.31099998951 -0.21099999547 119.0
0.958000004292 -0.324999988079 -0.216000005603 123.0
0.939999997616 -0.324999988079 -0.211999997497 125.0
0.933000028133 -0.328999996185 -0.21099999547 117.0
0.96899998188 -0.347999989986 -0.218999996781 117.0
0.961000025272 -0.351999998093 -0.217999994755 116.0
0.93900001049 -0.34999999404 -0.212999999523 111.0
0.916999995708 -0.347999989986 -0.209000006318 112.0
0.920000016689 -0.356000006199 -0.209999993443 114.0
0.915000021458 -0.360000014305 -0.209000006318 117.0
0.945999979973 -0.379000008106 -0.216000005603 113.0
0.958999991417 -0.391000002623 -0.219999998808 109.0
0.92199999094 -0.381999999285 -0.211999997497 113.0
0.93599998951 -0.395000010729 -0.216000005603 108.0
0.929000020027 -0.398999989033 -0.21400000155 109.0
0.940999984741 -0.411000013351 -0.217999994755 105.0
0.898000001907 -0.398999989033 -0.208000004292 105.0
0.936999976635 -0.423000007868 -0.217999994755 105.0
0.912999987602 -0.418999999762 -0.211999997497 108.0
0.939999997616 -0.43900001049 -0.218999996781 99.0
0.915000021458 -0.433999985456 -0.21400000155 104.0
0.89200001955 -0.428999990225 -0.209000006318 96.0
0.933000028133 -0.456000000238 -0.218999996781 100.0
0.925000011921 -0.460000008345 -0.217999994755 97.0
0.883000016212 -0.446000009775 -0.209000006318 98.0
0.879999995232 -0.451000005007 -0.208000004292 98.0
0.943000018597 -0.490999996662 -0.224000006914 98.0
0.916000008583 -0.483999997377 -0.217999994755 95.0
0.911000013351 -0.488999992609 -0.217999994755 101.0
0.916000008583 -0.499000012875 -0.219999998808 94.0
0.93599998951 -0.518000006676 -0.22499999404 89.0
0.866999983788 -0.486000001431 -0.209000006318 91.0
0.950999975204 -0.541999995708 -0.230000004172 84.0
3.02999997139 1.60300004482 -0.759000003338 132.0
3.11299991608 1.62199997902 -0.777000010014 113.0
3.12599992752 1.60399997234 -0.777999997139 110.0
2.34100008011 -0.105999998748 -0.522000014782 141.0
2.35899996758 -0.120999999344 -0.526000022888 253.0
2.36199998856 -0.135000005364 -0.526000022888 234.0
2.32699990273 -0.146999999881 -0.518999993801 213.0
2.31699991226 -0.159999996424 -0.51599997282 181.0
2.34999990463 -0.175999999046 -0.523999989033 134.0
2.22499990463 -0.206000000238 -0.497000008821 95.0
2.26300001144 -0.223000004888 -0.504999995232 228.0
2.25999999046 -0.236000001431 -0.504999995232 159.0
1.11699998379 -0.122000001371 -0.248999997973 115.0
0.981999993324 -0.112000003457 -0.218999996781 136.0
0.973999977112 -0.116999998689 -0.217999994755 136.0
0.967999994755 -0.122000001371 -0.216000005603 134.0
0.957000017166 -0.126000002027 -0.21400000155 126.0
0.967999994755 -0.134000003338 -0.216000005603 132.0
0.971000015736 -0.140000000596 -0.216999992728 135.0
0.96899998188 -0.144999995828 -0.216999992728 140.0
0.967000007629 -0.150999993086 -0.216000005603 132.0
0.976000010967 -0.158000007272 -0.218999996781 137.0
0.955999970436 -0.16099999845 -0.21400000155 130.0
0.964999973774 -0.167999997735 -0.216999992728 138.0
0.978999972343 -0.177000001073 -0.219999998808 137.0
0.980000019073 -0.182999998331 -0.219999998808 140.0
0.936999976635 -0.180000007153 -0.21099999547 142.0
0.973999977112 -0.194000005722 -0.218999996781 142.0
0.959999978542 -0.195999994874 -0.216000005603 140.0
