ply
format ascii 1.0
element vertex 942
property float x
property float y
property float z
property float intensity
end_header
0.92199999094 -0.153999999166 0.264999985695 1251.0
0.922999978065 -0.159999996424 0.266000002623 1221.0
0.926999986172 -0.166999995708 0.266999989748 1247.0
0.916999995708 -0.171000003815 0.264999985695 1241.0
0.926999986172 -0.178000003099 0.268000006676 1236.0
0.922999978065 -0.182999998331 0.266999989748 1251.0
0.924000024796 -0.188999995589 0.268000006676 1247.0
0.924000024796 -0.194999992847 0.268000006676 1241.0
0.919000029564 -0.20000000298 0.266999989748 1241.0
0.924000024796 -0.207000002265 0.268999993801 1262.0
0.917999982834 -0.21099999547 0.266999989748 1286.0
0.916999995708 -0.216999992728 0.266999989748 1284.0
0.917999982834 -0.223000004888 0.268000006676 1274.0
0.913999974728 -0.226999998093 0.266999989748 1245.0
0.907999992371 -0.231999993324 0.266000002623 1232.0
0.916000008583 -0.239999994636 0.268999993801 1245.0
0.913999974728 -0.245000004768 0.268999993801 1269.0
0.916000008583 -0.252000004053 0.268999993801 1285.0
0.915000021458 -0.256999999285 0.268999993801 1282.0
0.907999992371 -0.261000007391 0.268000006676 1285.0
0.912000000477 -0.268000006676 0.270000010729 1324.0
0.908999979496 -0.273000001907 0.268999993801 1310.0
0.90600001812 -0.279000014067 0.268999993801 1273.0
0.898000001907 -0.282000005245 0.266999989748 1294.0
0.907999992371 -0.291000008583 0.270000010729 1309.0
0.907000005245 -0.29699999094 0.270000010729 1252.0
0.90499997139 -0.303000003099 0.270000010729 1237.0
0.902999997139 -0.307999998331 0.270000010729 1289.0
0.903999984264 -0.314999997616 0.270999997854 1289.0
0.903999984264 -0.321000009775 0.272000014782 1271.0
0.90499997139 -0.32800000906 0.273000001907 1250.0
0.901000022888 -0.331999987364 0.272000014782 1269.0
0.898000001907 -0.337000012398 0.270999997854 1259.0
0.898999989033 -0.344000011683 0.272000014782 1226.0
0.903999984264 -0.352999985218 0.273999989033 1238.0
0.896000027657 -0.356000006199 0.273000001907 1259.0
0.897000014782 -0.361999988556 0.273000001907 1270.0
0.898000001907 -0.368999987841 0.273999989033 1275.0
0.894999980927 -0.375 0.273999989033 1267.0
0.893999993801 -0.381000012159 0.27500000596 1249.0
0.893000006676 -0.386999994516 0.27500000596 1277.0
0.89200001955 -0.393000006676 0.275999993086 1237.0
0.898000001907 -0.402999997139 0.277999997139 1231.0
0.89200001955 -0.407000005245 0.277000010014 1214.0
0.89200001955 -0.41400000453 0.277999997139 1250.0
0.894999980927 -0.42199999094 0.279000014067 1267.0
0.889999985695 -0.426999986172 0.279000014067 1239.0
0.882000029087 -0.430000007153 0.277000010014 1236.0
0.882000029087 -0.43599998951 0.277999997139 1242.0
0.885999977589 -0.444999992847 0.280000001192 1250.0
0.89200001955 -0.455000013113 0.282000005245 1254.0
0.888999998569 -0.46099999547 0.282000005245 1210.0
0.882000029087 -0.465000003576 0.280999988317 1216.0
0.888000011444 -0.47499999404 0.284000009298 1214.0
0.887000024319 -0.481000006199 0.284000009298 1237.0
0.885999977589 -0.488999992609 0.284999996424 1239.0
0.883000016212 -0.493999987841 0.284999996424 1234.0
0.882000029087 -0.500999987125 0.284999996424 1219.0
0.882000029087 -0.508000016212 0.286000013351 1199.0
1.77600002289 1.06299996376 0.560000002384 149.0
1.84899997711 1.0909999609 0.580999970436 95.0
2.00600004196 1.14900004864 0.626999974251 122.0
2.03200006485 1.14699995518 0.633000016212 250.0
2.08599996567 1.15999996662 0.648000001907 290.0
2.06399989128 1.13100004196 0.639999985695 295.0
2.08100008965 1.12300002575 0.643000006676 286.0
2.05800008774 1.09300005436 0.634000003338 235.0
2.06399989128 1.08000004292 0.634000003338 116.0
2.125 1.09500002861 0.651000022888 141.0
2.18000006676 1.10599994659 0.666000008583 266.0
2.16799998283 1.08299994469 0.661000013351 192.0
2.21300005913 1.08800005913 0.672999978065 104.0
3.26799988747 1.22000002861 0.959999978542 78.0
3.27600002289 1.20000004768 0.961000025272 97.0
3.38199996948 1.2159999609 0.990000009537 72.0
3.56699991226 1.25699996948 1.04299998283 90.0
3.7009999752 1.27900004387 1.08000004292 108.0
3.73799991608 1.26600003242 1.08899998665 102.0
3.757999897 1.24800002575 1.09300005436 88.0
4.06199979782 1.29400002956 1.1779999733 71.0
4.13399982452 1.28900003433 1.1970000267 75.0
4.07499980927 1.24300003052 1.1779999733 100.0
4.07899999619 1.21800005436 1.1779999733 109.0
4.03499984741 1.1779999733 1.1629999876 105.0
4.04899978638 1.15499997139 1.16600000858 113.0
4.08799982071 1.13999998569 1.17499995232 111.0
4.05100011826 1.10300004482 1.1629999876 104.0
4.09600019455 1.08899998665 1.17499995232 109.0
4.08500003815 1.05999994278 1.16999995708 108.0
4.15899991989 1.05200004578 1.18900001049 108.0
4.08799982071 1.00800001621 1.16799998283 105.0
4.06699991226 0.976999998093 1.15999996662 109.0
4.05700016022 0.948000013828 1.15600001812 106.0
4.13999986649 0.941999971867 1.17900002003 110.0
4.10200023651 0.907000005245 1.16700005531 115.0
4.07999992371 0.876999974251 1.1590000391 110.0
4.12400007248 0.860000014305 1.17100000381 115.0
4.03000020981 0.814999997616 1.14300000668 114.0
4.07999992371 0.800000011921 1.15600001812 106.0
4.09899997711 0.777999997139 1.15999996662 104.0
4.13700008392 0.759999990463 1.16999995708 107.0
4.07700014114 0.723999977112 1.15199995041 115.0
4.07000017166 0.698000013828 1.14900004864 105.0
4.117000103 0.680000007153 1.16199994087 109.0
4.10200023651 0.652999997139 1.15699994564 86.0
0.944000005722 -0.0560000017285 0.261999994516 348.0
0.933000028133 -0.0610000006855 0.259000003338 1118.0
0.927999973297 -0.0659999996424 0.25799998641 1229.0
0.935000002384 -0.0719999969006 0.259999990463 1202.0
0.931999981403 -0.0769999995828 0.259999990463 1198.0
0.935000002384 -0.082999996841 0.261000007391 1227.0
0.93599998951 -0.0890000015497 0.261000007391 1224.0
0.931999981403 -0.0939999967813 0.259999990463 1224.0
0.933000028133 -0.10000000149 0.259999990463 1232.0
0.93599998951 -0.105999998748 0.261999994516 1212.0
0.926999986172 -0.109999999404 0.259000003338 1194.0
0.930999994278 -0.115999996662 0.261000007391 1189.0
0.924000024796 -0.120999999344 0.259000003338 1215.0
0.926999986172 -0.127000004053 0.259999990463 1199.0
0.927999973297 -0.133000001311 0.259999990463 1215.0
0.92199999094 -0.136999994516 0.259000003338 1235.0
0.925000011921 -0.143999993801 0.259999990463 1231.0
0.925000011921 -0.149000003934 0.259999990463 1269.0
0.920000016689 -0.153999999166 0.259000003338 1267.0
0.926999986172 -0.16099999845 0.261000007391 1235.0
0.929000020027 -0.166999995708 0.261999994516 1256.0
0.924000024796 -0.172000005841 0.261000007391 1247.0
0.917999982834 -0.175999999046 0.259000003338 1238.0
0.92199999094 -0.182999998331 0.261000007391 1242.0
0.920000016689 -0.187999993563 0.261000007391 1246.0
0.92199999094 -0.194000005722 0.261999994516 1237.0
0.917999982834 -0.199000000954 0.261000007391 1240.0
0.921000003815 -0.206000000238 0.261999994516 1264.0
0.917999982834 -0.21099999547 0.261000007391 1272.0
0.912000000477 -0.215000003576 0.259999990463 1278.0
0.916999995708 -0.222000002861 0.261999994516 1295.0
0.915000021458 -0.226999998093 0.261000007391 1282.0
0.919000029564 -0.233999997377 0.263000011444 1270.0
0.913999974728 -0.238999992609 0.261999994516 1266.0
0.910000026226 -0.244000002742 0.261000007391 1253.0
0.910000026226 -0.25 0.261999994516 1272.0
0.907000005245 -0.254999995232 0.261000007391 1289.0
0.907000005245 -0.261000007391 0.261999994516 1289.0
0.907000005245 -0.266999989748 0.261999994516 1300.0
0.910000026226 -0.273999989033 0.263000011444 1315.0
0.912999987602 -0.280000001192 0.264999985695 1289.0
0.911000013351 -0.286000013351 0.263999998569 1297.0
0.912999987602 -0.293000012636 0.266000002623 1326.0
0.902000010014 -0.294999986887 0.263000011444 1292.0
0.90499997139 -0.301999986172 0.263999998569 1246.0
0.912999987602 -0.31099998951 0.266999989748 1250.0
0.907999992371 -0.314999997616 0.266000002623 1291.0
0.903999984264 -0.319999992847 0.266000002623 1285.0
0.90499997139 -0.326999992132 0.266000002623 1280.0
0.902000010014 -0.331999987364 0.266000002623 1252.0
0.90600001812 -0.340000003576 0.268000006676 1281.0
0.903999984264 -0.344999998808 0.268000006676 1245.0
0.899999976158 -0.34999999404 0.266999989748 1270.0
0.902000010014 -0.358000010252 0.268000006676 1266.0
0.899999976158 -0.363000005484 0.268000006676 1268.0
0.889999985695 -0.365999996662 0.266000002623 1268.0
0.893000006676 -0.372999995947 0.268000006676 1276.0
0.897000014782 -0.381999999285 0.268999993801 1263.0
0.893999993801 -0.386999994516 0.268999993801 1243.0
0.893000006676 -0.393000006676 0.270000010729 1235.0
0.893000006676 -0.40000000596 0.270000010729 1230.0
0.893000006676 -0.407000005245 0.270999997854 1247.0
0.884000003338 -0.409000009298 0.268999993801 1259.0
0.89099997282 -0.418999999762 0.272000014782 1263.0
0.888999998569 -0.425000011921 0.272000014782 1249.0
0.889999985695 -0.432999998331 0.273000001907 1236.0
0.888000011444 -0.43900001049 0.273000001907 1263.0
0.888999998569 -0.446000009775 0.273999989033 1249.0
0.887000024319 -0.451999992132 0.273999989033 1264.0
0.883000016212 -0.456999987364 0.273999989033 1212.0
0.880999982357 -0.462999999523 0.273999989033 1226.0
0.884999990463 -0.472000002861 0.275999993086 1241.0
0.884999990463 -0.479999989271 0.277000010014 1253.0
0.880999982357 -0.485000014305 0.277000010014 1243.0
0.888000011444 -0.495999991894 0.280000001192 1233.0
0.879999995232 -0.499000012875 0.277999997139 1221.0
0.882000029087 -0.508000016212 0.280000001192 1202.0
1.7539999485 1.04799997807 0.540000021458 138.0
2.01200008392 1.16799998283 0.615999996662 117.0
2.04299998283 1.16799998283 0.624000012875 224.0
2.05200004578 1.15600001812 0.625 292.0
2.07899999619 1.15400004387 0.630999982357 288.0
2.0759999752 1.13499999046 0.629000008106 287.0
2.08400011063 1.12199997902 0.629000008106 292.0
2.07699990273 1.10199999809 0.625 203.0
2.125 1.11000001431 0.638000011444 121.0
2.14899992943 1.10500001907 0.643000006676 159.0
2.16400003433 1.09599995613 0.646000027657 278.0
2.18899989128 1.0909999609 0.652000010014 179.0
2.1930000782 1.0759999752 0.651000022888 100.0
3.30200004578 1.20799994469 0.945999979973 86.0
3.33800005913 1.19799995422 0.954999983311 84.0
3.65400004387 1.28600001335 1.04400002956 75.0
3.74499988556 1.29200005531 1.06799995899 114.0
3.66300010681 1.23899996281 1.04299998283 110.0
3.75500011444 1.24500000477 1.06700003147 78.0
4.05399990082 1.28900003433 1.14900004864 64.0
4.01499986649 1.25 1.13600003719 73.0
4.08599996567 1.24500000477 1.15400004387 109.0
4.14200019836 1.23500001431 1.16900002956 115.0
4.09000015259 1.19200003147 1.15199995041 105.0
4.07000017166 1.15999996662 1.14499998093 109.0
4.06599998474 1.13199996948 1.14199995995 113.0
4.10500001907 1.11600005627 1.15199995041 106.0
4.03900003433 1.0720000267 1.13199996948 108.0
4.11299991608 1.06500005722 1.15100002289 102.0
4.08699989319 1.03199994564 1.14199995995 104.0
4.12599992752 1.01600003242 1.15199995041 107.0
4.14400005341 0.994000017643 1.15600001812 105.0
4.08699989319 0.953999996185 1.13800001144 102.0
4.10799980164 0.933000028133 1.14300000668 115.0
4.14300012589 0.915000021458 1.15100002289 108.0
4.09700012207 0.879000008106 1.13800001144 112.0
4.15399980545 0.865000009537 1.15199995041 111.0
4.14699983597 0.837999999523 1.14900004864 108.0
4.14499998093 0.811999976635 1.14800000191 105.0
4.11800003052 0.78100001812 1.13900005817 103.0
4.13700008392 0.759000003338 1.14400005341 109.0
4.07499980927 0.722000002861 1.12600004673 108.0
4.12400007248 0.705999970436 1.13800001144 103.0
4.07999992371 0.672999978065 1.125 108.0
4.16099977493 0.661000013351 1.14699995518 87.0
0.944000005722 -0.0560000017285 0.256999999285 359.0
0.936999976635 -0.0610000006855 0.254999995232 1131.0
0.930999994278 -0.0659999996424 0.252999991179 1229.0
0.934000015259 -0.0719999969006 0.254000008106 1224.0
0.931999981403 -0.0769999995828 0.254000008106 1204.0
0.935000002384 -0.082999996841 0.254999995232 1245.0
0.934000015259 -0.0890000015497 0.254000008106 1262.0
0.930999994278 -0.0939999967813 0.254000008106 1238.0
0.931999981403 -0.0989999994636 0.254000008106 1246.0
0.935000002384 -0.104999996722 0.254999995232 1219.0
0.926999986172 -0.109999999404 0.252999991179 1218.0
0.926999986172 -0.115999996662 0.254000008106 1219.0
0.930999994278 -0.122000001371 0.254999995232 1238.0
0.921000003815 -0.126000002027 0.252000004053 1228.0
0.921000003815 -0.131999999285 0.252999991179 1218.0
0.931999981403 -0.138999998569 0.256000012159 1245.0
0.924000024796 -0.143000006676 0.254000008106 1246.0
0.924000024796 -0.149000003934 0.254000008106 1263.0
0.927999973297 -0.155000001192 0.254999995232 1301.0
0.919000029564 -0.158999994397 0.252999991179 1262.0
0.924000024796 -0.165999993682 0.254999995232 1248.0
0.917999982834 -0.170000001788 0.252999991179 1234.0
0.917999982834 -0.175999999046 0.252999991179 1252.0
0.919000029564 -0.181999996305 0.254000008106 1236.0
0.92199999094 -0.187999993563 0.254999995232 1211.0
0.922999978065 -0.194000005722 0.256000012159 1227.0
0.919000029564 -0.199000000954 0.254999995232 1247.0
0.919000029564 -0.204999998212 0.254999995232 1283.0
0.915000021458 -0.209999993443 0.254999995232 1285.0
0.916000008583 -0.216000005603 0.254999995232 1271.0
0.917999982834 -0.222000002861 0.256000012159 1290.0
0.915000021458 -0.226999998093 0.256000012159 1293.0
0.916000008583 -0.232999995351 0.256000012159 1251.0
0.913999974728 -0.238000005484 0.256000012159 1297.0
0.911000013351 -0.244000002742 0.256000012159 1280.0
0.911000013351 -0.248999997973 0.256000012159 1290.0
0.907000005245 -0.254000008106 0.254999995232 1285.0
0.910000026226 -0.261000007391 0.256000012159 1275.0
0.916000008583 -0.268999993801 0.259000003338 1291.0
0.912000000477 -0.273999989033 0.25799998641 1328.0
0.903999984264 -0.277000010014 0.256000012159 1303.0
0.907999992371 -0.284000009298 0.25799998641 1305.0
0.903999984264 -0.28900000453 0.256999999285 1308.0
0.902999997139 -0.294999986887 0.256999999285 1318.0
0.910000026226 -0.303000003099 0.259999990463 1279.0
0.910000026226 -0.310000002384 0.259999990463 1251.0
0.908999979496 -0.316000014544 0.261000007391 1269.0
0.911000013351 -0.321999996901 0.261999994516 1283.0
0.899999976158 -0.324999988079 0.259000003338 1302.0
0.902999997139 -0.331999987364 0.259999990463 1297.0
0.898999989033 -0.337000012398 0.259999990463 1299.0
0.894999980927 -0.342000007629 0.259000003338 1295.0
0.897000014782 -0.349000006914 0.259999990463 1278.0
0.893000006676 -0.354000002146 0.259999990463 1264.0
0.898999989033 -0.361999988556 0.261999994516 1272.0
0.899999976158 -0.368999987841 0.263000011444 1252.0
0.902000010014 -0.377000004053 0.263999998569 1257.0
0.897000014782 -0.381000012159 0.263000011444 1246.0
0.898999989033 -0.388999998569 0.264999985695 1256.0
0.894999980927 -0.393999993801 0.263999998569 1231.0
0.893000006676 -0.398999989033 0.263999998569 1216.0
0.893000006676 -0.405999988317 0.264999985695 1257.0
0.897000014782 -0.41400000453 0.266999989748 1259.0
0.89099997282 -0.418000012636 0.266000002623 1264.0
0.888000011444 -0.423999994993 0.264999985695 1245.0
0.89099997282 -0.432000011206 0.266999989748 1237.0
0.889999985695 -0.43900001049 0.266999989748 1271.0
0.893000006676 -0.446999996901 0.268999993801 1263.0
0.884999990463 -0.449999988079 0.268000006676 1257.0
0.889999985695 -0.460000008345 0.270000010729 1234.0
0.885999977589 -0.465000003576 0.270000010729 1229.0
0.883000016212 -0.470999985933 0.268999993801 1242.0
0.883000016212 -0.477999985218 0.270000010729 1251.0
0.883000016212 -0.485000014305 0.270999997854 1224.0
0.884000003338 -0.493000000715 0.272000014782 1212.0
0.89200001955 -0.504999995232 0.275999993086 1209.0
0.878000020981 -0.504999995232 0.272000014782 1216.0
1.87999999523 1.10500001907 0.56400001049 91.0
2.03999996185 1.18200004101 0.610000014305 135.0
2.0569999218 1.1740000248 0.612999975681 164.0
2.06299996376 1.15999996662 0.612999975681 266.0
2.06699991226 1.14499998093 0.612999975681 297.0
2.06100010872 1.125 0.60900002718 295.0
2.05399990082 1.10399997234 0.605000019073 284.0
2.0529999733 1.0870000124 0.602999985218 183.0
2.12400007248 1.10699999332 0.621999979019 123.0
2.16300010681 1.11000001431 0.632000029087 172.0
2.18099999428 1.10199999809 0.635999977589 273.0
2.17499995232 1.08200001717 0.633000016212 165.0
2.26399993896 1.10899996758 0.657000005245 88.0
3.19799995422 1.19000005722 0.897000014782 90.0
3.30200004578 1.20599997044 0.924000024796 84.0
3.47199988365 1.24399995804 0.97000002861 74.0
3.70499992371 1.30200004578 1.0340000391 89.0
3.70799994469 1.27699995041 1.03299999237 101.0
3.74300003052 1.26400005817 1.04100000858 105.0
3.78200006485 1.25199997425 1.04999995232 77.0
4.03100013733 1.27999997139 1.11600005627 69.0
4.06300020218 1.26300001144 1.12300002575 85.0
4.05399990082 1.23300004005 1.11899995804 113.0
4.08500003815 1.21500003338 1.125 110.0
4.15100002289 1.20799994469 1.14199995995 108.0
4.06799983978 1.15699994564 1.11800003052 112.0
4.0689997673 1.13100004196 1.11699998379 108.0
4.07299995422 1.10599994659 1.11600005627 112.0
4.09499979019 1.08500003815 1.1210000515 105.0
4.10500001907 1.06099998951 1.12199997902 104.0
4.06500005722 1.02499997616 1.11000001431 113.0
4.10900020599 1.00999999046 1.12000000477 105.0
4.125 0.986999988556 1.12399995327 100.0
4.16099977493 0.97000002861 1.13199996948 110.0
4.10400009155 0.930999994278 1.11600005627 109.0
4.05100011826 0.893000006676 1.10000002384 104.0
4.08699989319 0.875 1.10899996758 105.0
4.06699991226 0.846000015736 1.10199999809 112.0
4.09299993515 0.825999975204 1.10800004005 108.0
4.08599996567 0.799000024796 1.10500001907 111.0
4.08400011063 0.773000001907 1.10399997234 104.0
4.08699989319 0.749000012875 1.10399997234 106.0
4.0640001297 0.71899998188 1.09599995613 98.0
4.08099985123 0.697000026703 1.10000002384 99.0
4.15600013733 0.685000002384 1.12000000477 107.0
4.11299991608 0.652000010014 1.10699999332 88.0
0.931999981403 -0.054999999702 0.24699999392 341.0
0.930000007153 -0.0599999986589 0.24699999392 1138.0
0.93599998951 -0.0659999996424 0.248999997973 1245.0
0.930000007153 -0.0710000023246 0.24699999392 1236.0
0.931999981403 -0.0769999995828 0.247999995947 1205.0
0.931999981403 -0.082999996841 0.247999995947 1237.0
0.930999994278 -0.0879999995232 0.247999995947 1259.0
0.929000020027 -0.0939999967813 0.24699999392 1232.0
0.927999973297 -0.0989999994636 0.24699999392 1256.0
0.931999981403 -0.104999996722 0.248999997973 1213.0
0.927999973297 -0.109999999404 0.247999995947 1248.0
0.933000028133 -0.115999996662 0.248999997973 1226.0
0.926999986172 -0.120999999344 0.247999995947 1225.0
0.924000024796 -0.126000002027 0.24699999392 1235.0
0.92199999094 -0.130999997258 0.24699999392 1228.0
0.924000024796 -0.136999994516 0.247999995947 1253.0
0.930999994278 -0.143999993801 0.25 1245.0
0.922999978065 -0.148000001907 0.247999995947 1257.0
0.926999986172 -0.155000001192 0.248999997973 1286.0
0.920000016689 -0.158999994397 0.24699999392 1262.0
0.929000020027 -0.166999995708 0.25 1236.0
0.922999978065 -0.171000003815 0.248999997973 1243.0
0.925000011921 -0.177000001073 0.25 1260.0
0.921000003815 -0.181999996305 0.248999997973 1239.0
0.920000016689 -0.187000006437 0.248999997973 1225.0
0.921000003815 -0.194000005722 0.248999997973 1242.0
0.92199999094 -0.20000000298 0.25 1261.0
0.915000021458 -0.203999996185 0.247999995947 1265.0
0.913999974728 -0.209000006318 0.247999995947 1271.0
0.916000008583 -0.215000003576 0.248999997973 1265.0
0.920000016689 -0.222000002861 0.250999987125 1290.0
0.916999995708 -0.226999998093 0.25 1280.0
0.915000021458 -0.231999993324 0.25 1264.0
0.915000021458 -0.238999992609 0.25 1267.0
0.912999987602 -0.244000002742 0.25 1309.0
0.915000021458 -0.25 0.250999987125 1289.0
0.913999974728 -0.256000012159 0.250999987125 1285.0
0.90600001812 -0.259999990463 0.25 1269.0
0.912000000477 -0.266999989748 0.252000004053 1322.0
0.902999997139 -0.270999997854 0.25 1345.0
0.90600001812 -0.277000010014 0.250999987125 1318.0
0.908999979496 -0.284999996424 0.252000004053 1322.0
0.90600001812 -0.289999991655 0.252000004053 1302.0
0.912999987602 -0.298000007868 0.254000008106 1337.0
0.907999992371 -0.301999986172 0.252999991179 1312.0
0.903999984264 -0.307000011206 0.252000004053 1272.0
0.902999997139 -0.312999993563 0.252999991179 1282.0
0.902000010014 -0.319000005722 0.252999991179 1260.0
0.902000010014 -0.324999988079 0.252999991179 1288.0
0.903999984264 -0.331999987364 0.254999995232 1332.0
0.901000022888 -0.337000012398 0.254000008106 1331.0
0.898999989033 -0.342999994755 0.254000008106 1337.0
0.893999993801 -0.347000002861 0.252999991179 1306.0
0.893000006676 -0.352999985218 0.254000008106 1250.0
0.898999989033 -0.361999988556 0.256000012159 1251.0
0.893999993801 -0.365999996662 0.254999995232 1268.0
0.889999985695 -0.370999991894 0.254000008106 1275.0
0.893999993801 -0.379000008106 0.256000012159 1284.0
0.897000014782 -0.386999994516 0.25799998641 1270.0
0.896000027657 -0.393000006676 0.25799998641 1248.0
0.89200001955 -0.398000001907 0.25799998641 1225.0
0.894999980927 -0.405999988317 0.259000003338 1245.0
0.89099997282 -0.411000013351 0.259000003338 1265.0
0.888000011444 -0.416000008583 0.25799998641 1240.0
0.893000006676 -0.425999999046 0.261000007391 1234.0
0.893000006676 -0.432999998331 0.261000007391 1257.0
0.884000003338 -0.435000002384 0.259999990463 1277.0
0.89200001955 -0.446000009775 0.263000011444 1275.0
0.882000029087 -0.448000013828 0.259999990463 1258.0
0.883000016212 -0.456000000238 0.261999994516 1230.0
0.884000003338 -0.462999999523 0.263000011444 1246.0
0.888999998569 -0.472999989986 0.264999985695 1256.0
0.879999995232 -0.476000010967 0.263000011444 1251.0
0.876999974251 -0.481000006199 0.263000011444 1224.0
0.884000003338 -0.49200001359 0.266000002623 1204.0
0.879000008106 -0.497000008821 0.264999985695 1213.0
0.879999995232 -0.504999995232 0.266999989748 1205.0
1.87000000477 1.11399996281 0.549000024796 131.0
2.0039999485 1.1590000391 0.584999978542 119.0
2.0490000248 1.16799998283 0.596000015736 174.0
2.04699993134 1.14900004864 0.59399998188 285.0
2.05800008774 1.13800001144 0.59500002861 298.0
2.05200004578 1.11800003052 0.592000007629 299.0
2.05399990082 1.10199999809 0.591000020504 275.0
2.03800010681 1.07700002193 0.583999991417 178.0
2.11800003052 1.10199999809 0.606000006199 114.0
2.16499996185 1.11000001431 0.617999970913 185.0
2.16899991035 1.09500002861 0.616999983788 270.0
2.20199990273 1.09399998188 0.625 149.0
2.35700011253 1.08099997044 0.661000013351 73.0
3.18899989128 1.18499994278 0.873000025749 95.0
3.31200003624 1.20799994469 0.90499997139 82.0
3.42100000381 1.22399997711 0.933000028133 68.0
3.71300005913 1.30200004578 1.01100003719 89.0
3.73200011253 1.2840000391 1.01499998569 117.0
3.74799990654 1.26400005817 1.01699995995 107.0
3.78500008583 1.25100004673 1.02600002289 87.0
4.14900016785 1.34300005436 1.12300002575 64.0
4.02199983597 1.24800002575 1.08500003815 86.0
4.07399988174 1.23699998856 1.09800004959 112.0
4.0560002327 1.20500004292 1.0909999609 111.0
4.07399988174 1.18400001526 1.09399998188 113.0
4.10300016403 1.16499996185 1.10099995136 103.0
4.09299993515 1.13600003719 1.09700000286 105.0
4.05499982834 1.09899997711 1.08500003815 104.0
4.06799983978 1.0759999752 1.0870000124 105.0
4.09299993515 1.05700004101 1.09200000763 104.0
4.04899978638 1.01900005341 1.07899999619 106.0
4.10099983215 1.00600004196 1.09200000763 103.0
4.01700019836 0.959999978542 1.06799995899 108.0
4.01900005341 0.935000002384 1.06799995899 105.0
4.07000017166 0.92199999094 1.08000004292 115.0
4.07000017166 0.896000027657 1.07899999619 106.0
4.11899995804 0.880999982357 1.0909999609 111.0
4.15199995041 0.861999988556 1.09800004959 114.0
4.09600019455 0.824999988079 1.08299994469 110.0
4.11100006104 0.802999973297 1.08599996567 105.0
4.09600019455 0.773999989033 1.08099997044 104.0
4.12300014496 0.754000008106 1.0870000124 109.0
4.117000103 0.726999998093 1.08500003815 109.0
4.06599998474 0.694000005722 1.07000005245 105.0
4.05399990082 0.666999995708 1.06599998474 100.0
4.08699989319 0.647000014782 1.07400000095 83.0
0.934000015259 -0.054999999702 0.241999998689 343.0
0.930999994278 -0.0599999986589 0.240999996662 1139.0
0.935000002384 -0.0659999996424 0.243000000715 1252.0
0.935000002384 -0.0719999969006 0.243000000715 1260.0
0.931999981403 -0.0769999995828 0.241999998689 1206.0
0.933000028133 -0.082999996841 0.241999998689 1222.0
0.934000015259 -0.0879999995232 0.243000000715 1254.0
0.930000007153 -0.0939999967813 0.241999998689 1236.0
0.927999973297 -0.0989999994636 0.241999998689 1246.0
0.929000020027 -0.104999996722 0.241999998689 1228.0
0.926999986172 -0.109999999404 0.241999998689 1226.0
0.925999999046 -0.115000002086 0.241999998689 1226.0
0.926999986172 -0.120999999344 0.241999998689 1234.0
0.926999986172 -0.127000004053 0.241999998689 1234.0
0.926999986172 -0.131999999285 0.241999998689 1227.0
0.927999973297 -0.137999996543 0.243000000715 1236.0
0.927999973297 -0.143000006676 0.243000000715 1254.0
0.925000011921 -0.149000003934 0.241999998689 1267.0
0.921000003815 -0.153999999166 0.241999998689 1270.0
0.925000011921 -0.159999996424 0.243000000715 1293.0
0.92199999094 -0.165000006557 0.241999998689 1255.0
0.921000003815 -0.171000003815 0.241999998689 1257.0
0.924000024796 -0.177000001073 0.243000000715 1268.0
0.920000016689 -0.181999996305 0.243000000715 1257.0
0.919000029564 -0.187000006437 0.243000000715 1244.0
0.921000003815 -0.193000003695 0.244000002742 1271.0
0.916999995708 -0.197999998927 0.243000000715 1278.0
0.916000008583 -0.203999996185 0.243000000715 1285.0
0.924000024796 -0.21099999547 0.245000004768 1284.0
0.913999974728 -0.215000003576 0.243000000715 1278.0
0.912999987602 -0.219999998808 0.243000000715 1291.0
0.913999974728 -0.225999996066 0.244000002742 1290.0
0.912000000477 -0.231000006199 0.243000000715 1296.0
0.915000021458 -0.238000005484 0.244000002742 1255.0
0.917999982834 -0.245000004768 0.246000006795 1301.0
0.916000008583 -0.25 0.245000004768 1323.0
0.915000021458 -0.256000012159 0.246000006795 1312.0
0.90499997139 -0.259000003338 0.243000000715 1286.0
0.907999992371 -0.266000002623 0.245000004768 1322.0
0.911000013351 -0.273000001907 0.246000006795 1329.0
0.902000010014 -0.275999993086 0.244000002742 1314.0
0.902000010014 -0.282000005245 0.244000002742 1322.0
0.910000026226 -0.289999991655 0.24699999392 1316.0
0.907999992371 -0.296000003815 0.24699999392 1314.0
0.911000013351 -0.303000003099 0.247999995947 1331.0
0.901000022888 -0.305999994278 0.246000006795 1299.0
0.903999984264 -0.312999993563 0.24699999392 1283.0
0.901000022888 -0.317999988794 0.24699999392 1295.0
0.898000001907 -0.323000013828 0.246000006795 1279.0
0.907000005245 -0.333000004292 0.248999997973 1296.0
0.90499997139 -0.337999999523 0.248999997973 1334.0
0.907000005245 -0.344999998808 0.250999987125 1302.0
0.896000027657 -0.347000002861 0.247999995947 1316.0
0.898999989033 -0.354999989271 0.248999997973 1279.0
0.902000010014 -0.363000005484 0.250999987125 1269.0
0.898000001907 -0.36700001359 0.25 1278.0
0.894999980927 -0.372999995947 0.25 1262.0
0.893999993801 -0.379000008106 0.25 1273.0
0.897000014782 -0.386000007391 0.252000004053 1272.0
0.888999998569 -0.389999985695 0.25 1249.0
0.888999998569 -0.395999997854 0.250999987125 1224.0
0.894999980927 -0.405999988317 0.252999991179 1253.0
0.893000006676 -0.411000013351 0.252999991179 1242.0
0.896000027657 -0.418999999762 0.254999995232 1238.0
0.889999985695 -0.423999994993 0.254000008106 1232.0
0.894999980927 -0.432999998331 0.256000012159 1273.0
0.893000006676 -0.43900001049 0.256000012159 1273.0
0.885999977589 -0.442000001669 0.254999995232 1259.0
0.884000003338 -0.448000013828 0.254999995232 1248.0
0.880999982357 -0.453999996185 0.254999995232 1251.0
0.884999990463 -0.462999999523 0.256999999285 1277.0
0.884000003338 -0.469000011683 0.256999999285 1264.0
0.882000029087 -0.476000010967 0.256999999285 1259.0
0.880999982357 -0.481999993324 0.25799998641 1228.0
0.875 -0.486999988556 0.256999999285 1226.0
0.884000003338 -0.499000012875 0.259999990463 1217.0
0.880999982357 -0.504999995232 0.259999990463 1224.0
1.90100002289 1.12999999523 0.545000016689 95.0
2.03299999237 1.1740000248 0.578999996185 163.0
2.05500006676 1.16900002956 0.583000004292 262.0
2.05399990082 1.15100002289 0.580999970436 299.0
2.07399988174 1.14499998093 0.584999978542 295.0
2.08200001717 1.13300001621 0.586000025272 286.0
2.07500004768 1.11199998856 0.582000017166 279.0
2.0490000248 1.08099997044 0.573000013828 151.0
2.12299990654 1.10300004482 0.592000007629 119.0
2.17499995232 1.11300003529 0.605000019073 198.0
2.18300008774 1.10000002384 0.606000006199 250.0
2.20300006866 1.09300005436 0.610000014305 133.0
3.20199990273 1.18799996376 0.855000019073 92.0
3.36800003052 1.22599995136 0.898000001907 83.0
3.38499999046 1.20899999142 0.901000022888 68.0
3.73699998856 1.30900001526 0.992999970913 96.0
3.72199988365 1.27799999714 0.987999975681 111.0
3.72099995613 1.25300002098 0.985000014305 106.0
3.83500003815 1.26499998569 1.01400005817 74.0
4.132999897 1.33599996567 1.09200000763 63.0
4.07600021362 1.28999996185 1.07500004768 63.0
4.08599996567 1.26600003242 1.0759999752 84.0
4.01800012589 1.21800005436 1.05599999428 114.0
4.03900003433 1.19799995422 1.05999994278 109.0
4.05399990082 1.17599999905 1.06299996376 112.0
4.09399986267 1.16100001335 1.0720000267 107.0
4.14099979401 1.14699995518 1.08299994469 105.0
4.07499980927 1.10300004482 1.06400001049 107.0
4.0689997673 1.07500004768 1.06099998951 109.0
4.13199996948 1.06500005722 1.0759999752 105.0
4.08799982071 1.02799999714 1.06299996376 106.0
4.06300020218 0.995999991894 1.05599999428 108.0
4.05100011826 0.967000007629 1.05099999905 105.0
4.09499979019 0.950999975204 1.06200003624 106.0
4.07000017166 0.920000016689 1.05400002003 106.0
4.09200000763 0.898999989033 1.05900001526 108.0
4.11800003052 0.879000008106 1.06400001049 104.0
4.08500003815 0.847000002861 1.05499994755 107.0
4.13899993896 0.832000017166 1.06799995899 114.0
4.08199977875 0.796000003815 1.05200004578 109.0
4.11600017548 0.777000010014 1.05999994278 108.0
4.13100004196 0.754000008106 1.06299996376 112.0
4.10400009155 0.723999977112 1.05499994755 108.0
4.0640001297 0.691999971867 1.04400002956 106.0
4.10099983215 0.672999978065 1.0529999733 104.0
4.10300016403 0.648999989033 1.0529999733 85.0
0.925999999046 -0.054999999702 0.233999997377 344.0
0.930999994278 -0.0599999986589 0.236000001431 1147.0
0.93900001049 -0.0670000016689 0.238000005484 1240.0
0.935000002384 -0.0719999969006 0.237000003457 1268.0
0.930000007153 -0.0769999995828 0.236000001431 1221.0
0.930999994278 -0.082000002265 0.236000001431 1223.0
0.935000002384 -0.0879999995232 0.237000003457 1254.0
0.930999994278 -0.0939999967813 0.236000001431 1247.0
0.929000020027 -0.0989999994636 0.236000001431 1257.0
0.926999986172 -0.104000002146 0.236000001431 1263.0
0.925999999046 -0.109999999404 0.234999999404 1248.0
0.927999973297 -0.115000002086 0.236000001431 1249.0
0.92199999094 -0.119999997318 0.234999999404 1238.0
0.925999999046 -0.126000002027 0.236000001431 1244.0
0.925999999046 -0.131999999285 0.236000001431 1234.0
0.925999999046 -0.136999994516 0.236000001431 1261.0
0.926999986172 -0.143000006676 0.237000003457 1268.0
0.922999978065 -0.148000001907 0.236000001431 1278.0
0.924000024796 -0.153999999166 0.237000003457 1286.0
0.921000003815 -0.158999994397 0.236000001431 1306.0
0.925000011921 -0.165000006557 0.237000003457 1266.0
0.922999978065 -0.171000003815 0.237000003457 1260.0
0.922999978065 -0.175999999046 0.237000003457 1275.0
0.925000011921 -0.181999996305 0.238000005484 1276.0
0.917999982834 -0.187000006437 0.236000001431 1278.0
0.915000021458 -0.192000001669 0.236000001431 1294.0
0.92199999094 -0.199000000954 0.238000005484 1303.0
0.919000029564 -0.203999996185 0.238000005484 1282.0
0.916999995708 -0.209000006318 0.237000003457 1281.0
0.912999987602 -0.21400000155 0.237000003457 1321.0
0.916000008583 -0.221000000834 0.238000005484 1308.0
0.911000013351 -0.22499999404 0.237000003457 1279.0
0.913999974728 -0.231999993324 0.238000005484 1297.0
0.919000029564 -0.238999992609 0.239999994636 1277.0
0.911000013351 -0.243000000715 0.238000005484 1301.0
0.907999992371 -0.247999995947 0.237000003457 1333.0
0.908999979496 -0.254000008106 0.238000005484 1328.0
0.908999979496 -0.259999990463 0.238000005484 1312.0
0.910000026226 -0.266000002623 0.238999992609 1306.0
0.912000000477 -0.273000001907 0.239999994636 1314.0
0.907000005245 -0.277000010014 0.238999992609 1315.0
0.902000010014 -0.280999988317 0.238000005484 1345.0
0.910000026226 -0.289999991655 0.240999996662 1320.0
0.903999984264 -0.293999999762 0.239999994636 1307.0
0.912000000477 -0.303000003099 0.241999998689 1325.0
0.907000005245 -0.307000011206 0.240999996662 1309.0
0.902000010014 -0.312000006437 0.239999994636 1295.0
0.903999984264 -0.319000005722 0.240999996662 1290.0
0.902000010014 -0.324000000954 0.240999996662 1274.0
0.901000022888 -0.330000013113 0.241999998689 1262.0
0.90600001812 -0.337999999523 0.244000002742 1289.0
0.902999997139 -0.342999994755 0.243000000715 1315.0
0.89200001955 -0.344999998808 0.240999996662 1301.0
0.898000001907 -0.354000002146 0.243000000715 1320.0
0.889999985695 -0.356999993324 0.240999996662 1301.0
0.897000014782 -0.36700001359 0.244000002742 1291.0
0.893999993801 -0.372000008821 0.244000002742 1258.0
0.898000001907 -0.379999995232 0.245000004768 1249.0
0.893000006676 -0.384000003338 0.245000004768 1263.0
0.897000014782 -0.393000006676 0.246000006795 1263.0
0.893000006676 -0.398000001907 0.246000006795 1253.0
0.888000011444 -0.402000010014 0.245000004768 1245.0
0.889999985695 -0.409999996424 0.246000006795 1245.0
0.887000024319 -0.414999991655 0.246000006795 1247.0
0.884999990463 -0.421000003815 0.246000006795 1260.0
0.889999985695 -0.430000007153 0.247999995947 1277.0
0.888999998569 -0.43599998951 0.248999997973 1265.0
0.884000003338 -0.441000014544 0.247999995947 1270.0
0.880999982357 -0.446000009775 0.247999995947 1274.0
0.888999998569 -0.456999987364 0.250999987125 1278.0
0.893000006676 -0.465999990702 0.252999991179 1299.0
0.883000016212 -0.467999994755 0.250999987125 1299.0
0.879999995232 -0.474000006914 0.25 1244.0
0.880999982357 -0.481999993324 0.252000004053 1229.0
0.880999982357 -0.488999992609 0.252999991179 1233.0
0.882000029087 -0.497000008821 0.254000008106 1228.0
0.870000004768 -0.497000008821 0.250999987125 1233.0
2.03600001335 1.17299997807 0.564999997616 123.0
2.04099988937 1.15999996662 0.564999997616 204.0
2.05900001526 1.15199995041 0.568000018597 281.0
2.05800008774 1.13399994373 0.565999984741 300.0
2.0680000782 1.12300002575 0.566999971867 293.0
2.09200000763 1.11899995804 0.572000026703 268.0
2.05900001526 1.08500003815 0.561999976635 139.0
2.13400006294 1.10699999332 0.580999970436 134.0
2.1779999733 1.11300003529 0.591000020504 218.0
2.18799996376 1.10099995136 0.592000007629 255.0
2.25300002098 1.11600005627 0.60799998045 123.0
3.22300004959 1.19400000572 0.838999986649 88.0
3.28099989891 1.19299995899 0.852999985218 78.0
3.58699989319 1.27900004387 0.930999994278 68.0
3.66199994087 1.28100001812 0.949000000954 105.0
3.70199990273 1.26900005341 0.958000004292 108.0
3.72399997711 1.25199997425 0.962000012398 100.0
3.65199995041 1.20299994946 0.941999971867 73.0
4.04699993134 1.25199997425 1.03900003433 95.0
4.08900022507 1.23800003529 1.04799997807 112.0
4.05000019073 1.20000004768 1.03699994087 121.0
4.0720000267 1.17999994755 1.04100000858 109.0
4.07399988174 1.15400004387 1.03999996185 109.0
4.125 1.14100003242 1.05200004578 109.0
4.11299991608 1.11199998856 1.04700005054 107.0
4.11000013351 1.08399999142 1.04499995708 109.0
4.05499982834 1.04400002956 1.02999997139 110.0
4.08400011063 1.02499997616 1.03600001335 105.0
4.05700016022 0.992999970913 1.02799999714 105.0
4.125 0.98299998045 1.04400002956 105.0
4.11600017548 0.954999983311 1.04100000858 111.0
4.12900018692 0.931999981403 1.04299998283 111.0
4.09299993515 0.898000001907 1.03299999237 108.0
4.10500001907 0.875 1.03499996662 111.0
4.08099985123 0.84500002861 1.02799999714 103.0
4.09000015259 0.820999979973 1.02900004387 105.0
4.11999988556 0.801999986172 1.03600001335 108.0
4.125 0.777000010014 1.03600001335 109.0
4.13700008392 0.754000008106 1.0379999876 112.0
4.07499980927 0.717999994755 1.02199995518 101.0
4.07999992371 0.694000005722 1.02300000191 107.0
4.0720000267 0.667999982834 1.01999998093 102.0
4.05900001526 0.64099997282 1.01600003242 79.0
0.917999982834 -0.0540000014007 0.225999996066 352.0
0.930000007153 -0.0599999986589 0.230000004172 1155.0
0.934000015259 -0.0659999996424 0.231000006199 1244.0
0.930999994278 -0.0710000023246 0.230000004172 1272.0
0.934000015259 -0.0769999995828 0.231000006199 1242.0
0.938000023365 -0.082999996841 0.231999993324 1202.0
0.925000011921 -0.0869999974966 0.229000002146 1259.0
0.930000007153 -0.0930000022054 0.230000004172 1266.0
0.925000011921 -0.097999997437 0.229000002146 1260.0
0.927999973297 -0.104000002146 0.230000004172 1254.0
0.924000024796 -0.108999997377 0.229000002146 1266.0
0.926999986172 -0.115000002086 0.230000004172 1260.0
0.930000007153 -0.120999999344 0.231000006199 1271.0
0.925000011921 -0.126000002027 0.230000004172 1266.0
0.930000007153 -0.131999999285 0.231000006199 1261.0
0.920000016689 -0.136000007391 0.229000002146 1263.0
0.924000024796 -0.143000006676 0.230000004172 1282.0
0.92199999094 -0.148000001907 0.230000004172 1289.0
0.925999999046 -0.153999999166 0.231000006199 1291.0
0.922999978065 -0.158999994397 0.231000006199 1308.0
0.924000024796 -0.165000006557 0.231000006199 1290.0
0.919000029564 -0.170000001788 0.230000004172 1252.0
0.924000024796 -0.175999999046 0.231999993324 1276.0
0.925999999046 -0.182999998331 0.232999995351 1288.0
0.919000029564 -0.187000006437 0.231000006199 1306.0
0.917999982834 -0.192000001669 0.231000006199 1317.0
0.922999978065 -0.199000000954 0.232999995351 1306.0
0.920000016689 -0.203999996185 0.231999993324 1285.0
0.915000021458 -0.209000006318 0.231000006199 1285.0
0.919000029564 -0.215000003576 0.232999995351 1319.0
0.915000021458 -0.219999998808 0.231999993324 1336.0
0.910000026226 -0.22499999404 0.231000006199 1300.0
0.913999974728 -0.231999993324 0.231999993324 1276.0
0.913999974728 -0.237000003457 0.231999993324 1313.0
0.912999987602 -0.243000000715 0.232999995351 1307.0
0.912000000477 -0.248999997973 0.232999995351 1327.0
0.908999979496 -0.254000008106 0.231999993324 1311.0
0.915000021458 -0.261000007391 0.233999997377 1314.0
0.910000026226 -0.264999985695 0.232999995351 1310.0
0.907999992371 -0.270999997854 0.232999995351 1312.0
0.907000005245 -0.277000010014 0.232999995351 1352.0
0.908999979496 -0.282999992371 0.233999997377 1339.0
0.90600001812 -0.287999987602 0.233999997377 1344.0
0.899999976158 -0.293000012636 0.232999995351 1324.0
0.902999997139 -0.298999994993 0.233999997377 1314.0
0.90499997139 -0.305999994278 0.234999999404 1327.0
0.902999997139 -0.312000006437 0.234999999404 1334.0
0.90600001812 -0.319000005722 0.236000001431 1303.0
0.901000022888 -0.323000013828 0.234999999404 1312.0
0.90600001812 -0.331000000238 0.237000003457 1305.0
0.899999976158 -0.335000008345 0.236000001431 1299.0
0.897000014782 -0.340999990702 0.236000001431 1319.0
0.903999984264 -0.349000006914 0.238000005484 1330.0
0.897000014782 -0.352999985218 0.237000003457 1311.0
0.893999993801 -0.358000010252 0.237000003457 1339.0
0.894999980927 -0.365000009537 0.237000003457 1338.0
0.89200001955 -0.370000004768 0.237000003457 1304.0
0.894999980927 -0.377999991179 0.238000005484 1269.0
0.894999980927 -0.384999990463 0.238999992609 1275.0
0.894999980927 -0.391000002623 0.239999994636 1263.0
0.893000006676 -0.397000014782 0.239999994636 1248.0
0.887000024319 -0.400999993086 0.238999992609 1273.0
0.893000006676 -0.409999996424 0.240999996662 1272.0
0.89099997282 -0.416000008583 0.240999996662 1285.0
0.889999985695 -0.42199999094 0.240999996662 1274.0
0.888000011444 -0.428000003099 0.241999998689 1301.0
0.885999977589 -0.433999985456 0.241999998689 1275.0
0.879000008106 -0.437999993563 0.239999994636 1293.0
0.887000024319 -0.449000000954 0.244000002742 1273.0
0.887000024319 -0.455000013113 0.244000002742 1299.0
0.885999977589 -0.462000012398 0.245000004768 1327.0
0.884999990463 -0.469000011683 0.245000004768 1303.0
0.888000011444 -0.477999985218 0.24699999392 1278.0
0.884000003338 -0.481999993324 0.246000006795 1258.0
0.880999982357 -0.488999992609 0.246000006795 1250.0
0.879000008106 -0.493999987841 0.246000006795 1242.0
0.878000020981 -0.500999987125 0.24699999392 1221.0
1.88999998569 1.12000000477 0.513999998569 89.0
2.0490000248 1.17999994755 0.554000020027 116.0
2.06399989128 1.16999995708 0.556999981403 221.0
2.06100010872 1.15199995041 0.554000020027 303.0
2.04800009727 1.12800002098 0.549000024796 299.0
2.05999994278 1.11699998379 0.550999999046 302.0
2.08200001717 1.11199998856 0.555000007153 264.0
2.04299998283 1.07500004768 0.542999982834 128.0
2.12700009346 1.10199999809 0.56400001049 131.0
2.1819999218 1.11300003529 0.577000021935 236.0
2.18000006676 1.09500002861 0.574999988079 232.0
2.21799993515 1.09700000286 0.583999991417 116.0
3.242000103 1.19900000095 0.823000013828 93.0
3.34699988365 1.21500003338 0.847999989986 77.0
3.65100002289 1.27499997616 0.92199999094 108.0
3.73799991608 1.27999997139 0.943000018597 113.0
3.76999998093 1.26499998569 0.949000000954 105.0
3.86999988556 1.27300000191 0.972999989986 66.0
4.01399993896 1.29299998283 1.00800001621 64.0
4.06699991226 1.25699996948 1.01800000668 93.0
4.0560002327 1.22599995136 1.01400005817 114.0
4.08099985123 1.20700001717 1.01800000668 103.0
4.11499977112 1.19000005722 1.02600002289 111.0
4.08699989319 1.15600001812 1.01699995995 112.0
4.08799982071 1.1289999485 1.01600003242 108.0
4.08900022507 1.10300004482 1.01499998569 103.0
4.07700014114 1.07400000095 1.01100003719 106.0
4.08099985123 1.0490000248 1.01100003719 110.0
4.12699985504 1.03499996662 1.02100002766 106.0
4.14900016785 1.01400005817 1.02499997616 99.0
4.09999990463 0.976000010967 1.01199996471 114.0
4.06500005722 0.941999971867 1.00199997425 109.0
4.05200004578 0.912999987602 0.998000025749 96.0
4.132999897 0.90600001812 1.01699995995 109.0
4.06500005722 0.865999996662 0.999000012875 113.0
4.03000020981 0.833000004292 0.989000022411 115.0
4.12400007248 0.827000021935 1.01199996471 107.0
4.11899995804 0.800999999046 1.00999999046 107.0
4.117000103 0.774999976158 1.00800001621 114.0
4.12599992752 0.750999987125 1.00999999046 113.0
4.09000015259 0.71899998188 1.0 101.0
4.06699991226 0.690999984741 0.994000017643 98.0
4.07399988174 0.666999995708 0.995000004768 99.0
4.06799983978 0.64099997282 0.992999970913 77.0
0.938000023365 -0.054999999702 0.225999996066 344.0
0.930000007153 -0.0599999986589 0.224000006914 1164.0
0.934000015259 -0.0659999996424 0.22499999404 1237.0
0.931999981403 -0.0710000023246 0.224000006914 1256.0
0.930999994278 -0.0769999995828 0.224000006914 1249.0
0.93900001049 -0.082999996841 0.225999996066 1222.0
0.930999994278 -0.0879999995232 0.22499999404 1270.0
0.927999973297 -0.0930000022054 0.224000006914 1283.0
0.935000002384 -0.0989999994636 0.225999996066 1279.0
0.931999981403 -0.104999996722 0.22499999404 1263.0
0.929000020027 -0.109999999404 0.22499999404 1285.0
0.925999999046 -0.115000002086 0.224000006914 1264.0
0.925000011921 -0.119999997318 0.224000006914 1276.0
0.929000020027 -0.126000002027 0.22499999404 1273.0
0.921000003815 -0.130999997258 0.224000006914 1288.0
0.920000016689 -0.136000007391 0.223000004888 1285.0
0.926999986172 -0.143000006676 0.22499999404 1299.0
0.926999986172 -0.148000001907 0.22499999404 1300.0
0.925000011921 -0.153999999166 0.22499999404 1288.0
0.922999978065 -0.158999994397 0.22499999404 1288.0
0.919000029564 -0.16400000453 0.224000006914 1308.0
0.925000011921 -0.171000003815 0.225999996066 1264.0
0.919000029564 -0.17499999702 0.22499999404 1283.0
0.917999982834 -0.180999994278 0.22499999404 1289.0
0.917999982834 -0.186000004411 0.22499999404 1297.0
0.921000003815 -0.193000003695 0.225999996066 1298.0
0.920000016689 -0.197999998927 0.225999996066 1297.0
0.912000000477 -0.202000007033 0.224000006914 1290.0
0.921000003815 -0.209999993443 0.226999998093 1305.0
0.917999982834 -0.215000003576 0.225999996066 1311.0
0.916999995708 -0.219999998808 0.225999996066 1315.0
0.908999979496 -0.224000006914 0.22499999404 1323.0
0.912999987602 -0.231000006199 0.225999996066 1284.0
0.910000026226 -0.236000001431 0.225999996066 1332.0
0.915000021458 -0.243000000715 0.226999998093 1329.0
0.911000013351 -0.247999995947 0.226999998093 1327.0
0.90600001812 -0.252000004053 0.225999996066 1322.0
0.911000013351 -0.259999990463 0.226999998093 1334.0
0.910000026226 -0.264999985695 0.228000000119 1333.0
0.911000013351 -0.272000014782 0.228000000119 1332.0
0.911000013351 -0.277000010014 0.228000000119 1360.0
0.90600001812 -0.282000005245 0.228000000119 1362.0
0.907999992371 -0.28900000453 0.228000000119 1364.0
0.907000005245 -0.293999999762 0.229000002146 1362.0
0.898999989033 -0.298000007868 0.226999998093 1358.0
0.912000000477 -0.307999998331 0.231000006199 1378.0
0.901000022888 -0.31099998951 0.228000000119 1367.0
0.90600001812 -0.319000005722 0.230000004172 1340.0
0.898999989033 -0.321999996901 0.229000002146 1333.0
0.902000010014 -0.328999996185 0.230000004172 1330.0
0.898999989033 -0.333999991417 0.230000004172 1339.0
0.899999976158 -0.340999990702 0.231000006199 1332.0
0.897000014782 -0.345999985933 0.230000004172 1367.0
0.902999997139 -0.354999989271 0.231999993324 1354.0
0.893999993801 -0.358000010252 0.231000006199 1361.0
0.899999976158 -0.36700001359 0.232999995351 1364.0
0.893999993801 -0.370000004768 0.231999993324 1349.0
0.89200001955 -0.375999987125 0.231999993324 1297.0
0.89099997282 -0.381999999285 0.231999993324 1301.0
0.89200001955 -0.388999998569 0.232999995351 1273.0
0.89200001955 -0.395999997854 0.232999995351 1252.0
0.889999985695 -0.402000010014 0.233999997377 1300.0
0.893000006676 -0.409999996424 0.234999999404 1286.0
0.893000006676 -0.416000008583 0.236000001431 1290.0
0.887000024319 -0.419999986887 0.234999999404 1306.0
0.888999998569 -0.428000003099 0.236000001431 1289.0
0.888000011444 -0.433999985456 0.236000001431 1272.0
0.882000029087 -0.437999993563 0.234999999404 1296.0
0.882000029087 -0.444999992847 0.236000001431 1299.0
0.887000024319 -0.455000013113 0.238000005484 1324.0
0.885999977589 -0.46099999547 0.238000005484 1324.0
0.879000008106 -0.465000003576 0.237000003457 1329.0
0.880999982357 -0.472999989986 0.238999992609 1268.0
0.878000020981 -0.479000002146 0.238000005484 1282.0
0.879000008106 -0.486000001431 0.238999992609 1273.0
0.875 -0.490999996662 0.238999992609 1255.0
0.878000020981 -0.500999987125 0.240999996662 1247.0
2.01900005341 1.15999996662 0.532000005245 199.0
2.05999994278 1.16600000858 0.541000008583 283.0
2.0759999752 1.15799999237 0.544000029564 303.0
2.0680000782 1.13600003719 0.540000021458 295.0
2.0680000782 1.12000000477 0.538999974728 282.0
2.0569999218 1.09700000286 0.533999979496 240.0
2.10100007057 1.10300004482 0.544000029564 124.0
2.14700007439 1.11000001431 0.554000020027 139.0
2.17100000381 1.10599994659 0.559000015259 271.0
2.18899989128 1.09800004959 0.563000023365 217.0
2.18700003624 1.08000004292 0.560000002384 120.0
3.23300004005 1.19400000572 0.799000024796 88.0
3.40000009537 1.23199999332 0.839999973774 81.0
3.79299998283 1.34899997711 0.935000002384 65.0
3.70600008965 1.29299998283 0.912000000477 104.0
3.72199988365 1.27300000191 0.915000021458 110.0
3.74499988556 1.25499999523 0.919000029564 100.0
4.0110001564 1.29100000858 0.981000006199 71.0
4.16099977493 1.31099998951 1.01600003242 66.0
4.117000103 1.26999998093 1.0039999485 92.0
4.02799987793 1.2159999609 0.981000006199 112.0
4.08900022507 1.20799994469 0.994000017643 107.0
4.03399991989 1.16499996185 0.978999972343 109.0
4.117000103 1.1629999876 0.998000025749 110.0
4.1139998436 1.13499999046 0.995999991894 107.0
4.05999994278 1.09399998188 0.981999993324 107.0
4.08799982071 1.07500004768 0.986999988556 103.0
4.09800004959 1.05200004578 0.989000022411 103.0
