ply
format ascii 1.0
element vertex 913
property float x
property float y
property float z
property float intensity
end_header
4.73000001907 0.307000011206 -0.189999997616 66.0
4.74499988556 0.280000001192 -0.190999999642 64.0
4.78800010681 0.254999995232 -0.192000001669 66.0
4.7389998436 0.22499999404 -0.189999997616 60.0
4.71899986267 0.196999996901 -0.188999995589 58.0
4.76499986649 0.172000005841 -0.190999999642 58.0
4.8140001297 0.145999997854 -0.193000003695 61.0
4.80800008774 0.118000000715 -0.192000001669 61.0
4.8639998436 0.0909999981523 -0.194000005722 59.0
4.84899997711 0.0630000010133 -0.194000005722 61.0
4.84399986267 0.035000000149 -0.193000003695 57.0
4.88100004196 0.00700000021607 -0.194999992847 54.0
4.91099977493 -0.019999999553 -0.195999994874 58.0
4.92999982834 -0.0480000004172 -0.195999994874 54.0
4.90299987793 -0.0759999975562 -0.194999992847 54.0
0.976000010967 -0.0579999983311 -0.0390000008047 225.0
0.916000008583 -0.0590000003576 -0.0370000004768 1357.0
0.917999982834 -0.0649999976158 -0.0370000004768 1737.0
0.915000021458 -0.070000000298 -0.0370000004768 1787.0
0.915000021458 -0.0750000029802 -0.0370000004768 1751.0
0.912999987602 -0.0799999982119 -0.0359999984503 1745.0
0.912000000477 -0.0850000008941 -0.0359999984503 1716.0
0.908999979496 -0.0900000035763 -0.0359999984503 1720.0
0.913999974728 -0.0960000008345 -0.0359999984503 1749.0
0.912000000477 -0.101000003517 -0.0359999984503 1740.0
0.90600001812 -0.105999998748 -0.0359999984503 1748.0
0.910000026226 -0.112000003457 -0.0359999984503 1744.0
0.910000026226 -0.116999998689 -0.0359999984503 1749.0
0.908999979496 -0.122000001371 -0.0359999984503 1705.0
0.907000005245 -0.127000004053 -0.0359999984503 1704.0
0.907999992371 -0.133000001311 -0.0359999984503 1707.0
0.903999984264 -0.136999994516 -0.0359999984503 1693.0
0.90600001812 -0.143000006676 -0.0359999984503 1738.0
0.901000022888 -0.146999999881 -0.0359999984503 1721.0
0.903999984264 -0.152999997139 -0.0359999984503 1744.0
0.903999984264 -0.158999994397 -0.0359999984503 1764.0
0.903999984264 -0.16400000453 -0.0359999984503 1683.0
0.899999976158 -0.168999999762 -0.0359999984503 1716.0
0.902000010014 -0.173999994993 -0.0359999984503 1740.0
0.898999989033 -0.179000005126 -0.0359999984503 1883.0
0.902000010014 -0.185000002384 -0.0359999984503 1879.0
0.898999989033 -0.189999997616 -0.0359999984503 1854.0
0.897000014782 -0.194999992847 -0.0359999984503 1855.0
0.893999993801 -0.20000000298 -0.0359999984503 1856.0
0.894999980927 -0.204999998212 -0.0359999984503 1849.0
0.897000014782 -0.211999997497 -0.0359999984503 1867.0
0.896000027657 -0.216999992728 -0.0359999984503 1867.0
0.89200001955 -0.221000000834 -0.0359999984503 1865.0
0.89200001955 -0.226999998093 -0.0359999984503 1892.0
0.889999985695 -0.231999993324 -0.0359999984503 1894.0
0.89200001955 -0.238000005484 -0.0359999984503 1874.0
0.889999985695 -0.243000000715 -0.0359999984503 1841.0
0.889999985695 -0.248999997973 -0.0359999984503 1806.0
0.889999985695 -0.254000008106 -0.0359999984503 1814.0
0.888999998569 -0.259999990463 -0.0359999984503 1799.0
0.883000016212 -0.263000011444 -0.0359999984503 1802.0
0.884999990463 -0.270000010729 -0.0359999984503 1819.0
0.884999990463 -0.27500000596 -0.0359999984503 1797.0
0.883000016212 -0.280000001192 -0.0359999984503 1758.0
0.880999982357 -0.286000013351 -0.0359999984503 1745.0
0.880999982357 -0.291000008583 -0.0359999984503 1756.0
0.884000003338 -0.298000007868 -0.0359999984503 1762.0
0.884000003338 -0.303999990225 -0.0359999984503 1724.0
0.882000029087 -0.308999985456 -0.0359999984503 1697.0
0.878000020981 -0.312999993563 -0.0359999984503 1799.0
0.878000020981 -0.319000005722 -0.0359999984503 1846.0
0.875999987125 -0.324000000954 -0.0359999984503 1849.0
0.878000020981 -0.331000000238 -0.0359999984503 1882.0
0.875 -0.33599999547 -0.0359999984503 1898.0
0.875 -0.342000007629 -0.0359999984503 1926.0
0.873000025749 -0.347000002861 -0.0359999984503 1887.0
0.871999979019 -0.352999985218 -0.0359999984503 1913.0
0.871999979019 -0.358999997377 -0.0359999984503 1912.0
0.870999991894 -0.365000009537 -0.0359999984503 1900.0
0.869000017643 -0.370000004768 -0.0359999984503 1859.0
0.873000025749 -0.377999991179 -0.0359999984503 1847.0
0.865999996662 -0.381000012159 -0.0359999984503 1868.0
0.870000004768 -0.388999998569 -0.0359999984503 1889.0
0.866999983788 -0.393999993801 -0.0359999984503 1841.0
0.866999983788 -0.400999993086 -0.0359999984503 1836.0
0.865000009537 -0.405999988317 -0.0359999984503 1842.0
0.866999983788 -0.41400000453 -0.0359999984503 1797.0
0.862999975681 -0.418000012636 -0.0359999984503 1854.0
0.860000014305 -0.423000007868 -0.0359999984503 1837.0
0.85799998045 -0.428999990225 -0.0359999984503 1854.0
0.856000006199 -0.433999985456 -0.0359999984503 1850.0
0.85799998045 -0.442000001669 -0.0359999984503 1813.0
0.85799998045 -0.449000000954 -0.0359999984503 1795.0
0.85799998045 -0.456000000238 -0.0359999984503 1790.0
0.855000019073 -0.460000008345 -0.0359999984503 1830.0
0.85799998045 -0.469000011683 -0.0359999984503 1809.0
0.855000019073 -0.474000006914 -0.0359999984503 1812.0
2.01300001144 1.15499997139 -0.109999999404 96.0
2.03200006485 1.14800000191 -0.109999999404 142.0
2.04200005531 1.13800001144 -0.109999999404 233.0
2.0720000267 1.13800001144 -0.112000003457 272.0
2.05999994278 1.11399996281 -0.109999999404 277.0
2.0569999218 1.09599995613 -0.109999999404 270.0
2.09299993515 1.09899997711 -0.112000003457 145.0
2.125 1.09899997711 -0.112999998033 121.0
2.18000006676 1.11099994183 -0.115000002086 228.0
2.18000006676 1.09399998188 -0.115000002086 339.0
2.22199988365 1.09800004959 -0.116999998689 166.0
2.28800010681 1.11300003529 -0.119999997318 82.0
3.26799988747 1.19400000572 -0.163000002503 110.0
3.39599990845 1.21800005436 -0.168999999762 81.0
3.56200003624 1.2539999485 -0.177000001073 69.0
3.70499992371 1.27900004387 -0.182999998331 79.0
3.73900008202 1.26600003242 -0.185000002384 112.0
3.72099995613 1.23599994183 -0.182999998331 116.0
3.80999994278 1.24000000954 -0.187000006437 89.0
3.83899998665 1.22500002384 -0.187999993563 122.0
3.93099999428 1.22899997234 -0.193000003695 118.0
4.10300016403 1.25600004196 -0.20000000298 123.0
4.12900018692 1.23699998856 -0.201000005007 138.0
4.04199981689 1.18499994278 -0.196999996901 130.0
4.04500007629 1.16100001335 -0.195999994874 130.0
4.14300012589 1.16199994087 -0.201000005007 125.0
4.10400009155 1.12600004673 -0.199000000954 115.0
4.10400009155 1.10000002384 -0.197999998927 128.0
4.06500005722 1.06400001049 -0.195999994874 132.0
4.09200000763 1.04600000381 -0.196999996901 128.0
4.07899999619 1.01699995995 -0.195999994874 131.0
4.08300018311 0.992999970913 -0.195999994874 125.0
4.07299995422 0.964999973774 -0.194999992847 132.0
4.08400011063 0.941999971867 -0.194999992847 136.0
4.11199998856 0.924000024796 -0.195999994874 139.0
4.09200000763 0.893999993801 -0.194999992847 133.0
4.12200021744 0.875999987125 -0.195999994874 134.0
4.08300018311 0.842999994755 -0.194000005722 122.0
4.10400009155 0.822000026703 -0.194000005722 125.0
4.08900022507 0.794000029564 -0.193000003695 137.0
4.07499980927 0.76700001955 -0.192000001669 134.0
4.0720000267 0.741999983788 -0.192000001669 135.0
4.15100002289 0.731999993324 -0.194999992847 141.0
4.07600021362 0.694000005722 -0.192000001669 112.0
4.07000017166 0.669000029564 -0.190999999642 129.0
4.09200000763 0.648000001907 -0.192000001669 127.0
4.20100021362 0.64099997282 -0.196999996901 94.0
4.57800006866 0.671000003815 -0.21400000155 66.0
4.65500020981 0.65499997139 -0.216999992728 69.0
4.57899999619 0.616999983788 -0.21400000155 85.0
4.59600019455 0.592000007629 -0.21400000155 67.0
4.61999988556 0.568000018597 -0.215000003576 67.0
4.60300016403 0.540000021458 -0.21400000155 70.0
4.63800001144 0.51599997282 -0.215000003576 67.0
4.68499994278 0.493999987841 -0.216999992728 64.0
4.65600013733 0.463999986649 -0.216000005603 66.0
4.68800020218 0.439999997616 -0.216999992728 73.0
4.73500013351 0.416999995708 -0.218999996781 64.0
4.71000003815 0.386999994516 -0.216999992728 63.0
4.66900014877 0.356999993324 -0.215000003576 62.0
4.73500013351 0.335000008345 -0.217999994755 68.0
4.76599979401 0.308999985456 -0.218999996781 62.0
4.76900005341 0.282000005245 -0.218999996781 62.0
4.77699995041 0.254999995232 -0.219999998808 63.0
4.80399990082 0.228000000119 -0.221000000834 63.0
4.80800008774 0.201000005007 -0.221000000834 64.0
4.77699995041 0.172000005841 -0.218999996781 62.0
4.72100019455 0.143000006676 -0.216000005603 62.0
4.77799987793 0.116999998689 -0.218999996781 61.0
4.86999988556 0.0909999981523 -0.223000004888 58.0
4.8029999733 0.0619999989867 -0.219999998808 57.0
4.91699981689 0.0359999984503 -0.22499999404 54.0
4.80800008774 0.00700000021607 -0.219999998808 54.0
4.90899991989 -0.019999999553 -0.224000006914 54.0
4.96400022507 -0.0489999987185 -0.225999996066 52.0
4.96500015259 -0.0769999995828 -0.225999996066 50.0
0.915000021458 -0.0590000003576 -0.0419999994338 1401.0
0.913999974728 -0.0640000030398 -0.0419999994338 1760.0
0.912999987602 -0.070000000298 -0.0419999994338 1845.0
0.913999974728 -0.0750000029802 -0.0419999994338 1807.0
0.911000013351 -0.0799999982119 -0.0419999994338 1760.0
0.912999987602 -0.0860000029206 -0.0419999994338 1738.0
0.913999974728 -0.0909999981523 -0.0419999994338 1679.0
0.911000013351 -0.0960000008345 -0.0419999994338 1793.0
0.908999979496 -0.101000003517 -0.0419999994338 1767.0
0.90600001812 -0.105999998748 -0.0410000011325 1747.0
0.911000013351 -0.112000003457 -0.0419999994338 1780.0
0.907999992371 -0.116999998689 -0.0410000011325 1770.0
0.903999984264 -0.120999999344 -0.0410000011325 1763.0
0.907000005245 -0.127000004053 -0.0410000011325 1756.0
0.908999979496 -0.133000001311 -0.0419999994338 1758.0
0.901000022888 -0.136999994516 -0.0410000011325 1778.0
0.90499997139 -0.143000006676 -0.0410000011325 1810.0
0.902000010014 -0.148000001907 -0.0410000011325 1754.0
0.899999976158 -0.152999997139 -0.0410000011325 1760.0
0.902999997139 -0.158999994397 -0.0410000011325 1805.0
0.903999984264 -0.16400000453 -0.0410000011325 1752.0
0.90499997139 -0.170000001788 -0.0410000011325 1720.0
0.894999980927 -0.172999992967 -0.0410000011325 1722.0
0.898999989033 -0.179000005126 -0.0410000011325 1874.0
0.898999989033 -0.185000002384 -0.0410000011325 1920.0
0.894999980927 -0.188999995589 -0.0410000011325 1861.0
0.897000014782 -0.194999992847 -0.0410000011325 1839.0
0.897000014782 -0.201000005007 -0.0410000011325 1885.0
0.894999980927 -0.206000000238 -0.0410000011325 1795.0
0.898000001907 -0.211999997497 -0.0410000011325 1820.0
0.897000014782 -0.216999992728 -0.0410000011325 1907.0
0.893000006676 -0.222000002861 -0.0410000011325 1823.0
0.89200001955 -0.226999998093 -0.0410000011325 1853.0
0.893000006676 -0.232999995351 -0.0410000011325 1856.0
0.89200001955 -0.238000005484 -0.0410000011325 1781.0
0.884999990463 -0.241999998689 -0.0410000011325 1816.0
0.893000006676 -0.25 -0.0410000011325 1807.0
0.888000011444 -0.254000008106 -0.0410000011325 1832.0
0.884999990463 -0.25799998641 -0.0410000011325 1824.0
0.884999990463 -0.263999998569 -0.0410000011325 1831.0
0.883000016212 -0.268999993801 -0.0410000011325 1826.0
0.880999982357 -0.273999989033 -0.0410000011325 1793.0
0.884999990463 -0.280999988317 -0.0410000011325 1751.0
0.880999982357 -0.286000013351 -0.0410000011325 1776.0
0.884999990463 -0.293000012636 -0.0410000011325 1775.0
0.879999995232 -0.29699999094 -0.0410000011325 1752.0
0.878000020981 -0.301999986172 -0.0410000011325 1729.0
0.879000008106 -0.307999998331 -0.0410000011325 1732.0
0.878000020981 -0.31400001049 -0.0410000011325 1790.0
0.878000020981 -0.319000005722 -0.0410000011325 1851.0
0.871999979019 -0.323000013828 -0.0410000011325 1862.0
0.876999974251 -0.331000000238 -0.0410000011325 1888.0
0.875999987125 -0.337000012398 -0.0410000011325 1899.0
0.875999987125 -0.342000007629 -0.0410000011325 1903.0
0.875 -0.347999989986 -0.0410000011325 1956.0
0.871999979019 -0.352999985218 -0.0410000011325 1924.0
0.870999991894 -0.358999997377 -0.0410000011325 1906.0
0.874000012875 -0.365999996662 -0.0410000011325 1951.0
0.874000012875 -0.372000008821 -0.0410000011325 1933.0
0.865999996662 -0.375 -0.0410000011325 1857.0
0.865000009537 -0.381000012159 -0.0410000011325 1885.0
0.865999996662 -0.388000011444 -0.0410000011325 1916.0
0.864000022411 -0.393000006676 -0.0410000011325 1844.0
0.865999996662 -0.40000000596 -0.0410000011325 1848.0
0.865999996662 -0.407000005245 -0.0410000011325 1840.0
0.861999988556 -0.411000013351 -0.0410000011325 1832.0
0.861999988556 -0.418000012636 -0.0410000011325 1860.0
0.860000014305 -0.423000007868 -0.0410000011325 1834.0
0.865000009537 -0.432000011206 -0.0419999994338 1842.0
0.861999988556 -0.437999993563 -0.0419999994338 1851.0
0.85900002718 -0.442999988794 -0.0419999994338 1803.0
0.856000006199 -0.448000013828 -0.0410000011325 1791.0
0.855000019073 -0.453999996185 -0.0419999994338 1840.0
0.852999985218 -0.460000008345 -0.0419999994338 1857.0
0.856000006199 -0.467999994755 -0.0419999994338 1836.0
0.852999985218 -0.472999989986 -0.0419999994338 1847.0
2.04600000381 1.1740000248 -0.125 116.0
2.07399988174 1.17299997807 -0.126000002027 163.0
2.08100008965 1.15999996662 -0.126000002027 189.0
2.08400011063 1.14499998093 -0.126000002027 183.0
2.07299995422 1.12199997902 -0.125 196.0
2.06699991226 1.10199999809 -0.123999997973 184.0
2.09500002861 1.10000002384 -0.125 131.0
2.06100010872 1.06599998474 -0.123000003397 92.0
2.1970000267 1.12000000477 -0.129999995232 153.0
2.20000004768 1.10399997234 -0.129999995232 247.0
2.23900008202 1.10599994659 -0.131999999285 117.0
2.31699991226 1.12699997425 -0.136000007391 73.0
3.01300001144 1.1629999876 -0.170000001788 79.0
3.22600007057 1.17900002003 -0.180999994278 100.0
3.32299995422 1.19200003147 -0.186000004411 79.0
3.44099998474 1.2120000124 -0.192000001669 70.0
3.69499993324 1.27600002289 -0.204999998212 59.0
3.72799992561 1.26300001144 -0.207000002265 109.0
3.78600001335 1.25800001621 -0.209999993443 108.0
3.8789999485 1.26300001144 -0.21400000155 81.0
3.8789999485 1.23800003529 -0.21400000155 114.0
3.9960000515 1.24899995327 -0.219999998808 115.0
4.06199979782 1.24399995804 -0.223000004888 113.0
4.07399988174 1.22099995613 -0.223000004888 132.0
4.08699989319 1.19900000095 -0.223000004888 127.0
4.08599996567 1.17299997807 -0.223000004888 125.0
4.10300016403 1.15100002289 -0.223000004888 127.0
4.11000013351 1.12699997425 -0.223000004888 111.0
4.09899997711 1.09899997711 -0.222000002861 129.0
4.09299993515 1.07099997997 -0.222000002861 123.0
4.12099981308 1.0529999733 -0.223000004888 125.0
4.13100004196 1.02999997139 -0.223000004888 131.0
4.10099983215 0.996999979019 -0.221000000834 128.0
4.08599996567 0.967999994755 -0.219999998808 123.0
4.11299991608 0.949000000954 -0.221000000834 133.0
4.11199998856 0.924000024796 -0.219999998808 127.0
4.13000011444 0.902999997139 -0.221000000834 129.0
4.13399982452 0.878000020981 -0.221000000834 133.0
4.12599992752 0.851999998093 -0.219999998808 119.0
4.07600021362 0.816999971867 -0.216999992728 125.0
4.09800004959 0.796000003815 -0.217999994755 134.0
4.12200021744 0.776000022888 -0.218999996781 130.0
4.10599994659 0.748000025749 -0.217999994755 141.0
4.09499979019 0.722000002861 -0.216999992728 131.0
4.07100009918 0.694000005722 -0.215000003576 118.0
4.06599998474 0.667999982834 -0.215000003576 122.0
4.08500003815 0.647000014782 -0.215000003576 120.0
4.25500011444 0.648999989033 -0.224000006914 92.0
4.54500007629 0.666000008583 -0.238999992609 65.0
4.60799980164 0.648000001907 -0.241999998689 76.0
4.55000019073 0.612999975681 -0.238999992609 74.0
4.65899991989 0.601000010967 -0.244000002742 79.0
4.625 0.569000005722 -0.241999998689 67.0
4.67000007629 0.54699999094 -0.244000002742 63.0
4.70300006866 0.523999989033 -0.246000006795 64.0
4.64300012589 0.490000009537 -0.241999998689 75.0
4.6810002327 0.467000007629 -0.244000002742 69.0
4.64099979401 0.43599998951 -0.241999998689 68.0
4.63999986649 0.409000009298 -0.240999996662 65.0
4.6970000267 0.386000007391 -0.244000002742 64.0
4.71600008011 0.361000001431 -0.245000004768 66.0
4.70200014114 0.331999987364 -0.244000002742 61.0
4.66499996185 0.303000003099 -0.241999998689 68.0
4.70900011063 0.277999997139 -0.244000002742 59.0
4.76800012589 0.254000008106 -0.24699999392 56.0
4.74700021744 0.225999996066 -0.245000004768 59.0
4.72900009155 0.196999996901 -0.244000002742 62.0
4.757999897 0.171000003815 -0.246000006795 62.0
4.83599996567 0.145999997854 -0.25 63.0
4.77600002289 0.116999998689 -0.246000006795 62.0
4.78100013733 0.0890000015497 -0.246000006795 57.0
4.79099988937 0.0619999989867 -0.24699999392 58.0
4.83099985123 0.035000000149 -0.248999997973 55.0
4.84600019455 0.00700000021607 -0.248999997973 52.0
4.93699979782 -0.019999999553 -0.254000008106 55.0
4.90299987793 -0.0480000004172 -0.252000004053 50.0
4.99100017548 -0.0780000016093 -0.256000012159 51.0
0.95300000906 -0.0560000017285 -0.0489999987185 278.0
0.916999995708 -0.0590000003576 -0.0469999983907 1436.0
0.912999987602 -0.0640000030398 -0.0469999983907 1761.0
0.913999974728 -0.070000000298 -0.0469999983907 1866.0
0.912000000477 -0.0750000029802 -0.0469999983907 1878.0
0.916000008583 -0.0799999982119 -0.0469999983907 1831.0
0.916999995708 -0.0860000029206 -0.0469999983907 1777.0
0.916000008583 -0.0909999981523 -0.0469999983907 1673.0
0.910000026226 -0.0960000008345 -0.0469999983907 1755.0
0.907999992371 -0.101000003517 -0.0469999983907 1767.0
0.908999979496 -0.105999998748 -0.0469999983907 1779.0
0.907000005245 -0.111000001431 -0.0469999983907 1821.0
0.90600001812 -0.115999996662 -0.0469999983907 1788.0
0.90600001812 -0.122000001371 -0.0469999983907 1770.0
0.912000000477 -0.12800000608 -0.0469999983907 1763.0
0.903999984264 -0.131999999285 -0.0469999983907 1794.0
0.90600001812 -0.137999996543 -0.0469999983907 1819.0
0.907999992371 -0.143000006676 -0.0469999983907 1825.0
0.90499997139 -0.148000001907 -0.0469999983907 1729.0
0.899999976158 -0.152999997139 -0.0460000000894 1788.0
0.897000014782 -0.158000007272 -0.0460000000894 1822.0
0.898000001907 -0.163000002503 -0.0460000000894 1808.0
0.901000022888 -0.168999999762 -0.0460000000894 1790.0
0.901000022888 -0.173999994993 -0.0460000000894 1744.0
0.901000022888 -0.180000007153 -0.0469999983907 1867.0
0.898999989033 -0.185000002384 -0.0460000000894 1947.0
0.901000022888 -0.190999999642 -0.0469999983907 1885.0
0.898000001907 -0.194999992847 -0.0460000000894 1821.0
0.894999980927 -0.20000000298 -0.0460000000894 1864.0
0.893999993801 -0.206000000238 -0.0460000000894 1862.0
0.896000027657 -0.21099999547 -0.0460000000894 1795.0
0.893000006676 -0.216000005603 -0.0460000000894 1829.0
0.896000027657 -0.222000002861 -0.0460000000894 1750.0
0.889999985695 -0.226999998093 -0.0460000000894 1761.0
0.888999998569 -0.231999993324 -0.0460000000894 1811.0
0.897000014782 -0.238999992609 -0.0469999983907 1816.0
0.889999985695 -0.243000000715 -0.0460000000894 1830.0
0.888999998569 -0.247999995947 -0.0460000000894 1886.0
0.887000024319 -0.254000008106 -0.0460000000894 1830.0
0.889999985695 -0.259999990463 -0.0460000000894 1820.0
0.884999990463 -0.263999998569 -0.0460000000894 1801.0
0.884999990463 -0.270000010729 -0.0460000000894 1854.0
0.884000003338 -0.27500000596 -0.0460000000894 1870.0
0.882000029087 -0.280000001192 -0.0460000000894 1809.0
0.887000024319 -0.287999987602 -0.0460000000894 1772.0
0.876999974251 -0.289999991655 -0.0460000000894 1749.0
0.879999995232 -0.29699999094 -0.0460000000894 1791.0
0.884000003338 -0.303999990225 -0.0460000000894 1754.0
0.875 -0.307000011206 -0.0460000000894 1783.0
0.879999995232 -0.314999997616 -0.0460000000894 1838.0
0.878000020981 -0.319999992847 -0.0460000000894 1883.0
0.875 -0.324000000954 -0.0460000000894 1901.0
0.875 -0.330000013113 -0.0460000000894 1911.0
0.874000012875 -0.33599999547 -0.0460000000894 1927.0
0.880999982357 -0.344999998808 -0.0469999983907 1905.0
0.878000020981 -0.34999999404 -0.0469999983907 1961.0
0.870000004768 -0.351999998093 -0.0460000000894 1929.0
0.870999991894 -0.358999997377 -0.0460000000894 1915.0
0.870000004768 -0.363999992609 -0.0460000000894 1973.0
0.866999983788 -0.368999987841 -0.0460000000894 1951.0
0.865999996662 -0.375 -0.0460000000894 1881.0
0.870000004768 -0.38299998641 -0.0469999983907 1864.0
0.866999983788 -0.388000011444 -0.0469999983907 1904.0
0.866999983788 -0.393999993801 -0.0469999983907 1805.0
0.866999983788 -0.400999993086 -0.0469999983907 1833.0
0.864000022411 -0.405999988317 -0.0469999983907 1838.0
0.865000009537 -0.412999987602 -0.0469999983907 1869.0
0.866999983788 -0.419999986887 -0.0469999983907 1864.0
0.865000009537 -0.425999999046 -0.0469999983907 1833.0
0.861000001431 -0.430999994278 -0.0469999983907 1835.0
0.860000014305 -0.43599998951 -0.0469999983907 1828.0
0.856000006199 -0.441000014544 -0.0469999983907 1789.0
0.856999993324 -0.448000013828 -0.0469999983907 1865.0
0.852999985218 -0.45300000906 -0.0469999983907 1914.0
0.855000019073 -0.46099999547 -0.0469999983907 1896.0
0.855000019073 -0.467999994755 -0.0469999983907 1856.0
0.855000019073 -0.47499999404 -0.0469999983907 1923.0
1.63199996948 0.93599998951 -0.109999999404 152.0
1.72399997711 0.975000023842 -0.115999996662 149.0
1.84399998188 1.02799999714 -0.123999997973 127.0
1.91499996185 1.05200004578 -0.12800000608 141.0
1.9620000124 1.06200003624 -0.130999997258 137.0
1.98099994659 1.05700004101 -0.130999997258 136.0
2.02399992943 1.04799997807 -0.133000001311 71.0
2.14599990845 1.09399998188 -0.141000002623 115.0
2.17899990082 1.09399998188 -0.143000006676 176.0
2.21199989319 1.09300005436 -0.143999993801 87.0
3.14499998093 1.14999997616 -0.194999992847 71.0
3.53800010681 1.2460000515 -0.218999996781 59.0
3.79600000381 1.28600001335 -0.233999997377 94.0
3.78299999237 1.25699996948 -0.231999993324 73.0
3.87400007248 1.26199996471 -0.237000003457 69.0
3.8789999485 1.23800003529 -0.237000003457 85.0
3.97799992561 1.24399995804 -0.243000000715 78.0
4.12699985504 1.26400005817 -0.250999987125 84.0
4.20499992371 1.26100003719 -0.254999995232 102.0
4.1859998703 1.22800004482 -0.254000008106 97.0
4.10500001907 1.1779999733 -0.247999995947 100.0
4.13000011444 1.1590000391 -0.248999997973 102.0
4.10500001907 1.12600004673 -0.24699999392 91.0
4.09899997711 1.09899997711 -0.24699999392 101.0
4.13199996948 1.08200001717 -0.247999995947 110.0
4.09700012207 1.04700005054 -0.246000006795 113.0
4.1139998436 1.02600002289 -0.246000006795 120.0
4.12799978256 1.0039999485 -0.24699999392 114.0
4.10200023651 0.972000002861 -0.245000004768 114.0
4.14699983597 0.957000017166 -0.24699999392 119.0
4.14699983597 0.931999981403 -0.24699999392 118.0
4.12699985504 0.902000010014 -0.245000004768 124.0
4.11800003052 0.875 -0.244000002742 118.0
4.07899999619 0.842000007629 -0.241999998689 113.0
4.06699991226 0.814999997616 -0.239999994636 124.0
4.10900020599 0.799000024796 -0.243000000715 118.0
4.12300014496 0.776000022888 -0.243000000715 130.0
4.13000011444 0.753000020981 -0.243000000715 128.0
4.13500022888 0.728999972343 -0.243000000715 124.0
4.08799982071 0.695999979973 -0.239999994636 119.0
4.11800003052 0.676999986172 -0.241999998689 117.0
4.10099983215 0.649999976158 -0.239999994636 115.0
4.22599983215 0.644999980927 -0.24699999392 89.0
4.61999988556 0.676999986172 -0.270000010729 61.0
4.6360001564 0.652000010014 -0.270999997854 73.0
4.57999992371 0.616999983788 -0.266999989748 80.0
4.61100006104 0.59500002861 -0.268999993801 69.0
4.59299993515 0.564999997616 -0.266999989748 68.0
4.65700006485 0.546000003815 -0.270999997854 66.0
4.67299985886 0.519999980927 -0.270999997854 64.0
4.70100021362 0.495999991894 -0.273000001907 69.0
4.65299987793 0.463999986649 -0.270000010729 66.0
4.61100006104 0.432999998331 -0.266999989748 64.0
4.68699979782 0.412999987602 -0.270999997854 65.0
4.7610001564 0.391999989748 -0.27500000596 71.0
4.71299982071 0.360000014305 -0.272000014782 60.0
4.73500013351 0.333999991417 -0.273000001907 61.0
4.78599977493 0.310000002384 -0.275999993086 66.0
4.75299978256 0.280999988317 -0.273999989033 65.0
4.7389998436 0.252999991179 -0.273000001907 61.0
4.78100013733 0.226999998093 -0.27500000596 61.0
4.80399990082 0.201000005007 -0.275999993086 53.0
4.8189997673 0.172999992967 -0.277000010014 57.0
4.73299980164 0.143000006676 -0.272000014782 60.0
4.82299995422 0.118000000715 -0.277000010014 61.0
4.82700014114 0.0900000035763 -0.277000010014 61.0
4.86800003052 0.0630000010133 -0.279000014067 53.0
4.87099981308 0.035000000149 -0.279000014067 60.0
4.89300012589 0.00700000021607 -0.280000001192 56.0
4.91099977493 -0.019999999553 -0.280999988317 60.0
4.91400003433 -0.0489999987185 -0.280999988317 55.0
4.74499988556 -0.0740000009537 -0.270999997854 47.0
0.915000021458 -0.0590000003576 -0.0520000010729 1450.0
0.916999995708 -0.0649999976158 -0.0529999993742 1753.0
0.912000000477 -0.070000000298 -0.0520000010729 1842.0
0.911000013351 -0.0750000029802 -0.0520000010729 1887.0
0.910000026226 -0.0799999982119 -0.0520000010729 1848.0
0.908999979496 -0.0850000008941 -0.0520000010729 1803.0
0.911000013351 -0.0909999981523 -0.0520000010729 1681.0
0.908999979496 -0.0960000008345 -0.0520000010729 1775.0
0.908999979496 -0.101000003517 -0.0520000010729 1817.0
0.903999984264 -0.105999998748 -0.0520000010729 1796.0
0.902999997139 -0.111000001431 -0.0520000010729 1836.0
0.90499997139 -0.115999996662 -0.0520000010729 1785.0
0.90600001812 -0.122000001371 -0.0520000010729 1761.0
0.902999997139 -0.127000004053 -0.0520000010729 1756.0
0.910000026226 -0.133000001311 -0.0520000010729 1835.0
0.90499997139 -0.137999996543 -0.0520000010729 1824.0
0.901000022888 -0.142000004649 -0.0520000010729 1816.0
0.903999984264 -0.148000001907 -0.0520000010729 1783.0
0.901000022888 -0.152999997139 -0.0520000010729 1793.0
0.902999997139 -0.158999994397 -0.0520000010729 1845.0
0.899999976158 -0.163000002503 -0.0520000010729 1817.0
0.901000022888 -0.168999999762 -0.0520000010729 1835.0
0.902000010014 -0.17499999702 -0.0520000010729 1746.0
0.898999989033 -0.180000007153 -0.0520000010729 1809.0
0.899999976158 -0.185000002384 -0.0520000010729 1862.0
0.893999993801 -0.188999995589 -0.0509999990463 1931.0
0.896000027657 -0.194999992847 -0.0520000010729 1875.0
0.893999993801 -0.20000000298 -0.0509999990463 1854.0
0.893999993801 -0.204999998212 -0.0520000010729 1871.0
0.897000014782 -0.211999997497 -0.0520000010729 1848.0
0.89099997282 -0.216000005603 -0.0509999990463 1791.0
0.893000006676 -0.222000002861 -0.0520000010729 1755.0
0.888000011444 -0.225999996066 -0.0509999990463 1771.0
0.889999985695 -0.231999993324 -0.0509999990463 1871.0
0.888999998569 -0.237000003457 -0.0509999990463 1851.0
0.887000024319 -0.241999998689 -0.0509999990463 1845.0
0.889999985695 -0.248999997973 -0.0520000010729 1903.0
0.888999998569 -0.254000008106 -0.0520000010729 1875.0
0.884000003338 -0.25799998641 -0.0509999990463 1854.0
0.884000003338 -0.263999998569 -0.0509999990463 1803.0
0.882000029087 -0.268999993801 -0.0509999990463 1868.0
0.882000029087 -0.27500000596 -0.0509999990463 1896.0
0.887000024319 -0.282000005245 -0.0520000010729 1850.0
0.885999977589 -0.287000000477 -0.0520000010729 1791.0
0.875999987125 -0.289999991655 -0.0509999990463 1790.0
0.884000003338 -0.298000007868 -0.0520000010729 1835.0
0.876999974251 -0.301999986172 -0.0509999990463 1859.0
0.882000029087 -0.308999985456 -0.0520000010729 1838.0
0.875999987125 -0.312999993563 -0.0509999990463 1865.0
0.874000012875 -0.317999988794 -0.0509999990463 1861.0
0.882000029087 -0.326999992132 -0.0520000010729 1924.0
0.873000025749 -0.330000013113 -0.0520000010729 1920.0
0.875999987125 -0.337000012398 -0.0520000010729 1948.0
0.870999991894 -0.340999990702 -0.0520000010729 1906.0
0.873000025749 -0.347000002861 -0.0520000010729 1980.0
0.870999991894 -0.352999985218 -0.0520000010729 1969.0
0.867999970913 -0.358000010252 -0.0520000010729 1948.0
0.867999970913 -0.363999992609 -0.0520000010729 1984.0
0.867999970913 -0.370000004768 -0.0520000010729 1940.0
0.867999970913 -0.375999987125 -0.0520000010729 1906.0
0.866999983788 -0.381999999285 -0.0520000010729 1850.0
0.865000009537 -0.388000011444 -0.0520000010729 1831.0
0.865999996662 -0.393999993801 -0.0520000010729 1775.0
0.865000009537 -0.40000000596 -0.0520000010729 1785.0
0.864000022411 -0.405999988317 -0.0520000010729 1810.0
0.861999988556 -0.412000000477 -0.0520000010729 1868.0
0.865999996662 -0.419999986887 -0.0520000010729 1847.0
0.856000006199 -0.421000003815 -0.0520000010729 1853.0
0.85799998045 -0.428999990225 -0.0520000010729 1849.0
0.860000014305 -0.437000006437 -0.0520000010729 1817.0
0.861000001431 -0.444000005722 -0.0529999993742 1834.0
0.856999993324 -0.449000000954 -0.0529999993742 1877.0
0.852999985218 -0.45300000906 -0.0520000010729 1920.0
0.853999972343 -0.46099999547 -0.0529999993742 1921.0
0.855000019073 -0.467999994755 -0.0529999993742 1872.0
0.852999985218 -0.474000006914 -0.0529999993742 1906.0
0.911000013351 0.522000014782 -0.0680000036955 641.0
0.90600001812 0.512000024319 -0.0670000016689 613.0
0.919000029564 0.512000024319 -0.0680000036955 562.0
0.935000002384 0.513000011444 -0.0689999982715 511.0
0.948000013828 0.513000011444 -0.0689999982715 449.0
0.995000004768 0.52999997139 -0.0729999989271 384.0
0.981000006199 0.514999985695 -0.0710000023246 323.0
0.98400002718 0.509000003338 -0.0710000023246 283.0
1.06299996376 0.541999995708 -0.0769999995828 230.0
1.2460000515 0.625999987125 -0.0900000035763 206.0
1.07299995422 0.52999997139 -0.0769999995828 205.0
3.20700001717 1.17299997807 -0.218999996781 61.0
3.76099991798 1.27499997616 -0.254000008106 64.0
3.91899991035 1.30200004578 -0.263999998569 67.0
3.97300004959 1.26900005341 -0.266999989748 68.0
4.10900020599 1.28499996662 -0.27500000596 70.0
4.08400011063 1.25100004673 -0.273000001907 79.0
4.22599983215 1.26699995995 -0.282000005245 77.0
4.20399999619 1.23399996758 -0.280000001192 76.0
4.24399995804 1.21800005436 -0.282000005245 78.0
4.24100017548 1.19000005722 -0.280999988317 71.0
4.21700000763 1.15699994564 -0.279000014067 71.0
4.26399993896 1.14300000668 -0.282000005245 78.0
4.23000001907 1.10800004005 -0.279000014067 72.0
4.24399995804 1.08500003815 -0.280000001192 79.0
4.24100017548 1.05799996853 -0.279000014067 78.0
4.24399995804 1.03199994564 -0.279000014067 75.0
4.11499977112 0.975000023842 -0.270000010729 77.0
4.16400003433 0.961000025272 -0.273000001907 81.0
4.20499992371 0.944999992847 -0.27500000596 85.0
4.21400022507 0.921000003815 -0.27500000596 82.0
4.19600009918 0.89200001955 -0.273999989033 87.0
4.22100019455 0.870999991894 -0.27500000596 82.0
4.15500020981 0.833000004292 -0.270000010729 86.0
4.15999984741 0.808000028133 -0.270000010729 94.0
4.15899991989 0.782999992371 -0.270000010729 92.0
4.14900016785 0.757000029087 -0.268999993801 98.0
4.15199995041 0.731999993324 -0.268000006676 97.0
4.12599992752 0.70300000906 -0.266000002623 93.0
4.21799993515 0.694000005722 -0.272000014782 101.0
4.1939997673 0.665000021458 -0.270000010729 98.0
4.23500013351 0.646000027657 -0.273000001907 75.0
4.57499980927 0.643999993801 -0.293999999762 63.0
4.65199995041 0.626999974251 -0.298000007868 69.0
4.67000007629 0.601999998093 -0.298999994993 68.0
4.60599994659 0.566999971867 -0.294999986887 63.0
4.62099981308 0.541999995708 -0.294999986887 63.0
4.72800016403 0.526000022888 -0.301999986172 62.0
4.63399982452 0.488999992609 -0.296000003815 68.0
4.67399978638 0.465999990702 -0.298000007868 65.0
4.67899990082 0.43900001049 -0.298000007868 63.0
4.67700004578 0.412000000477 -0.298000007868 63.0
4.71899986267 0.388000011444 -0.300000011921 67.0
4.71199989319 0.360000014305 -0.298999994993 63.0
4.74499988556 0.335000008345 -0.300999999046 68.0
4.72599983215 0.305999994278 -0.300000011921 55.0
4.73799991608 0.280000001192 -0.300000011921 60.0
4.84999990463 0.25799998641 -0.307000011206 61.0
4.757999897 0.225999996066 -0.300999999046 67.0
4.71700000763 0.196999996901 -0.298000007868 63.0
4.78399991989 0.172000005841 -0.301999986172 59.0
4.82499980927 0.145999997854 -0.305000007153 59.0
4.82899999619 0.118000000715 -0.305000007153 59.0
4.86999988556 0.0909999981523 -0.307000011206 59.0
4.82299995422 0.0619999989867 -0.303999990225 56.0
4.83599996567 0.035000000149 -0.305000007153 59.0
4.82700014114 0.00700000021607 -0.303999990225 56.0
4.89599990845 -0.019999999553 -0.307999998331 53.0
4.84600019455 -0.0480000004172 -0.305000007153 53.0
4.92299985886 -0.0769999995828 -0.310000002384 51.0
0.953999996185 -0.0570000000298 -0.0599999986589 326.0
0.913999974728 -0.0590000003576 -0.0579999983311 1444.0
0.912999987602 -0.0649999976158 -0.0579999983311 1722.0
0.916000008583 -0.070000000298 -0.0579999983311 1859.0
0.915000021458 -0.0750000029802 -0.0579999983311 1893.0
0.912999987602 -0.0799999982119 -0.0579999983311 1845.0
0.907000005245 -0.0850000008941 -0.0570000000298 1807.0
0.911000013351 -0.0909999981523 -0.0570000000298 1698.0
0.912999987602 -0.0960000008345 -0.0579999983311 1777.0
0.907999992371 -0.101000003517 -0.0570000000298 1841.0
0.910000026226 -0.107000000775 -0.0570000000298 1812.0
0.90499997139 -0.111000001431 -0.0570000000298 1854.0
0.907999992371 -0.116999998689 -0.0570000000298 1796.0
0.908999979496 -0.122000001371 -0.0570000000298 1776.0
0.90600001812 -0.127000004053 -0.0570000000298 1773.0
0.902999997139 -0.131999999285 -0.0570000000298 1852.0
0.90600001812 -0.137999996543 -0.0570000000298 1828.0
0.90499997139 -0.143000006676 -0.0570000000298 1832.0
0.902000010014 -0.148000001907 -0.0570000000298 1810.0
0.902999997139 -0.152999997139 -0.0570000000298 1826.0
0.901000022888 -0.158000007272 -0.0570000000298 1819.0
0.90499997139 -0.165000006557 -0.0570000000298 1808.0
0.894999980927 -0.167999997735 -0.0570000000298 1828.0
0.898000001907 -0.173999994993 -0.0570000000298 1769.0
0.902000010014 -0.180000007153 -0.0570000000298 1747.0
0.898000001907 -0.185000002384 -0.0570000000298 1828.0
0.89200001955 -0.188999995589 -0.0570000000298 1952.0
0.893999993801 -0.194999992847 -0.0570000000298 1890.0
0.893999993801 -0.20000000298 -0.0570000000298 1877.0
0.894999980927 -0.206000000238 -0.0570000000298 1898.0
0.889999985695 -0.209999993443 -0.0570000000298 1954.0
0.889999985695 -0.216000005603 -0.0570000000298 1842.0
0.89200001955 -0.222000002861 -0.0570000000298 1854.0
0.89200001955 -0.226999998093 -0.0570000000298 1832.0
0.889999985695 -0.231999993324 -0.0570000000298 1895.0
0.888999998569 -0.238000005484 -0.0570000000298 1881.0
0.889999985695 -0.243000000715 -0.0570000000298 1877.0
0.888000011444 -0.247999995947 -0.0570000000298 1888.0
0.884000003338 -0.252999991179 -0.0570000000298 1907.0
0.885999977589 -0.259000003338 -0.0570000000298 1864.0
0.884000003338 -0.263999998569 -0.0570000000298 1863.0
0.888999998569 -0.270999997854 -0.0570000000298 1888.0
0.883000016212 -0.27500000596 -0.0570000000298 1900.0
0.885999977589 -0.282000005245 -0.0570000000298 1890.0
0.884000003338 -0.287000000477 -0.0570000000298 1817.0
0.884999990463 -0.293000012636 -0.0570000000298 1842.0
0.880999982357 -0.29699999094 -0.0570000000298 1871.0
0.878000020981 -0.301999986172 -0.0570000000298 1904.0
0.882000029087 -0.308999985456 -0.0570000000298 1832.0
0.879000008106 -0.31400001049 -0.0570000000298 1835.0
0.875999987125 -0.319000005722 -0.0570000000298 1831.0
0.879000008106 -0.326000005007 -0.0570000000298 1906.0
0.875999987125 -0.331000000238 -0.0570000000298 1934.0
0.878000020981 -0.337999999523 -0.0570000000298 1927.0
0.869000017643 -0.340000003576 -0.0570000000298 1911.0
0.874000012875 -0.347999989986 -0.0570000000298 1954.0
0.870999991894 -0.352999985218 -0.0570000000298 1947.0
0.870000004768 -0.358999997377 -0.0570000000298 1977.0
0.869000017643 -0.365000009537 -0.0570000000298 1950.0
0.865999996662 -0.368999987841 -0.0570000000298 1881.0
0.862999975681 -0.374000012875 -0.0570000000298 1913.0
0.867999970913 -0.38299998641 -0.0570000000298 1893.0
0.866999983788 -0.388000011444 -0.0570000000298 1854.0
0.866999983788 -0.395000010729 -0.0579999983311 1773.0
0.870000004768 -0.402999997139 -0.0579999983311 1792.0
0.864000022411 -0.405999988317 -0.0579999983311 1873.0
0.861999988556 -0.412000000477 -0.0579999983311 1857.0
0.862999975681 -0.418000012636 -0.0579999983311 1789.0
0.856999993324 -0.42199999094 -0.0570000000298 1840.0
0.85799998045 -0.428999990225 -0.0579999983311 1835.0
0.851999998093 -0.432999998331 -0.0570000000298 1821.0
0.85799998045 -0.442000001669 -0.0579999983311 1819.0
0.856000006199 -0.448000013828 -0.0579999983311 1854.0
0.856999993324 -0.455000013113 -0.0579999983311 1899.0
0.855000019073 -0.46099999547 -0.0579999983311 1895.0
0.851999998093 -0.467000007629 -0.0579999983311 1905.0
0.851000010967 -0.472999989986 -0.0579999983311 1900.0
0.870999991894 0.5 -0.070000000298 983.0
0.879999995232 0.497000008821 -0.0710000023246 1002.0
0.875 0.486999988556 -0.070000000298 991.0
0.888000011444 0.488000005484 -0.0710000023246 989.0
0.878000020981 0.47499999404 -0.070000000298 957.0
0.884999990463 0.472000002861 -0.070000000298 939.0
0.884000003338 0.463999986649 -0.070000000298 922.0
0.878000020981 0.453999996185 -0.0689999982715 915.0
0.876999974251 0.446999996901 -0.0689999982715 885.0
0.888000011444 0.446000009775 -0.070000000298 846.0
0.887000024319 0.437999993563 -0.0689999982715 811.0
0.89099997282 0.432999998331 -0.0689999982715 748.0
0.883000016212 0.423000007868 -0.0689999982715 720.0
0.884000003338 0.416999995708 -0.0680000036955 693.0
0.887000024319 0.412000000477 -0.0680000036955 679.0
0.897000014782 0.409999996424 -0.0689999982715 609.0
0.89099997282 0.400999993086 -0.0680000036955 582.0
0.887000024319 0.391999989748 -0.0680000036955 541.0
0.89200001955 0.388000011444 -0.0680000036955 473.0
0.907999992371 0.388999998569 -0.0689999982715 413.0
0.887000024319 0.372999995947 -0.0670000016689 359.0
0.902000010014 0.372999995947 -0.0680000036955 313.0
0.902000010014 0.36700001359 -0.0680000036955 271.0
0.897000014782 0.358999997377 -0.0680000036955 403.0
0.89099997282 0.34999999404 -0.0670000016689 312.0
3.94899988174 1.33899998665 -0.291000008583 63.0
3.75999999046 1.25 -0.275999993086 61.0
4.00199985504 1.30400002003 -0.293000012636 57.0
3.91100001335 1.24899995327 -0.286000013351 73.0
4.07499980927 1.27499997616 -0.298000007868 67.0
4.19299983978 1.28499996662 -0.305999994278 71.0
4.22499990463 1.26699995995 -0.307000011206 75.0
4.23600006104 1.24300003052 -0.307999998331 69.0
4.30999994278 1.23800003529 -0.312000006437 75.0
4.24700021744 1.19299995899 -0.307000011206 71.0
4.32100009918 1.18599998951 -0.312000006437 62.0
4.29400014877 1.15199995041 -0.310000002384 73.0
4.21500015259 1.10399997234 -0.303000003099 73.0
4.26700019836 1.0909999609 -0.307000011206 70.0
4.24300003052 1.05799996853 -0.303999990225 70.0
4.24300003052 1.03199994564 -0.303999990225 70.0
4.20599985123 0.996999979019 -0.300999999046 69.0
4.23299980164 0.976999998093 -0.301999986172 64.0
4.21299982071 0.947000026703 -0.300000011921 73.0
4.28200006485 0.93599998951 -0.305000007153 67.0
4.22900009155 0.898999989033 -0.300999999046 65.0
4.26300001144 0.879999995232 -0.303000003099 59.0
4.25600004196 0.852999985218 -0.301999986172 66.0
4.26300001144 0.828999996185 -0.301999986172 71.0
4.17199993134 0.786000013351 -0.294999986887 72.0
4.19799995422 0.76599997282 -0.296000003815 75.0
4.25500011444 0.75 -0.300000011921 77.0
4.25500011444 0.725000023842 -0.300000011921 65.0
4.26399993896 0.700999975204 -0.300000011921 70.0
4.22700023651 0.670000016689 -0.29699999094 70.0
4.35799980164 0.665000021458 -0.305999994278 68.0
4.70300006866 0.634000003338 -0.328999996185 53.0
4.6859998703 0.603999972343 -0.326999992132 54.0
4.757999897 0.586000025272 -0.331999987364 54.0
4.74700021744 0.555999994278 -0.331000000238 53.0
4.70200014114 0.523999989033 -0.32800000906 55.0
4.64900016785 0.490000009537 -0.324000000954 68.0
4.6890001297 0.467000007629 -0.326000005007 66.0
4.65299987793 0.437000006437 -0.323000013828 66.0
4.65199995041 0.409999996424 -0.323000013828 60.0
4.71000003815 0.386999994516 -0.326999992132 63.0
4.70499992371 0.360000014305 -0.326000005007 61.0
4.73400020599 0.333999991417 -0.32800000906 57.0
4.742000103 0.307000011206 -0.32800000906 62.0
4.75199985504 0.280999988317 -0.328999996185 63.0
4.80900001526 0.256000012159 -0.333000004292 63.0
4.8140001297 0.229000002146 -0.333000004292 60.0
4.77600002289 0.199000000954 -0.330000013113 65.0
4.75400018692 0.171000003815 -0.32800000906 61.0
4.79600000381 0.144999995828 -0.331000000238 62.0
4.85699987411 0.118000000715 -0.335000008345 58.0
4.86499977112 0.0909999981523 -0.335000008345 58.0
4.79099988937 0.0619999989867 -0.330000013113 62.0
4.882999897 0.035000000149 -0.33599999547 52.0
4.84499979019 0.00700000021607 -0.333000004292 54.0
4.9310002327 -0.0209999997169 -0.338999986649 53.0
4.84299993515 -0.0480000004172 -0.333000004292 57.0
0.912999987602 -0.0590000003576 -0.0630000010133 1487.0
0.912999987602 -0.0649999976158 -0.0630000010133 1750.0
0.916000008583 -0.070000000298 -0.0630000010133 1864.0
0.910000026226 -0.0750000029802 -0.0630000010133 1866.0
0.908999979496 -0.0799999982119 -0.0630000010133 1844.0
0.90600001812 -0.0850000008941 -0.0619999989867 1776.0
0.912000000477 -0.0909999981523 -0.0630000010133 1690.0
0.912000000477 -0.0960000008345 -0.0630000010133 1750.0
0.907000005245 -0.101000003517 -0.0619999989867 1863.0
0.90600001812 -0.105999998748 -0.0619999989867 1809.0
0.907999992371 -0.112000003457 -0.0630000010133 1850.0
0.908999979496 -0.116999998689 -0.0630000010133 1816.0
0.907999992371 -0.122000001371 -0.0630000010133 1768.0
0.908999979496 -0.12800000608 -0.0630000010133 1797.0
0.901000022888 -0.131999999285 -0.0619999989867 1855.0
0.902999997139 -0.137999996543 -0.0619999989867 1829.0
0.902000010014 -0.143000006676 -0.0619999989867 1838.0
0.902000010014 -0.148000001907 -0.0619999989867 1827.0
0.902000010014 -0.152999997139 -0.0619999989867 1812.0
0.899999976158 -0.158000007272 -0.0619999989867 1810.0
0.898000001907 -0.163000002503 -0.0619999989867 1776.0
0.897000014782 -0.167999997735 -0.0619999989867 1816.0
0.898999989033 -0.173999994993 -0.0619999989867 1825.0
0.898999989033 -0.180000007153 -0.0619999989867 1750.0
0.898999989033 -0.185000002384 -0.0619999989867 1834.0
0.899999976158 -0.190999999642 -0.0619999989867 1945.0
0.893999993801 -0.194999992847 -0.0619999989867 1961.0
0.89099997282 -0.20000000298 -0.0619999989867 1903.0
0.898000001907 -0.207000002265 -0.0619999989867 1943.0
0.89099997282 -0.209999993443 -0.0619999989867 2001.0
0.893999993801 -0.216999992728 -0.0619999989867 1965.0
0.889999985695 -0.221000000834 -0.0619999989867 1934.0
0.885999977589 -0.225999996066 -0.0619999989867 1857.0
0.887000024319 -0.231999993324 -0.0619999989867 1915.0
0.885999977589 -0.237000003457 -0.0619999989867 1980.0
0.889999985695 -0.243000000715 -0.0619999989867 1907.0
0.888000011444 -0.248999997973 -0.0619999989867 1880.0
0.882000029087 -0.252000004053 -0.0619999989867 1923.0
0.888000011444 -0.259999990463 -0.0619999989867 1865.0
0.879999995232 -0.263000011444 -0.0619999989867 1872.0
0.883000016212 -0.270000010729 -0.0619999989867 1914.0
0.883000016212 -0.27500000596 -0.0619999989867 1900.0
0.884000003338 -0.280999988317 -0.0619999989867 1924.0
0.879000008106 -0.284999996424 -0.0619999989867 1889.0
0.884999990463 -0.293000012636 -0.0619999989867 1895.0
0.879000008106 -0.29699999094 -0.0619999989867 1869.0
0.879000008106 -0.303000003099 -0.0619999989867 1888.0
0.880999982357 -0.308999985456 -0.0619999989867 1858.0
0.876999974251 -0.31400001049 -0.0619999989867 1827.0
0.878000020981 -0.319999992847 -0.0619999989867 1841.0
0.879999995232 -0.326999992132 -0.0630000010133 1920.0
0.873000025749 -0.330000013113 -0.0619999989867 1978.0
0.874000012875 -0.33599999547 -0.0619999989867 1959.0
0.873000025749 -0.342000007629 -0.0619999989867 1911.0
0.869000017643 -0.345999985933 -0.0619999989867 1947.0
0.867999970913 -0.351999998093 -0.0619999989867 1923.0
0.866999983788 -0.358000010252 -0.0619999989867 1953.0
0.870000004768 -0.365000009537 -0.0630000010133 1895.0
0.869000017643 -0.370999991894 -0.0630000010133 1835.0
0.870999991894 -0.377999991179 -0.0630000010133 1899.0
0.864000022411 -0.381000012159 -0.0619999989867 1910.0
0.864000022411 -0.386999994516 -0.0630000010133 1874.0
0.861999988556 -0.393000006676 -0.0630000010133 1822.0
0.865999996662 -0.400999993086 -0.0630000010133 1884.0
0.865000009537 -0.407000005245 -0.0630000010133 1933.0
0.861000001431 -0.411000013351 -0.0630000010133 1851.0
0.862999975681 -0.418999999762 -0.0630000010133 1798.0
0.860000014305 -0.423999994993 -0.0630000010133 1856.0
0.856999993324 -0.428999990225 -0.0630000010133 1841.0
0.85799998045 -0.43599998951 -0.0630000010133 1861.0
0.856999993324 -0.442000001669 -0.0630000010133 1875.0
0.856000006199 -0.449000000954 -0.0630000010133 1885.0
0.850000023842 -0.451999992132 -0.0630000010133 1894.0
0.855000019073 -0.46099999547 -0.0640000030398 1899.0
0.851000010967 -0.465999990702 -0.0640000030398 1928.0
0.855000019073 -0.47499999404 -0.0640000030398 1863.0
0.878000020981 0.504000008106 -0.0769999995828 1028.0
0.879000008106 0.497000008821 -0.0759999975562 1051.0
0.870999991894 0.485000014305 -0.0750000029802 1050.0
0.871999979019 0.479000002146 -0.0750000029802 1062.0
0.873000025749 0.472999989986 -0.0750000029802 1067.0
0.874000012875 0.465999990702 -0.0750000029802 1069.0
0.878000020981 0.46099999547 -0.0750000029802 1073.0
0.874000012875 0.451999992132 -0.0740000009537 1095.0
0.873000025749 0.444999992847 -0.0740000009537 1103.0
0.870999991894 0.437000006437 -0.0740000009537 1115.0
0.875 0.432999998331 -0.0740000009537 1102.0
0.874000012875 0.425999999046 -0.0740000009537 1110.0
0.871999979019 0.418000012636 -0.0729999989271 1103.0
0.871999979019 0.412000000477 -0.0729999989271 1135.0
0.875999987125 0.407000005245 -0.0729999989271 1109.0
0.875 0.40000000596 -0.0729999989271 1071.0
0.870000004768 0.391000002623 -0.0719999969006 1066.0
0.878000020981 0.388999998569 -0.0729999989271 1053.0
0.875 0.381000012159 -0.0719999969006 1028.0
0.876999974251 0.375999987125 -0.0719999969006 993.0
0.884000003338 0.372000008821 -0.0729999989271 975.0
0.878000020981 0.363999992609 -0.0719999969006 981.0
0.878000020981 0.356999993324 -0.0719999969006 977.0
0.878000020981 0.351000010967 -0.0719999969006 962.0
0.876999974251 0.344999998808 -0.0710000023246 904.0
0.876999974251 0.338999986649 -0.0710000023246 870.0
0.875999987125 0.331999987364 -0.0710000023246 838.0
0.882000029087 0.328999996185 -0.0710000023246 821.0
0.885999977589 0.324000000954 -0.0710000023246 758.0
0.893000006676 0.321000009775 -0.0719999969006 708.0
0.888999998569 0.312999993563 -0.0710000023246 677.0
0.887000024319 0.307000011206 -0.0710000023246 619.0
0.865000009537 0.293000012636 -0.0689999982715 543.0
0.879000008106 0.291999995708 -0.070000000298 478.0
0.876999974251 0.286000013351 -0.070000000298 414.0
0.84399998188 0.270000010729 -0.0670000016689 362.0
0.827000021935 0.259000003338 -0.0659999996424 318.0
0.799000024796 0.245000004768 -0.0630000010133 270.0
0.758000016212 0.226999998093 -0.0599999986589 230.0
0.70300000906 0.207000002265 -0.054999999702 185.0
0.827000021935 0.238000005484 -0.0649999976158 287.0
0.564999997616 0.158999994397 -0.0439999997616 121.0
0.619000017643 0.170000001788 -0.0489999987185 123.0
0.284999996424 0.0769999995828 -0.0219999998808 80.0
0.0599999986589 0.01600000076 -0.00499999988824 67.0
4.88700008392 1.25 -0.379999995232 60.0
4.71700000763 1.17700004578 -0.36700001359 62.0
4.52600002289 1.10099995136 -0.351000010967 61.0
4.51999998093 1.0720000267 -0.34999999404 63.0
4.46999979019 1.03199994564 -0.345999985933 64.0
4.42600011826 0.995000004768 -0.342000007629 67.0
4.24800014496 0.929000020027 -0.32800000906 65.0
4.3189997673 0.917999982834 -0.333000004292 59.0
4.27899980545 0.884000003338 -0.328999996185 58.0
4.26300001144 0.855000019073 -0.326999992132 71.0
4.30000019073 0.836000025272 -0.330000013113 71.0
4.28900003433 0.808000028133 -0.328999996185 73.0
4.2610001564 0.777000010014 -0.326000005007 74.0
4.367000103 0.769999980927 -0.333999991417 67.0
4.23400020599 0.722000002861 -0.323000013828 66.0
4.28800010681 0.704999983311 -0.326999992132 60.0
4.28100013733 0.679000020027 -0.326000005007 66.0
