ply
format ascii 1.0
element vertex 914
property float x
property float y
property float z
property float intensity
end_header
0.925999999046 -0.486999988556 -0.195999994874 99.0
0.878000020981 -0.469000011683 -0.186000004411 97.0
0.917999982834 -0.497000008821 -0.194999992847 92.0
0.921000003815 -0.507000029087 -0.195999994874 90.0
0.893999993801 -0.499000012875 -0.190999999642 98.0
0.929000020027 -0.527000010014 -0.199000000954 94.0
3.0150001049 1.66100001335 -0.679000020027 139.0
3.0759999752 1.66900002956 -0.690999984741 121.0
3.11899995804 1.66700005531 -0.698000013828 91.0
3.36400008202 1.38999998569 -0.721000015736 68.0
3.37599992752 1.3710000515 -0.722000002861 68.0
3.90000009537 1.3409999609 -0.819000005722 100.0
3.88499999046 1.30900001526 -0.81400001049 130.0
3.90499997139 1.28999996185 -0.816999971867 119.0
3.88400006294 1.25699996948 -0.81099998951 131.0
3.88400006294 1.23099994659 -0.809000015259 106.0
3.99499988556 0.958999991417 -0.816999971867 61.0
4.14599990845 0.96899998188 -0.847000002861 58.0
3.93799996376 0.896000027657 -0.802999973297 57.0
3.77800011635 0.836000025272 -0.769999980927 59.0
2.38199996948 -0.0520000010729 -0.472999989986 173.0
2.38499999046 -0.0659999996424 -0.472999989986 246.0
2.35100007057 -0.0790000036359 -0.465999990702 209.0
2.31200003624 -0.0909999981523 -0.458999991417 196.0
2.31500005722 -0.104999996722 -0.458999991417 154.0
2.31900000572 -0.118000000715 -0.460000008345 83.0
1.01499998569 -0.0560000017285 -0.201000005007 117.0
1.00699996948 -0.0610000006855 -0.20000000298 135.0
0.989000022411 -0.0659999996424 -0.195999994874 136.0
0.986000001431 -0.0719999969006 -0.195999994874 138.0
0.967999994755 -0.0759999975562 -0.192000001669 142.0
0.981999993324 -0.082999996841 -0.194999992847 137.0
0.999000012875 -0.0900000035763 -0.197999998927 131.0
0.97000002861 -0.0930000022054 -0.193000003695 131.0
0.95300000906 -0.097000002861 -0.188999995589 137.0
0.989000022411 -0.107000000775 -0.196999996901 131.0
0.972000002861 -0.111000001431 -0.193000003695 133.0
0.971000015736 -0.115999996662 -0.193000003695 144.0
0.958999991417 -0.119999997318 -0.190999999642 141.0
0.977999985218 -0.128999993205 -0.194999992847 143.0
0.962999999523 -0.131999999285 -0.192000001669 142.0
0.967999994755 -0.138999998569 -0.193000003695 135.0
0.939999997616 -0.140000000596 -0.187000006437 144.0
0.93900001049 -0.145999997854 -0.187000006437 143.0
0.976999998093 -0.158000007272 -0.194999992847 144.0
0.973999977112 -0.163000002503 -0.194999992847 143.0
0.934000015259 -0.162000000477 -0.187000006437 151.0
0.961000025272 -0.172000005841 -0.192000001669 146.0
0.938000023365 -0.173999994993 -0.187999993563 141.0
0.955999970436 -0.182999998331 -0.192000001669 143.0
0.95300000906 -0.187999993563 -0.190999999642 142.0
0.958000004292 -0.194999992847 -0.192000001669 140.0
0.97000002861 -0.203999996185 -0.194999992847 143.0
0.961000025272 -0.208000004292 -0.193000003695 144.0
0.939999997616 -0.209000006318 -0.188999995589 138.0
0.936999976635 -0.21400000155 -0.188999995589 140.0
0.936999976635 -0.219999998808 -0.188999995589 134.0
0.927999973297 -0.223000004888 -0.187000006437 143.0
0.949000000954 -0.233999997377 -0.192000001669 143.0
0.962999999523 -0.244000002742 -0.194999992847 150.0
0.941999971867 -0.245000004768 -0.190999999642 140.0
0.913999974728 -0.243000000715 -0.185000002384 133.0
0.936999976635 -0.254999995232 -0.189999997616 142.0
0.936999976635 -0.261000007391 -0.189999997616 137.0
0.943000018597 -0.268999993801 -0.192000001669 137.0
0.936999976635 -0.273000001907 -0.190999999642 142.0
0.954999983311 -0.284999996424 -0.194999992847 131.0
0.916000008583 -0.279000014067 -0.187000006437 134.0
0.950999975204 -0.296000003815 -0.194999992847 127.0
0.925000011921 -0.293999999762 -0.189999997616 132.0
0.93599998951 -0.303999990225 -0.192000001669 141.0
0.939999997616 -0.31099998951 -0.193000003695 128.0
0.930999994278 -0.31400001049 -0.192000001669 134.0
0.941999971867 -0.324000000954 -0.194000005722 127.0
0.925999999046 -0.324999988079 -0.190999999642 126.0
0.925999999046 -0.331000000238 -0.192000001669 126.0
0.944999992847 -0.344000011683 -0.195999994874 123.0
0.927999973297 -0.344999998808 -0.193000003695 114.0
0.913999974728 -0.345999985933 -0.189999997616 116.0
0.908999979496 -0.34999999404 -0.188999995589 116.0
0.916999995708 -0.358999997377 -0.192000001669 124.0
0.915000021458 -0.365000009537 -0.190999999642 114.0
0.93599998951 -0.379999995232 -0.195999994874 115.0
0.888000011444 -0.36700001359 -0.187000006437 112.0
0.931999981403 -0.391999989748 -0.195999994874 111.0
0.911000013351 -0.389999985695 -0.192000001669 112.0
0.912000000477 -0.397000014782 -0.193000003695 107.0
0.871999979019 -0.384999990463 -0.185000002384 108.0
0.930999994278 -0.418999999762 -0.197999998927 107.0
0.912000000477 -0.416999995708 -0.194000005722 116.0
0.925000011921 -0.430000007153 -0.196999996901 105.0
0.893999993801 -0.42199999094 -0.190999999642 111.0
0.947000026703 -0.453999996185 -0.202999994159 108.0
0.949999988079 -0.462999999523 -0.203999996185 106.0
0.866999983788 -0.428999990225 -0.187000006437 104.0
0.907000005245 -0.456000000238 -0.195999994874 102.0
0.925000011921 -0.472000002861 -0.20000000298 98.0
0.950999975204 -0.493000000715 -0.207000002265 92.0
0.894999980927 -0.470999985933 -0.194999992847 87.0
0.875 -0.467000007629 -0.190999999642 96.0
0.945999979973 -0.513000011444 -0.207000002265 98.0
0.885999977589 -0.488000005484 -0.194999992847 100.0
0.888000011444 -0.495999991894 -0.195999994874 97.0
0.893999993801 -0.507000029087 -0.196999996901 92.0
2.9849998951 1.64600002766 -0.693000018597 130.0
3.06500005722 1.66499996185 -0.708999991417 114.0
3.3180000782 1.46899998188 -0.740000009537 74.0
3.35299992561 1.33899998665 -0.737999975681 78.0
3.89199995995 1.31299996376 -0.839999973774 69.0
3.94000005722 1.3029999733 -0.848999977112 64.0
3.90499997139 1.26499998569 -0.839999973774 74.0
4.02500009537 1.27799999714 -0.864000022411 74.0
3.69199991226 0.795000016689 -0.773999989033 70.0
3.72199988365 0.777999997139 -0.778999984264 65.0
3.79299998283 0.769999980927 -0.792999982834 58.0
2.35100007057 -0.0509999990463 -0.481000006199 174.0
2.39599990845 -0.0659999996424 -0.490000009537 249.0
2.34400010109 -0.0790000036359 -0.479000002146 213.0
2.31299996376 -0.0909999981523 -0.472999989986 188.0
2.30800008774 -0.104000002146 -0.472000002861 148.0
2.30399990082 -0.118000000715 -0.470999985933 83.0
1.02400004864 -0.0570000000298 -0.209000006318 117.0
0.975000023842 -0.0590000003576 -0.199000000954 132.0
0.948000013828 -0.0630000010133 -0.194000005722 135.0
0.976999998093 -0.0710000023246 -0.20000000298 144.0
0.938000023365 -0.0740000009537 -0.192000001669 145.0
0.978999972343 -0.082999996841 -0.20000000298 134.0
0.976000010967 -0.0879999995232 -0.20000000298 139.0
0.962000012398 -0.0930000022054 -0.196999996901 132.0
0.973999977112 -0.0989999994636 -0.199000000954 134.0
0.978999972343 -0.105999998748 -0.201000005007 134.0
0.963999986649 -0.109999999404 -0.196999996901 138.0
0.97000002861 -0.115999996662 -0.199000000954 140.0
0.964999973774 -0.120999999344 -0.197999998927 138.0
0.959999978542 -0.126000002027 -0.196999996901 139.0
0.948000013828 -0.129999995232 -0.194999992847 144.0
0.971000015736 -0.138999998569 -0.199000000954 140.0
0.96899998188 -0.144999995828 -0.199000000954 142.0
0.971000015736 -0.150999993086 -0.20000000298 141.0
0.961000025272 -0.155000001192 -0.197999998927 135.0
0.971000015736 -0.163000002503 -0.20000000298 142.0
0.959999978542 -0.166999995708 -0.197999998927 143.0
0.963999986649 -0.172999992967 -0.199000000954 138.0
0.925999999046 -0.172000005841 -0.190999999642 135.0
0.977999985218 -0.187999993563 -0.202000007033 144.0
0.948000013828 -0.187999993563 -0.195999994874 150.0
0.943000018597 -0.192000001669 -0.194999992847 143.0
0.966000020504 -0.202999994159 -0.20000000298 146.0
0.958000004292 -0.207000002265 -0.199000000954 147.0
0.941999971867 -0.209999993443 -0.194999992847 143.0
0.949999988079 -0.216999992728 -0.196999996901 142.0
0.958000004292 -0.22499999404 -0.199000000954 130.0
0.95300000906 -0.230000004172 -0.197999998927 142.0
0.934000015259 -0.231000006199 -0.194999992847 141.0
0.972000002861 -0.24699999392 -0.202999994159 145.0
0.948000013828 -0.246000006795 -0.197999998927 136.0
0.962999999523 -0.256999999285 -0.201000005007 143.0
0.95300000906 -0.259999990463 -0.199000000954 142.0
0.943000018597 -0.263000011444 -0.197999998927 135.0
0.931999981403 -0.266000002623 -0.194999992847 129.0
0.93900001049 -0.273999989033 -0.196999996901 133.0
0.97000002861 -0.289999991655 -0.203999996185 130.0
0.926999986172 -0.282999992371 -0.194999992847 130.0
0.941999971867 -0.293000012636 -0.199000000954 128.0
0.930000007153 -0.296000003815 -0.195999994874 129.0
0.954999983311 -0.310000002384 -0.202000007033 129.0
0.940999984741 -0.312000006437 -0.199000000954 134.0
0.926999986172 -0.312999993563 -0.196999996901 118.0
0.93900001049 -0.324000000954 -0.20000000298 130.0
0.945999979973 -0.331999987364 -0.201000005007 128.0
0.948000013828 -0.338999986649 -0.202000007033 120.0
0.939999997616 -0.342999994755 -0.201000005007 117.0
0.912999987602 -0.340000003576 -0.195999994874 118.0
0.907999992371 -0.344000011683 -0.194999992847 118.0
0.926999986172 -0.358000010252 -0.199000000954 120.0
0.976000010967 -0.38299998641 -0.209999993443 118.0
0.897000014782 -0.358000010252 -0.194000005722 119.0
0.953999996185 -0.388000011444 -0.206000000238 120.0
0.917999982834 -0.379999995232 -0.199000000954 117.0
0.936999976635 -0.393999993801 -0.202999994159 109.0
0.924000024796 -0.395999997854 -0.201000005007 111.0
0.961000025272 -0.418999999762 -0.209000006318 113.0
0.943000018597 -0.418000012636 -0.206000000238 115.0
0.92199999094 -0.414999991655 -0.202000007033 105.0
0.959999978542 -0.43900001049 -0.21099999547 107.0
0.949999988079 -0.442000001669 -0.209000006318 104.0
0.898999989033 -0.425000011921 -0.197999998927 102.0
0.95300000906 -0.458000004292 -0.21099999547 98.0
0.912000000477 -0.444999992847 -0.202000007033 96.0
0.912999987602 -0.45300000906 -0.202999994159 98.0
0.913999974728 -0.460000008345 -0.203999996185 100.0
0.884999990463 -0.451999992132 -0.197999998927 98.0
0.917999982834 -0.476999998093 -0.206000000238 99.0
0.903999984264 -0.476000010967 -0.202999994159 88.0
0.975000023842 -0.522000014782 -0.219999998808 94.0
0.876999974251 -0.476000010967 -0.197999998927 95.0
0.898999989033 -0.495999991894 -0.203999996185 91.0
0.861000001431 -0.481999993324 -0.195999994874 86.0
0.896000027657 -0.509000003338 -0.203999996185 88.0
3.02600002289 1.66999995708 -0.722999989986 132.0
3.08800005913 1.67900002003 -0.736000001431 123.0
3.02399992943 1.62000000477 -0.717999994755 96.0
3.46700000763 1.38600003719 -0.785000026226 70.0
3.8599998951 0.855000019073 -0.833999991417 67.0
3.72600007057 0.802999973297 -0.804000020027 67.0
3.69199991226 0.773000001907 -0.796000003815 69.0
3.74799990654 0.760999977589 -0.806999981403 57.0
3.72499990463 0.73400002718 -0.800999999046 57.0
2.38899993896 -0.0520000010729 -0.503000020981 177.0
2.39100003242 -0.0659999996424 -0.504000008106 247.0
2.34200000763 -0.0790000036359 -0.493000000715 216.0
2.3220000267 -0.0920000001788 -0.488999992609 197.0
2.33100008965 -0.105999998748 -0.490999996662 140.0
1.01499998569 -0.0560000017285 -0.21400000155 115.0
0.987999975681 -0.0599999986589 -0.208000004292 138.0
0.989000022411 -0.0659999996424 -0.208000004292 138.0
0.967000007629 -0.070000000298 -0.203999996185 142.0
0.986999988556 -0.0780000016093 -0.208000004292 138.0
0.987999975681 -0.0839999988675 -0.208000004292 132.0
0.990000009537 -0.0900000035763 -0.208000004292 136.0
0.95300000906 -0.0920000001788 -0.201000005007 136.0
0.976000010967 -0.10000000149 -0.206000000238 134.0
0.973999977112 -0.104999996722 -0.204999998212 132.0
0.948000013828 -0.108000002801 -0.20000000298 138.0
0.972000002861 -0.116999998689 -0.204999998212 139.0
0.948000013828 -0.119000002742 -0.20000000298 138.0
0.964999973774 -0.127000004053 -0.203999996185 139.0
0.987999975681 -0.136000007391 -0.209000006318 135.0
0.990000009537 -0.142000004649 -0.209000006318 135.0
0.958999991417 -0.143999993801 -0.202999994159 134.0
0.962000012398 -0.15000000596 -0.203999996185 139.0
0.989000022411 -0.159999996424 -0.209000006318 144.0
0.947000026703 -0.158999994397 -0.201000005007 142.0
0.976000010967 -0.170000001788 -0.207000002265 146.0
0.964999973774 -0.172999992967 -0.204999998212 147.0
0.941999971867 -0.17499999702 -0.20000000298 144.0
0.972000002861 -0.187000006437 -0.207000002265 142.0
0.954999983311 -0.188999995589 -0.202999994159 145.0
0.944000005722 -0.193000003695 -0.201000005007 142.0
0.952000021935 -0.20000000298 -0.202999994159 142.0
0.953999996185 -0.207000002265 -0.203999996185 140.0
0.950999975204 -0.211999997497 -0.202999994159 141.0
0.948000013828 -0.216999992728 -0.202999994159 142.0
0.944000005722 -0.222000002861 -0.202000007033 136.0
0.962999999523 -0.231999993324 -0.206000000238 142.0
0.948000013828 -0.234999999404 -0.202999994159 139.0
0.927999973297 -0.236000001431 -0.199000000954 143.0
0.949999988079 -0.24699999392 -0.203999996185 141.0
0.929000020027 -0.247999995947 -0.20000000298 138.0
0.953999996185 -0.259999990463 -0.206000000238 139.0
0.93900001049 -0.261999994516 -0.202999994159 136.0
0.916000008583 -0.261999994516 -0.197999998927 139.0
0.943000018597 -0.275999993086 -0.203999996185 138.0
0.944000005722 -0.282000005245 -0.204999998212 133.0
0.916000008583 -0.280000001192 -0.199000000954 133.0
0.908999979496 -0.282999992371 -0.196999996901 131.0
0.922999978065 -0.293999999762 -0.201000005007 126.0
0.949000000954 -0.308999985456 -0.207000002265 128.0
0.927999973297 -0.307999998331 -0.202999994159 129.0
0.931999981403 -0.314999997616 -0.203999996185 123.0
0.903999984264 -0.312000006437 -0.197999998927 129.0
0.910000026226 -0.319999992847 -0.20000000298 121.0
0.908999979496 -0.326000005007 -0.20000000298 119.0
0.919000029564 -0.33599999547 -0.202000007033 117.0
0.921000003815 -0.342999994755 -0.202999994159 117.0
0.926999986172 -0.351999998093 -0.204999998212 120.0
0.922999978065 -0.356000006199 -0.203999996185 114.0
0.917999982834 -0.361000001431 -0.203999996185 118.0
0.93599998951 -0.375 -0.208000004292 110.0
0.911000013351 -0.370999991894 -0.202999994159 115.0
0.917999982834 -0.379999995232 -0.204999998212 113.0
0.924000024796 -0.389999985695 -0.207000002265 112.0
0.933000028133 -0.40000000596 -0.209000006318 115.0
0.921000003815 -0.402000010014 -0.207000002265 113.0
0.936999976635 -0.414999991655 -0.21099999547 106.0
0.939999997616 -0.423999994993 -0.211999997497 109.0
0.921000003815 -0.42199999094 -0.208000004292 110.0
0.958000004292 -0.446000009775 -0.216999992728 101.0
0.879000008106 -0.416000008583 -0.20000000298 100.0
0.911000013351 -0.437999993563 -0.208000004292 98.0
0.878000020981 -0.428999990225 -0.20000000298 104.0
0.912000000477 -0.45300000906 -0.209000006318 100.0
0.935000002384 -0.472000002861 -0.215000003576 99.0
0.945999979973 -0.485000014305 -0.217999994755 95.0
0.938000023365 -0.488000005484 -0.216000005603 99.0
0.949000000954 -0.500999987125 -0.219999998808 100.0
0.921000003815 -0.493999987841 -0.21400000155 97.0
0.899999976158 -0.490000009537 -0.209000006318 100.0
0.930000007153 -0.513999998569 -0.216999992728 91.0
0.916999995708 -0.513999998569 -0.215000003576 88.0
0.870999991894 -0.495000004768 -0.204999998212 95.0
3.01999998093 1.66999995708 -0.742999970913 134.0
3.05200004578 1.66199994087 -0.748000025749 114.0
3.0529999733 1.63800001144 -0.745999991894 109.0
3.47000002861 1.43799996376 -0.811999976635 68.0
3.73099994659 0.851000010967 -0.830999970436 60.0
3.69099998474 0.819000005722 -0.820999979973 63.0
3.65499997139 0.787999987602 -0.811999976635 62.0
3.74499988556 0.760999977589 -0.829999983311 68.0
2.38100004196 -0.0520000010729 -0.51599997282 183.0
2.38700008392 -0.0659999996424 -0.51700001955 250.0
2.34100008011 -0.0790000036359 -0.507000029087 214.0
2.3259999752 -0.0920000001788 -0.504000008106 197.0
2.30800008774 -0.104999996722 -0.5 143.0
2.11500000954 -0.108000002801 -0.458000004292 63.0
0.989000022411 -0.054999999702 -0.21400000155 117.0
0.986999988556 -0.0599999986589 -0.21400000155 130.0
0.971000015736 -0.0649999976158 -0.209999993443 134.0
0.96899998188 -0.0710000023246 -0.209999993443 131.0
0.967000007629 -0.0759999975562 -0.209000006318 136.0
0.971000015736 -0.082000002265 -0.209999993443 133.0
0.985000014305 -0.0890000015497 -0.212999999523 133.0
0.957000017166 -0.0920000001788 -0.207000002265 130.0
0.994000017643 -0.101999998093 -0.216000005603 129.0
0.96899998188 -0.104999996722 -0.209999993443 132.0
0.963999986649 -0.109999999404 -0.209000006318 144.0
0.973999977112 -0.116999998689 -0.21099999547 139.0
0.972000002861 -0.122000001371 -0.21099999547 142.0
0.955999970436 -0.126000002027 -0.208000004292 140.0
0.963999986649 -0.133000001311 -0.209999993443 134.0
0.944999992847 -0.136000007391 -0.206000000238 140.0
0.927999973297 -0.138999998569 -0.202000007033 141.0
0.96899998188 -0.150999993086 -0.21099999547 138.0
0.96899998188 -0.157000005245 -0.21099999547 141.0
0.929000020027 -0.156000003219 -0.202999994159 139.0
0.954999983311 -0.165999993682 -0.208000004292 140.0
0.962000012398 -0.172999992967 -0.209999993443 138.0
0.948000013828 -0.175999999046 -0.207000002265 140.0
0.959999978542 -0.185000002384 -0.209999993443 139.0
0.959999978542 -0.189999997616 -0.209999993443 139.0
0.943000018597 -0.193000003695 -0.207000002265 140.0
0.941999971867 -0.197999998927 -0.207000002265 142.0
0.958999991417 -0.208000004292 -0.21099999547 137.0
0.925000011921 -0.206000000238 -0.202999994159 142.0
0.922999978065 -0.211999997497 -0.202999994159 141.0
0.941999971867 -0.222000002861 -0.208000004292 139.0
0.952000021935 -0.230000004172 -0.209999993443 134.0
0.966000020504 -0.239999994636 -0.212999999523 136.0
0.929000020027 -0.236000001431 -0.204999998212 136.0
0.971000015736 -0.252999991179 -0.215000003576 134.0
0.933000028133 -0.248999997973 -0.207000002265 137.0
0.939999997616 -0.256999999285 -0.209000006318 132.0
0.930000007153 -0.259999990463 -0.206000000238 136.0
0.947000026703 -0.270999997854 -0.21099999547 133.0
0.944000005722 -0.275999993086 -0.209999993443 140.0
0.949999988079 -0.284000009298 -0.211999997497 134.0
0.929000020027 -0.284000009298 -0.207000002265 129.0
0.944000005722 -0.294999986887 -0.21099999547 127.0
0.922999978065 -0.293999999762 -0.207000002265 125.0
0.941999971867 -0.307000011206 -0.21099999547 130.0
0.926999986172 -0.307999998331 -0.208000004292 129.0
0.947000026703 -0.321000009775 -0.212999999523 125.0
0.902999997139 -0.312000006437 -0.203999996185 128.0
0.953999996185 -0.33599999547 -0.215000003576 118.0
0.931999981403 -0.335000008345 -0.21099999547 120.0
0.930000007153 -0.340000003576 -0.21099999547 122.0
0.93900001049 -0.34999999404 -0.212999999523 116.0
0.915000021458 -0.347000002861 -0.208000004292 121.0
0.934000015259 -0.361000001431 -0.212999999523 120.0
0.884000003338 -0.347999989986 -0.202000007033 111.0
0.903999984264 -0.361999988556 -0.207000002265 118.0
0.907999992371 -0.370000004768 -0.208000004292 108.0
0.880999982357 -0.365000009537 -0.202000007033 112.0
0.924000024796 -0.389999985695 -0.212999999523 107.0
0.935000002384 -0.402000010014 -0.216000005603 112.0
0.89099997282 -0.388999998569 -0.206000000238 112.0
0.944000005722 -0.418999999762 -0.218999996781 105.0
0.910000026226 -0.411000013351 -0.21099999547 109.0
0.913999974728 -0.418999999762 -0.212999999523 100.0
0.929000020027 -0.432999998331 -0.216999992728 104.0
0.916999995708 -0.433999985456 -0.21400000155 109.0
0.873000025749 -0.419999986887 -0.204999998212 105.0
0.888999998569 -0.435000002384 -0.209000006318 101.0
0.930000007153 -0.462000012398 -0.218999996781 97.0
0.870000004768 -0.43900001049 -0.204999998212 92.0
0.92199999094 -0.472999989986 -0.217999994755 102.0
0.902999997139 -0.469999998808 -0.21400000155 94.0
0.894999980927 -0.472999989986 -0.212999999523 97.0
0.919000029564 -0.493000000715 -0.218999996781 98.0
0.884000003338 -0.481999993324 -0.211999997497 92.0
0.829999983311 -0.458000004292 -0.199000000954 95.0
0.887000024319 -0.497999995947 -0.21400000155 87.0
0.912000000477 -0.519999980927 -0.221000000834 91.0
3.00999999046 1.66600000858 -0.760999977589 123.0
3.07500004768 1.67700004578 -0.774999976158 115.0
3.08800005913 1.6590000391 -0.776000022888 101.0
2.375 -0.0520000010729 -0.528999984264 187.0
2.38100004196 -0.0659999996424 -0.52999997139 240.0
2.33299994469 -0.0790000036359 -0.519999980927 218.0
2.2990000248 -0.0909999981523 -0.512000024319 191.0
2.27099990845 -0.103000000119 -0.505999982357 141.0
1.92200005054 -0.097999997437 -0.428000003099 54.0
1.00600004196 -0.0560000017285 -0.224000006914 126.0
0.954999983311 -0.0579999983311 -0.212999999523 135.0
0.976000010967 -0.0659999996424 -0.216999992728 135.0
0.981999993324 -0.0719999969006 -0.218999996781 131.0
0.961000025272 -0.0759999975562 -0.21400000155 131.0
0.934000015259 -0.0790000036359 -0.208000004292 132.0
0.958000004292 -0.0869999974966 -0.212999999523 130.0
0.943000018597 -0.0909999981523 -0.209999993443 136.0
0.948000013828 -0.097000002861 -0.21099999547 134.0
0.953999996185 -0.103000000119 -0.212999999523 135.0
0.952000021935 -0.108999997377 -0.212999999523 132.0
0.971000015736 -0.116999998689 -0.216999992728 142.0
0.967000007629 -0.122000001371 -0.216000005603 136.0
0.967000007629 -0.12800000608 -0.216000005603 139.0
0.967999994755 -0.134000003338 -0.216000005603 136.0
0.973999977112 -0.140000000596 -0.217999994755 142.0
0.954999983311 -0.143000006676 -0.21400000155 138.0
0.963999986649 -0.150999993086 -0.216000005603 132.0
0.966000020504 -0.157000005245 -0.216000005603 138.0
0.963999986649 -0.162000000477 -0.216000005603 137.0
0.954999983311 -0.165999993682 -0.21400000155 135.0
0.947000026703 -0.171000003815 -0.212999999523 142.0
0.921000003815 -0.172000005841 -0.207000002265 139.0
0.98299998045 -0.188999995589 -0.221000000834 138.0
0.938000023365 -0.186000004411 -0.21099999547 145.0
0.947000026703 -0.194000005722 -0.21400000155 139.0
0.939999997616 -0.197999998927 -0.211999997497 140.0
0.949999988079 -0.206000000238 -0.215000003576 147.0
0.92199999094 -0.206000000238 -0.208000004292 144.0
0.943000018597 -0.216000005603 -0.212999999523 138.0
0.953999996185 -0.22499999404 -0.216000005603 141.0
0.931999981403 -0.22499999404 -0.21099999547 138.0
0.947000026703 -0.234999999404 -0.215000003576 145.0
0.967999994755 -0.246000006795 -0.219999998808 138.0
0.952000021935 -0.247999995947 -0.216999992728 134.0
0.941999971867 -0.252000004053 -0.215000003576 137.0
0.930999994278 -0.254999995232 -0.211999997497 137.0
0.971000015736 -0.272000014782 -0.222000002861 129.0
0.934000015259 -0.268000006676 -0.21400000155 136.0
0.922999978065 -0.270000010729 -0.21099999547 132.0
0.935000002384 -0.280000001192 -0.21400000155 137.0
0.941999971867 -0.287999987602 -0.216000005603 127.0
0.925000011921 -0.28900000453 -0.212999999523 123.0
0.929000020027 -0.29699999094 -0.21400000155 122.0
0.911000013351 -0.29699999094 -0.209999993443 124.0
0.929000020027 -0.308999985456 -0.215000003576 127.0
0.931999981403 -0.316000014544 -0.216000005603 124.0
0.894999980927 -0.308999985456 -0.207000002265 127.0
0.931999981403 -0.328999996185 -0.216000005603 127.0
0.953999996185 -0.342999994755 -0.222000002861 119.0
0.920000016689 -0.337000012398 -0.21400000155 117.0
0.930999994278 -0.347000002861 -0.216999992728 118.0
0.935000002384 -0.354999989271 -0.218999996781 118.0
0.903999984264 -0.34999999404 -0.211999997497 120.0
0.966000020504 -0.381000012159 -0.226999998093 119.0
0.93599998951 -0.375999987125 -0.219999998808 114.0
0.93599998951 -0.381999999285 -0.221000000834 116.0
0.911000013351 -0.377999991179 -0.215000003576 114.0
0.930000007153 -0.393000006676 -0.219999998808 110.0
0.939999997616 -0.404000014067 -0.223000004888 104.0
0.898999989033 -0.393000006676 -0.21400000155 101.0
0.907999992371 -0.404000014067 -0.216000005603 107.0
0.89099997282 -0.402999997139 -0.212999999523 108.0
0.907000005245 -0.416000008583 -0.216999992728 104.0
0.898999989033 -0.419999986887 -0.216000005603 108.0
0.936999976635 -0.444999992847 -0.225999996066 105.0
0.916000008583 -0.442000001669 -0.221000000834 102.0
0.930999994278 -0.456000000238 -0.22499999404 98.0
0.89200001955 -0.444000005722 -0.216000005603 96.0
0.912999987602 -0.46099999547 -0.222000002861 92.0
0.882000029087 -0.451999992132 -0.215000003576 93.0
0.917999982834 -0.479000002146 -0.224000006914 96.0
0.936999976635 -0.495999991894 -0.230000004172 94.0
0.884999990463 -0.476000010967 -0.217999994755 91.0
0.846000015736 -0.46099999547 -0.208000004292 93.0
0.907999992371 -0.503000020981 -0.224000006914 96.0
0.907999992371 -0.509999990463 -0.22499999404 90.0
0.992999970913 -0.566999971867 -0.24699999392 89.0
3.02600002289 1.67700004578 -0.786000013351 111.0
3.03399991989 1.65699994564 -0.786000013351 123.0
3.0529999733 1.64199995995 -0.787999987602 115.0
2.38199996948 -0.0529999993742 -0.545000016689 197.0
2.37299990654 -0.0659999996424 -0.542999982834 254.0
2.33999991417 -0.0790000036359 -0.536000013351 215.0
2.28900003433 -0.0909999981523 -0.523999989033 189.0
2.33299994469 -0.105999998748 -0.533999979496 142.0
0.989000022411 -0.054999999702 -0.225999996066 120.0
0.96899998188 -0.0590000003576 -0.222000002861 127.0
0.985000014305 -0.0659999996424 -0.22499999404 130.0
0.972999989986 -0.0710000023246 -0.223000004888 132.0
0.994000017643 -0.0790000036359 -0.226999998093 121.0
0.967000007629 -0.082000002265 -0.221000000834 129.0
0.978999972343 -0.0890000015497 -0.224000006914 130.0
0.972000002861 -0.0939999967813 -0.223000004888 138.0
0.936999976635 -0.0960000008345 -0.215000003576 128.0
0.995000004768 -0.108000002801 -0.228000000119 131.0
0.958000004292 -0.109999999404 -0.219999998808 139.0
0.980000019073 -0.118000000715 -0.22499999404 136.0
0.975000023842 -0.123000003397 -0.224000006914 142.0
0.959999978542 -0.127000004053 -0.219999998808 144.0
0.945999979973 -0.130999997258 -0.216999992728 135.0
0.976000010967 -0.141000002623 -0.224000006914 137.0
0.949999988079 -0.143000006676 -0.218999996781 141.0
0.944999992847 -0.148000001907 -0.217999994755 135.0
0.961000025272 -0.156000003219 -0.221000000834 140.0
0.977999985218 -0.165000006557 -0.22499999404 145.0
0.947000026703 -0.165000006557 -0.217999994755 136.0
0.961000025272 -0.172999992967 -0.222000002861 141.0
0.93599998951 -0.17499999702 -0.216000005603 142.0
0.944999992847 -0.181999996305 -0.217999994755 141.0
0.941999971867 -0.187000006437 -0.217999994755 136.0
0.938000023365 -0.192000001669 -0.216999992728 133.0
0.958000004292 -0.202000007033 -0.222000002861 141.0
0.947000026703 -0.206000000238 -0.219999998808 140.0
0.938000023365 -0.209999993443 -0.217999994755 142.0
0.934000015259 -0.215000003576 -0.216999992728 138.0
0.936999976635 -0.221000000834 -0.217999994755 131.0
0.925000011921 -0.224000006914 -0.215000003576 129.0
0.948000013828 -0.236000001431 -0.221000000834 138.0
0.92199999094 -0.234999999404 -0.215000003576 135.0
0.916000008583 -0.238999992609 -0.21400000155 139.0
0.930999994278 -0.248999997973 -0.217999994755 137.0
0.926999986172 -0.254000008106 -0.216999992728 131.0
0.938000023365 -0.263000011444 -0.219999998808 135.0
0.917999982834 -0.263000011444 -0.216000005603 129.0
0.93900001049 -0.275999993086 -0.221000000834 128.0
0.949999988079 -0.284999996424 -0.224000006914 129.0
0.935000002384 -0.286000013351 -0.221000000834 124.0
0.922999978065 -0.28900000453 -0.217999994755 122.0
0.945999979973 -0.301999986172 -0.224000006914 127.0
0.925999999046 -0.301999986172 -0.218999996781 118.0
0.92199999094 -0.307000011206 -0.218999996781 127.0
0.930999994278 -0.316000014544 -0.221000000834 126.0
0.917999982834 -0.317999988794 -0.218999996781 118.0
0.912000000477 -0.321999996901 -0.217999994755 118.0
0.907000005245 -0.326000005007 -0.216999992728 111.0
0.899999976158 -0.330000013113 -0.216000005603 120.0
0.950999975204 -0.356000006199 -0.228000000119 114.0
0.912000000477 -0.347000002861 -0.218999996781 118.0
0.930000007153 -0.361000001431 -0.224000006914 111.0
0.925999999046 -0.365999996662 -0.223000004888 115.0
0.925000011921 -0.372000008821 -0.224000006914 121.0
0.924000024796 -0.377999991179 -0.224000006914 112.0
0.90600001812 -0.377000004053 -0.219999998808 104.0
0.931999981403 -0.395000010729 -0.226999998093 110.0
0.910000026226 -0.391999989748 -0.222000002861 107.0
0.948000013828 -0.414999991655 -0.231999993324 108.0
0.938000023365 -0.418000012636 -0.230000004172 108.0
0.936999976635 -0.423999994993 -0.230000004172 101.0
0.954999983311 -0.439999997616 -0.234999999404 106.0
0.902000010014 -0.42199999094 -0.222000002861 106.0
0.908999979496 -0.432000011206 -0.22499999404 102.0
0.884000003338 -0.426999986172 -0.218999996781 99.0
0.920000016689 -0.451000005007 -0.229000002146 98.0
0.902999997139 -0.449999988079 -0.22499999404 98.0
0.915000021458 -0.462999999523 -0.229000002146 96.0
0.925999999046 -0.476000010967 -0.231999993324 93.0
0.924000024796 -0.483000010252 -0.231999993324 95.0
0.931999981403 -0.493999987841 -0.234999999404 92.0
0.902999997139 -0.486000001431 -0.228000000119 94.0
0.889999985695 -0.486000001431 -0.225999996066 100.0
0.908999979496 -0.504000008106 -0.231000006199 88.0
0.947000026703 -0.533999979496 -0.240999996662 96.0
0.867999970913 -0.495999991894 -0.222000002861 94.0
3.01200008392 1.64699995518 -0.800999999046 103.0
2.40000009537 -0.0390000008047 -0.56400001049 52.0
2.37199997902 -0.0529999993742 -0.558000028133 196.0
2.38400006294 -0.0670000016689 -0.560000002384 249.0
2.34200000763 -0.0790000036359 -0.550000011921 205.0
2.3029999733 -0.0909999981523 -0.541000008583 199.0
2.31900000572 -0.105999998748 -0.545000016689 138.0
1.75100004673 -0.0890000015497 -0.411000013351 51.0
0.959999978542 -0.0529999993742 -0.22499999404 121.0
0.991999983788 -0.0610000006855 -0.232999995351 129.0
0.949000000954 -0.0640000030398 -0.223000004888 125.0
1.00100004673 -0.0729999989271 -0.234999999404 123.0
0.963999986649 -0.0759999975562 -0.226999998093 129.0
0.973999977112 -0.082999996841 -0.229000002146 130.0
0.967000007629 -0.0879999995232 -0.226999998093 128.0
0.981000006199 -0.0949999988079 -0.231000006199 133.0
0.959999978542 -0.0989999994636 -0.225999996066 127.0
0.934000015259 -0.101000003517 -0.219999998808 126.0
0.963999986649 -0.111000001431 -0.226999998093 132.0
0.966000020504 -0.116999998689 -0.228000000119 137.0
0.949000000954 -0.119999997318 -0.224000006914 140.0
0.950999975204 -0.126000002027 -0.224000006914 135.0
0.93900001049 -0.129999995232 -0.222000002861 132.0
0.958000004292 -0.137999996543 -0.225999996066 136.0
0.910000026226 -0.136999994516 -0.215000003576 139.0
0.990999996662 -0.155000001192 -0.233999997377 131.0
0.944999992847 -0.153999999166 -0.224000006914 133.0
0.973999977112 -0.16400000453 -0.230000004172 129.0
0.947000026703 -0.165000006557 -0.224000006914 144.0
0.958000004292 -0.172999992967 -0.226999998093 136.0
0.936999976635 -0.17499999702 -0.222000002861 138.0
0.966000020504 -0.187000006437 -0.229000002146 141.0
0.961000025272 -0.190999999642 -0.228000000119 137.0
0.949000000954 -0.194999992847 -0.225999996066 135.0
0.934000015259 -0.197999998927 -0.222000002861 137.0
0.941999971867 -0.204999998212 -0.22499999404 135.0
0.958999991417 -0.215000003576 -0.229000002146 137.0
0.944999992847 -0.216999992728 -0.225999996066 133.0
0.92199999094 -0.217999994755 -0.219999998808 133.0
0.944000005722 -0.229000002146 -0.225999996066 141.0
0.953999996185 -0.237000003457 -0.228000000119 129.0
0.958999991417 -0.245000004768 -0.230000004172 132.0
0.972999989986 -0.254999995232 -0.233999997377 128.0
0.944999992847 -0.252999991179 -0.226999998093 129.0
0.938000023365 -0.256999999285 -0.225999996066 129.0
0.926999986172 -0.259999990463 -0.224000006914 125.0
0.90499997139 -0.259999990463 -0.217999994755 133.0
0.955999970436 -0.280999988317 -0.231000006199 134.0
0.944000005722 -0.282999992371 -0.228000000119 128.0
0.929000020027 -0.284999996424 -0.22499999404 125.0
0.925000011921 -0.289999991655 -0.22499999404 124.0
0.92199999094 -0.294999986887 -0.224000006914 128.0
0.96899998188 -0.317000001669 -0.236000001431 121.0
0.916000008583 -0.305000007153 -0.223000004888 119.0
0.927999973297 -0.316000014544 -0.226999998093 121.0
0.920000016689 -0.319000005722 -0.22499999404 120.0
0.899999976158 -0.317999988794 -0.221000000834 118.0
0.943000018597 -0.340000003576 -0.231999993324 115.0
0.930999994278 -0.342000007629 -0.229000002146 118.0
0.916000008583 -0.342999994755 -0.225999996066 116.0
0.975000023842 -0.372000008821 -0.240999996662 117.0
0.925000011921 -0.358999997377 -0.229000002146 119.0
0.939999997616 -0.372000008821 -0.232999995351 112.0
0.948000013828 -0.381000012159 -0.234999999404 121.0
0.930000007153 -0.381000012159 -0.231999993324 115.0
0.913999974728 -0.381000012159 -0.228000000119 105.0
0.921000003815 -0.389999985695 -0.230000004172 113.0
0.853999972343 -0.368000000715 -0.21400000155 109.0
0.912000000477 -0.40000000596 -0.229000002146 111.0
0.925000011921 -0.412000000477 -0.232999995351 107.0
0.908999979496 -0.412000000477 -0.229000002146 99.0
0.907000005245 -0.418000012636 -0.229000002146 105.0
0.888000011444 -0.416000008583 -0.22499999404 100.0
0.961000025272 -0.458000004292 -0.244000002742 102.0
0.925000011921 -0.448000013828 -0.236000001431 98.0
0.921000003815 -0.451999992132 -0.234999999404 101.0
0.870000004768 -0.433999985456 -0.223000004888 100.0
0.929000020027 -0.470999985933 -0.238000005484 93.0
0.949999988079 -0.488999992609 -0.245000004768 99.0
0.933000028133 -0.488000005484 -0.240999996662 89.0
0.90499997139 -0.479999989271 -0.233999997377 92.0
0.941999971867 -0.508000016212 -0.245000004768 93.0
0.90600001812 -0.495999991894 -0.236000001431 96.0
0.898000001907 -0.499000012875 -0.233999997377 94.0
0.870000004768 -0.490000009537 -0.228000000119 93.0
0.944999992847 -0.541000008583 -0.247999995947 84.0
2.35199999809 -0.0520000010729 -0.566999971867 205.0
2.38400006294 -0.0670000016689 -0.574999988079 264.0
2.33299994469 -0.0790000036359 -0.563000023365 212.0
2.29999995232 -0.0920000001788 -0.555000007153 196.0
2.29099988937 -0.104999996722 -0.552999973297 135.0
1.64900004864 -0.0839999988675 -0.398000001907 50.0
0.995999991894 -0.0560000017285 -0.239999994636 119.0
0.972000002861 -0.0599999986589 -0.233999997377 124.0
0.990999996662 -0.0670000016689 -0.238999992609 132.0
0.980000019073 -0.0719999969006 -0.236000001431 130.0
0.961000025272 -0.0759999975562 -0.231999993324 133.0
0.976999998093 -0.082999996841 -0.236000001431 131.0
0.961000025272 -0.0869999974966 -0.231999993324 129.0
0.953999996185 -0.0920000001788 -0.230000004172 126.0
0.95300000906 -0.097999997437 -0.230000004172 123.0
0.949000000954 -0.103000000119 -0.229000002146 132.0
0.948000013828 -0.108999997377 -0.229000002146 133.0
0.961000025272 -0.115999996662 -0.231999993324 133.0
0.931999981403 -0.118000000715 -0.22499999404 139.0
0.972000002861 -0.128999993205 -0.234999999404 138.0
0.934000015259 -0.128999993205 -0.225999996066 134.0
0.953999996185 -0.137999996543 -0.231000006199 138.0
0.95300000906 -0.143999993801 -0.231000006199 134.0
0.972999989986 -0.152999997139 -0.236000001431 131.0
0.944000005722 -0.153999999166 -0.229000002146 136.0
0.967999994755 -0.16400000453 -0.234999999404 140.0
0.949999988079 -0.165999993682 -0.231000006199 137.0
0.958000004292 -0.172999992967 -0.232999995351 135.0
0.935000002384 -0.17499999702 -0.228000000119 137.0
0.924000024796 -0.178000003099 -0.22499999404 140.0
0.935000002384 -0.186000004411 -0.228000000119 133.0
0.917999982834 -0.188999995589 -0.224000006914 141.0
0.958999991417 -0.202999994159 -0.233999997377 128.0
0.958000004292 -0.209000006318 -0.233999997377 136.0
0.95300000906 -0.21400000155 -0.232999995351 139.0
0.949999988079 -0.218999996781 -0.232999995351 137.0
0.944999992847 -0.224000006914 -0.231999993324 139.0
0.963999986649 -0.233999997377 -0.237000003457 138.0
0.949000000954 -0.237000003457 -0.232999995351 132.0
0.93599998951 -0.238999992609 -0.230000004172 131.0
0.944000005722 -0.24699999392 -0.232999995351 133.0
0.925999999046 -0.247999995947 -0.228000000119 135.0
0.948000013828 -0.261000007391 -0.233999997377 131.0
0.948000013828 -0.266999989748 -0.234999999404 134.0
0.947000026703 -0.272000014782 -0.234999999404 128.0
0.949999988079 -0.280000001192 -0.236000001431 134.0
0.944999992847 -0.284000009298 -0.234999999404 129.0
0.961000025272 -0.294999986887 -0.238999992609 124.0
0.925000011921 -0.289999991655 -0.231000006199 127.0
0.911000013351 -0.291999995708 -0.226999998093 122.0
0.943000018597 -0.307999998331 -0.236000001431 122.0
0.925000011921 -0.308999985456 -0.231000006199 123.0
0.952000021935 -0.324000000954 -0.238999992609 122.0
0.907999992371 -0.314999997616 -0.228000000119 115.0
0.957000017166 -0.338999986649 -0.240999996662 121.0
0.907000005245 -0.326999992132 -0.229000002146 118.0
0.90600001812 -0.333000004292 -0.229000002146 114.0
0.915000021458 -0.342999994755 -0.231999993324 116.0
0.908999979496 -0.347000002861 -0.230000004172 119.0
0.917999982834 -0.356999993324 -0.232999995351 108.0
0.90600001812 -0.358000010252 -0.231000006199 110.0
0.884999990463 -0.356000006199 -0.225999996066 117.0
0.924000024796 -0.379000008106 -0.236000001431 115.0
0.947000026703 -0.395000010729 -0.241999998689 102.0
0.93599998951 -0.397000014782 -0.239999994636 109.0
0.902000010014 -0.389999985695 -0.231999993324 101.0
0.97000002861 -0.425999999046 -0.25 98.0
0.920000016689 -0.411000013351 -0.238000005484 106.0
0.963999986649 -0.437999993563 -0.25 107.0
0.894999980927 -0.412999987602 -0.231999993324 104.0
0.888999998569 -0.416999995708 -0.231000006199 110.0
0.922999978065 -0.439999997616 -0.240999996662 95.0
0.948000013828 -0.458999991417 -0.247999995947 93.0
0.878000020981 -0.432000011206 -0.230000004172 96.0
0.902999997139 -0.451000005007 -0.237000003457 91.0
0.894999980927 -0.455000013113 -0.236000001431 96.0
0.887000024319 -0.456999987364 -0.233999997377 100.0
0.917999982834 -0.481000006199 -0.243000000715 92.0
0.887000024319 -0.470999985933 -0.236000001431 90.0
0.917999982834 -0.495999991894 -0.245000004768 91.0
0.916000008583 -0.501999974251 -0.245000004768 93.0
0.908999979496 -0.504999995232 -0.244000002742 92.0
0.910000026226 -0.513999998569 -0.245000004768 90.0
0.875 -0.500999987125 -0.236000001431 89.0
2.38199996948 -0.0529999993742 -0.588999986649 213.0
2.37700009346 -0.0670000016689 -0.587999999523 261.0
2.31299996376 -0.0790000036359 -0.572000026703 213.0
2.31299996376 -0.0920000001788 -0.572000026703 201.0
2.33100008965 -0.107000000775 -0.577000021935 133.0
1.55599999428 -0.0790000036359 -0.384999990463 57.0
1.00499999523 -0.0560000017285 -0.247999995947 116.0
0.958999991417 -0.0590000003576 -0.237000003457 122.0
0.950999975204 -0.0640000030398 -0.234999999404 128.0
0.949000000954 -0.070000000298 -0.234999999404 124.0
0.96899998188 -0.0769999995828 -0.239999994636 130.0
0.966000020504 -0.082000002265 -0.238999992609 127.0
0.959999978542 -0.0869999974966 -0.237000003457 129.0
0.966000020504 -0.0939999967813 -0.238999992609 131.0
0.957000017166 -0.0989999994636 -0.237000003457 134.0
0.976000010967 -0.105999998748 -0.241999998689 136.0
0.97000002861 -0.111000001431 -0.239999994636 134.0
0.967999994755 -0.116999998689 -0.239999994636 139.0
0.953999996185 -0.120999999344 -0.237000003457 132.0
0.949000000954 -0.126000002027 -0.236000001431 133.0
0.943000018597 -0.130999997258 -0.233999997377 131.0
0.97000002861 -0.141000002623 -0.240999996662 131.0
0.935000002384 -0.141000002623 -0.232999995351 133.0
0.950999975204 -0.149000003934 -0.237000003457 136.0
0.944000005722 -0.153999999166 -0.234999999404 142.0
0.958000004292 -0.162000000477 -0.238999992609 142.0
0.961000025272 -0.167999997735 -0.239999994636 136.0
0.962999999523 -0.173999994993 -0.239999994636 139.0
0.958999991417 -0.180000007153 -0.238999992609 134.0
0.930999994278 -0.180000007153 -0.232999995351 141.0
0.978999972343 -0.195999994874 -0.245000004768 139.0
0.967000007629 -0.199000000954 -0.241999998689 135.0
0.922999978065 -0.195999994874 -0.231000006199 135.0
0.938000023365 -0.204999998212 -0.234999999404 132.0
0.952000021935 -0.21400000155 -0.238999992609 131.0
0.949000000954 -0.218999996781 -0.238999992609 135.0
0.912000000477 -0.216000005603 -0.229000002146 132.0
0.954999983311 -0.231999993324 -0.240999996662 130.0
0.959999978542 -0.239999994636 -0.241999998689 137.0
0.943000018597 -0.240999996662 -0.238000005484 133.0
0.926999986172 -0.243000000715 -0.233999997377 132.0
0.938000023365 -0.252000004053 -0.237000003457 134.0
0.948000013828 -0.261000007391 -0.239999994636 132.0
0.935000002384 -0.263000011444 -0.237000003457 124.0
0.944999992847 -0.272000014782 -0.239999994636 129.0
0.949000000954 -0.280000001192 -0.241999998689 128.0
0.95300000906 -0.287000000477 -0.243000000715 127.0
0.948000013828 -0.291999995708 -0.241999998689 121.0
0.95300000906 -0.300000011921 -0.244000002742 122.0
0.913999974728 -0.293000012636 -0.233999997377 124.0
0.936999976635 -0.307000011206 -0.239999994636 124.0
0.916000008583 -0.305999994278 -0.234999999404 126.0
0.933000028133 -0.317999988794 -0.239999994636 125.0
0.934000015259 -0.324999988079 -0.240999996662 119.0
0.930999994278 -0.330000013113 -0.239999994636 117.0
0.907999992371 -0.32800000906 -0.234999999404 115.0
0.962000012398 -0.354999989271 -0.248999997973 114.0
0.952000021935 -0.358000010252 -0.24699999392 116.0
0.921000003815 -0.351999998093 -0.238999992609 114.0
0.922999978065 -0.358999997377 -0.239999994636 115.0
0.902000010014 -0.356999993324 -0.234999999404 113.0
0.947000026703 -0.381999999285 -0.247999995947 112.0
0.915000021458 -0.375999987125 -0.239999994636 108.0
0.93599998951 -0.391000002623 -0.246000006795 103.0
0.930000007153 -0.395000010729 -0.245000004768 107.0
0.941999971867 -0.407999992371 -0.248999997973 104.0
0.902999997139 -0.397000014782 -0.238999992609 104.0
0.919000029564 -0.411000013351 -0.244000002742 106.0
0.925999999046 -0.421000003815 -0.246000006795 102.0
0.912000000477 -0.421000003815 -0.243000000715 98.0
0.925999999046 -0.435000002384 -0.24699999392 107.0
0.947000026703 -0.451999992132 -0.254000008106 99.0
0.89200001955 -0.432000011206 -0.238999992609 103.0
0.908999979496 -0.448000013828 -0.245000004768 96.0
0.916000008583 -0.458999991417 -0.24699999392 92.0
0.941999971867 -0.479000002146 -0.254999995232 104.0
0.930000007153 -0.479999989271 -0.252000004053 93.0
0.898999989033 -0.470999985933 -0.244000002742 93.0
0.903999984264 -0.481000006199 -0.246000006795 86.0
0.884000003338 -0.477999985218 -0.241999998689 93.0
0.921000003815 -0.504999995232 -0.252000004053 85.0
0.90600001812 -0.504999995232 -0.248999997973 98.0
0.901000022888 -0.509000003338 -0.248999997973 94.0
0.897000014782 -0.514999985695 -0.247999995947 91.0
2.36999988556 -0.0529999993742 -0.601000010967 232.0
2.3710000515 -0.0670000016689 -0.601000010967 277.0
2.33400011063 -0.0799999982119 -0.592000007629 218.0
2.30200004578 -0.0920000001788 -0.583999991417 204.0
2.30500006676 -0.105999998748 -0.584999978542 131.0
1.50199997425 -0.0769999995828 -0.381000012159 55.0
0.96899998188 -0.0540000014007 -0.245000004768 116.0
0.97000002861 -0.0599999986589 -0.246000006795 124.0
0.967000007629 -0.0649999976158 -0.245000004768 118.0
0.950999975204 -0.070000000298 -0.240999996662 129.0
0.949999988079 -0.0750000029802 -0.240999996662 128.0
0.962000012398 -0.082000002265 -0.244000002742 131.0
0.95300000906 -0.0869999974966 -0.241999998689 130.0
0.927999973297 -0.0900000035763 -0.234999999404 129.0
0.964999973774 -0.10000000149 -0.245000004768 126.0
0.952000021935 -0.104000002146 -0.241999998689 131.0
0.961000025272 -0.111000001431 -0.244000002742 129.0
0.943000018597 -0.11400000006 -0.239999994636 132.0
0.957000017166 -0.122000001371 -0.243000000715 131.0
0.936999976635 -0.125 -0.238000005484 129.0
0.972999989986 -0.135000005364 -0.247999995947 132.0
0.945999979973 -0.136999994516 -0.240999996662 136.0
0.964999973774 -0.145999997854 -0.246000006795 137.0
0.943000018597 -0.148000001907 -0.240999996662 133.0
0.95300000906 -0.156000003219 -0.243000000715 137.0
0.95300000906 -0.16099999845 -0.243000000715 145.0
0.967999994755 -0.170000001788 -0.24699999392 138.0
0.953999996185 -0.172999992967 -0.244000002742 137.0
0.957000017166 -0.180000007153 -0.245000004768 137.0
0.975000023842 -0.188999995589 -0.25 139.0
0.954999983311 -0.190999999642 -0.245000004768 131.0
0.949000000954 -0.195999994874 -0.244000002742 134.0
0.908999979496 -0.193000003695 -0.233999997377 133.0
0.936999976635 -0.204999998212 -0.240999996662 131.0
0.95300000906 -0.21400000155 -0.245000004768 128.0
0.926999986172 -0.21400000155 -0.238999992609 131.0
0.93599998951 -0.222000002861 -0.240999996662 129.0
0.961000025272 -0.233999997377 -0.247999995947 130.0
0.919000029564 -0.230000004172 -0.238000005484 133.0
0.930000007153 -0.238000005484 -0.240999996662 134.0
0.933000028133 -0.245000004768 -0.241999998689 127.0
0.92199999094 -0.247999995947 -0.238999992609 130.0
0.971000015736 -0.268000006676 -0.252000004053 131.0
0.947000026703 -0.266999989748 -0.24699999392 130.0
0.961000025272 -0.277000010014 -0.250999987125 129.0
0.925000011921 -0.273000001907 -0.240999996662 122.0
0.944000005722 -0.284999996424 -0.24699999392 126.0
0.95300000906 -0.293999999762 -0.25 124.0
0.973999977112 -0.307000011206 -0.254999995232 122.0
0.922999978065 -0.29699999094 -0.241999998689 126.0
0.927999973297 -0.303999990225 -0.244000002742 122.0
0.941999971867 -0.314999997616 -0.247999995947 112.0
0.907000005245 -0.310000002384 -0.238999992609 117.0
0.919000029564 -0.319999992847 -0.243000000715 117.0
0.901000022888 -0.319999992847 -0.238999992609 120.0
0.924000024796 -0.333999991417 -0.245000004768 120.0
0.889999985695 -0.32800000906 -0.236000001431 110.0
0.89099997282 -0.335000008345 -0.237000003457 115.0
0.920000016689 -0.351999998093 -0.245000004768 116.0
0.945999979973 -0.368999987841 -0.252999991179 117.0
0.945999979973 -0.375999987125 -0.252999991179 114.0
0.934000015259 -0.377000004053 -0.250999987125 113.0
0.95300000906 -0.391999989748 -0.256000012159 113.0
0.921000003815 -0.386000007391 -0.247999995947 101.0
0.947000026703 -0.402999997139 -0.256000012159 110.0
0.901000022888 -0.389999985695 -0.244000002742 101.0
0.943000018597 -0.416000008583 -0.256000012159 105.0
0.912999987602 -0.409000009298 -0.247999995947 101.0
0.916999995708 -0.416999995708 -0.25 101.0
0.916999995708 -0.425000011921 -0.250999987125 102.0
0.903999984264 -0.425000011921 -0.24699999392 93.0
0.910000026226 -0.435000002384 -0.25 98.0
0.882000029087 -0.428000003099 -0.243000000715 89.0
0.916000008583 -0.451999992132 -0.252999991179 97.0
0.879999995232 -0.441000014544 -0.243000000715 93.0
0.89099997282 -0.453999996185 -0.24699999392 100.0
0.930999994278 -0.481999993324 -0.259000003338 96.0
0.902000010014 -0.474000006914 -0.250999987125 95.0
0.917999982834 -0.488999992609 -0.256999999285 86.0
0.893000006676 -0.483999997377 -0.25 89.0
0.922999978065 -0.507000029087 -0.259999990463 96.0
0.927999973297 -0.518000006676 -0.261999994516 89.0
0.916999995708 -0.518999993801 -0.259000003338 85.0
0.924000024796 -0.53100001812 -0.261999994516 85.0
2.33200001717 -0.0379999987781 -0.606000006199 73.0
2.36299991608 -0.0529999993742 -0.614000022411 253.0
2.35599994659 -0.0670000016689 -0.611999988556 288.0
2.33699989319 -0.0799999982119 -0.606999993324 227.0
2.29500007629 -0.0920000001788 -0.596000015736 211.0
2.30999994278 -0.105999998748 -0.600000023842 129.0
1.47899997234 -0.0759999975562 -0.384000003338 53.0
0.962999999523 -0.0540000014007 -0.25 111.0
0.949999988079 -0.0590000003576 -0.24699999392 123.0
0.961000025272 -0.0649999976158 -0.248999997973 119.0
0.986999988556 -0.0729999989271 -0.256000012159 119.0
0.971000015736 -0.0769999995828 -0.252000004053 126.0
0.966000020504 -0.082999996841 -0.250999987125 121.0
0.98400002718 -0.0900000035763 -0.256000012159 127.0
0.996999979019 -0.097000002861 -0.259000003338 128.0
0.962999999523 -0.10000000149 -0.250999987125 129.0
0.95300000906 -0.104000002146 -0.247999995947 132.0
0.943000018597 -0.108999997377 -0.245000004768 128.0
0.978999972343 -0.119000002742 -0.254999995232 133.0
0.961000025272 -0.122000001371 -0.25 130.0
