ply
format ascii 1.0
element vertex 923
property float x
property float y
property float z
property float intensity
end_header
4.40999984741 2.06100010872 -0.648000001907 139.0
4.36100006104 2.00600004196 -0.638999998569 157.0
4.24900007248 1.92299997807 -0.620999991894 174.0
4.31699991226 1.92200005054 -0.629999995232 162.0
4.35200023651 1.90600001812 -0.633000016212 165.0
4.31699991226 1.85899996758 -0.625999987125 174.0
4.40899991989 1.86699998379 -0.638000011444 157.0
4.47499990463 1.86300003529 -0.646000027657 156.0
4.49399995804 1.83899998665 -0.647000014782 147.0
4.5110001564 1.81500005722 -0.648000001907 143.0
4.53999996185 1.79400002956 -0.651000022888 134.0
4.55700016022 1.76900005341 -0.652000010014 128.0
4.57899999619 1.7460000515 -0.653999984264 125.0
4.5609998703 1.70799994469 -0.649999976158 130.0
4.55100011826 1.67299997807 -0.647000014782 131.0
4.56599998474 1.64800000191 -0.648000001907 136.0
4.60099983215 1.6289999485 -0.651000022888 125.0
4.5609998703 1.58399999142 -0.643999993801 123.0
4.57100009918 1.55700004101 -0.643999993801 116.0
4.57499980927 1.52799999714 -0.643999993801 112.0
4.57999992371 1.5 -0.643000006676 118.0
4.59499979019 1.47399997711 -0.643999993801 124.0
4.55700016022 1.43200004101 -0.638000011444 135.0
4.5689997673 1.40600001812 -0.638000011444 139.0
4.55100011826 1.3710000515 -0.634999990463 134.0
4.55200004578 1.34200000763 -0.634000003338 151.0
4.47300004959 1.28999996185 -0.621999979019 167.0
4.4889998436 1.26600003242 -0.623000025749 169.0
4.48299980164 1.23599994183 -0.620999991894 160.0
4.49300003052 1.21000003815 -0.620999991894 163.0
4.5560002327 1.19799995422 -0.629000008106 149.0
4.8060002327 1.23399996758 -0.662999987602 124.0
4.79500007629 1.2009999752 -0.660000026226 129.0
4.76499986649 1.16400003433 -0.65499997139 144.0
4.74800014496 1.12999999523 -0.652000010014 156.0
4.77699995041 1.10699999332 -0.65499997139 147.0
4.74599981308 1.07099997997 -0.649999976158 143.0
4.77699995041 1.0490000248 -0.652999997139 145.0
4.83300018311 1.03100001812 -0.660000026226 143.0
4.81500005722 0.998000025749 -0.657000005245 139.0
4.82600021362 0.971000015736 -0.657000005245 141.0
4.82000017166 0.939999997616 -0.65600001812 137.0
4.86100006104 0.919000029564 -0.661000013351 138.0
4.83799982071 0.884999990463 -0.657000005245 142.0
4.85900020599 0.860000014305 -0.658999979496 132.0
4.84999990463 0.828999996185 -0.657000005245 133.0
4.875 0.804000020027 -0.660000026226 132.0
4.86499977112 0.773000001907 -0.657999992371 131.0
4.89200019836 0.749000012875 -0.661000013351 130.0
4.88100004196 0.717999994755 -0.658999979496 130.0
4.92600011826 0.694999992847 -0.663999974728 130.0
4.91200017929 0.663999974728 -0.662000000477 139.0
4.92500019073 0.637000024319 -0.662999987602 133.0
4.93200016022 0.60900002718 -0.662999987602 133.0
4.94799995422 0.580999970436 -0.665000021458 129.0
4.92899990082 0.550000011921 -0.662000000477 135.0
4.95200014114 0.523999989033 -0.663999974728 128.0
4.97700023651 0.497000008821 -0.666999995708 128.0
4.94799995422 0.465000003576 -0.662999987602 125.0
5.0 0.441000014544 -0.669000029564 117.0
0.0879999995232 0.00899999961257 -0.0120000001043 80.0
0.180999994278 0.0149999996647 -0.0240000002086 73.0
0.418000012636 0.0309999994934 -0.0560000017285 82.0
0.432999998331 0.0289999991655 -0.0579999983311 86.0
0.326000005007 0.0209999997169 -0.0430000014603 82.0
0.103000000119 0.00700000021607 -0.0140000004321 72.0
0.168999999762 0.00899999961257 -0.0219999998808 70.0
0.171000003815 0.00899999961257 -0.0230000000447 78.0
0.0740000009537 0.00400000018999 -0.00999999977648 65.0
0.234999999404 0.00899999961257 -0.0309999994934 67.0
0.178000003099 0.00600000005215 -0.0240000002086 69.0
0.133000001311 0.00400000018999 -0.0179999992251 68.0
0.134000003338 0.00300000002608 -0.0179999992251 68.0
0.0949999988079 0.00200000009499 -0.0130000002682 63.0
0.145999997854 0.00200000009499 -0.0189999993891 69.0
0.155000001192 0.0010000000475 -0.0209999997169 74.0
0.179000005126 0.0 -0.0240000002086 70.0
0.194999992847 0.0 -0.0260000005364 72.0
0.907999992371 -0.0179999992251 -0.120999999344 327.0
0.98400002718 -0.0250000003725 -0.130999997258 1099.0
0.985000014305 -0.0309999994934 -0.130999997258 1095.0
0.987999975681 -0.0359999984503 -0.130999997258 1105.0
0.989000022411 -0.0419999994338 -0.130999997258 1118.0
0.981999993324 -0.0480000004172 -0.129999995232 1153.0
0.980000019073 -0.0529999993742 -0.129999995232 1180.0
0.981999993324 -0.0590000003576 -0.129999995232 1171.0
0.98400002718 -0.0649999976158 -0.130999997258 1200.0
0.981999993324 -0.070000000298 -0.130999997258 1209.0
0.978999972343 -0.0759999975562 -0.129999995232 1236.0
0.976999998093 -0.0810000002384 -0.129999995232 1230.0
0.972999989986 -0.0869999974966 -0.128999993205 1234.0
0.976000010967 -0.0930000022054 -0.129999995232 1251.0
0.976000010967 -0.097999997437 -0.129999995232 1243.0
0.973999977112 -0.104000002146 -0.129999995232 1212.0
0.917999982834 -0.103000000119 -0.122000001371 449.0
0.794000029564 -0.0930000022054 -0.105999998748 209.0
0.786000013351 -0.097000002861 -0.104999996722 206.0
0.760999977589 -0.097999997437 -0.101000003517 206.0
0.741999983788 -0.10000000149 -0.0989999994636 205.0
0.757000029087 -0.107000000775 -0.101000003517 205.0
0.773000001907 -0.112999998033 -0.103000000119 211.0
0.77999997139 -0.119000002742 -0.104000002146 212.0
0.759999990463 -0.119999997318 -0.101000003517 208.0
0.748000025749 -0.123000003397 -0.10000000149 215.0
0.778999984264 -0.133000001311 -0.104000002146 221.0
0.745999991894 -0.131999999285 -0.10000000149 216.0
0.771000027657 -0.141000002623 -0.103000000119 215.0
0.777000010014 -0.145999997854 -0.104000002146 220.0
0.925000011921 -0.180999994278 -0.123999997973 711.0
0.953999996185 -0.192000001669 -0.12800000608 1351.0
0.95300000906 -0.197999998927 -0.12800000608 1376.0
0.949000000954 -0.202999994159 -0.12800000608 1395.0
0.952000021935 -0.209000006318 -0.12800000608 1392.0
0.952000021935 -0.215000003576 -0.12800000608 1398.0
0.949000000954 -0.219999998808 -0.12800000608 1411.0
0.948000013828 -0.225999996066 -0.12800000608 1420.0
0.945999979973 -0.231000006199 -0.12800000608 1409.0
0.947000026703 -0.237000003457 -0.12800000608 1412.0
0.941999971867 -0.241999998689 -0.12800000608 1441.0
0.939999997616 -0.24699999392 -0.127000004053 1428.0
0.93900001049 -0.252999991179 -0.127000004053 1432.0
0.940999984741 -0.259999990463 -0.12800000608 1438.0
0.933000028133 -0.263000011444 -0.127000004053 1263.0
0.836000025272 -0.240999996662 -0.11400000006 354.0
0.759999990463 -0.223000004888 -0.104000002146 231.0
0.749000012875 -0.22499999404 -0.101999998093 225.0
0.739000022411 -0.225999996066 -0.101000003517 225.0
0.742999970913 -0.232999995351 -0.101999998093 238.0
0.740999996662 -0.237000003457 -0.101999998093 228.0
0.740000009537 -0.240999996662 -0.101999998093 233.0
0.739000022411 -0.246000006795 -0.101999998093 230.0
0.702000021935 -0.238000005484 -0.097000002861 236.0
0.722999989986 -0.25 -0.10000000149 237.0
0.722999989986 -0.254999995232 -0.10000000149 232.0
0.722000002861 -0.259000003338 -0.10000000149 238.0
0.713999986649 -0.261000007391 -0.0989999994636 228.0
0.788999974728 -0.293999999762 -0.108999997377 321.0
0.901000022888 -0.342999994755 -0.125 1253.0
0.910000026226 -0.352999985218 -0.127000004053 1481.0
0.912000000477 -0.360000014305 -0.127000004053 1500.0
0.912000000477 -0.365999996662 -0.127000004053 1509.0
0.907000005245 -0.370999991894 -0.127000004053 1491.0
0.90499997139 -0.375999987125 -0.127000004053 1507.0
0.90600001812 -0.38299998641 -0.127000004053 1518.0
0.901000022888 -0.386999994516 -0.127000004053 1513.0
0.898999989033 -0.393000006676 -0.127000004053 1512.0
0.898000001907 -0.398999989033 -0.127000004053 1504.0
0.898999989033 -0.405999988317 -0.12800000608 1526.0
0.898000001907 -0.412000000477 -0.12800000608 1522.0
0.893000006676 -0.416000008583 -0.127000004053 1494.0
0.870000004768 -0.412000000477 -0.123999997973 1008.0
0.735000014305 -0.352999985218 -0.104999996722 314.0
0.651000022888 -0.317000001669 -0.0930000022054 247.0
0.65600001812 -0.324000000954 -0.0939999967813 244.0
0.658999979496 -0.331000000238 -0.0949999988079 240.0
0.637000024319 -0.324999988079 -0.0920000001788 241.0
0.658999979496 -0.340999990702 -0.0949999988079 245.0
0.617999970913 -0.324999988079 -0.0900000035763 239.0
0.624000012875 -0.333000004292 -0.0909999981523 247.0
0.643000006676 -0.349000006914 -0.0939999967813 241.0
0.60799998045 -0.333999991417 -0.0890000015497 247.0
0.615999996662 -0.344000011683 -0.0909999981523 252.0
4.33900022507 2.50999999046 -0.694999992847 133.0
4.34000015259 2.47499990463 -0.693000018597 126.0
4.32600021362 2.43099999428 -0.688000023365 117.0
4.35099983215 2.40899991989 -0.689999997616 137.0
4.35500001907 2.37599992752 -0.688000023365 139.0
4.33099985123 2.32800006866 -0.681999981403 118.0
0.019999999553 0.00999999977648 -0.00300000002608 131.0
4.38800001144 2.28900003433 -0.686999976635 130.0
4.40199995041 2.26099991798 -0.686999976635 122.0
4.44799995422 2.25 -0.691999971867 128.0
4.43499994278 2.20900011063 -0.688000023365 127.0
4.13700008392 2.02900004387 -0.639999985695 126.0
4.24599981308 2.04999995232 -0.65499997139 127.0
4.35699987411 2.07100009918 -0.670000016689 130.0
4.39599990845 2.05599999428 -0.674000024796 145.0
4.31500005722 1.98599994183 -0.660000026226 164.0
4.28399991989 1.94000005722 -0.653999984264 163.0
4.34499979019 1.93599998951 -0.662000000477 157.0
4.36999988556 1.91499996185 -0.663999974728 162.0
4.33699989319 1.86899995804 -0.657000005245 177.0
4.45300006866 1.88699996471 -0.672999978065 147.0
4.53200006485 1.88800001144 -0.683000028133 131.0
4.53000020981 1.85500001907 -0.680999994278 125.0
4.54699993134 1.83000004292 -0.681999981403 119.0
4.57000017166 1.80700004101 -0.684000015259 124.0
4.59100008011 1.7840000391 -0.68599998951 122.0
4.59499979019 1.75300002098 -0.685000002384 122.0
4.58799982071 1.71899998188 -0.681999981403 131.0
4.60500001907 1.69400000572 -0.683000028133 127.0
4.60900020599 1.66400003433 -0.681999981403 120.0
4.59499979019 1.62800002098 -0.679000020027 114.0
4.57999992371 1.59200000763 -0.675000011921 112.0
4.62599992752 1.57700002193 -0.680999994278 123.0
4.65700006485 1.55700004101 -0.684000015259 117.0
4.6360001564 1.51900005341 -0.680000007153 112.0
4.52600002289 1.45299994946 -0.662000000477 106.0
4.66599988937 1.46800005436 -0.681999981403 113.0
4.61600017548 1.42200005054 -0.672999978065 119.0
4.65799999237 1.40400004387 -0.677999973297 118.0
4.67000007629 1.37800002098 -0.679000020027 112.0
4.5560002327 1.31500005722 -0.661000013351 138.0
4.48099994659 1.26499998569 -0.648999989033 158.0
4.48299980164 1.23699998856 -0.648000001907 164.0
4.51399993896 1.21700000763 -0.652000010014 167.0
4.54500007629 1.19599997997 -0.65499997139 150.0
4.78399991989 1.22899997234 -0.68900001049 121.0
4.79699993134 1.20200002193 -0.68900001049 125.0
4.75 1.16100001335 -0.681999981403 149.0
4.75299978256 1.13199996948 -0.680999994278 149.0
4.75400018692 1.10300004482 -0.680000007153 149.0
4.79500007629 1.08299994469 -0.685000002384 144.0
4.80000019073 1.05400002003 -0.685000002384 142.0
4.79799985886 1.02400004864 -0.684000015259 140.0
4.79500007629 0.994000017643 -0.683000028133 139.0
4.82399988174 0.971000015736 -0.68599998951 140.0
4.82000017166 0.940999984741 -0.685000002384 140.0
4.84399986267 0.916000008583 -0.686999976635 139.0
4.83400011063 0.884999990463 -0.685000002384 132.0
4.88000011444 0.864000022411 -0.690999984741 136.0
4.8639998436 0.832000017166 -0.688000023365 136.0
4.867000103 0.802999973297 -0.688000023365 133.0
4.8860001564 0.777000010014 -0.689999997616 136.0
4.87799978256 0.746999979019 -0.688000023365 133.0
4.86499977112 0.716000020504 -0.685000002384 130.0
4.93800020218 0.697000026703 -0.694999992847 132.0
4.88800001144 0.661000013351 -0.686999976635 133.0
4.92399978638 0.637000024319 -0.691999971867 123.0
4.93800020218 0.60900002718 -0.693000018597 132.0
4.93699979782 0.579999983311 -0.693000018597 139.0
4.9279999733 0.550000011921 -0.690999984741 131.0
4.95699977875 0.523999989033 -0.694000005722 132.0
4.97700023651 0.497000008821 -0.697000026703 127.0
4.94600009918 0.465000003576 -0.691999971867 138.0
4.98999977112 0.439999997616 -0.698000013828 120.0
0.0839999988675 0.00800000037998 -0.0120000001043 81.0
0.182999998331 0.0149999996647 -0.0250000003725 80.0
0.291999995708 0.0219999998808 -0.0410000011325 83.0
0.308999985456 0.0209999997169 -0.0430000014603 80.0
0.287999987602 0.0179999992251 -0.0399999991059 78.0
0.202999994159 0.0120000001043 -0.0280000008643 80.0
0.194000005722 0.0109999999404 -0.0270000007004 78.0
0.0790000036359 0.00499999988824 -0.0109999999404 80.0
0.107000000775 0.00499999988824 -0.0149999996647 81.0
0.15000000596 0.00600000005215 -0.0209999997169 76.0
0.11400000006 0.00400000018999 -0.01600000076 75.0
0.143000006676 0.00400000018999 -0.019999999553 75.0
0.115000002086 0.00300000002608 -0.01600000076 74.0
0.15000000596 0.00300000002608 -0.0209999997169 75.0
0.186000004411 0.00200000009499 -0.0260000005364 67.0
0.167999997735 0.0010000000475 -0.0230000000447 69.0
0.0740000009537 0.0010000000475 -0.00999999977648 74.0
0.167999997735 0.0 -0.0230000000447 68.0
0.912999987602 -0.0179999992251 -0.127000004053 351.0
0.98299998045 -0.0250000003725 -0.136000007391 1016.0
0.926999986172 -0.0289999991655 -0.128999993205 433.0
0.907999992371 -0.0329999998212 -0.126000002027 345.0
0.911000013351 -0.0390000008047 -0.126000002027 370.0
0.916999995708 -0.0439999997616 -0.127000004053 399.0
0.922999978065 -0.0500000007451 -0.12800000608 440.0
0.926999986172 -0.0560000017285 -0.128999993205 475.0
0.925000011921 -0.0610000006855 -0.12800000608 513.0
0.950999975204 -0.0680000036955 -0.131999999285 557.0
0.948000013828 -0.0729999989271 -0.131999999285 610.0
0.949000000954 -0.0790000036359 -0.131999999285 640.0
0.949999988079 -0.0850000008941 -0.131999999285 676.0
0.95300000906 -0.0900000035763 -0.131999999285 713.0
0.950999975204 -0.0960000008345 -0.131999999285 753.0
0.950999975204 -0.101000003517 -0.131999999285 772.0
0.93599998951 -0.104999996722 -0.129999995232 632.0
0.927999973297 -0.109999999404 -0.128999993205 569.0
0.927999973297 -0.115000002086 -0.128999993205 531.0
0.916999995708 -0.119000002742 -0.12800000608 506.0
0.910000026226 -0.123999997973 -0.127000004053 476.0
0.908999979496 -0.128999993205 -0.127000004053 451.0
0.902999997139 -0.133000001311 -0.126000002027 432.0
0.879000008106 -0.135000005364 -0.123000003397 399.0
0.879999995232 -0.140000000596 -0.123000003397 389.0
0.874000012875 -0.144999995828 -0.122000001371 366.0
0.882000029087 -0.150999993086 -0.123000003397 360.0
0.861999988556 -0.152999997139 -0.120999999344 347.0
0.846000015736 -0.155000001192 -0.118000000715 331.0
0.856000006199 -0.162000000477 -0.119999997318 324.0
0.93599998951 -0.182999998331 -0.130999997258 761.0
0.955999970436 -0.193000003695 -0.134000003338 1256.0
0.952000021935 -0.197999998927 -0.134000003338 1301.0
0.947000026703 -0.202999994159 -0.133000001311 1312.0
0.948000013828 -0.209000006318 -0.133000001311 1317.0
0.948000013828 -0.21400000155 -0.133000001311 1317.0
0.947000026703 -0.219999998808 -0.133000001311 1333.0
0.944000005722 -0.22499999404 -0.133000001311 1363.0
0.941999971867 -0.231000006199 -0.133000001311 1372.0
0.941999971867 -0.236000001431 -0.133000001311 1376.0
0.939999997616 -0.241999998689 -0.133000001311 1385.0
0.933000028133 -0.246000006795 -0.131999999285 1390.0
0.939999997616 -0.252999991179 -0.133000001311 1392.0
0.93599998951 -0.25799998641 -0.133000001311 1406.0
0.930999994278 -0.263000011444 -0.131999999285 1181.0
0.818000018597 -0.236000001431 -0.115999996662 348.0
0.759000003338 -0.223000004888 -0.108000002801 245.0
0.759999990463 -0.228000000119 -0.108000002801 242.0
0.774999976158 -0.238000005484 -0.111000001431 246.0
0.741999983788 -0.231999993324 -0.105999998748 246.0
0.762000024319 -0.244000002742 -0.108999997377 244.0
0.736999988556 -0.240999996662 -0.105999998748 247.0
0.723999977112 -0.240999996662 -0.104000002146 245.0
0.745000004768 -0.252999991179 -0.107000000775 243.0
0.741999983788 -0.256999999285 -0.107000000775 246.0
0.740999996662 -0.261999994516 -0.107000000775 244.0
0.73400002718 -0.263999998569 -0.105999998748 249.0
0.728999972343 -0.266999989748 -0.105999998748 245.0
0.820999979973 -0.307000011206 -0.119000002742 356.0
0.907999992371 -0.345999985933 -0.131999999285 1277.0
0.907000005245 -0.351999998093 -0.131999999285 1480.0
0.907999992371 -0.358999997377 -0.131999999285 1488.0
0.90600001812 -0.363999992609 -0.131999999285 1486.0
0.907000005245 -0.370999991894 -0.133000001311 1490.0
0.898000001907 -0.374000012875 -0.131999999285 1490.0
0.907999992371 -0.384000003338 -0.133000001311 1493.0
0.90499997139 -0.389999985695 -0.133000001311 1494.0
0.898999989033 -0.393999993801 -0.133000001311 1504.0
0.898000001907 -0.398999989033 -0.133000001311 1489.0
0.896000027657 -0.405000001192 -0.133000001311 1506.0
0.89099997282 -0.409000009298 -0.131999999285 1484.0
0.889999985695 -0.414999991655 -0.131999999285 1482.0
0.866999983788 -0.411000013351 -0.128999993205 935.0
0.737999975681 -0.354999989271 -0.109999999404 321.0
0.67199999094 -0.32800000906 -0.101000003517 262.0
0.660000026226 -0.326999992132 -0.0989999994636 267.0
0.679000020027 -0.342000007629 -0.101999998093 263.0
0.67199999094 -0.342999994755 -0.101000003517 271.0
0.662999987602 -0.344000011683 -0.10000000149 265.0
0.670000016689 -0.352999985218 -0.101999998093 268.0
0.675999999046 -0.361999988556 -0.103000000119 274.0
0.657999992371 -0.356999993324 -0.10000000149 280.0
0.65499997139 -0.360000014305 -0.10000000149 279.0
0.662000000477 -0.370000004768 -0.101999998093 280.0
0.00499999988824 0.00200000009499 -0.0010000000475 146.0
4.34899997711 2.48200011253 -0.722999989986 142.0
4.34499979019 2.4430000782 -0.72000002861 123.0
4.37900018692 2.42700004578 -0.722999989986 138.0
4.3639998436 2.382999897 -0.71899998188 137.0
4.34200000763 2.33599996567 -0.712999999523 127.0
4.4359998703 2.35100007057 -0.726000010967 138.0
4.41400003433 2.30399990082 -0.72000002861 130.0
4.367000103 2.24499988556 -0.709999978542 121.0
4.45800018311 2.25699996948 -0.722999989986 132.0
4.45900011063 2.22300004959 -0.721000015736 129.0
4.25699996948 2.08899998665 -0.68599998951 122.0
4.29400014877 2.07500004768 -0.689999997616 124.0
4.41400003433 2.09899997711 -0.708000004292 134.0
4.48500013351 2.09899997711 -0.717000007629 125.0
4.45599985123 2.0529999733 -0.711000025272 145.0
4.34999990463 1.97200000286 -0.691999971867 159.0
4.34100008011 1.93499994278 -0.68900001049 151.0
4.37900018692 1.91999995708 -0.693000018597 156.0
4.35799980164 1.87999999523 -0.688000023365 168.0
4.46000003815 1.89199995995 -0.702000021935 139.0
4.52400016785 1.88600003719 -0.711000025272 118.0
4.53900003433 1.86000001431 -0.711000025272 128.0
4.56199979782 1.83800005913 -0.712999999523 120.0
4.49700021744 1.77999997139 -0.700999975204 120.0
4.52500009537 1.75899994373 -0.703999996185 122.0
4.5 1.71800005436 -0.699000000954 116.0
4.52299976349 1.69599997997 -0.700999975204 125.0
4.53800010681 1.67100000381 -0.702000021935 121.0
4.57499980927 1.65299999714 -0.705999970436 121.0
4.52799987793 1.60599994659 -0.697000026703 112.0
4.59899997711 1.60000002384 -0.707000017166 114.0
4.59399986267 1.56700003147 -0.704999983311 113.0
4.57800006866 1.53100001812 -0.700999975204 112.0
4.57299995422 1.49899995327 -0.699000000954 113.0
4.59600019455 1.47699999809 -0.700999975204 104.0
4.65399980545 1.46500003338 -0.708999991417 113.0
4.64499998093 1.43200004101 -0.705999970436 108.0
4.66099977493 1.40600001812 -0.707000017166 106.0
4.69899988174 1.38699996471 -0.712000012398 106.0
4.61199998856 1.33200001717 -0.697000026703 122.0
4.49800014496 1.26999998093 -0.679000020027 154.0
4.51900005341 1.24699997902 -0.680999994278 161.0
4.49599981308 1.2120000124 -0.675999999046 159.0
4.55399990082 1.19900000095 -0.684000015259 149.0
4.81599998474 1.23800003529 -0.722000002861 113.0
4.80700016022 1.20599997044 -0.72000002861 131.0
4.74800014496 1.16100001335 -0.709999978542 145.0
4.742000103 1.12999999523 -0.708000004292 146.0
4.76700019836 1.10599994659 -0.711000025272 143.0
4.79099988937 1.08200001717 -0.713999986649 144.0
4.77699995041 1.04999995232 -0.711000025272 137.0
4.77500009537 1.01999998093 -0.708999991417 143.0
4.79500007629 0.995000004768 -0.712000012398 141.0
4.82399988174 0.972000002861 -0.714999973774 140.0
4.82800006866 0.943000018597 -0.714999973774 135.0
4.83799982071 0.915000021458 -0.714999973774 135.0
4.83699989319 0.885999977589 -0.713999986649 135.0
4.84800004959 0.85900002718 -0.714999973774 137.0
4.882999897 0.836000025272 -0.72000002861 135.0
4.87699985504 0.805000007153 -0.717999994755 133.0
4.86299991608 0.773999989033 -0.716000020504 135.0
4.87799978256 0.746999979019 -0.717000007629 139.0
4.87900018692 0.717999994755 -0.716000020504 138.0
4.91900014877 0.694999992847 -0.722000002861 133.0
4.92199993134 0.666000008583 -0.722000002861 135.0
4.92899990082 0.638000011444 -0.722000002861 131.0
4.93300008774 0.60900002718 -0.722000002861 129.0
4.93300008774 0.579999983311 -0.721000015736 136.0
4.93300008774 0.550999999046 -0.721000015736 132.0
4.96000003815 0.524999976158 -0.723999977112 134.0
4.96000003815 0.495999991894 -0.723999977112 129.0
4.96899986267 0.467000007629 -0.725000023842 134.0
5.01200008392 0.442000001669 -0.730000019073 118.0
0.142000004649 0.0130000002682 -0.0209999997169 89.0
0.142000004649 0.0120000001043 -0.0209999997169 85.0
0.168999999762 0.0130000002682 -0.0250000003725 78.0
0.105999998748 0.00800000037998 -0.0149999996647 78.0
0.101999998093 0.00700000021607 -0.0149999996647 73.0
0.190999999642 0.0120000001043 -0.0280000008643 78.0
0.0900000035763 0.00600000005215 -0.0130000002682 79.0
0.136000007391 0.00700000021607 -0.019999999553 85.0
0.128999993205 0.00600000005215 -0.0189999993891 89.0
0.130999997258 0.00499999988824 -0.0189999993891 83.0
0.159999996424 0.00499999988824 -0.0230000000447 78.0
0.195999994874 0.00499999988824 -0.0280000008643 79.0
0.175999999046 0.00400000018999 -0.0250000003725 82.0
0.180000007153 0.00300000002608 -0.0260000005364 82.0
0.165000006557 0.00200000009499 -0.0240000002086 77.0
0.0759999975562 0.0010000000475 -0.0109999999404 74.0
0.0759999975562 0.0010000000475 -0.0109999999404 72.0
0.0949999988079 0.0 -0.0140000004321 72.0
0.922999978065 -0.0179999992251 -0.134000003338 358.0
0.986000001431 -0.0250000003725 -0.143000006676 1011.0
0.884000003338 -0.0270000007004 -0.12800000608 314.0
0.758000016212 -0.0270000007004 -0.109999999404 188.0
0.75 -0.0309999994934 -0.108000002801 191.0
0.78100001812 -0.0370000004768 -0.112999998033 185.0
0.748000025749 -0.0399999991059 -0.108000002801 191.0
0.740000009537 -0.0439999997616 -0.107000000775 183.0
0.748000025749 -0.0489999987185 -0.108000002801 191.0
0.75 -0.0529999993742 -0.108999997377 200.0
0.78100001812 -0.0599999986589 -0.112999998033 199.0
0.759999990463 -0.0630000010133 -0.109999999404 204.0
0.762000024319 -0.0670000016689 -0.109999999404 197.0
0.771000027657 -0.0729999989271 -0.112000003457 207.0
0.788999974728 -0.0790000036359 -0.11400000006 204.0
0.847999989986 -0.0900000035763 -0.123000003397 267.0
0.961000025272 -0.108000002801 -0.138999998569 1051.0
0.971000015736 -0.115000002086 -0.141000002623 1274.0
0.964999973774 -0.119999997318 -0.140000000596 1261.0
0.96899998188 -0.126000002027 -0.141000002623 1259.0
0.962000012398 -0.130999997258 -0.140000000596 1259.0
0.962000012398 -0.136999994516 -0.140000000596 1264.0
0.964999973774 -0.143000006676 -0.140000000596 1245.0
0.962999999523 -0.148000001907 -0.140000000596 1232.0
0.961000025272 -0.153999999166 -0.140000000596 1241.0
0.954999983311 -0.158000007272 -0.138999998569 1225.0
0.958999991417 -0.165000006557 -0.140000000596 1220.0
0.955999970436 -0.170000001788 -0.138999998569 1202.0
0.953999996185 -0.17499999702 -0.138999998569 1200.0
0.952000021935 -0.180999994278 -0.138999998569 1175.0
0.930000007153 -0.181999996305 -0.136000007391 748.0
0.89099997282 -0.180000007153 -0.129999995232 418.0
0.887000024319 -0.184000000358 -0.129999995232 428.0
0.884000003338 -0.188999995589 -0.128999993205 459.0
0.902999997139 -0.199000000954 -0.131999999285 480.0
0.89099997282 -0.201000005007 -0.130999997258 503.0
0.899999976158 -0.209000006318 -0.131999999285 537.0
0.901000022888 -0.215000003576 -0.131999999285 556.0
0.902000010014 -0.221000000834 -0.133000001311 596.0
0.907000005245 -0.226999998093 -0.134000003338 615.0
0.903999984264 -0.232999995351 -0.133000001311 635.0
0.899999976158 -0.237000003457 -0.133000001311 671.0
0.899999976158 -0.243000000715 -0.133000001311 697.0
0.902000010014 -0.248999997973 -0.133000001311 715.0
0.907999992371 -0.256000012159 -0.135000005364 740.0
0.910000026226 -0.263000011444 -0.135000005364 840.0
0.913999974728 -0.270000010729 -0.136000007391 853.0
0.902999997139 -0.272000014782 -0.134000003338 832.0
0.898000001907 -0.277000010014 -0.134000003338 820.0
0.898999989033 -0.282999992371 -0.134000003338 798.0
0.899999976158 -0.28900000453 -0.134000003338 788.0
0.897000014782 -0.293999999762 -0.134000003338 779.0
0.898000001907 -0.300000011921 -0.134000003338 762.0
0.888999998569 -0.303000003099 -0.133000001311 752.0
0.883000016212 -0.307000011206 -0.133000001311 741.0
0.883000016212 -0.312999993563 -0.133000001311 735.0
0.875999987125 -0.316000014544 -0.131999999285 716.0
0.871999979019 -0.319999992847 -0.131999999285 715.0
0.879999995232 -0.328999996185 -0.133000001311 745.0
0.893000006676 -0.340999990702 -0.135000005364 961.0
0.888000011444 -0.344999998808 -0.135000005364 980.0
0.894999980927 -0.354000002146 -0.136000007391 997.0
0.89099997282 -0.358000010252 -0.136000007391 998.0
0.89200001955 -0.365000009537 -0.136000007391 1011.0
0.887000024319 -0.368999987841 -0.136000007391 1020.0
0.888000011444 -0.375999987125 -0.136000007391 1033.0
0.880999982357 -0.379000008106 -0.135000005364 1037.0
0.876999974251 -0.384000003338 -0.135000005364 1039.0
0.879999995232 -0.391999989748 -0.136000007391 1037.0
0.876999974251 -0.397000014782 -0.136000007391 1040.0
0.876999974251 -0.402999997139 -0.136000007391 1042.0
0.870000004768 -0.405999988317 -0.135000005364 1043.0
0.852999985218 -0.405000001192 -0.133000001311 804.0
0.847000002861 -0.407999992371 -0.131999999285 690.0
0.842000007629 -0.412000000477 -0.131999999285 692.0
0.827000021935 -0.411000013351 -0.129999995232 678.0
0.825999975204 -0.416999995708 -0.129999995232 687.0
0.84399998188 -0.432999998331 -0.133000001311 696.0
0.836000025272 -0.435000002384 -0.131999999285 701.0
0.832000017166 -0.439999997616 -0.131999999285 713.0
0.829999983311 -0.444999992847 -0.131999999285 715.0
0.829999983311 -0.451999992132 -0.131999999285 728.0
0.829999983311 -0.458999991417 -0.133000001311 738.0
0.819999992847 -0.460000008345 -0.130999997258 739.0
0.500999987125 0.28900000453 -0.0869999974966 219.0
0.414999991655 0.236000001431 -0.0719999969006 203.0
0.407999992371 0.229000002146 -0.070000000298 171.0
0.326999992132 0.180000007153 -0.0560000017285 169.0
0.236000001431 0.12800000608 -0.0399999991059 160.0
0.143000006676 0.0759999975562 -0.0240000002086 144.0
0.126000002027 0.0659999996424 -0.0209999997169 148.0
0.0909999981523 0.0469999983907 -0.0149999996647 146.0
0.0689999982715 0.035000000149 -0.0120000001043 133.0
0.0670000016689 0.0329999998212 -0.0109999999404 138.0
0.00700000021607 0.00300000002608 -0.0010000000475 132.0
4.29699993134 2.11100006104 -0.721000015736 130.0
4.35699987411 2.10700011253 -0.728999972343 130.0
4.42000007629 2.10400009155 -0.736999988556 129.0
0.00800000037998 0.00300000002608 -0.0010000000475 128.0
4.55999994278 2.10199999809 -0.757000029087 132.0
4.43699979782 2.01200008392 -0.73400002718 150.0
4.42500019073 1.97399997711 -0.730000019073 160.0
4.4359998703 1.9470000267 -0.730000019073 147.0
4.40000009537 1.89900004864 -0.722999989986 161.0
4.49100017548 1.90600001812 -0.736000001431 143.0
4.59600019455 1.91799998283 -0.750999987125 129.0
4.5689997673 1.87399995327 -0.745000004768 129.0
4.57600021362 1.84500002861 -0.744000017643 124.0
4.54199981689 1.7990000248 -0.736999988556 117.0
4.55700016022 1.77300000191 -0.737999975681 124.0
4.53499984741 1.73300004005 -0.73299998045 121.0
4.54199981689 1.70500004292 -0.731999993324 121.0
4.58300018311 1.68900001049 -0.736999988556 118.0
4.58699989319 1.6590000391 -0.736000001431 118.0
4.54400014877 1.61199998856 -0.727999985218 111.0
4.61299991608 1.60599994659 -0.737999975681 114.0
4.61800003052 1.57700002193 -0.736999988556 110.0
4.59600019455 1.5379999876 -0.731999993324 114.0
4.66099977493 1.52900004387 -0.740999996662 105.0
4.63100004196 1.48899996281 -0.735000014305 109.0
4.69999980927 1.48000001907 -0.745000004768 109.0
4.71799993515 1.45500004292 -0.745999991894 109.0
4.69099998474 1.41600000858 -0.740000009537 103.0
4.77099990845 1.40999996662 -0.751999974251 106.0
4.64400005341 1.34200000763 -0.731000006199 120.0
4.55700016022 1.2879999876 -0.716000020504 149.0
4.54799985886 1.25600004196 -0.712999999523 152.0
4.51800012589 1.21899998188 -0.707000017166 144.0
4.5609998703 1.20200002193 -0.712999999523 140.0
4.81699991226 1.23899996281 -0.751999974251 123.0
4.83400011063 1.21300005913 -0.754000008106 116.0
4.78200006485 1.16999995708 -0.744000017643 132.0
4.78999996185 1.14199995995 -0.745000004768 143.0
4.76200008392 1.10599994659 -0.739000022411 137.0
4.80200004578 1.08599996567 -0.744000017643 136.0
4.8220000267 1.05999994278 -0.746999979019 135.0
4.82700014114 1.03199994564 -0.745999991894 136.0
4.81699991226 1.0 -0.744000017643 130.0
4.82000017166 0.971000015736 -0.744000017643 136.0
4.84000015259 0.945999979973 -0.745999991894 135.0
4.84999990463 0.917999982834 -0.745999991894 136.0
4.86100006104 0.89099997282 -0.746999979019 132.0
4.85200023651 0.860000014305 -0.745000004768 126.0
4.88000011444 0.836000025272 -0.749000012875 132.0
4.90899991989 0.81099998951 -0.751999974251 129.0
4.88199996948 0.777000010014 -0.746999979019 130.0
4.89300012589 0.75 -0.748000025749 131.0
4.89599990845 0.721000015736 -0.748000025749 133.0
4.94500017166 0.699000000954 -0.754999995232 135.0
4.92299985886 0.666999995708 -0.750999987125 132.0
4.9279999733 0.638000011444 -0.750999987125 132.0
4.92500019073 0.60799998045 -0.75 136.0
4.9439997673 0.582000017166 -0.751999974251 140.0
4.9470000267 0.552999973297 -0.751999974251 138.0
4.94899988174 0.523999989033 -0.751999974251 135.0
4.96999979019 0.497000008821 -0.754999995232 134.0
4.9439997673 0.465000003576 -0.75 138.0
4.96700000763 0.437999993563 -0.753000020981 125.0
0.0480000004172 0.00499999988824 -0.00700000021607 86.0
0.141000002623 0.0120000001043 -0.0209999997169 81.0
0.163000002503 0.0130000002682 -0.0250000003725 76.0
0.0799999982119 0.00700000021607 -0.0120000001043 79.0
0.150999993086 0.00999999977648 -0.0230000000447 78.0
0.148000001907 0.00899999961257 -0.0219999998808 79.0
0.0890000015497 0.00600000005215 -0.0130000002682 87.0
0.125 0.00700000021607 -0.0189999993891 92.0
0.152999997139 0.00700000021607 -0.0230000000447 98.0
0.097999997437 0.00400000018999 -0.0149999996647 88.0
0.10000000149 0.00400000018999 -0.0149999996647 84.0
0.122000001371 0.00400000018999 -0.0179999992251 83.0
0.12800000608 0.00300000002608 -0.0189999993891 87.0
0.140000000596 0.00300000002608 -0.0209999997169 83.0
0.152999997139 0.00200000009499 -0.0230000000447 75.0
0.0780000016093 0.0010000000475 -0.0120000001043 74.0
0.0759999975562 0.0010000000475 -0.0109999999404 70.0
0.167999997735 0.0 -0.0250000003725 70.0
0.921000003815 -0.0179999992251 -0.138999998569 382.0
0.976999998093 -0.0250000003725 -0.146999999881 992.0
0.85900002718 -0.0270000007004 -0.128999993205 290.0
0.77999997139 -0.0280000008643 -0.116999998689 191.0
0.745000004768 -0.0309999994934 -0.112000003457 181.0
0.750999987125 -0.0359999984503 -0.112999998033 188.0
0.751999974251 -0.0399999991059 -0.112999998033 190.0
0.75 -0.0439999997616 -0.112999998033 188.0
0.736000001431 -0.0480000004172 -0.111000001431 188.0
0.757000029087 -0.0540000014007 -0.11400000006 188.0
0.75 -0.0579999983311 -0.112999998033 193.0
0.754000008106 -0.0619999989867 -0.11400000006 194.0
0.754999995232 -0.0670000016689 -0.11400000006 191.0
0.758000016212 -0.0710000023246 -0.11400000006 201.0
0.759999990463 -0.0759999975562 -0.115000002086 199.0
0.84500002861 -0.0900000035763 -0.127000004053 274.0
0.963999986649 -0.108999997377 -0.145999997854 1067.0
0.971000015736 -0.115000002086 -0.146999999881 1287.0
0.976999998093 -0.122000001371 -0.146999999881 1289.0
0.967999994755 -0.126000002027 -0.145999997854 1304.0
0.96899998188 -0.131999999285 -0.145999997854 1301.0
0.962000012398 -0.136999994516 -0.144999995828 1311.0
0.962999999523 -0.143000006676 -0.145999997854 1324.0
0.967000007629 -0.149000003934 -0.145999997854 1309.0
0.958000004292 -0.152999997139 -0.144999995828 1338.0
0.958000004292 -0.158999994397 -0.144999995828 1337.0
0.959999978542 -0.165000006557 -0.145999997854 1340.0
0.955999970436 -0.170000001788 -0.144999995828 1351.0
0.959999978542 -0.177000001073 -0.145999997854 1361.0
0.959999978542 -0.181999996305 -0.145999997854 1348.0
0.92199999094 -0.180999994278 -0.140000000596 727.0
0.774999976158 -0.156000003219 -0.118000000715 231.0
0.76700001955 -0.158999994397 -0.116999998689 222.0
0.740999996662 -0.158000007272 -0.112999998033 226.0
0.730000019073 -0.159999996424 -0.111000001431 222.0
0.757000029087 -0.171000003815 -0.115999996662 215.0
0.746999979019 -0.172999992967 -0.11400000006 218.0
0.742999970913 -0.177000001073 -0.11400000006 221.0
0.760999977589 -0.186000004411 -0.116999998689 232.0
0.726999998093 -0.181999996305 -0.111000001431 225.0
0.745999991894 -0.190999999642 -0.11400000006 238.0
0.723999977112 -0.189999997616 -0.111000001431 235.0
0.757000029087 -0.203999996185 -0.115999996662 234.0
0.739000022411 -0.202999994159 -0.11400000006 234.0
0.888000011444 -0.250999987125 -0.136999994516 502.0
0.931999981403 -0.268999993801 -0.143999993801 1345.0
0.929000020027 -0.273999989033 -0.143999993801 1445.0
0.930000007153 -0.280999988317 -0.143999993801 1430.0
0.927999973297 -0.286000013351 -0.143999993801 1452.0
0.926999986172 -0.291999995708 -0.143999993801 1446.0
0.929000020027 -0.298999994993 -0.143999993801 1442.0
0.917999982834 -0.300999999046 -0.143000006676 1431.0
0.920000016689 -0.307999998331 -0.143000006676 1448.0
0.916000008583 -0.312000006437 -0.143000006676 1440.0
0.915000021458 -0.317999988794 -0.143000006676 1437.0
0.913999974728 -0.324000000954 -0.143000006676 1426.0
0.912999987602 -0.330000013113 -0.143000006676 1431.0
0.912000000477 -0.33599999547 -0.143000006676 1425.0
0.901000022888 -0.337999999523 -0.142000004649 1216.0
0.815999984741 -0.31099998951 -0.128999993205 399.0
0.763999998569 -0.296000003815 -0.120999999344 290.0
0.758000016212 -0.298999994993 -0.119999997318 292.0
0.760999977589 -0.305999994278 -0.120999999344 289.0
0.764999985695 -0.312000006437 -0.122000001371 300.0
0.759000003338 -0.314999997616 -0.120999999344 290.0
0.759999990463 -0.321000009775 -0.120999999344 308.0
0.745999991894 -0.321000009775 -0.119000002742 308.0
0.722999989986 -0.316000014544 -0.115999996662 312.0
0.759000003338 -0.337999999523 -0.122000001371 318.0
0.763000011444 -0.344999998808 -0.123000003397 324.0
0.762000024319 -0.34999999404 -0.123000003397 318.0
0.740999996662 -0.345999985933 -0.119999997318 321.0
0.856999993324 -0.407000005245 -0.138999998569 897.0
0.880999982357 -0.425000011921 -0.143000006676 1376.0
0.880999982357 -0.432000011206 -0.143000006676 1413.0
0.875999987125 -0.43599998951 -0.143000006676 1411.0
0.876999974251 -0.444000005722 -0.143999993801 1403.0
0.875 -0.449999988079 -0.143999993801 1411.0
0.871999979019 -0.455000013113 -0.143999993801 1424.0
0.870999991894 -0.46099999547 -0.143999993801 1410.0
0.866999983788 -0.465999990702 -0.143000006676 1413.0
0.870000004768 -0.47499999404 -0.143999993801 1415.0
0.864000022411 -0.477999985218 -0.143999993801 1417.0
0.860000014305 -0.483000010252 -0.143999993801 1421.0
0.824000000954 0.476999998093 -0.148000001907 637.0
0.820999979973 0.469000011683 -0.146999999881 619.0
0.816999971867 0.458999991417 -0.145999997854 613.0
0.822000026703 0.456000000238 -0.146999999881 570.0
0.828999996185 0.45300000906 -0.146999999881 553.0
0.823000013828 0.442999988794 -0.145999997854 516.0
0.777999997139 0.412000000477 -0.136999994516 481.0
0.777999997139 0.405999988317 -0.136999994516 459.0
0.776000022888 0.398999989033 -0.136000007391 423.0
0.769999980927 0.389999985695 -0.135000005364 383.0
0.742999970913 0.370999991894 -0.129999995232 345.0
0.714999973774 0.351000010967 -0.123999997973 300.0
0.638999998569 0.307999998331 -0.111000001431 273.0
0.592000007629 0.282000005245 -0.101999998093 250.0
0.582000017166 0.272000014782 -0.10000000149 234.0
0.52999997139 0.244000002742 -0.0909999981523 212.0
0.351999998093 0.158999994397 -0.0599999986589 197.0
0.263999998569 0.118000000715 -0.0450000017881 187.0
0.273999989033 0.119999997318 -0.0469999983907 162.0
0.103000000119 0.0439999997616 -0.0170000009239 158.0
0.133000001311 0.0560000017285 -0.0219999998808 145.0
0.130999997258 0.0540000014007 -0.0219999998808 138.0
0.070000000298 0.0280000008643 -0.0120000001043 127.0
0.0370000004768 0.0149999996647 -0.00600000005215 125.0
4.64300012589 1.84000003338 -0.782999992371 117.0
4.63500022888 1.80499994755 -0.77999997139 122.0
4.67500019073 1.7879999876 -0.785000026226 115.0
4.59399986267 1.72500002384 -0.769999980927 121.0
4.61199998856 1.7009999752 -0.771000027657 119.0
4.64900016785 1.68200004101 -0.776000022888 115.0
4.62099981308 1.64100003242 -0.768999993801 123.0
4.62400007248 1.61099994183 -0.768000006676 118.0
4.64099979401 1.58599996567 -0.769999980927 117.0
4.65299987793 1.55900001526 -0.769999980927 116.0
4.68499994278 1.5379999876 -0.773999989033 111.0
4.6810002327 1.50600004196 -0.772000014782 109.0
4.69500017166 1.48000001907 -0.773000001907 109.0
4.70200014114 1.4509999752 -0.773000001907 107.0
4.76000022888 1.43799996376 -0.78100001812 106.0
4.76399993896 1.4090000391 -0.77999997139 106.0
4.64900016785 1.34399998188 -0.759999990463 132.0
4.56599998474 1.29100000858 -0.745000004768 136.0
4.61600017548 1.27600002289 -0.751999974251 139.0
4.60599994659 1.24399995804 -0.749000012875 146.0
4.65999984741 1.22899997234 -0.757000029087 134.0
4.84100008011 1.2460000515 -0.785000026226 116.0
4.8639998436 1.22099995613 -0.787999987602 114.0
4.79500007629 1.1740000248 -0.774999976158 131.0
4.80100011826 1.14600002766 -0.774999976158 129.0
4.8189997673 1.12000000477 -0.777000010014 129.0
4.83900022507 1.09500002861 -0.77999997139 133.0
4.83199977875 1.06299996376 -0.777000010014 127.0
4.85599994659 1.03900003433 -0.77999997139 122.0
4.87300014496 1.01199996471 -0.782000005245 129.0
4.875 0.98299998045 -0.78100001812 127.0
4.89400005341 0.957000017166 -0.783999979496 122.0
4.875 0.922999978065 -0.77999997139 119.0
4.90299987793 0.898999989033 -0.782999992371 124.0
4.92399978638 0.873000025749 -0.786000013351 111.0
4.92899990082 0.84500002861 -0.786000013351 113.0
4.9390001297 0.815999984741 -0.787000000477 117.0
4.91800022125 0.783999979496 -0.782000005245 119.0
4.96099996567 0.760999977589 -0.788999974728 109.0
4.93400001526 0.726999998093 -0.783999979496 123.0
4.90999984741 0.694000005722 -0.778999984264 116.0
4.95800018311 0.67199999094 -0.786000013351 122.0
4.95399999619 0.64200001955 -0.785000026226 113.0
4.95300006866 0.611999988556 -0.783999979496 116.0
4.97700023651 0.586000025272 -0.787000000477 111.0
4.98699998856 0.558000028133 -0.787999987602 119.0
4.98500013351 0.527999997139 -0.787000000477 113.0
4.98699998856 0.499000012875 -0.787000000477 121.0
4.99900007248 0.470999985933 -0.787999987602 119.0
0.0419999994338 0.00499999988824 -0.00600000005215 110.0
0.0410000011325 0.00499999988824 -0.00600000005215 86.0
0.0630000010133 0.00600000005215 -0.00999999977648 75.0
0.143000006676 0.0109999999404 -0.0219999998808 80.0
0.0900000035763 0.00700000021607 -0.0140000004321 73.0
0.0810000002384 0.00600000005215 -0.0130000002682 80.0
0.16400000453 0.00999999977648 -0.0260000005364 76.0
0.0890000015497 0.00600000005215 -0.0140000004321 82.0
0.0560000017285 0.00400000018999 -0.00899999961257 88.0
0.157000005245 0.00700000021607 -0.0240000002086 92.0
0.0799999982119 0.00400000018999 -0.0120000001043 80.0
0.0419999994338 0.00300000002608 -0.00600000005215 73.0
0.131999999285 0.00400000018999 -0.0209999997169 75.0
0.0500000007451 0.00200000009499 -0.00800000037998 82.0
0.0769999995828 0.00200000009499 -0.0120000001043 75.0
0.0860000029206 0.00200000009499 -0.0130000002682 71.0
0.097999997437 0.0010000000475 -0.0149999996647 71.0
0.0460000000894 0.0010000000475 -0.00700000021607 69.0
0.101000003517 0.0 -0.01600000076 75.0
0.92199999094 -0.0179999992251 -0.143999993801 411.0
0.978999972343 -0.0250000003725 -0.152999997139 987.0
0.876999974251 -0.0270000007004 -0.136999994516 283.0
0.768000006676 -0.0280000008643 -0.119999997318 184.0
0.754000008106 -0.0320000015199 -0.118000000715 188.0
0.748000025749 -0.0359999984503 -0.116999998689 191.0
0.740999996662 -0.0399999991059 -0.115999996662 187.0
0.736999988556 -0.0439999997616 -0.115000002086 192.0
0.745000004768 -0.0489999987185 -0.115999996662 189.0
0.75 -0.0529999993742 -0.116999998689 187.0
0.753000020981 -0.0579999983311 -0.118000000715 195.0
0.745000004768 -0.0619999989867 -0.116999998689 192.0
0.73400002718 -0.0649999976158 -0.115000002086 198.0
0.75 -0.0710000023246 -0.116999998689 197.0
0.758000016212 -0.0759999975562 -0.119000002742 195.0
0.84500002861 -0.0900000035763 -0.131999999285 292.0
0.967000007629 -0.108999997377 -0.151999995112 1086.0
0.976999998093 -0.115999996662 -0.152999997139 1282.0
0.972000002861 -0.120999999344 -0.151999995112 1278.0
0.964999973774 -0.126000002027 -0.151999995112 1293.0
0.96899998188 -0.131999999285 -0.151999995112 1300.0
0.963999986649 -0.136999994516 -0.150999993086 1321.0
0.964999973774 -0.143000006676 -0.151999995112 1319.0
0.967000007629 -0.149000003934 -0.151999995112 1323.0
0.962999999523 -0.153999999166 -0.151999995112 1338.0
0.955999970436 -0.158999994397 -0.150999993086 1352.0
0.962999999523 -0.165999993682 -0.151999995112 1353.0
0.958999991417 -0.171000003815 -0.150999993086 1353.0
0.958000004292 -0.175999999046 -0.150999993086 1357.0
0.953999996185 -0.180999994278 -0.150999993086 1362.0
0.925999999046 -0.181999996305 -0.145999997854 681.0
0.757000029087 -0.151999995112 -0.119999997318 233.0
0.763000011444 -0.158000007272 -0.120999999344 223.0
0.713999986649 -0.151999995112 -0.112999998033 216.0
0.754999995232 -0.165999993682 -0.119999997318 223.0
0.745999991894 -0.167999997735 -0.118000000715 222.0
0.735000014305 -0.170000001788 -0.116999998689 227.0
0.737999975681 -0.175999999046 -0.116999998689 225.0
0.751999974251 -0.184000000358 -0.119999997318 219.0
0.749000012875 -0.187000006437 -0.119000002742 223.0
0.740999996662 -0.189999997616 -0.118000000715 223.0
0.716000020504 -0.187999993563 -0.11400000006 225.0
0.742999970913 -0.20000000298 -0.119000002742 228.0
0.711000025272 -0.195999994874 -0.11400000006 227.0
0.873000025749 -0.24699999392 -0.140000000596 546.0
0.931999981403 -0.270000010729 -0.15000000596 1367.0
0.938000023365 -0.277000010014 -0.150999993086 1449.0
0.930000007153 -0.280999988317 -0.15000000596 1454.0
0.929000020027 -0.287000000477 -0.15000000596 1460.0
0.925999999046 -0.291999995708 -0.149000003934 1457.0
0.925999999046 -0.298000007868 -0.15000000596 1472.0
0.922999978065 -0.303000003099 -0.149000003934 1477.0
0.92199999094 -0.308999985456 -0.149000003934 1461.0
0.924000024796 -0.316000014544 -0.15000000596 1473.0
0.921000003815 -0.321000009775 -0.15000000596 1470.0
0.916999995708 -0.324999988079 -0.149000003934 1481.0
0.916999995708 -0.331999987364 -0.15000000596 1492.0
0.916999995708 -0.337999999523 -0.15000000596 1488.0
0.90600001812 -0.340000003576 -0.148000001907 1205.0
0.778999984264 -0.29699999094 -0.12800000608 347.0
0.705999970436 -0.273999989033 -0.115999996662 238.0
0.684000015259 -0.270000010729 -0.112999998033 233.0
0.712000012398 -0.286000013351 -0.116999998689 235.0
0.681999981403 -0.279000014067 -0.112999998033 231.0
0.685000002384 -0.284999996424 -0.112999998033 237.0
0.68599998951 -0.289999991655 -0.11400000006 237.0
0.679000020027 -0.291999995708 -0.112999998033 243.0
0.683000028133 -0.298000007868 -0.11400000006 241.0
0.685000002384 -0.303999990225 -0.11400000006 243.0
0.663999974728 -0.300000011921 -0.111000001431 241.0
0.653999984264 -0.300000011921 -0.109999999404 241.0
0.67199999094 -0.312999993563 -0.112999998033 247.0
0.869000017643 -0.412999987602 -0.145999997854 974.0
0.884000003338 -0.426999986172 -0.149000003934 1479.0
0.885999977589 -0.435000002384 -0.15000000596 1519.0
0.880999982357 -0.43900001049 -0.15000000596 1508.0
0.876999974251 -0.444000005722 -0.149000003934 1508.0
0.874000012875 -0.449000000954 -0.149000003934 1518.0
0.875999987125 -0.456999987364 -0.15000000596 1520.0
0.876999974251 -0.465000003576 -0.150999993086 1522.0
0.874000012875 -0.469999998808 -0.15000000596 1507.0
0.870000004768 -0.47499999404 -0.15000000596 1520.0
0.864000022411 -0.479000002146 -0.149000003934 1519.0
0.864000022411 -0.486000001431 -0.15000000596 1512.0
0.84399998188 0.488999992609 -0.158000007272 702.0
0.842000007629 0.481000006199 -0.157000005245 729.0
0.842999994755 0.474000006914 -0.156000003219 765.0
0.851000010967 0.472000002861 -0.158000007272 771.0
0.85900002718 0.469000011683 -0.158000007272 777.0
0.856999993324 0.46099999547 -0.157000005245 790.0
0.865999996662 0.460000008345 -0.158999994397 813.0
0.864000022411 0.451000005007 -0.158000007272 807.0
0.862999975681 0.444000005722 -0.157000005245 795.0
0.867999970913 0.439999997616 -0.158000007272 803.0
0.870000004768 0.433999985456 -0.158000007272 815.0
0.869000017643 0.426999986172 -0.157000005245 792.0
0.864000022411 0.418000012636 -0.156000003219 768.0
0.871999979019 0.414999991655 -0.157000005245 755.0
0.865999996662 0.405999988317 -0.155000001192 746.0
0.874000012875 0.402999997139 -0.156000003219 719.0
0.867999970913 0.393999993801 -0.155000001192 696.0
0.866999983788 0.386999994516 -0.153999999166 676.0
0.85900002718 0.377000004053 -0.151999995112 660.0
0.85799998045 0.370999991894 -0.151999995112 622.0
0.851999998093 0.361999988556 -0.15000000596 590.0
0.847000002861 0.354000002146 -0.149000003934 564.0
0.842000007629 0.345999985933 -0.148000001907 536.0
0.825999975204 0.333000004292 -0.144999995828 504.0
0.811999976635 0.321999996901 -0.142000004649 465.0
0.802999973297 0.312999993563 -0.140000000596 432.0
0.791000008583 0.303000003099 -0.137999996543 399.0
0.771000027657 0.289999991655 -0.134000003338 361.0
0.758000016212 0.280000001192 -0.130999997258 327.0
0.723999977112 0.261999994516 -0.125 308.0
0.707000017166 0.250999987125 -0.122000001371 273.0
0.679000020027 0.237000003457 -0.116999998689 254.0
0.598999977112 0.204999998212 -0.103000000119 222.0
0.583000004292 0.194999992847 -0.10000000149 205.0
0.53100001812 0.17499999702 -0.0909999981523 188.0
0.465000003576 0.15000000596 -0.0790000036359 166.0
0.462000012398 0.145999997854 -0.0790000036359 151.0
0.347000002861 0.107000000775 -0.0590000003576 146.0
0.273000001907 0.082999996841 -0.0460000000894 136.0
0.225999996066 0.0670000016689 -0.0379999987781 128.0
0.0540000014007 0.01600000076 -0.00899999961257 140.0
4.73799991608 1.3409999609 -0.801999986172 145.0
4.73299980164 1.30900001526 -0.800000011921 143.0
4.68300008774 1.26499998569 -0.791000008583 142.0
4.72399997711 1.24699997902 -0.796000003815 131.0
0.0469999983907 0.0120000001043 -0.00800000037998 110.0
0.0140000004321 0.00400000018999 -0.00200000009499 117.0
4.83799982071 1.18499994278 -0.811999976635 126.0
4.84100008011 1.15600001812 -0.81099998951 134.0
4.86899995804 1.13199996948 -0.814999997616 119.0
4.83699989319 1.09500002861 -0.809000015259 121.0
4.88800001144 1.0759999752 -0.815999984741 121.0
0.00700000021607 0.00200000009499 -0.0010000000475 116.0
4.882999897 1.01499998569 -0.813000023365 112.0
4.92000007629 0.992999970913 -0.818000018597 113.0
0.00600000005215 0.00200000009499 -0.0010000000475 114.0
0.0109999999404 0.00300000002608 -0.00200000009499 98.0
