ply
format ascii 1.0
element vertex 930
property float x
property float y
property float z
property float intensity
end_header
0.911000013351 -0.469000011683 0.0299999993294 93.0
0.870999991894 -0.455000013113 0.0289999991655 90.0
0.930999994278 -0.493999987841 0.0309999994934 105.0
0.920000016689 -0.495000004768 0.0309999994934 101.0
0.922999978065 -0.504999995232 0.0309999994934 98.0
0.888999998569 -0.493000000715 0.0299999993294 92.0
3.98099994659 1.84800004959 0.0920000001788 71.0
3.91100001335 1.78699994087 0.0900000035763 75.0
3.86999988556 1.74000000954 0.0890000015497 76.0
3.9430000782 1.74399995804 0.0909999981523 70.0
3.96499991417 1.72500002384 0.0909999981523 75.0
3.9849998951 1.70500004292 0.0920000001788 67.0
3.95300006866 1.66400003433 0.0909999981523 74.0
3.95700001717 1.63699996471 0.0909999981523 69.0
3.99300003052 1.56900000572 0.0909999981523 67.0
3.9849998951 1.5379999876 0.0909999981523 68.0
3.91599988937 1.48500001431 0.0900000035763 64.0
4.07299995422 1.51699995995 0.0930000022054 60.0
4.10200023651 1.5 0.0939999967813 71.0
4.06599998474 1.45899999142 0.0930000022054 60.0
4.02500009537 1.41799998283 0.0920000001788 70.0
4.01499986649 1.38699996471 0.0920000001788 64.0
4.01000022888 1.35899996758 0.0909999981523 61.0
4.07899999619 1.35599994659 0.0930000022054 66.0
3.94799995422 1.28600001335 0.0900000035763 76.0
3.91599988937 1.25 0.0890000015497 66.0
4.01300001144 1.25499999523 0.0909999981523 71.0
4.08300018311 1.25100004673 0.0930000022054 65.0
1.23199999332 0.22499999404 0.0270000007004 51.0
1.07799994946 0.152999997139 0.0230000000447 81.0
1.16499996185 0.137999996543 0.0250000003725 102.0
1.05400002003 0.112000003457 0.0230000000447 112.0
1.14400005341 0.115000002086 0.0250000003725 124.0
1.11600005627 0.105999998748 0.0240000002086 126.0
1.08599996567 0.097000002861 0.0240000002086 119.0
1.10699999332 0.0860000029206 0.0240000002086 137.0
1.15600001812 0.082999996841 0.0250000003725 146.0
1.10000002384 0.0289999991655 0.0240000002086 203.0
1.10800004005 0.0219999998808 0.0240000002086 196.0
2.41400003433 -0.104999996722 0.0560000017285 160.0
2.39899992943 -0.118000000715 0.0560000017285 125.0
2.45900011063 -0.135000005364 0.0570000000298 102.0
2.34299993515 -0.142000004649 0.054999999702 206.0
2.33200001717 -0.155000001192 0.0540000014007 90.0
2.40499997139 -0.215000003576 0.0570000000298 93.0
2.29600000381 -0.218999996781 0.0540000014007 147.0
1.26499998569 -0.126000002027 0.0289999991655 102.0
1.01999998093 -0.107000000775 0.0230000000447 140.0
0.999000012875 -0.111000001431 0.0230000000447 141.0
0.981999993324 -0.115000002086 0.0219999998808 148.0
0.992999970913 -0.122000001371 0.0230000000447 144.0
0.971000015736 -0.125 0.0219999998808 147.0
0.972000002861 -0.129999995232 0.0219999998808 149.0
0.972000002861 -0.136000007391 0.0219999998808 148.0
0.98299998045 -0.143000006676 0.0230000000447 155.0
1.00300002098 -0.151999995112 0.0230000000447 158.0
0.989000022411 -0.156000003219 0.0230000000447 158.0
0.980000019073 -0.159999996424 0.0230000000447 152.0
0.990999996662 -0.167999997735 0.0230000000447 158.0
0.986000001431 -0.172999992967 0.0230000000447 156.0
0.986999988556 -0.179000005126 0.0230000000447 157.0
0.990000009537 -0.186000004411 0.0230000000447 157.0
0.981999993324 -0.189999997616 0.0230000000447 157.0
1.0039999485 -0.20000000298 0.0230000000447 154.0
0.981000006199 -0.201000005007 0.0230000000447 150.0
0.959999978542 -0.202999994159 0.0219999998808 158.0
0.975000023842 -0.211999997497 0.0230000000447 158.0
0.986999988556 -0.221000000834 0.0230000000447 154.0
0.959999978542 -0.219999998808 0.0230000000447 153.0
0.952000021935 -0.224000006914 0.0219999998808 154.0
0.971000015736 -0.234999999404 0.0230000000447 150.0
0.959999978542 -0.238000005484 0.0230000000447 147.0
0.976000010967 -0.247999995947 0.0230000000447 153.0
0.949000000954 -0.24699999392 0.0230000000447 148.0
0.992999970913 -0.264999985695 0.0240000002086 143.0
0.973999977112 -0.266000002623 0.0230000000447 147.0
0.981000006199 -0.273999989033 0.0240000002086 149.0
0.950999975204 -0.272000014782 0.0230000000447 139.0
0.955999970436 -0.279000014067 0.0230000000447 139.0
0.967000007629 -0.287999987602 0.0230000000447 138.0
0.955999970436 -0.291000008583 0.0230000000447 130.0
0.947000026703 -0.293999999762 0.0230000000447 136.0
0.962999999523 -0.305999994278 0.0240000002086 134.0
0.972999989986 -0.314999997616 0.0240000002086 130.0
0.940999984741 -0.31099998951 0.0230000000447 131.0
0.958000004292 -0.323000013828 0.0240000002086 130.0
0.940999984741 -0.323000013828 0.0230000000447 127.0
0.952000021935 -0.333000004292 0.0240000002086 129.0
0.93900001049 -0.335000008345 0.0230000000447 130.0
0.973999977112 -0.354000002146 0.0240000002086 123.0
0.958999991417 -0.354999989271 0.0240000002086 128.0
0.930999994278 -0.351000010967 0.0230000000447 124.0
0.958000004292 -0.368000000715 0.0240000002086 126.0
0.934000015259 -0.365000009537 0.0240000002086 120.0
0.95300000906 -0.379000008106 0.0240000002086 119.0
0.912999987602 -0.368999987841 0.0230000000447 118.0
0.933000028133 -0.384000003338 0.0240000002086 118.0
0.949999988079 -0.398000001907 0.0240000002086 111.0
0.927999973297 -0.395000010729 0.0240000002086 119.0
0.90600001812 -0.391999989748 0.0230000000447 124.0
0.949999988079 -0.418000012636 0.0250000003725 109.0
0.926999986172 -0.414999991655 0.0240000002086 120.0
0.941999971867 -0.428000003099 0.0250000003725 110.0
0.949999988079 -0.43900001049 0.0250000003725 111.0
0.938000023365 -0.439999997616 0.0250000003725 114.0
0.962999999523 -0.458999991417 0.0250000003725 110.0
0.941999971867 -0.456000000238 0.0250000003725 102.0
0.95300000906 -0.469000011683 0.0250000003725 106.0
0.949000000954 -0.474000006914 0.0250000003725 106.0
0.927999973297 -0.470999985933 0.0250000003725 104.0
0.950999975204 -0.490000009537 0.0260000005364 96.0
0.955999970436 -0.5 0.0260000005364 99.0
0.870000004768 -0.462000012398 0.0240000002086 96.0
0.92199999094 -0.497000008821 0.0250000003725 96.0
0.954999983311 -0.522000014782 0.0260000005364 97.0
0.934000015259 -0.518000006676 0.0260000005364 92.0
3.52699995041 1.79799997807 0.0599999986589 72.0
3.55200004578 1.78299999237 0.0599999986589 83.0
3.53399991989 1.74699997902 0.0599999986589 79.0
3.96700000763 1.8710000515 0.0670000016689 69.0
3.85700011253 1.78999996185 0.0649999976158 85.0
3.80100011826 1.73599994183 0.0640000030398 84.0
3.89199995995 1.75 0.0659999996424 84.0
3.9240000248 1.73599994183 0.0659999996424 74.0
3.99499988556 1.73800003529 0.0670000016689 80.0
3.93600010872 1.68400001526 0.0659999996424 74.0
3.91199994087 1.64600002766 0.0659999996424 75.0
3.97499990463 1.64400005341 0.0670000016689 73.0
3.9319999218 1.59899997711 0.0659999996424 74.0
4.01700019836 1.60599994659 0.0670000016689 70.0
3.97300004959 1.56099998951 0.0670000016689 70.0
4.00500011444 1.54600000381 0.0670000016689 67.0
3.94499993324 1.49500000477 0.0659999996424 71.0
3.9319999218 1.46399998665 0.0659999996424 76.0
4.01499986649 1.46800005436 0.0670000016689 69.0
4.03000020981 1.44599997997 0.0680000036955 70.0
4.007999897 1.41100001335 0.0670000016689 71.0
3.94099998474 1.36099994183 0.0659999996424 69.0
3.88899993896 1.31799995899 0.0649999976158 76.0
3.98099994659 1.32299995422 0.0670000016689 64.0
3.98000001907 1.29600000381 0.0670000016689 83.0
4.0 1.27699995041 0.0670000016689 74.0
3.99900007248 1.25100004673 0.0670000016689 78.0
3.99300003052 1.22300004959 0.0670000016689 70.0
2.42199993134 -0.104999996722 0.0419999994338 167.0
2.41700005531 -0.119000002742 0.0419999994338 128.0
2.45900011063 -0.135000005364 0.0430000014603 109.0
2.33899998665 -0.142000004649 0.0410000011325 200.0
2.34899997711 -0.156000003219 0.0410000011325 132.0
2.40700006485 -0.216000005603 0.0430000014603 92.0
2.28099989891 -0.216999992728 0.0399999991059 150.0
1.28199994564 -0.12800000608 0.0219999998808 97.0
1.00699996948 -0.105999998748 0.0170000009239 144.0
1.00300002098 -0.111000001431 0.0170000009239 149.0
0.985000014305 -0.115000002086 0.0170000009239 141.0
0.990000009537 -0.120999999344 0.0170000009239 140.0
0.973999977112 -0.125 0.0170000009239 148.0
1.00600004196 -0.135000005364 0.0170000009239 150.0
0.97000002861 -0.136000007391 0.0170000009239 152.0
0.991999983788 -0.144999995828 0.0170000009239 150.0
0.975000023842 -0.148000001907 0.0170000009239 156.0
0.98400002718 -0.155000001192 0.0170000009239 157.0
0.977999985218 -0.159999996424 0.0170000009239 152.0
1.01999998093 -0.172999992967 0.0179999992251 155.0
0.992999970913 -0.173999994993 0.0170000009239 161.0
0.98400002718 -0.178000003099 0.0170000009239 152.0
0.977999985218 -0.182999998331 0.0170000009239 156.0
0.992999970913 -0.192000001669 0.0170000009239 155.0
0.981000006199 -0.195999994874 0.0170000009239 152.0
0.992999970913 -0.203999996185 0.0170000009239 158.0
0.971000015736 -0.204999998212 0.0170000009239 162.0
0.975000023842 -0.211999997497 0.0170000009239 153.0
0.990999996662 -0.221000000834 0.0179999992251 158.0
0.967000007629 -0.222000002861 0.0170000009239 156.0
0.985000014305 -0.231999993324 0.0179999992251 156.0
0.985000014305 -0.238000005484 0.0179999992251 155.0
0.964999973774 -0.238999992609 0.0170000009239 145.0
0.972000002861 -0.24699999392 0.0170000009239 145.0
0.963999986649 -0.250999987125 0.0170000009239 148.0
0.990000009537 -0.263999998569 0.0179999992251 143.0
0.980000019073 -0.268000006676 0.0179999992251 142.0
0.967000007629 -0.270000010729 0.0179999992251 143.0
0.962000012398 -0.27500000596 0.0170000009239 140.0
0.966000020504 -0.282000005245 0.0179999992251 144.0
0.939999997616 -0.280000001192 0.0170000009239 135.0
0.958999991417 -0.291999995708 0.0179999992251 141.0
0.990999996662 -0.307999998331 0.0179999992251 138.0
0.947000026703 -0.300000011921 0.0170000009239 134.0
0.96899998188 -0.31400001049 0.0179999992251 135.0
0.976000010967 -0.323000013828 0.0179999992251 133.0
0.949000000954 -0.319999992847 0.0179999992251 128.0
0.981000006199 -0.337000012398 0.0179999992251 130.0
0.958000004292 -0.33599999547 0.0179999992251 130.0
0.961000025272 -0.342999994755 0.0179999992251 127.0
0.981000006199 -0.356999993324 0.0189999993891 127.0
0.930000007153 -0.344000011683 0.0179999992251 118.0
0.962999999523 -0.363000005484 0.0179999992251 129.0
0.972000002861 -0.372999995947 0.0189999993891 120.0
0.963999986649 -0.377000004053 0.0189999993891 118.0
0.958000004292 -0.381000012159 0.0179999992251 119.0
0.958000004292 -0.388000011444 0.0189999993891 119.0
0.95300000906 -0.391999989748 0.0189999993891 114.0
0.958000004292 -0.400999993086 0.0189999993891 122.0
0.931999981403 -0.397000014782 0.0179999992251 113.0
0.950999975204 -0.412000000477 0.0189999993891 115.0
0.93599998951 -0.412000000477 0.0179999992251 112.0
0.899999976158 -0.402999997139 0.0179999992251 111.0
0.917999982834 -0.416999995708 0.0179999992251 115.0
0.89099997282 -0.411000013351 0.0179999992251 99.0
0.912000000477 -0.428000003099 0.0179999992251 110.0
0.961000025272 -0.458000004292 0.0189999993891 101.0
0.934000015259 -0.451999992132 0.0189999993891 104.0
0.93599998951 -0.460000008345 0.0189999993891 101.0
0.936999976635 -0.467999994755 0.0189999993891 102.0
0.912999987602 -0.462999999523 0.0189999993891 101.0
0.945999979973 -0.486999988556 0.0189999993891 96.0
0.899999976158 -0.469999998808 0.0189999993891 100.0
0.893999993801 -0.474000006914 0.0179999992251 105.0
0.930999994278 -0.500999987125 0.0189999993891 98.0
0.93599998951 -0.512000024319 0.019999999553 96.0
0.92199999094 -0.510999977589 0.0189999993891 94.0
2.83500003815 1.57899999619 0.0299999993294 91.0
3.0569999218 1.6289999485 0.0320000015199 103.0
3.11500000954 1.63499999046 0.0329999998212 87.0
3.5680000782 1.81799995899 0.0379999987781 83.0
3.53200006485 1.77199995518 0.0370000004768 109.0
3.51200008392 1.73500001431 0.0370000004768 101.0
3.5 1.70299994946 0.0370000004768 91.0
3.95700001717 1.86600005627 0.0419999994338 75.0
3.83699989319 1.78100001812 0.0410000011325 103.0
3.87400007248 1.76999998093 0.0410000011325 111.0
3.88100004196 1.74399995804 0.0410000011325 107.0
3.86199998856 1.70799994469 0.0410000011325 100.0
3.85599994659 1.67700004578 0.0410000011325 102.0
3.88199996948 1.66100001335 0.0410000011325 99.0
3.87299990654 1.62999999523 0.0410000011325 94.0
3.8789999485 1.60500001907 0.0410000011325 93.0
3.90000009537 1.58599996567 0.0410000011325 94.0
3.87299990654 1.54799997807 0.0410000011325 96.0
3.89899992943 1.53100001812 0.0410000011325 95.0
3.88100004196 1.49699997902 0.0410000011325 104.0
3.88700008392 1.47300004959 0.0410000011325 97.0
3.93499994278 1.46500003338 0.0419999994338 93.0
3.88599991798 1.41999995708 0.0410000011325 93.0
3.96600008011 1.42299997807 0.0419999994338 94.0
3.97099995613 1.39800000191 0.0419999994338 95.0
3.98600006104 1.37699997425 0.0430000014603 101.0
3.96300005913 1.34300005436 0.0419999994338 91.0
4.01499986649 1.33399999142 0.0430000014603 96.0
3.8900001049 1.26699995995 0.0419999994338 110.0
3.98900008202 1.27300000191 0.0430000014603 99.0
3.95300006866 1.23599994183 0.0419999994338 113.0
3.99900007248 1.22500002384 0.0430000014603 103.0
3.92499995232 1.17700004578 0.0419999994338 68.0
2.41300010681 -0.104999996722 0.0280000008643 173.0
2.39100003242 -0.118000000715 0.0280000008643 129.0
2.40899991989 -0.131999999285 0.0280000008643 116.0
2.33299994469 -0.142000004649 0.0270000007004 211.0
2.38599991798 -0.158999994397 0.0280000008643 92.0
2.41499996185 -0.216000005603 0.0289999991655 93.0
2.26099991798 -0.216000005603 0.0270000007004 157.0
1.27300000191 -0.127000004053 0.0149999996647 103.0
0.976000010967 -0.103000000119 0.0109999999404 137.0
0.977999985218 -0.108000002801 0.0109999999404 142.0
0.998000025749 -0.116999998689 0.0109999999404 143.0
0.985000014305 -0.120999999344 0.0109999999404 140.0
0.949999988079 -0.122000001371 0.0109999999404 143.0
0.990000009537 -0.133000001311 0.0109999999404 155.0
0.990999996662 -0.138999998569 0.0109999999404 153.0
0.977999985218 -0.143000006676 0.0109999999404 153.0
0.980000019073 -0.149000003934 0.0109999999404 151.0
0.980000019073 -0.153999999166 0.0109999999404 156.0
0.981999993324 -0.16099999845 0.0109999999404 157.0
0.981000006199 -0.165999993682 0.0109999999404 151.0
0.967999994755 -0.170000001788 0.0109999999404 153.0
0.981000006199 -0.178000003099 0.0109999999404 159.0
0.991999983788 -0.186000004411 0.0109999999404 162.0
0.995999991894 -0.193000003695 0.0120000001043 158.0
0.994000017643 -0.197999998927 0.0120000001043 152.0
0.971000015736 -0.199000000954 0.0109999999404 159.0
0.944000005722 -0.20000000298 0.0109999999404 159.0
0.975000023842 -0.211999997497 0.0109999999404 159.0
0.986000001431 -0.219999998808 0.0120000001043 148.0
0.981000006199 -0.22499999404 0.0120000001043 150.0
0.953999996185 -0.22499999404 0.0109999999404 151.0
0.971000015736 -0.234999999404 0.0120000001043 154.0
0.980000019073 -0.243000000715 0.0120000001043 146.0
0.947000026703 -0.240999996662 0.0109999999404 146.0
0.962999999523 -0.250999987125 0.0120000001043 150.0
0.975000023842 -0.259999990463 0.0120000001043 142.0
0.975000023842 -0.266000002623 0.0120000001043 140.0
0.949999988079 -0.264999985695 0.0120000001043 142.0
0.961000025272 -0.273999989033 0.0120000001043 145.0
0.98299998045 -0.287000000477 0.0120000001043 137.0
0.96899998188 -0.28900000453 0.0120000001043 141.0
0.947000026703 -0.28900000453 0.0120000001043 136.0
0.97000002861 -0.301999986172 0.0120000001043 145.0
0.944999992847 -0.300000011921 0.0120000001043 135.0
0.973999977112 -0.316000014544 0.0120000001043 130.0
0.972999989986 -0.321000009775 0.0120000001043 139.0
0.955999970436 -0.321999996901 0.0120000001043 130.0
0.955999970436 -0.328999996185 0.0120000001043 131.0
0.950999975204 -0.333000004292 0.0120000001043 130.0
0.992999970913 -0.354000002146 0.0130000002682 121.0
0.939999997616 -0.342000007629 0.0120000001043 126.0
0.950999975204 -0.351999998093 0.0120000001043 125.0
0.957000017166 -0.361000001431 0.0120000001043 121.0
0.944999992847 -0.363000005484 0.0120000001043 119.0
0.930999994278 -0.363999992609 0.0120000001043 123.0
0.90600001812 -0.360000014305 0.0120000001043 117.0
0.934000015259 -0.377999991179 0.0120000001043 118.0
0.953999996185 -0.393000006676 0.0130000002682 121.0
0.939999997616 -0.393999993801 0.0130000002682 120.0
0.939999997616 -0.40000000596 0.0130000002682 110.0
0.963999986649 -0.418000012636 0.0130000002682 116.0
0.939999997616 -0.41400000453 0.0130000002682 117.0
0.939999997616 -0.421000003815 0.0130000002682 112.0
0.963999986649 -0.437999993563 0.0130000002682 109.0
0.89200001955 -0.412000000477 0.0120000001043 106.0
0.962999999523 -0.451999992132 0.0130000002682 109.0
0.93599998951 -0.446000009775 0.0130000002682 108.0
0.943000018597 -0.456999987364 0.0130000002682 103.0
0.941999971867 -0.462999999523 0.0130000002682 105.0
0.908999979496 -0.453999996185 0.0130000002682 97.0
0.944999992847 -0.479000002146 0.0130000002682 99.0
0.936999976635 -0.481999993324 0.0130000002682 101.0
0.944999992847 -0.493999987841 0.0140000004321 90.0
0.931999981403 -0.495000004768 0.0130000002682 99.0
0.907000005245 -0.488000005484 0.0130000002682 99.0
0.89099997282 -0.486999988556 0.0130000002682 97.0
0.893999993801 -0.495999991894 0.0130000002682 94.0
2.93799996376 1.63699996471 0.0120000001043 86.0
3.06100010872 1.63100004196 0.0120000001043 119.0
3.15499997139 1.65699994564 0.0130000002682 99.0
3.28200006485 1.6970000267 0.0140000004321 84.0
3.49699997902 1.78100001812 0.0149999996647 106.0
3.5039999485 1.75800001621 0.0149999996647 126.0
3.53800010681 1.74800002575 0.0149999996647 120.0
3.62800002098 1.76499998569 0.0149999996647 92.0
3.85299992561 1.84500002861 0.0170000009239 72.0
3.90400004387 1.8409999609 0.0170000009239 81.0
3.84400010109 1.7840000391 0.0170000009239 141.0
3.85400009155 1.75999999046 0.0170000009239 139.0
3.8259999752 1.71899998188 0.0170000009239 133.0
3.875 1.71300005913 0.0170000009239 125.0
3.91499996185 1.70299994946 0.0170000009239 122.0
3.92199993134 1.6779999733 0.0170000009239 127.0
3.89899992943 1.63999998569 0.0170000009239 126.0
3.87199997902 1.60099995136 0.0170000009239 126.0
3.89899992943 1.58500003815 0.0170000009239 126.0
3.88800001144 1.55400002003 0.0170000009239 122.0
3.83899998665 1.50800001621 0.0170000009239 129.0
3.94099998474 1.51999998093 0.0179999992251 126.0
3.88700008392 1.47300004959 0.0179999992251 121.0
3.88599991798 1.44599997997 0.0179999992251 119.0
3.92499995232 1.43400001526 0.0179999992251 119.0
3.89899992943 1.39800000191 0.0179999992251 118.0
3.94199991226 1.38699996471 0.0179999992251 112.0
3.94600009918 1.36300003529 0.0179999992251 116.0
3.93099999428 1.33099997044 0.0179999992251 122.0
3.94000005722 1.30799996853 0.0189999993891 120.0
3.94199991226 1.28299999237 0.0189999993891 137.0
3.93700003624 1.25600004196 0.0189999993891 128.0
3.94000005722 1.23099994659 0.0189999993891 147.0
3.96499991417 1.21399998665 0.0189999993891 123.0
2.35400009155 -0.0890000015497 0.0140000004321 48.0
2.41000008583 -0.104999996722 0.0140000004321 183.0
2.40499997139 -0.118000000715 0.0140000004321 128.0
2.4240000248 -0.133000001311 0.0149999996647 115.0
2.33800005913 -0.142000004649 0.0140000004321 217.0
2.40700006485 -0.159999996424 0.0149999996647 136.0
2.40499997139 -0.216000005603 0.0149999996647 93.0
2.28999996185 -0.217999994755 0.0140000004321 162.0
1.22699999809 -0.123000003397 0.00700000021607 105.0
1.0 -0.104999996722 0.00499999988824 143.0
0.991999983788 -0.109999999404 0.00499999988824 141.0
0.990999996662 -0.115999996662 0.00499999988824 138.0
0.995999991894 -0.122000001371 0.00499999988824 144.0
0.976000010967 -0.125 0.00499999988824 152.0
0.999000012875 -0.134000003338 0.00499999988824 150.0
0.975000023842 -0.136999994516 0.00499999988824 152.0
0.98299998045 -0.143000006676 0.00499999988824 149.0
0.999000012875 -0.151999995112 0.00600000005215 150.0
0.985000014305 -0.155000001192 0.00499999988824 151.0
0.992999970913 -0.163000002503 0.00600000005215 157.0
0.990000009537 -0.167999997735 0.00600000005215 158.0
0.973999977112 -0.171000003815 0.00600000005215 162.0
0.990000009537 -0.180000007153 0.00600000005215 153.0
0.990999996662 -0.186000004411 0.00600000005215 161.0
0.980000019073 -0.189999997616 0.00600000005215 154.0
0.980000019073 -0.194999992847 0.00600000005215 156.0
0.985000014305 -0.202000007033 0.00600000005215 152.0
0.980000019073 -0.207000002265 0.00600000005215 162.0
0.998000025749 -0.216999992728 0.00600000005215 151.0
0.971000015736 -0.216999992728 0.00600000005215 151.0
0.985000014305 -0.225999996066 0.00600000005215 150.0
0.98299998045 -0.231999993324 0.00600000005215 148.0
0.978999972343 -0.237000003457 0.00600000005215 150.0
0.954999983311 -0.237000003457 0.00600000005215 148.0
0.944999992847 -0.239999994636 0.00600000005215 154.0
0.944000005722 -0.246000006795 0.00600000005215 142.0
0.959999978542 -0.256000012159 0.00600000005215 141.0
0.947000026703 -0.259000003338 0.00600000005215 146.0
0.930999994278 -0.259999990463 0.00600000005215 141.0
0.949000000954 -0.270999997854 0.00600000005215 148.0
0.98299998045 -0.287000000477 0.00600000005215 140.0
0.947000026703 -0.282000005245 0.00600000005215 135.0
0.924000024796 -0.280999988317 0.00600000005215 134.0
0.989000022411 -0.307999998331 0.00600000005215 129.0
0.97000002861 -0.307999998331 0.00600000005215 137.0
0.971000015736 -0.314999997616 0.00600000005215 137.0
0.948000013828 -0.312999993563 0.00600000005215 129.0
0.967999994755 -0.326000005007 0.00600000005215 130.0
0.935000002384 -0.321000009775 0.00600000005215 134.0
0.958000004292 -0.33599999547 0.00600000005215 129.0
0.955999970436 -0.340999990702 0.00600000005215 127.0
0.924000024796 -0.33599999547 0.00600000005215 129.0
0.964999973774 -0.356999993324 0.00700000021607 123.0
0.958999991417 -0.361999988556 0.00700000021607 120.0
0.930000007153 -0.356999993324 0.00600000005215 128.0
0.913999974728 -0.356999993324 0.00600000005215 125.0
0.964999973774 -0.384000003338 0.00700000021607 115.0
0.931999981403 -0.377000004053 0.00700000021607 119.0
0.957000017166 -0.393999993801 0.00700000021607 123.0
0.944000005722 -0.395000010729 0.00700000021607 110.0
0.945999979973 -0.402999997139 0.00700000021607 116.0
0.907000005245 -0.391999989748 0.00700000021607 115.0
0.925999999046 -0.407000005245 0.00700000021607 109.0
0.916000008583 -0.409999996424 0.00700000021607 110.0
0.930000007153 -0.423000007868 0.00700000021607 106.0
0.957000017166 -0.442000001669 0.00700000021607 110.0
0.93599998951 -0.43900001049 0.00700000021607 105.0
0.949999988079 -0.45300000906 0.00700000021607 106.0
0.95300000906 -0.46099999547 0.00700000021607 104.0
0.986000001431 -0.485000014305 0.00800000037998 111.0
0.947000026703 -0.472999989986 0.00700000021607 106.0
0.967000007629 -0.490999996662 0.00800000037998 101.0
0.927999973297 -0.477999985218 0.00700000021607 94.0
0.935000002384 -0.488000005484 0.00700000021607 96.0
0.913999974728 -0.485000014305 0.00700000021607 97.0
0.921000003815 -0.495999991894 0.00700000021607 91.0
0.93599998951 -0.512000024319 0.00800000037998 98.0
0.929000020027 -0.514999985695 0.00800000037998 94.0
3.08400011063 1.64300000668 -0.00600000005215 125.0
3.16700005531 1.66199994087 -0.00600000005215 103.0
3.31599998474 1.71500003338 -0.00600000005215 87.0
3.47499990463 1.76999998093 -0.00700000021607 115.0
3.5039999485 1.75800001621 -0.00700000021607 135.0
3.52800011635 1.74300003052 -0.00600000005215 121.0
3.6099998951 1.75600004196 -0.00600000005215 96.0
3.84200000763 1.84000003338 -0.00700000021607 83.0
3.87400007248 1.8259999752 -0.00700000021607 101.0
3.85800004005 1.78999996185 -0.00600000005215 153.0
3.83999991417 1.7539999485 -0.00600000005215 160.0
3.84800004959 1.72899997234 -0.00600000005215 148.0
3.88000011444 1.71500003338 -0.00600000005215 137.0
3.92199993134 1.70599997044 -0.00600000005215 131.0
3.87700009346 1.65799999237 -0.00600000005215 125.0
3.90300011635 1.64199995995 -0.00600000005215 132.0
3.86899995804 1.60000002384 -0.00600000005215 134.0
3.8710000515 1.57400000095 -0.00499999988824 131.0
3.88100004196 1.55099999905 -0.00499999988824 129.0
3.86199998856 1.51600003242 -0.00499999988824 131.0
3.97099995613 1.53199994564 -0.00499999988824 131.0
3.91000008583 1.48199999332 -0.00499999988824 132.0
3.90899991989 1.45399999619 -0.00499999988824 129.0
3.88400006294 1.41900002956 -0.00499999988824 132.0
3.882999897 1.39300000668 -0.00499999988824 130.0
3.92000007629 1.37999999523 -0.00499999988824 132.0
3.91300010681 1.35099995136 -0.00400000018999 124.0
3.99300003052 1.35199999809 -0.00400000018999 130.0
3.91599988937 1.29999995232 -0.00400000018999 127.0
3.94199991226 1.28299999237 -0.00400000018999 143.0
3.94499993324 1.25800001621 -0.00400000018999 128.0
3.89899992943 1.21899998188 -0.00400000018999 147.0
3.93700003624 1.20500004292 -0.00400000018999 135.0
3.93899989128 1.17999994755 -0.00400000018999 97.0
2.39100003242 -0.0900000035763 0.0 62.0
2.40400004387 -0.104999996722 0.0 194.0
2.42700004578 -0.119999997318 0.0010000000475 130.0
2.41799998283 -0.133000001311 0.0010000000475 116.0
2.31399989128 -0.141000002623 0.0010000000475 218.0
2.33999991417 -0.156000003219 0.0010000000475 90.0
2.3599998951 -0.211999997497 0.0010000000475 101.0
2.27800011635 -0.216999992728 0.0010000000475 162.0
1.23699998856 -0.123999997973 0.0 102.0
0.986999988556 -0.104000002146 0.0 140.0
1.01100003719 -0.112000003457 0.0 143.0
0.98400002718 -0.115000002086 0.0 143.0
1.01199996471 -0.123999997973 0.0 141.0
0.97000002861 -0.125 0.0 145.0
0.975000023842 -0.130999997258 0.0 155.0
0.972000002861 -0.136000007391 0.0 159.0
0.981000006199 -0.143000006676 0.0 152.0
0.976000010967 -0.148000001907 0.0 154.0
0.985000014305 -0.155000001192 0.0 155.0
0.996999979019 -0.163000002503 0.0 159.0
0.972999989986 -0.165000006557 0.0 152.0
0.972999989986 -0.171000003815 0.0 156.0
0.986999988556 -0.179000005126 0.0 156.0
0.959999978542 -0.180000007153 0.0 156.0
0.989000022411 -0.190999999642 0.0 155.0
0.967999994755 -0.193000003695 0.0 159.0
0.98400002718 -0.202000007033 0.0 152.0
0.973999977112 -0.206000000238 0.0 155.0
0.977999985218 -0.212999999523 0.0 153.0
1.0 -0.224000006914 0.0 152.0
0.973999977112 -0.224000006914 0.0 154.0
0.975000023842 -0.230000004172 0.0 149.0
0.955999970436 -0.231000006199 0.0 149.0
0.941999971867 -0.233999997377 0.0 144.0
0.949999988079 -0.241999998689 0.0 144.0
0.972999989986 -0.252999991179 0.0 154.0
0.950999975204 -0.254000008106 0.0 146.0
0.976999998093 -0.266999989748 0.0 144.0
0.967999994755 -0.270000010729 0.0 144.0
0.975000023842 -0.277999997139 0.0 144.0
0.966000020504 -0.282000005245 0.0 137.0
0.95300000906 -0.284000009298 0.0 140.0
0.962999999523 -0.293000012636 0.0 130.0
0.955999970436 -0.29699999094 0.0 131.0
0.929000020027 -0.294999986887 0.0 135.0
0.972999989986 -0.314999997616 0.0010000000475 135.0
0.96899998188 -0.319999992847 0.0010000000475 135.0
0.972999989986 -0.32800000906 0.0010000000475 135.0
0.924000024796 -0.317000001669 0.0010000000475 131.0
0.950999975204 -0.333000004292 0.0010000000475 125.0
0.947000026703 -0.337999999523 0.0010000000475 126.0
0.962000012398 -0.34999999404 0.0010000000475 136.0
0.961000025272 -0.356000006199 0.0010000000475 133.0
0.944999992847 -0.356000006199 0.0010000000475 123.0
0.948000013828 -0.363999992609 0.0010000000475 125.0
0.933000028133 -0.365000009537 0.0010000000475 123.0
0.950999975204 -0.377999991179 0.0010000000475 121.0
0.949000000954 -0.384000003338 0.0010000000475 122.0
0.934000015259 -0.384000003338 0.0010000000475 113.0
0.953999996185 -0.40000000596 0.0010000000475 117.0
0.935000002384 -0.398000001907 0.0010000000475 115.0
0.925000011921 -0.40000000596 0.0010000000475 106.0
0.913999974728 -0.402000010014 0.0010000000475 111.0
0.964999973774 -0.432000011206 0.0010000000475 104.0
0.958999991417 -0.43599998951 0.0010000000475 104.0
0.93599998951 -0.432000011206 0.0010000000475 107.0
0.935000002384 -0.43900001049 0.0010000000475 101.0
0.966000020504 -0.46099999547 0.0010000000475 108.0
0.902000010014 -0.43599998951 0.0010000000475 107.0
0.981999993324 -0.483000010252 0.0010000000475 100.0
0.971000015736 -0.485000014305 0.0010000000475 100.0
0.96899998188 -0.490999996662 0.0010000000475 87.0
0.934000015259 -0.481000006199 0.0010000000475 95.0
0.935000002384 -0.488999992609 0.0010000000475 99.0
0.916999995708 -0.486999988556 0.0010000000475 95.0
0.898999989033 -0.483999997377 0.0010000000475 96.0
0.934000015259 -0.510999977589 0.00200000009499 98.0
0.887000024319 -0.49200001359 0.0010000000475 90.0
3.10199999809 1.65299999714 -0.0260000005364 124.0
3.15799999237 1.65799999237 -0.0260000005364 101.0
3.35800004005 1.73699998856 -0.0280000008643 80.0
3.47499990463 1.76999998093 -0.0289999991655 115.0
3.49099993706 1.75100004673 -0.0289999991655 135.0
3.53900003433 1.74800002575 -0.0289999991655 115.0
3.78399991989 1.84000003338 -0.0309999994934 97.0
3.85800004005 1.84800004959 -0.0309999994934 98.0
3.8789999485 1.82899999619 -0.0309999994934 122.0
3.83899998665 1.78100001812 -0.0299999993294 178.0
3.84299993515 1.75499999523 -0.0299999993294 183.0
3.85700011253 1.73300004005 -0.0299999993294 163.0
3.87299990654 1.7120000124 -0.0299999993294 140.0
3.87400007248 1.68499994278 -0.0299999993294 141.0
3.84999990463 1.64699995518 -0.0299999993294 133.0
3.89100003242 1.63699996471 -0.0299999993294 137.0
3.84500002861 1.59000003338 -0.0289999991655 136.0
3.89299988747 1.58200001717 -0.0289999991655 145.0
3.91100001335 1.56299996376 -0.0289999991655 140.0
3.89100003242 1.52799999714 -0.0289999991655 143.0
3.91599988937 1.51100003719 -0.0289999991655 139.0
3.89800000191 1.47699999809 -0.0289999991655 146.0
3.89499998093 1.44900000095 -0.0289999991655 139.0
3.89499998093 1.42299997807 -0.0280000008643 135.0
3.9240000248 1.40699994564 -0.0280000008643 142.0
3.96600008011 1.39600002766 -0.0289999991655 136.0
3.90599989891 1.34800004959 -0.0280000008643 141.0
3.95799994469 1.34000003338 -0.0280000008643 136.0
3.95799994469 1.31400001049 -0.0280000008643 147.0
3.94400000572 1.2840000391 -0.0280000008643 140.0
3.92199993134 1.25100004673 -0.0280000008643 134.0
3.9509999752 1.23500001431 -0.0280000008643 152.0
3.95199990273 1.21000003815 -0.0270000007004 132.0
4.03200006485 1.20799994469 -0.0280000008643 103.0
4.36600017548 1.27999997139 -0.0299999993294 57.0
4.32000017166 1.23899996281 -0.0289999991655 60.0
2.50300002098 -0.0949999988079 -0.0130000002682 57.0
2.40499997139 -0.104999996722 -0.0120000001043 210.0
2.38800001144 -0.118000000715 -0.0120000001043 134.0
2.40300011635 -0.131999999285 -0.0120000001043 122.0
2.31999993324 -0.141000002623 -0.0120000001043 229.0
2.3220000267 -0.153999999166 -0.0120000001043 130.0
2.382999897 -0.21400000155 -0.0120000001043 95.0
2.29999995232 -0.219999998808 -0.0109999999404 164.0
1.19200003147 -0.119000002742 -0.00600000005215 105.0
1.00499999523 -0.105999998748 -0.00499999988824 149.0
0.987999975681 -0.109999999404 -0.00499999988824 141.0
0.985000014305 -0.115000002086 -0.00499999988824 139.0
0.990000009537 -0.120999999344 -0.00499999988824 149.0
0.972000002861 -0.125 -0.00499999988824 148.0
0.985000014305 -0.131999999285 -0.00499999988824 152.0
0.976000010967 -0.136999994516 -0.00499999988824 155.0
0.966000020504 -0.141000002623 -0.00499999988824 156.0
1.00800001621 -0.152999997139 -0.00499999988824 151.0
0.978999972343 -0.153999999166 -0.00499999988824 153.0
0.980000019073 -0.159999996424 -0.00499999988824 157.0
0.98299998045 -0.166999995708 -0.00499999988824 155.0
0.973999977112 -0.171000003815 -0.00499999988824 159.0
0.981000006199 -0.178000003099 -0.00499999988824 158.0
0.96899998188 -0.181999996305 -0.00499999988824 155.0
0.986000001431 -0.190999999642 -0.00499999988824 155.0
0.990000009537 -0.196999996901 -0.00499999988824 161.0
0.98400002718 -0.202000007033 -0.00499999988824 150.0
0.948000013828 -0.20000000298 -0.00499999988824 151.0
0.990999996662 -0.216000005603 -0.00499999988824 150.0
0.980000019073 -0.218999996781 -0.00499999988824 150.0
0.941999971867 -0.216000005603 -0.00400000018999 154.0
0.963999986649 -0.226999998093 -0.00499999988824 156.0
0.981999993324 -0.238000005484 -0.00499999988824 148.0
0.950999975204 -0.236000001431 -0.00400000018999 150.0
1.00199997425 -0.254999995232 -0.00499999988824 153.0
0.954999983311 -0.248999997973 -0.00400000018999 149.0
0.962999999523 -0.256999999285 -0.00400000018999 145.0
0.96899998188 -0.264999985695 -0.00400000018999 149.0
0.962000012398 -0.268999993801 -0.00400000018999 143.0
0.987999975681 -0.282000005245 -0.00400000018999 147.0
0.961000025272 -0.280000001192 -0.00400000018999 140.0
0.972000002861 -0.289999991655 -0.00400000018999 140.0
0.952000021935 -0.289999991655 -0.00400000018999 135.0
0.977999985218 -0.303999990225 -0.00400000018999 138.0
0.949999988079 -0.301999986172 -0.00400000018999 136.0
0.962999999523 -0.312000006437 -0.00400000018999 128.0
0.948000013828 -0.312999993563 -0.00400000018999 138.0
0.962999999523 -0.324999988079 -0.00400000018999 130.0
0.947000026703 -0.324999988079 -0.00400000018999 129.0
0.930000007153 -0.326000005007 -0.00400000018999 129.0
0.948000013828 -0.337999999523 -0.00400000018999 124.0
0.950999975204 -0.345999985933 -0.00400000018999 134.0
0.957000017166 -0.354999989271 -0.00400000018999 126.0
0.936999976635 -0.352999985218 -0.00400000018999 124.0
0.924000024796 -0.354999989271 -0.00400000018999 128.0
0.950999975204 -0.372000008821 -0.00400000018999 124.0
0.950999975204 -0.377999991179 -0.00400000018999 121.0
0.90600001812 -0.36700001359 -0.00400000018999 116.0
0.930999994278 -0.38299998641 -0.00400000018999 118.0
0.939999997616 -0.393999993801 -0.00400000018999 114.0
0.945999979973 -0.402999997139 -0.00400000018999 112.0
0.912999987602 -0.395000010729 -0.00400000018999 115.0
0.916999995708 -0.402999997139 -0.00400000018999 110.0
0.927999973297 -0.414999991655 -0.00400000018999 112.0
0.913999974728 -0.416000008583 -0.00400000018999 108.0
0.938000023365 -0.432999998331 -0.00400000018999 107.0
0.916999995708 -0.430000007153 -0.00400000018999 104.0
0.92199999094 -0.43900001049 -0.00400000018999 101.0
0.948000013828 -0.458999991417 -0.00400000018999 98.0
0.945999979973 -0.465000003576 -0.00400000018999 102.0
0.901000022888 -0.449999988079 -0.00300000002608 106.0
0.889999985695 -0.451000005007 -0.00300000002608 99.0
0.939999997616 -0.483999997377 -0.00400000018999 91.0
0.954999983311 -0.5 -0.00400000018999 89.0
0.919000029564 -0.486999988556 -0.00300000002608 98.0
0.888000011444 -0.477999985218 -0.00300000002608 93.0
0.944999992847 -0.51700001955 -0.00300000002608 98.0
0.931999981403 -0.51700001955 -0.00300000002608 90.0
3.05900001526 1.62999999523 -0.0450000017881 127.0
3.21799993515 1.68900001049 -0.0480000004172 101.0
3.46199989319 1.78999996185 -0.0509999990463 79.0
3.46399998665 1.76400005817 -0.0509999990463 114.0
3.49000000954 1.75100004673 -0.0509999990463 137.0
3.60100007057 1.77900004387 -0.0520000010729 124.0
3.77099990845 1.83399999142 -0.0540000014007 100.0
3.77399992943 1.80700004101 -0.0540000014007 105.0
3.82500004768 1.8029999733 -0.054999999702 131.0
3.85299992561 1.7879999876 -0.054999999702 195.0
3.8259999752 1.74699997902 -0.0540000014007 212.0
3.84999990463 1.73000001907 -0.0540000014007 167.0
3.86299991608 1.70799994469 -0.0540000014007 144.0
3.86899995804 1.68200004101 -0.0540000014007 147.0
3.87400007248 1.65699994564 -0.0540000014007 146.0
3.86400008202 1.625 -0.0529999993742 144.0
3.91700005531 1.62000000477 -0.0540000014007 153.0
3.89800000191 1.58500003815 -0.0529999993742 149.0
3.92600011826 1.56799995899 -0.0540000014007 151.0
3.93099999428 1.54299998283 -0.0529999993742 151.0
3.88100004196 1.49699997902 -0.0529999993742 161.0
3.91100001335 1.48199999332 -0.0529999993742 154.0
3.89800000191 1.45000004768 -0.0520000010729 156.0
3.90499997139 1.42700004578 -0.0520000010729 155.0
3.93600010872 1.41100001335 -0.0520000010729 154.0
3.9430000782 1.38800001144 -0.0520000010729 152.0
3.92700004578 1.35599994659 -0.0520000010729 159.0
3.93700003624 1.33299994469 -0.0520000010729 157.0
3.93499994278 1.30700004101 -0.0520000010729 165.0
3.94499993324 1.2840000391 -0.0520000010729 155.0
4.00099992752 1.27600002289 -0.0520000010729 138.0
3.92499995232 1.22699999809 -0.0509999990463 161.0
3.93799996376 1.20500004292 -0.0509999990463 136.0
4.12900018692 1.23699998856 -0.0529999993742 87.0
4.39300012589 1.2879999876 -0.0560000017285 70.0
4.40700006485 1.26400005817 -0.0560000017285 75.0
4.41400003433 1.23800003529 -0.0560000017285 70.0
4.36000013351 1.19500005245 -0.054999999702 61.0
4.42899990082 1.18700003624 -0.0560000017285 66.0
4.42500019073 1.15799999237 -0.0560000017285 59.0
4.41400003433 1.12699997425 -0.054999999702 60.0
4.41499996185 1.10000002384 -0.054999999702 60.0
4.55399990082 1.10699999332 -0.0570000000298 60.0
4.55499982834 1.07899999619 -0.0570000000298 57.0
4.58300018311 1.05700004101 -0.0570000000298 57.0
4.59800004959 1.03299999237 -0.0570000000298 58.0
4.5720000267 0.999000012875 -0.0560000017285 58.0
4.59600019455 0.976000010967 -0.0560000017285 63.0
4.51999998093 0.933000028133 -0.054999999702 54.0
4.66300010681 0.90600001812 -0.0570000000298 54.0
4.62900018692 0.871999979019 -0.0560000017285 55.0
4.65899991989 0.848999977112 -0.0560000017285 56.0
4.64200019836 0.818000018597 -0.0560000017285 51.0
4.73199987411 0.805999994278 -0.0570000000298 54.0
4.73199987411 0.75 -0.0560000017285 57.0
4.8860001564 0.745000004768 -0.0579999983311 49.0
4.72599983215 0.693000018597 -0.0560000017285 51.0
4.6360001564 0.652999997139 -0.054999999702 53.0
2.42700004578 -0.0920000001788 -0.0270000007004 64.0
2.41400003433 -0.104999996722 -0.0260000005364 226.0
2.40700006485 -0.119000002742 -0.0260000005364 137.0
2.37800002098 -0.130999997258 -0.0260000005364 124.0
2.33699989319 -0.142000004649 -0.0250000003725 241.0
2.37199997902 -0.158000007272 -0.0260000005364 109.0
2.34699988365 -0.21099999547 -0.0250000003725 106.0
2.27099990845 -0.216999992728 -0.0240000002086 168.0
1.21000003815 -0.120999999344 -0.0130000002682 113.0
0.981999993324 -0.103000000119 -0.0109999999404 147.0
1.01199996471 -0.112000003457 -0.0109999999404 141.0
0.981000006199 -0.115000002086 -0.0109999999404 154.0
0.975000023842 -0.119999997318 -0.0109999999404 144.0
0.990000009537 -0.127000004053 -0.0109999999404 153.0
0.980000019073 -0.131999999285 -0.0109999999404 153.0
0.981000006199 -0.137999996543 -0.0109999999404 158.0
0.972000002861 -0.142000004649 -0.0109999999404 163.0
0.978999972343 -0.149000003934 -0.0109999999404 154.0
0.978999972343 -0.155000001192 -0.0109999999404 157.0
0.990000009537 -0.162000000477 -0.0109999999404 156.0
0.971000015736 -0.165000006557 -0.00999999977648 154.0
0.961000025272 -0.168999999762 -0.00999999977648 158.0
0.964999973774 -0.17499999702 -0.00999999977648 152.0
0.96899998188 -0.181999996305 -0.00999999977648 158.0
0.96899998188 -0.187999993563 -0.00999999977648 147.0
0.977999985218 -0.194999992847 -0.00999999977648 156.0
0.975000023842 -0.20000000298 -0.00999999977648 155.0
0.966000020504 -0.203999996185 -0.00999999977648 157.0
0.977999985218 -0.212999999523 -0.00999999977648 156.0
0.975000023842 -0.217999994755 -0.00999999977648 156.0
0.976000010967 -0.224000006914 -0.00999999977648 158.0
0.967999994755 -0.228000000119 -0.00999999977648 147.0
0.957000017166 -0.231999993324 -0.00999999977648 148.0
0.95300000906 -0.236000001431 -0.00999999977648 150.0
0.964999973774 -0.245000004768 -0.00999999977648 156.0
0.972000002861 -0.252999991179 -0.00999999977648 151.0
0.976999998093 -0.261000007391 -0.00999999977648 153.0
0.958999991417 -0.261999994516 -0.00999999977648 148.0
0.947000026703 -0.263999998569 -0.00999999977648 147.0
0.962000012398 -0.27500000596 -0.00999999977648 143.0
0.990999996662 -0.289999991655 -0.00999999977648 144.0
0.972999989986 -0.289999991655 -0.00999999977648 142.0
0.967000007629 -0.294999986887 -0.00999999977648 142.0
0.966000020504 -0.300999999046 -0.00999999977648 138.0
0.962000012398 -0.305999994278 -0.00999999977648 137.0
0.967999994755 -0.31400001049 -0.00999999977648 130.0
0.941999971867 -0.31099998951 -0.00999999977648 131.0
0.948000013828 -0.319000005722 -0.00999999977648 132.0
0.967999994755 -0.333000004292 -0.00999999977648 131.0
0.98299998045 -0.344999998808 -0.00999999977648 121.0
0.93900001049 -0.335000008345 -0.00999999977648 127.0
0.935000002384 -0.340000003576 -0.00999999977648 133.0
0.938000023365 -0.347000002861 -0.00999999977648 126.0
0.962999999523 -0.363000005484 -0.00999999977648 132.0
0.947000026703 -0.363999992609 -0.00999999977648 124.0
0.919000029564 -0.358999997377 -0.00899999961257 121.0
0.955999970436 -0.381000012159 -0.00999999977648 122.0
0.962999999523 -0.389999985695 -0.00999999977648 117.0
0.938000023365 -0.386000007391 -0.00999999977648 111.0
0.977999985218 -0.409999996424 -0.00999999977648 112.0
0.958999991417 -0.409000009298 -0.00999999977648 111.0
0.936999976635 -0.405999988317 -0.00999999977648 110.0
0.947000026703 -0.416999995708 -0.00999999977648 109.0
0.889999985695 -0.398000001907 -0.00899999961257 113.0
0.925999999046 -0.421000003815 -0.00899999961257 110.0
0.931999981403 -0.430999994278 -0.00999999977648 103.0
0.902000010014 -0.423000007868 -0.00899999961257 108.0
0.912000000477 -0.435000002384 -0.00899999961257 107.0
0.916000008583 -0.442999988794 -0.00899999961257 100.0
0.962999999523 -0.474000006914 -0.00999999977648 98.0
0.927999973297 -0.463999986649 -0.00899999961257 101.0
0.949999988079 -0.481999993324 -0.00999999977648 102.0
0.920000016689 -0.474000006914 -0.00899999961257 100.0
0.924000024796 -0.483000010252 -0.00899999961257 99.0
0.915000021458 -0.486000001431 -0.00899999961257 96.0
0.940999984741 -0.507000029087 -0.00999999977648 93.0
0.927999973297 -0.507000029087 -0.00899999961257 102.0
0.915000021458 -0.507000029087 -0.00899999961257 97.0
3.10199999809 1.65299999714 -0.0659999996424 126.0
3.1400001049 1.64800000191 -0.0670000016689 104.0
3.41700005531 1.76699995995 -0.0719999969006 82.0
3.50699996948 1.78600001335 -0.0740000009537 123.0
3.52600002289 1.76900005341 -0.0740000009537 132.0
3.52300000191 1.74000000954 -0.0729999989271 120.0
3.76799988747 1.83299994469 -0.0780000016093 109.0
3.79299998283 1.81599998474 -0.0780000016093 110.0
3.84899997711 1.81400001049 -0.0790000036359 141.0
3.83100008965 1.77799999714 -0.0780000016093 199.0
3.83599996567 1.75199997425 -0.0780000016093 200.0
3.85899996758 1.73399996758 -0.0780000016093 160.0
3.85400009155 1.70399999619 -0.0780000016093 147.0
3.88599991798 1.69000005722 -0.0780000016093 148.0
3.83699989319 1.64100003242 -0.0769999995828 148.0
3.88700008392 1.63499999046 -0.0780000016093 150.0
3.88499999046 1.60699999332 -0.0769999995828 155.0
3.92199993134 1.59399998188 -0.0780000016093 156.0
3.85599994659 1.54100000858 -0.0759999975562 141.0
3.91799998283 1.5379999876 -0.0769999995828 144.0
3.89100003242 1.50100004673 -0.0759999975562 153.0
3.91400003433 1.48300004005 -0.0769999995828 163.0
3.91000008583 1.45500004292 -0.0759999975562 154.0
3.94899988174 1.44299995899 -0.0769999995828 154.0
3.93700003624 1.41199994087 -0.0759999975562 153.0
3.92100000381 1.37999999523 -0.0759999975562 153.0
3.95399999619 1.36500000954 -0.0759999975562 153.0
3.9279999733 1.33000004292 -0.0750000029802 153.0
3.96799993515 1.31799995899 -0.0759999975562 168.0
3.91300010681 1.27400004864 -0.0750000029802 157.0
3.96099996567 1.26300001144 -0.0750000029802 135.0
3.9319999218 1.22899997234 -0.0750000029802 154.0
3.90000009537 1.19299995899 -0.0740000009537 135.0
4.09600019455 1.22699999809 -0.0769999995828 87.0
4.40299987793 1.29100000858 -0.082999996841 76.0
4.34499979019 1.2460000515 -0.0810000002384 80.0
4.36499977112 1.22500002384 -0.0810000002384 80.0
4.42000007629 1.2120000124 -0.082000002265 76.0
4.43200016022 1.18700003624 -0.082000002265 69.0
4.40899991989 1.15400004387 -0.082000002265 72.0
4.50099992752 1.14999997616 -0.082999996841 73.0
4.44600009918 1.10800004005 -0.082000002265 74.0
4.48600006104 1.09000003338 -0.082000002265 71.0
4.47399997711 1.05999994278 -0.082000002265 73.0
4.54500007629 1.0490000248 -0.082999996841 69.0
4.53499984741 1.01900005341 -0.082999996841 67.0
4.50699996948 0.985000014305 -0.082000002265 67.0
4.57100009918 0.971000015736 -0.082999996841 65.0
4.57899999619 0.944999992847 -0.082999996841 57.0
4.58099985123 0.917999982834 -0.082999996841 66.0
4.63000011444 0.899999976158 -0.082999996841 59.0
4.61000013351 0.867999970913 -0.082999996841 60.0
4.61299991608 0.841000020504 -0.082999996841 64.0
4.68300008774 0.825999975204 -0.0839999988675 58.0
4.67500019073 0.796000003815 -0.082999996841 61.0
4.59399986267 0.754999995232 -0.082000002265 61.0
4.70300006866 0.745000004768 -0.082999996841 61.0
4.74399995804 0.723999977112 -0.0839999988675 56.0
4.78999996185 0.702000021935 -0.0839999988675 58.0
4.72200012207 0.663999974728 -0.082999996841 57.0
4.8029999733 0.648000001907 -0.0839999988675 58.0
4.81699991226 0.620999991894 -0.0839999988675 55.0
2.39599990845 -0.104000002146 -0.0399999991059 240.0
2.42000007629 -0.119000002742 -0.0399999991059 139.0
2.40199995041 -0.131999999285 -0.0399999991059 134.0
2.34200000763 -0.142000004649 -0.0390000008047 256.0
2.36400008202 -0.157000005245 -0.0390000008047 102.0
2.33200001717 -0.209000006318 -0.0390000008047 105.0
2.26600003242 -0.216000005603 -0.0370000004768 167.0
1.17200005054 -0.116999998689 -0.019999999553 113.0
0.978999972343 -0.103000000119 -0.01600000076 138.0
0.978999972343 -0.108999997377 -0.01600000076 150.0
1.01100003719 -0.118000000715 -0.0170000009239 147.0
0.98400002718 -0.120999999344 -0.01600000076 152.0
0.980000019073 -0.126000002027 -0.01600000076 150.0
0.991999983788 -0.133000001311 -0.0170000009239 155.0
0.971000015736 -0.136000007391 -0.01600000076 162.0
0.986999988556 -0.143999993801 -0.01600000076 162.0
0.972999989986 -0.148000001907 -0.01600000076 160.0
1.01600003242 -0.159999996424 -0.0170000009239 155.0
0.978999972343 -0.159999996424 -0.01600000076 158.0
0.98400002718 -0.166999995708 -0.01600000076 162.0
0.980000019073 -0.172000005841 -0.01600000076 159.0
0.964999973774 -0.17499999702 -0.01600000076 154.0
0.98299998045 -0.184000000358 -0.01600000076 164.0
0.980000019073 -0.189999997616 -0.01600000076 160.0
0.980000019073 -0.194999992847 -0.01600000076 160.0
0.966000020504 -0.199000000954 -0.01600000076 152.0
0.995999991894 -0.21099999547 -0.01600000076 159.0
0.975000023842 -0.211999997497 -0.01600000076 158.0
0.98299998045 -0.219999998808 -0.01600000076 163.0
0.967000007629 -0.222000002861 -0.01600000076 150.0
0.980000019073 -0.231000006199 -0.01600000076 156.0
0.978999972343 -0.237000003457 -0.01600000076 150.0
0.966000020504 -0.239999994636 -0.01600000076 152.0
0.972999989986 -0.247999995947 -0.01600000076 151.0
0.976999998093 -0.254999995232 -0.01600000076 151.0
0.964999973774 -0.256999999285 -0.01600000076 151.0
0.952000021935 -0.259999990463 -0.01600000076 153.0
0.939999997616 -0.261999994516 -0.0149999996647 146.0
0.98299998045 -0.280999988317 -0.01600000076 142.0
0.958999991417 -0.280000001192 -0.01600000076 146.0
0.958000004292 -0.286000013351 -0.01600000076 139.0
0.973999977112 -0.29699999094 -0.01600000076 140.0
0.947000026703 -0.294999986887 -0.01600000076 146.0
0.941999971867 -0.298999994993 -0.0149999996647 141.0
0.975000023842 -0.316000014544 -0.01600000076 136.0
0.957000017166 -0.316000014544 -0.01600000076 139.0
0.926999986172 -0.312000006437 -0.0149999996647 135.0
0.943000018597 -0.324000000954 -0.0149999996647 132.0
0.944000005722 -0.331000000238 -0.0149999996647 131.0
0.96899998188 -0.345999985933 -0.01600000076 127.0
0.955999970436 -0.347999989986 -0.01600000076 128.0
0.949000000954 -0.351999998093 -0.01600000076 133.0
0.925999999046 -0.349000006914 -0.0149999996647 124.0
0.941999971867 -0.361999988556 -0.0149999996647 118.0
0.944999992847 -0.368999987841 -0.0149999996647 120.0
0.921000003815 -0.365999996662 -0.0149999996647 117.0
0.950999975204 -0.384999990463 -0.01600000076 118.0
0.944000005722 -0.388999998569 -0.0149999996647 124.0
0.964999973774 -0.404000014067 -0.01600000076 113.0
0.930999994278 -0.395999997854 -0.0149999996647 118.0
0.941999971867 -0.407999992371 -0.0149999996647 112.0
0.931999981403 -0.409999996424 -0.0149999996647 110.0
0.939999997616 -0.421000003815 -0.0149999996647 110.0
