ply
format ascii 1.0
element vertex 905
property float x
property float y
property float z
property float intensity
end_header
2.16700005531 -1.0909999609 0.157000005245 114.0
2.20499992371 -1.12699997425 0.159999996424 100.0
1.3370000124 -0.702000021935 0.097000002861 689.0
1.33800005913 -0.712999999523 0.097000002861 759.0
1.4279999733 -0.773000001907 0.104000002146 337.0
1.94900000095 -1.07299995422 0.143999993801 131.0
2.07299995422 -1.15799999237 0.152999997139 132.0
0.77999997139 0.448000013828 0.0469999983907 1081.0
0.786000013351 0.444000005722 0.0480000004172 1101.0
0.787000000477 0.43900001049 0.0480000004172 1118.0
0.777999997139 0.426999986172 0.0469999983907 1109.0
0.787999987602 0.426999986172 0.0469999983907 1111.0
0.791000008583 0.42199999094 0.0469999983907 1114.0
0.791000008583 0.416000008583 0.0469999983907 1124.0
0.787999987602 0.407999992371 0.0469999983907 1125.0
0.795000016689 0.405000001192 0.0469999983907 1123.0
0.79699999094 0.40000000596 0.0469999983907 1150.0
0.791999995708 0.391999989748 0.0469999983907 1154.0
0.797999978065 0.388999998569 0.0469999983907 1156.0
0.805999994278 0.386000007391 0.0480000004172 1140.0
0.805999994278 0.379999995232 0.0480000004172 1140.0
0.795000016689 0.368999987841 0.0469999983907 1158.0
0.799000024796 0.365000009537 0.0469999983907 1190.0
0.810000002384 0.363999992609 0.0480000004172 1218.0
0.805999994278 0.356999993324 0.0469999983907 1228.0
0.805000007153 0.34999999404 0.0469999983907 1211.0
0.81099998951 0.347000002861 0.0469999983907 1218.0
0.811999976635 0.342000007629 0.0469999983907 1267.0
0.815999984741 0.337999999523 0.0469999983907 1280.0
0.808000028133 0.328999996185 0.0469999983907 1289.0
0.81099998951 0.324999988079 0.0469999983907 1295.0
0.81400001049 0.319999992847 0.0469999983907 1308.0
0.816999971867 0.316000014544 0.0469999983907 1283.0
0.851999998093 0.323000013828 0.0489999987185 697.0
0.876999974251 0.140000000596 0.0489999987185 1266.0
0.90499997139 0.138999998569 0.0509999990463 1647.0
0.907000005245 0.134000003338 0.0509999990463 1661.0
0.907999992371 0.128999993205 0.0509999990463 1612.0
0.898999989033 0.123000003397 0.0500000007451 1627.0
0.903999984264 0.118000000715 0.0509999990463 1649.0
0.901000022888 0.112000003457 0.0509999990463 1607.0
0.910000026226 0.108000002801 0.0509999990463 1616.0
0.90600001812 0.101999998093 0.0509999990463 1619.0
0.912000000477 0.097999997437 0.0509999990463 1571.0
0.908999979496 0.0920000001788 0.0509999990463 1588.0
0.90600001812 0.0869999974966 0.0509999990463 1566.0
0.907999992371 0.0810000002384 0.0509999990463 1566.0
0.911000013351 0.0769999995828 0.0509999990463 1538.0
0.912999987602 0.0710000023246 0.0509999990463 1536.0
0.912999987602 0.0659999996424 0.0509999990463 1545.0
0.911000013351 0.0610000006855 0.0509999990463 1542.0
0.916999995708 0.0560000017285 0.0509999990463 1552.0
0.912000000477 0.0500000007451 0.0509999990463 1557.0
0.913999974728 0.0450000017881 0.0509999990463 1549.0
0.915000021458 0.0399999991059 0.0509999990463 1559.0
0.922999978065 0.035000000149 0.0520000010729 1556.0
0.912000000477 0.0289999991655 0.0509999990463 1525.0
0.913999974728 0.0240000002086 0.0509999990463 1528.0
0.916999995708 0.0189999993891 0.0520000010729 1554.0
0.921000003815 0.0140000004321 0.0520000010729 1549.0
0.915000021458 0.00800000037998 0.0520000010729 1530.0
0.920000016689 0.00300000002608 0.0520000010729 1525.0
0.919000029564 -0.0010000000475 0.0520000010729 1526.0
0.919000029564 -0.00600000005215 0.0520000010729 1513.0
0.92199999094 -0.0120000001043 0.0520000010729 1489.0
0.919000029564 -0.0170000009239 0.0520000010729 1473.0
0.924000024796 -0.0219999998808 0.0520000010729 1465.0
0.92199999094 -0.0270000007004 0.0520000010729 1463.0
0.922999978065 -0.0329999998212 0.0520000010729 1461.0
0.926999986172 -0.0379999987781 0.0529999993742 1465.0
0.924000024796 -0.0430000014603 0.0520000010729 1466.0
0.925000011921 -0.0489999987185 0.0520000010729 1454.0
0.930000007153 -0.0540000014007 0.0529999993742 1449.0
0.927999973297 -0.0599999986589 0.0529999993742 1442.0
0.927999973297 -0.0649999976158 0.0529999993742 1439.0
0.933000028133 -0.0710000023246 0.0529999993742 1435.0
0.924000024796 -0.0750000029802 0.0529999993742 1417.0
0.930000007153 -0.0810000002384 0.0529999993742 1408.0
0.927999973297 -0.0869999974966 0.0529999993742 1405.0
0.926999986172 -0.0920000001788 0.0529999993742 1397.0
0.930999994278 -0.097999997437 0.0529999993742 1395.0
0.927999973297 -0.103000000119 0.0529999993742 1402.0
0.929000020027 -0.108000002801 0.0529999993742 1408.0
0.934000015259 -0.11400000006 0.0540000014007 1392.0
0.929000020027 -0.119000002742 0.0529999993742 1377.0
0.929000020027 -0.123999997973 0.0529999993742 1376.0
0.934000015259 -0.130999997258 0.0540000014007 1378.0
0.935000002384 -0.136000007391 0.0540000014007 1378.0
0.93599998951 -0.142000004649 0.0540000014007 1385.0
0.930999994278 -0.146999999881 0.0540000014007 1385.0
0.935000002384 -0.152999997139 0.0540000014007 1416.0
0.936999976635 -0.158999994397 0.0540000014007 1399.0
0.930999994278 -0.163000002503 0.0540000014007 1397.0
0.935000002384 -0.168999999762 0.0540000014007 1387.0
0.93599998951 -0.17499999702 0.0540000014007 1381.0
0.938000023365 -0.180999994278 0.054999999702 1385.0
0.940999984741 -0.187999993563 0.054999999702 1368.0
0.940999984741 -0.193000003695 0.054999999702 1333.0
0.93900001049 -0.197999998927 0.054999999702 1376.0
0.939999997616 -0.203999996185 0.054999999702 1376.0
0.944000005722 -0.21099999547 0.054999999702 1379.0
0.941999971867 -0.216000005603 0.054999999702 1363.0
0.93900001049 -0.221000000834 0.054999999702 1353.0
0.943000018597 -0.228000000119 0.0560000017285 1338.0
0.941999971867 -0.233999997377 0.0560000017285 1335.0
0.944999992847 -0.239999994636 0.0560000017285 1308.0
0.941999971867 -0.245000004768 0.0560000017285 1320.0
0.944999992847 -0.252000004053 0.0560000017285 1318.0
0.948000013828 -0.259000003338 0.0560000017285 1314.0
0.945999979973 -0.263999998569 0.0560000017285 1307.0
0.943000018597 -0.268999993801 0.0560000017285 1320.0
0.949000000954 -0.277000010014 0.0570000000298 1316.0
0.948000013828 -0.282999992371 0.0570000000298 1299.0
0.949999988079 -0.289999991655 0.0570000000298 1301.0
0.952000021935 -0.296000003815 0.0570000000298 1304.0
0.948000013828 -0.300999999046 0.0570000000298 1302.0
0.95300000906 -0.308999985456 0.0579999983311 1285.0
0.950999975204 -0.31400001049 0.0579999983311 1285.0
0.954999983311 -0.321999996901 0.0579999983311 1274.0
0.95300000906 -0.32800000906 0.0579999983311 1269.0
0.950999975204 -0.333000004292 0.0579999983311 1266.0
0.954999983311 -0.340999990702 0.0579999983311 1261.0
0.958000004292 -0.349000006914 0.0590000003576 1259.0
0.954999983311 -0.354000002146 0.0590000003576 1261.0
0.957000017166 -0.361000001431 0.0590000003576 1263.0
0.95300000906 -0.365999996662 0.0590000003576 1241.0
0.955999970436 -0.374000012875 0.0590000003576 1235.0
0.95300000906 -0.379999995232 0.0590000003576 1214.0
0.958000004292 -0.388000011444 0.0599999986589 1202.0
0.958999991417 -0.395000010729 0.0599999986589 1206.0
0.963999986649 -0.404000014067 0.0599999986589 1195.0
0.964999973774 -0.411000013351 0.0610000006855 1178.0
0.962000012398 -0.416999995708 0.0610000006855 1162.0
0.964999973774 -0.425000011921 0.0610000006855 1152.0
0.962999999523 -0.430999994278 0.0610000006855 1166.0
0.957000017166 -0.43599998951 0.0610000006855 1171.0
0.966000020504 -0.446999996901 0.0619999989867 1155.0
0.96899998188 -0.455000013113 0.0619999989867 1156.0
1.05900001526 -0.505999982357 0.0680000036955 486.0
1.84899997711 -0.901000022888 0.120999999344 90.0
2.17700004578 -1.07899999619 0.143000006676 89.0
2.14299988747 -1.07899999619 0.141000002623 89.0
2.11100006104 -1.07799994946 0.140000000596 96.0
1.46300005913 -0.757000029087 0.0960000008345 221.0
1.33800005913 -0.702000021935 0.0879999995232 697.0
1.33099997044 -0.708999991417 0.0879999995232 766.0
1.43400001526 -0.776000022888 0.0949999988079 342.0
1.87699997425 -1.03299999237 0.126000002027 129.0
1.9470000267 -1.0870000124 0.130999997258 108.0
0.773999989033 0.444000005722 0.0419999994338 413.0
0.776000022888 0.43900001049 0.0419999994338 419.0
0.763999998569 0.425000011921 0.0410000011325 429.0
0.694999992847 0.375999987125 0.0370000004768 240.0
0.737999975681 0.386999994516 0.0390000008047 314.0
0.739000022411 0.375999987125 0.0390000008047 264.0
0.726999998093 0.365000009537 0.0390000008047 262.0
0.700999975204 0.347000002861 0.0370000004768 270.0
0.796000003815 0.388000011444 0.0419999994338 490.0
0.758000016212 0.363000005484 0.0399999991059 351.0
0.792999982834 0.374000012875 0.0419999994338 351.0
0.790000021458 0.36700001359 0.0419999994338 488.0
0.796000003815 0.363999992609 0.0419999994338 500.0
0.740000009537 0.333000004292 0.0390000008047 286.0
0.762000024319 0.337000012398 0.0399999991059 365.0
0.745999991894 0.324999988079 0.0390000008047 292.0
0.745000004768 0.319000005722 0.0390000008047 293.0
0.776000022888 0.326999992132 0.0399999991059 310.0
0.820999979973 0.340000003576 0.0430000014603 332.0
0.856999993324 0.349000006914 0.0450000017881 352.0
0.867999970913 0.347000002861 0.0450000017881 370.0
0.860000014305 0.337999999523 0.0450000017881 384.0
0.842000007629 0.324999988079 0.0439999997616 361.0
0.870999991894 0.331000000238 0.0450000017881 308.0
0.884000003338 0.141000002623 0.0439999997616 1333.0
0.902999997139 0.138999998569 0.0450000017881 1672.0
0.901000022888 0.133000001311 0.0450000017881 1675.0
0.907999992371 0.128999993205 0.0460000000894 1584.0
0.903999984264 0.123000003397 0.0450000017881 1576.0
0.903999984264 0.118000000715 0.0450000017881 1638.0
0.908999979496 0.112999998033 0.0460000000894 1621.0
0.908999979496 0.108000002801 0.0460000000894 1629.0
0.911000013351 0.103000000119 0.0460000000894 1636.0
0.910000026226 0.097999997437 0.0460000000894 1590.0
0.90499997139 0.0920000001788 0.0460000000894 1576.0
0.907000005245 0.0869999974966 0.0460000000894 1583.0
0.907999992371 0.082000002265 0.0460000000894 1568.0
0.912000000477 0.0769999995828 0.0460000000894 1563.0
0.911000013351 0.0710000023246 0.0460000000894 1549.0
0.908999979496 0.0659999996424 0.0460000000894 1547.0
0.912999987602 0.0610000006855 0.0460000000894 1559.0
0.910000026226 0.054999999702 0.0460000000894 1553.0
0.908999979496 0.0500000007451 0.0460000000894 1560.0
0.912000000477 0.0450000017881 0.0460000000894 1549.0
0.916000008583 0.0399999991059 0.0460000000894 1577.0
0.913999974728 0.035000000149 0.0460000000894 1597.0
0.916999995708 0.0289999991655 0.0460000000894 1561.0
0.915000021458 0.0240000002086 0.0460000000894 1558.0
0.917999982834 0.0189999993891 0.0460000000894 1554.0
0.912999987602 0.0140000004321 0.0460000000894 1530.0
0.916000008583 0.00800000037998 0.0460000000894 1515.0
0.919000029564 0.00300000002608 0.0469999983907 1516.0
0.916000008583 -0.0010000000475 0.0460000000894 1516.0
0.916999995708 -0.00600000005215 0.0460000000894 1501.0
0.925999999046 -0.0120000001043 0.0469999983907 1493.0
0.921000003815 -0.0170000009239 0.0469999983907 1478.0
0.925000011921 -0.0219999998808 0.0469999983907 1472.0
0.922999978065 -0.0280000008643 0.0469999983907 1459.0
0.924000024796 -0.0329999998212 0.0469999983907 1448.0
0.92199999094 -0.0379999987781 0.0469999983907 1462.0
0.925000011921 -0.0439999997616 0.0469999983907 1454.0
0.926999986172 -0.0489999987185 0.0469999983907 1444.0
0.924000024796 -0.0540000014007 0.0469999983907 1449.0
0.925999999046 -0.0599999986589 0.0469999983907 1453.0
0.924000024796 -0.0649999976158 0.0469999983907 1453.0
0.925999999046 -0.070000000298 0.0469999983907 1447.0
0.929000020027 -0.0759999975562 0.0480000004172 1418.0
0.925000011921 -0.0810000002384 0.0469999983907 1419.0
0.930000007153 -0.0869999974966 0.0480000004172 1418.0
0.933000028133 -0.0920000001788 0.0480000004172 1403.0
0.929000020027 -0.097000002861 0.0480000004172 1391.0
0.933000028133 -0.103000000119 0.0480000004172 1410.0
0.927999973297 -0.108000002801 0.0480000004172 1411.0
0.927999973297 -0.112999998033 0.0480000004172 1395.0
0.934000015259 -0.119999997318 0.0480000004172 1384.0
0.930999994278 -0.125 0.0480000004172 1377.0
0.929000020027 -0.129999995232 0.0480000004172 1384.0
0.935000002384 -0.136000007391 0.0480000004172 1386.0
0.929000020027 -0.141000002623 0.0480000004172 1383.0
0.929000020027 -0.145999997854 0.0480000004172 1392.0
0.935000002384 -0.152999997139 0.0489999987185 1426.0
0.936999976635 -0.158999994397 0.0489999987185 1412.0
0.941999971867 -0.165000006557 0.0489999987185 1423.0
0.936999976635 -0.170000001788 0.0489999987185 1412.0
0.939999997616 -0.175999999046 0.0489999987185 1402.0
0.933000028133 -0.180000007153 0.0489999987185 1387.0
0.938000023365 -0.187000006437 0.0489999987185 1386.0
0.93900001049 -0.193000003695 0.0489999987185 1349.0
0.941999971867 -0.199000000954 0.0500000007451 1380.0
0.934000015259 -0.202999994159 0.0489999987185 1375.0
0.939999997616 -0.209999993443 0.0500000007451 1371.0
0.944999992847 -0.216999992728 0.0500000007451 1376.0
0.941999971867 -0.222000002861 0.0500000007451 1360.0
0.936999976635 -0.226999998093 0.0500000007451 1346.0
0.943000018597 -0.233999997377 0.0500000007451 1345.0
0.938000023365 -0.238000005484 0.0500000007451 1315.0
0.943000018597 -0.246000006795 0.0500000007451 1321.0
0.941999971867 -0.250999987125 0.0500000007451 1333.0
0.944999992847 -0.25799998641 0.0509999990463 1331.0
0.947000026703 -0.263999998569 0.0509999990463 1326.0
0.95300000906 -0.272000014782 0.0509999990463 1319.0
0.947000026703 -0.275999993086 0.0509999990463 1323.0
0.949999988079 -0.282999992371 0.0509999990463 1305.0
0.941999971867 -0.287000000477 0.0509999990463 1307.0
0.945999979973 -0.293999999762 0.0509999990463 1299.0
0.950999975204 -0.301999986172 0.0520000010729 1300.0
0.95300000906 -0.308999985456 0.0520000010729 1295.0
0.949999988079 -0.31400001049 0.0520000010729 1283.0
0.948000013828 -0.319999992847 0.0520000010729 1291.0
0.949999988079 -0.326999992132 0.0520000010729 1289.0
0.952000021935 -0.333999991417 0.0520000010729 1276.0
0.955999970436 -0.340999990702 0.0529999993742 1278.0
0.95300000906 -0.347000002861 0.0529999993742 1281.0
0.952000021935 -0.352999985218 0.0529999993742 1249.0
0.95300000906 -0.360000014305 0.0529999993742 1259.0
0.955999970436 -0.36700001359 0.0529999993742 1256.0
0.958999991417 -0.375 0.0540000014007 1234.0
0.958999991417 -0.381999999285 0.0540000014007 1235.0
0.955999970436 -0.386999994516 0.0540000014007 1199.0
0.959999978542 -0.395000010729 0.0540000014007 1208.0
0.962999999523 -0.404000014067 0.0540000014007 1205.0
0.958999991417 -0.409000009298 0.0540000014007 1184.0
0.962999999523 -0.416999995708 0.054999999702 1161.0
0.958999991417 -0.423000007868 0.054999999702 1153.0
0.964999973774 -0.432000011206 0.054999999702 1191.0
0.966000020504 -0.439999997616 0.054999999702 1195.0
0.958999991417 -0.442999988794 0.054999999702 1167.0
0.967000007629 -0.453999996185 0.0560000017285 1144.0
1.0490000248 -0.500999987125 0.0610000006855 529.0
1.63100004196 -0.794000029564 0.0960000008345 104.0
1.9620000124 -0.972000002861 0.115999996662 99.0
1.96700000763 -0.989000022411 0.116999998689 109.0
1.93799996376 -0.989000022411 0.115999996662 116.0
1.40499997139 -0.726999998093 0.0839999988675 226.0
1.33000004292 -0.698000013828 0.0790000036359 700.0
1.33500003815 -0.711000025272 0.0799999982119 780.0
1.41100001335 -0.763000011444 0.0850000008941 354.0
1.72599995136 -0.949000000954 0.104999996722 157.0
1.79400002956 -1.00100004673 0.108999997377 165.0
3.79299998283 2.17899990082 0.188999995589 88.0
3.76999998093 2.13400006294 0.187000006437 78.0
3.81399989128 2.12800002098 0.188999995589 83.0
3.81699991226 2.09899997711 0.187999993563 74.0
3.757999897 2.00600004196 0.185000002384 72.0
3.76600003242 1.9509999752 0.184000000358 71.0
3.87400007248 1.97699999809 0.188999995589 80.0
3.94099998474 1.98000001907 0.192000001669 72.0
3.86199998856 1.91100001335 0.187999993563 74.0
3.95499992371 1.92700004578 0.192000001669 78.0
3.84800004959 1.84599995613 0.186000004411 71.0
3.92000007629 1.85099995136 0.188999995589 69.0
3.78800010681 1.75999999046 0.182999998331 67.0
3.78099989891 1.70200002193 0.181999996305 70.0
3.84299993515 1.70200002193 0.184000000358 73.0
3.90199995041 1.70000004768 0.187000006437 68.0
3.9509999752 1.69299995899 0.188999995589 72.0
3.79099988937 1.59700000286 0.180999994278 73.0
0.882000029087 0.141000002623 0.0390000008047 1374.0
0.898999989033 0.137999996543 0.0399999991059 1700.0
0.908999979496 0.135000005364 0.0399999991059 1725.0
0.907000005245 0.128999993205 0.0399999991059 1663.0
0.902000010014 0.123000003397 0.0399999991059 1652.0
0.90600001812 0.118000000715 0.0399999991059 1672.0
0.907999992371 0.112999998033 0.0399999991059 1644.0
0.908999979496 0.108000002801 0.0399999991059 1631.0
0.902000010014 0.101999998093 0.0399999991059 1627.0
0.907999992371 0.097000002861 0.0399999991059 1611.0
0.90600001812 0.0920000001788 0.0399999991059 1606.0
0.907000005245 0.0869999974966 0.0399999991059 1594.0
0.907999992371 0.0810000002384 0.0399999991059 1589.0
0.907999992371 0.0759999975562 0.0399999991059 1583.0
0.907999992371 0.0710000023246 0.0399999991059 1564.0
0.908999979496 0.0659999996424 0.0399999991059 1565.0
0.915000021458 0.0610000006855 0.0410000011325 1554.0
0.908999979496 0.054999999702 0.0410000011325 1586.0
0.915000021458 0.0500000007451 0.0410000011325 1569.0
0.916000008583 0.0450000017881 0.0410000011325 1585.0
0.913999974728 0.0399999991059 0.0410000011325 1603.0
0.915000021458 0.035000000149 0.0410000011325 1612.0
0.916999995708 0.0289999991655 0.0410000011325 1588.0
0.919000029564 0.0240000002086 0.0410000011325 1580.0
0.917999982834 0.0189999993891 0.0410000011325 1591.0
0.916999995708 0.0140000004321 0.0410000011325 1556.0
0.916999995708 0.00800000037998 0.0410000011325 1555.0
0.917999982834 0.00300000002608 0.0410000011325 1530.0
0.916000008583 -0.0010000000475 0.0410000011325 1532.0
0.921000003815 -0.00600000005215 0.0410000011325 1532.0
0.919000029564 -0.0120000001043 0.0410000011325 1514.0
0.922999978065 -0.0170000009239 0.0410000011325 1491.0
0.917999982834 -0.0219999998808 0.0410000011325 1485.0
0.925999999046 -0.0280000008643 0.0419999994338 1483.0
0.921000003815 -0.0329999998212 0.0410000011325 1446.0
0.921000003815 -0.0379999987781 0.0419999994338 1460.0
0.922999978065 -0.0430000014603 0.0419999994338 1441.0
0.925999999046 -0.0489999987185 0.0419999994338 1456.0
0.925999999046 -0.0540000014007 0.0419999994338 1458.0
0.922999978065 -0.0590000003576 0.0419999994338 1470.0
0.925999999046 -0.0649999976158 0.0419999994338 1462.0
0.924000024796 -0.070000000298 0.0419999994338 1452.0
0.930000007153 -0.0759999975562 0.0419999994338 1430.0
0.929000020027 -0.0810000002384 0.0419999994338 1424.0
0.930000007153 -0.0869999974966 0.0419999994338 1424.0
0.929000020027 -0.0920000001788 0.0419999994338 1421.0
0.933000028133 -0.097999997437 0.0430000014603 1400.0
0.927999973297 -0.103000000119 0.0419999994338 1429.0
0.925999999046 -0.108000002801 0.0419999994338 1428.0
0.927999973297 -0.112999998033 0.0419999994338 1414.0
0.930999994278 -0.119000002742 0.0430000014603 1392.0
0.930999994278 -0.125 0.0430000014603 1381.0
0.933000028133 -0.129999995232 0.0430000014603 1384.0
0.935000002384 -0.136000007391 0.0430000014603 1387.0
0.933000028133 -0.141000002623 0.0430000014603 1377.0
0.930999994278 -0.146999999881 0.0430000014603 1396.0
0.935000002384 -0.152999997139 0.0430000014603 1427.0
0.934000015259 -0.158000007272 0.0430000014603 1431.0
0.933000028133 -0.163000002503 0.0430000014603 1423.0
0.938000023365 -0.170000001788 0.0439999997616 1408.0
0.935000002384 -0.17499999702 0.0430000014603 1411.0
0.93599998951 -0.180999994278 0.0439999997616 1412.0
0.945999979973 -0.188999995589 0.0439999997616 1402.0
0.935000002384 -0.192000001669 0.0439999997616 1336.0
0.941999971867 -0.199000000954 0.0439999997616 1389.0
0.944000005722 -0.204999998212 0.0439999997616 1395.0
0.941999971867 -0.21099999547 0.0439999997616 1400.0
0.93900001049 -0.216000005603 0.0439999997616 1394.0
0.941999971867 -0.222000002861 0.0439999997616 1350.0
0.941999971867 -0.228000000119 0.0439999997616 1375.0
0.944999992847 -0.233999997377 0.0450000017881 1340.0
0.943000018597 -0.239999994636 0.0450000017881 1326.0
0.940999984741 -0.245000004768 0.0450000017881 1342.0
0.943000018597 -0.250999987125 0.0450000017881 1335.0
0.948000013828 -0.259000003338 0.0450000017881 1331.0
0.93900001049 -0.261999994516 0.0450000017881 1324.0
0.945999979973 -0.270000010729 0.0450000017881 1333.0
0.947000026703 -0.275999993086 0.0450000017881 1335.0
0.943000018597 -0.280999988317 0.0450000017881 1323.0
0.949999988079 -0.289999991655 0.0460000000894 1323.0
0.949000000954 -0.294999986887 0.0460000000894 1316.0
0.944999992847 -0.300000011921 0.0460000000894 1301.0
0.949000000954 -0.307999998331 0.0460000000894 1316.0
0.950999975204 -0.31400001049 0.0460000000894 1315.0
0.953999996185 -0.321999996901 0.0460000000894 1283.0
0.945999979973 -0.324999988079 0.0460000000894 1282.0
0.952000021935 -0.333000004292 0.0469999983907 1284.0
0.952000021935 -0.340000003576 0.0469999983907 1287.0
0.949999988079 -0.345999985933 0.0469999983907 1288.0
0.947000026703 -0.351000010967 0.0469999983907 1280.0
0.952000021935 -0.358999997377 0.0469999983907 1282.0
0.950999975204 -0.365000009537 0.0469999983907 1254.0
0.95300000906 -0.372999995947 0.0469999983907 1258.0
0.953999996185 -0.379999995232 0.0480000004172 1226.0
0.962000012398 -0.388999998569 0.0480000004172 1218.0
0.957000017166 -0.393999993801 0.0480000004172 1229.0
0.958999991417 -0.402000010014 0.0480000004172 1230.0
0.963999986649 -0.411000013351 0.0489999987185 1212.0
0.959999978542 -0.416000008583 0.0489999987185 1213.0
0.959999978542 -0.423000007868 0.0489999987185 1169.0
0.954999983311 -0.428000003099 0.0489999987185 1187.0
0.964999973774 -0.43900001049 0.0489999987185 1198.0
0.97000002861 -0.448000013828 0.0500000007451 1166.0
0.961000025272 -0.451000005007 0.0489999987185 1158.0
1.05400002003 -0.504000008106 0.054999999702 585.0
1.60399997234 -0.78100001812 0.0839999988675 147.0
1.93900001049 -0.959999978542 0.103000000119 149.0
1.90999996662 -0.959999978542 0.101000003517 154.0
1.87600004673 -0.957000017166 0.10000000149 163.0
1.45000004768 -0.75 0.0769999995828 232.0
1.33099997044 -0.699000000954 0.0710000023246 701.0
1.34000003338 -0.713999986649 0.0719999969006 780.0
1.42299997807 -0.769999980927 0.0759999975562 367.0
1.7539999485 -0.963999986649 0.0949999988079 210.0
1.79799997807 -1.00300002098 0.097999997437 224.0
3.71799993515 2.13499999046 0.16099999845 82.0
3.67100000381 2.04699993134 0.158000007272 87.0
3.69400000572 2.00099992752 0.158000007272 80.0
3.81100010872 2.03399991989 0.163000002503 82.0
3.85400009155 2.02600002289 0.16400000453 87.0
4.07000017166 2.10800004005 0.172999992967 78.0
3.65599989891 1.86500000954 0.155000001192 83.0
3.91300010681 1.9659999609 0.165999993682 70.0
3.80800008774 1.88399994373 0.16099999845 74.0
3.867000103 1.88399994373 0.163000002503 73.0
3.76999998093 1.77999997139 0.158000007272 78.0
3.72300004959 1.73000001907 0.156000003219 70.0
3.77300000191 1.72500002384 0.158000007272 74.0
3.87299990654 1.74300003052 0.162000000477 75.0
3.87199997902 1.71399998665 0.162000000477 81.0
3.81200003624 1.65999996662 0.158999994397 79.0
3.90400004387 1.67200005054 0.162000000477 76.0
3.77200007439 1.58899998665 0.157000005245 65.0
0.882000029087 0.141000002623 0.0340000018477 1395.0
0.898999989033 0.137999996543 0.035000000149 1693.0
0.90600001812 0.134000003338 0.035000000149 1714.0
0.90499997139 0.128999993205 0.035000000149 1673.0
0.903999984264 0.123000003397 0.035000000149 1699.0
0.90600001812 0.118000000715 0.035000000149 1689.0
0.90600001812 0.112999998033 0.035000000149 1648.0
0.907000005245 0.108000002801 0.035000000149 1630.0
0.90600001812 0.101999998093 0.035000000149 1638.0
0.910000026226 0.097000002861 0.035000000149 1632.0
0.90499997139 0.0920000001788 0.035000000149 1600.0
0.912999987602 0.0869999974966 0.035000000149 1582.0
0.908999979496 0.0810000002384 0.035000000149 1597.0
0.907999992371 0.0759999975562 0.035000000149 1560.0
0.910000026226 0.0710000023246 0.035000000149 1546.0
0.907999992371 0.0659999996424 0.035000000149 1574.0
0.911000013351 0.0610000006855 0.035000000149 1572.0
0.911000013351 0.054999999702 0.035000000149 1574.0
0.907999992371 0.0500000007451 0.035000000149 1561.0
0.916999995708 0.0450000017881 0.0359999984503 1590.0
0.915000021458 0.0399999991059 0.0359999984503 1600.0
0.913999974728 0.035000000149 0.0359999984503 1603.0
0.916000008583 0.0289999991655 0.0359999984503 1620.0
0.915000021458 0.0240000002086 0.0359999984503 1612.0
0.912000000477 0.0189999993891 0.0359999984503 1598.0
0.912999987602 0.0140000004321 0.0359999984503 1594.0
0.916999995708 0.00800000037998 0.0359999984503 1587.0
0.921000003815 0.00300000002608 0.0359999984503 1572.0
0.915000021458 -0.0010000000475 0.0359999984503 1573.0
0.917999982834 -0.00600000005215 0.0359999984503 1559.0
0.921000003815 -0.0120000001043 0.0359999984503 1538.0
0.920000016689 -0.0170000009239 0.0359999984503 1517.0
0.916999995708 -0.0219999998808 0.0359999984503 1505.0
0.921000003815 -0.0280000008643 0.0359999984503 1476.0
0.926999986172 -0.0329999998212 0.0359999984503 1461.0
0.92199999094 -0.0379999987781 0.0359999984503 1477.0
0.921000003815 -0.0430000014603 0.0359999984503 1474.0
0.922999978065 -0.0489999987185 0.0359999984503 1469.0
0.92199999094 -0.0540000014007 0.0359999984503 1464.0
0.92199999094 -0.0590000003576 0.0359999984503 1471.0
0.922999978065 -0.0649999976158 0.0370000004768 1493.0
0.927999973297 -0.070000000298 0.0370000004768 1468.0
0.921000003815 -0.0750000029802 0.0359999984503 1453.0
0.925000011921 -0.0810000002384 0.0370000004768 1438.0
0.925999999046 -0.0860000029206 0.0370000004768 1423.0
0.930999994278 -0.0920000001788 0.0370000004768 1431.0
0.926999986172 -0.097000002861 0.0370000004768 1432.0
0.925000011921 -0.101999998093 0.0370000004768 1430.0
0.931999981403 -0.108000002801 0.0370000004768 1442.0
0.929000020027 -0.11400000006 0.0370000004768 1422.0
0.930000007153 -0.119000002742 0.0370000004768 1424.0
0.927999973297 -0.123999997973 0.0370000004768 1402.0
0.927999973297 -0.129999995232 0.0370000004768 1409.0
0.929000020027 -0.135000005364 0.0370000004768 1393.0
0.931999981403 -0.141000002623 0.0379999987781 1385.0
0.934000015259 -0.146999999881 0.0379999987781 1396.0
0.931999981403 -0.151999995112 0.0379999987781 1417.0
0.940999984741 -0.158999994397 0.0379999987781 1422.0
0.935000002384 -0.16400000453 0.0379999987781 1422.0
0.933000028133 -0.168999999762 0.0379999987781 1438.0
0.938000023365 -0.175999999046 0.0379999987781 1426.0
0.939999997616 -0.181999996305 0.0379999987781 1428.0
0.940999984741 -0.187999993563 0.0379999987781 1410.0
0.931999981403 -0.190999999642 0.0379999987781 1363.0
0.936999976635 -0.197999998927 0.0379999987781 1403.0
0.936999976635 -0.203999996185 0.0379999987781 1409.0
0.943000018597 -0.21099999547 0.0390000008047 1396.0
0.938000023365 -0.215000003576 0.0390000008047 1387.0
0.93599998951 -0.219999998808 0.0390000008047 1359.0
0.944000005722 -0.228000000119 0.0390000008047 1366.0
0.945999979973 -0.234999999404 0.0390000008047 1348.0
0.936999976635 -0.238000005484 0.0390000008047 1340.0
0.936999976635 -0.244000002742 0.0390000008047 1367.0
0.939999997616 -0.250999987125 0.0390000008047 1362.0
0.944999992847 -0.25799998641 0.0390000008047 1346.0
0.945999979973 -0.263999998569 0.0399999991059 1331.0
0.944000005722 -0.270000010729 0.0399999991059 1358.0
0.939999997616 -0.273999989033 0.0390000008047 1350.0
0.947000026703 -0.282000005245 0.0399999991059 1339.0
0.947000026703 -0.287999987602 0.0399999991059 1340.0
0.95300000906 -0.296000003815 0.0399999991059 1325.0
0.944999992847 -0.300000011921 0.0399999991059 1326.0
0.949999988079 -0.307999998331 0.0399999991059 1317.0
0.949000000954 -0.31400001049 0.0399999991059 1299.0
0.950999975204 -0.319999992847 0.0410000011325 1308.0
0.957000017166 -0.328999996185 0.0410000011325 1307.0
0.948000013828 -0.331999987364 0.0410000011325 1306.0
0.952000021935 -0.340000003576 0.0410000011325 1291.0
0.953999996185 -0.347000002861 0.0410000011325 1299.0
0.954999983311 -0.354000002146 0.0410000011325 1299.0
0.955999970436 -0.361000001431 0.0410000011325 1290.0
0.955999970436 -0.36700001359 0.0419999994338 1259.0
0.954999983311 -0.372999995947 0.0419999994338 1264.0
0.958999991417 -0.381999999285 0.0419999994338 1243.0
0.958000004292 -0.388000011444 0.0419999994338 1219.0
0.958999991417 -0.395000010729 0.0419999994338 1240.0
0.955999970436 -0.40000000596 0.0419999994338 1235.0
0.958999991417 -0.407999992371 0.0419999994338 1214.0
0.958000004292 -0.414999991655 0.0430000014603 1239.0
0.962999999523 -0.423999994993 0.0430000014603 1214.0
0.959999978542 -0.430000007153 0.0430000014603 1198.0
0.963999986649 -0.43900001049 0.0430000014603 1199.0
0.971000015736 -0.449000000954 0.0439999997616 1174.0
0.962999999523 -0.451999992132 0.0430000014603 1170.0
1.04400002956 -0.499000012875 0.0469999983907 629.0
1.6779999733 -0.816999971867 0.0780000016093 170.0
1.9240000248 -0.952000021935 0.0900000035763 174.0
1.90499997139 -0.958000004292 0.0890000015497 178.0
1.89300000668 -0.966000020504 0.0890000015497 182.0
1.47399997711 -0.762000024319 0.0689999982715 257.0
1.3259999752 -0.695999979973 0.0619999989867 708.0
1.33200001717 -0.708999991417 0.0630000010133 799.0
1.43599998951 -0.777000010014 0.0680000036955 383.0
1.7840000391 -0.981000006199 0.0850000008941 236.0
1.77999997139 -0.992999970913 0.0850000008941 236.0
3.69199991226 2.11899995804 0.135000005364 97.0
3.6970000267 2.09200000763 0.135000005364 91.0
3.67899990082 2.05100011826 0.134000003338 96.0
3.70499992371 2.03600001335 0.135000005364 87.0
3.75099992752 2.03099989891 0.136000007391 92.0
3.73600006104 1.99300003052 0.135000005364 97.0
3.74799990654 1.97000002861 0.136000007391 90.0
3.72900009155 1.93099999428 0.135000005364 91.0
3.74300003052 1.9090000391 0.135000005364 88.0
3.68400001526 1.85000002384 0.131999999285 79.0
3.76699995995 1.86300003529 0.135000005364 85.0
3.82899999619 1.86399996281 0.136999994516 95.0
3.78500008583 1.81500005722 0.135000005364 86.0
3.82699990273 1.80599999428 0.136999994516 83.0
3.73799991608 1.73699998856 0.133000001311 85.0
3.84500002861 1.75800001621 0.136999994516 87.0
3.79999995232 1.70899999142 0.135000005364 83.0
3.79500007629 1.67999994755 0.135000005364 94.0
3.8259999752 1.66499996185 0.136000007391 86.0
3.7539999485 1.60699999332 0.133000001311 104.0
3.79099988937 1.59599995613 0.134000003338 75.0
0.879999995232 0.140000000596 0.0289999991655 1429.0
0.903999984264 0.138999998569 0.0299999993294 1714.0
0.90499997139 0.134000003338 0.0299999993294 1735.0
0.903999984264 0.12800000608 0.0299999993294 1680.0
0.902999997139 0.123000003397 0.0299999993294 1673.0
0.90499997139 0.118000000715 0.0299999993294 1703.0
0.903999984264 0.112000003457 0.0299999993294 1643.0
0.90600001812 0.107000000775 0.0299999993294 1616.0
0.907000005245 0.101999998093 0.0299999993294 1626.0
0.907000005245 0.097000002861 0.0299999993294 1629.0
0.90600001812 0.0920000001788 0.0299999993294 1569.0
0.907000005245 0.0869999974966 0.0299999993294 1581.0
0.908999979496 0.0810000002384 0.0299999993294 1586.0
0.90600001812 0.0759999975562 0.0299999993294 1541.0
0.907000005245 0.0710000023246 0.0299999993294 1536.0
0.910000026226 0.0659999996424 0.0299999993294 1537.0
0.910000026226 0.0610000006855 0.0299999993294 1542.0
0.912999987602 0.054999999702 0.0299999993294 1554.0
0.912000000477 0.0500000007451 0.0299999993294 1526.0
0.912999987602 0.0450000017881 0.0299999993294 1551.0
0.902999997139 0.0390000008047 0.0299999993294 1584.0
0.916999995708 0.035000000149 0.0299999993294 1579.0
0.915000021458 0.0289999991655 0.0299999993294 1619.0
0.916999995708 0.0240000002086 0.0299999993294 1608.0
0.916999995708 0.0189999993891 0.0299999993294 1587.0
0.917999982834 0.0140000004321 0.0309999994934 1573.0
0.912999987602 0.00800000037998 0.0299999993294 1591.0
0.925000011921 0.00300000002608 0.0309999994934 1579.0
0.921000003815 -0.0010000000475 0.0309999994934 1575.0
0.921000003815 -0.00600000005215 0.0309999994934 1565.0
0.916999995708 -0.0120000001043 0.0309999994934 1542.0
0.922999978065 -0.0170000009239 0.0309999994934 1528.0
0.922999978065 -0.0219999998808 0.0309999994934 1522.0
0.92199999094 -0.0280000008643 0.0309999994934 1508.0
0.930000007153 -0.0329999998212 0.0309999994934 1473.0
0.921000003815 -0.0379999987781 0.0309999994934 1476.0
0.924000024796 -0.0439999997616 0.0309999994934 1472.0
0.925000011921 -0.0489999987185 0.0309999994934 1479.0
0.929000020027 -0.0540000014007 0.0309999994934 1484.0
0.924000024796 -0.0590000003576 0.0309999994934 1471.0
0.920000016689 -0.0640000030398 0.0309999994934 1519.0
0.925999999046 -0.070000000298 0.0309999994934 1489.0
0.926999986172 -0.0759999975562 0.0309999994934 1481.0
0.925000011921 -0.0810000002384 0.0309999994934 1473.0
0.924000024796 -0.0860000029206 0.0309999994934 1460.0
0.922999978065 -0.0909999981523 0.0309999994934 1434.0
0.927999973297 -0.097000002861 0.0320000015199 1425.0
0.927999973297 -0.103000000119 0.0320000015199 1447.0
0.929000020027 -0.108000002801 0.0320000015199 1456.0
0.931999981403 -0.11400000006 0.0320000015199 1439.0
0.930000007153 -0.119000002742 0.0320000015199 1438.0
0.930000007153 -0.125 0.0320000015199 1410.0
0.933000028133 -0.129999995232 0.0320000015199 1417.0
0.927999973297 -0.135000005364 0.0320000015199 1430.0
0.930000007153 -0.141000002623 0.0320000015199 1420.0
0.931999981403 -0.146999999881 0.0320000015199 1415.0
0.930999994278 -0.151999995112 0.0320000015199 1423.0
0.926999986172 -0.157000005245 0.0320000015199 1418.0
0.933000028133 -0.163000002503 0.0320000015199 1436.0
0.93900001049 -0.170000001788 0.0329999998212 1439.0
0.933000028133 -0.17499999702 0.0320000015199 1454.0
0.935000002384 -0.180999994278 0.0329999998212 1440.0
0.939999997616 -0.187000006437 0.0329999998212 1439.0
0.935000002384 -0.192000001669 0.0329999998212 1359.0
0.938000023365 -0.197999998927 0.0329999998212 1421.0
0.940999984741 -0.204999998212 0.0329999998212 1418.0
0.93900001049 -0.209999993443 0.0329999998212 1422.0
0.934000015259 -0.21400000155 0.0329999998212 1398.0
0.940999984741 -0.222000002861 0.0329999998212 1386.0
0.940999984741 -0.226999998093 0.0329999998212 1390.0
0.939999997616 -0.232999995351 0.0329999998212 1371.0
0.944999992847 -0.239999994636 0.0340000018477 1352.0
0.945999979973 -0.246000006795 0.0340000018477 1375.0
0.944000005722 -0.252000004053 0.0340000018477 1370.0
0.943000018597 -0.256999999285 0.0340000018477 1365.0
0.947000026703 -0.263999998569 0.0340000018477 1350.0
0.943000018597 -0.268999993801 0.0340000018477 1369.0
0.941999971867 -0.27500000596 0.0340000018477 1369.0
0.944000005722 -0.282000005245 0.0340000018477 1351.0
0.947000026703 -0.287999987602 0.0340000018477 1346.0
0.952000021935 -0.296000003815 0.035000000149 1346.0
0.952000021935 -0.301999986172 0.035000000149 1340.0
0.948000013828 -0.307000011206 0.035000000149 1322.0
0.949999988079 -0.31400001049 0.035000000149 1314.0
0.952000021935 -0.321000009775 0.035000000149 1311.0
0.953999996185 -0.32800000906 0.035000000149 1323.0
0.95300000906 -0.333999991417 0.035000000149 1308.0
0.948000013828 -0.337999999523 0.035000000149 1320.0
0.954999983311 -0.347000002861 0.035000000149 1316.0
0.955999970436 -0.354000002146 0.0359999984503 1314.0
0.952000021935 -0.358999997377 0.035000000149 1304.0
0.954999983311 -0.36700001359 0.0359999984503 1286.0
0.949000000954 -0.370999991894 0.0359999984503 1266.0
0.955999970436 -0.379999995232 0.0359999984503 1263.0
0.961000025272 -0.388999998569 0.0359999984503 1237.0
0.955999970436 -0.393999993801 0.0359999984503 1248.0
0.957000017166 -0.400999993086 0.0359999984503 1262.0
0.961000025272 -0.409000009298 0.0370000004768 1234.0
0.961000025272 -0.416000008583 0.0370000004768 1237.0
0.961000025272 -0.423000007868 0.0370000004768 1218.0
0.962999999523 -0.430999994278 0.0370000004768 1215.0
0.954999983311 -0.433999985456 0.0370000004768 1185.0
0.962000012398 -0.444999992847 0.0370000004768 1179.0
0.963999986649 -0.451999992132 0.0370000004768 1188.0
1.04600000381 -0.499000012875 0.0410000011325 675.0
1.66600000858 -0.81099998951 0.0670000016689 179.0
1.90999996662 -0.944999992847 0.0769999995828 192.0
1.94000005722 -0.975000023842 0.0780000016093 188.0
1.8789999485 -0.958999991417 0.0759999975562 192.0
1.47300004959 -0.762000024319 0.0590000003576 254.0
1.3220000267 -0.694000005722 0.0529999993742 699.0
1.32400000095 -0.704999983311 0.0540000014007 789.0
1.43799996376 -0.777999997139 0.0590000003576 379.0
1.78100001812 -0.978999972343 0.0729999989271 256.0
1.81400001049 -1.01199996471 0.0750000029802 236.0
3.64700007439 2.09299993515 0.109999999404 131.0
3.65000009537 2.06500005722 0.109999999404 127.0
3.6930000782 2.05900001526 0.111000001431 118.0
3.72300004959 2.04500007629 0.111000001431 127.0
3.72300004959 2.0150001049 0.111000001431 122.0
3.72900009155 1.98899996281 0.111000001431 122.0
3.67100000381 1.92900002003 0.108999997377 117.0
3.76999998093 1.9509999752 0.112000003457 123.0
3.72300004959 1.89800000191 0.109999999404 120.0
3.74399995804 1.87999999523 0.111000001431 122.0
3.74799990654 1.85300004482 0.111000001431 117.0
3.80399990082 1.85199999809 0.112000003457 119.0
3.75600004196 1.79999995232 0.111000001431 122.0
3.76099991798 1.77400004864 0.111000001431 122.0
3.78099989891 1.75600004196 0.111000001431 110.0
3.78500008583 1.73000001907 0.111000001431 113.0
3.81699991226 1.71700000763 0.112000003457 115.0
3.80599999428 1.68400001526 0.111000001431 142.0
3.76099991798 1.63699996471 0.109999999404 127.0
3.74699997902 1.60399997234 0.108999997377 146.0
3.78900003433 1.59500002861 0.109999999404 106.0
0.883000016212 0.141000002623 0.0240000002086 1468.0
0.902999997139 0.138999998569 0.0240000002086 1750.0
0.903999984264 0.134000003338 0.0250000003725 1751.0
0.907000005245 0.128999993205 0.0250000003725 1674.0
0.899999976158 0.122000001371 0.0240000002086 1650.0
0.901000022888 0.116999998689 0.0240000002086 1717.0
0.90499997139 0.112999998033 0.0250000003725 1648.0
0.902000010014 0.107000000775 0.0240000002086 1614.0
0.903999984264 0.101999998093 0.0250000003725 1634.0
0.907999992371 0.097000002861 0.0250000003725 1616.0
0.90499997139 0.0920000001788 0.0250000003725 1583.0
0.907999992371 0.0869999974966 0.0250000003725 1601.0
0.907999992371 0.0810000002384 0.0250000003725 1592.0
0.912999987602 0.0759999975562 0.0250000003725 1567.0
0.90600001812 0.0710000023246 0.0250000003725 1543.0
0.903999984264 0.0649999976158 0.0250000003725 1558.0
0.911000013351 0.0610000006855 0.0250000003725 1555.0
0.907999992371 0.054999999702 0.0250000003725 1556.0
0.911000013351 0.0500000007451 0.0250000003725 1514.0
0.90499997139 0.0450000017881 0.0250000003725 1531.0
0.908999979496 0.0399999991059 0.0250000003725 1581.0
0.913999974728 0.035000000149 0.0250000003725 1592.0
0.907999992371 0.0289999991655 0.0250000003725 1598.0
0.916000008583 0.0240000002086 0.0250000003725 1585.0
0.919000029564 0.0189999993891 0.0250000003725 1581.0
0.916999995708 0.0140000004321 0.0250000003725 1568.0
0.921000003815 0.00800000037998 0.0250000003725 1568.0
0.916999995708 0.00300000002608 0.0250000003725 1540.0
0.92199999094 -0.0010000000475 0.0250000003725 1523.0
0.916999995708 -0.00600000005215 0.0250000003725 1538.0
0.921000003815 -0.0120000001043 0.0250000003725 1548.0
0.915000021458 -0.0170000009239 0.0250000003725 1524.0
0.919000029564 -0.0219999998808 0.0250000003725 1529.0
0.922999978065 -0.0280000008643 0.0260000005364 1533.0
0.92199999094 -0.0329999998212 0.0260000005364 1499.0
0.921000003815 -0.0379999987781 0.0260000005364 1482.0
0.925000011921 -0.0439999997616 0.0260000005364 1469.0
0.922999978065 -0.0489999987185 0.0260000005364 1486.0
0.919000029564 -0.0540000014007 0.0260000005364 1502.0
0.922999978065 -0.0590000003576 0.0260000005364 1480.0
0.925000011921 -0.0649999976158 0.0260000005364 1508.0
0.927999973297 -0.070000000298 0.0260000005364 1480.0
0.930000007153 -0.0759999975562 0.0260000005364 1496.0
0.925999999046 -0.0810000002384 0.0260000005364 1471.0
0.925000011921 -0.0860000029206 0.0260000005364 1461.0
0.930000007153 -0.0920000001788 0.0260000005364 1464.0
0.924000024796 -0.097000002861 0.0260000005364 1454.0
0.926999986172 -0.101999998093 0.0260000005364 1458.0
0.930999994278 -0.108000002801 0.0260000005364 1467.0
0.931999981403 -0.11400000006 0.0260000005364 1459.0
0.931999981403 -0.119000002742 0.0270000007004 1457.0
0.927999973297 -0.123999997973 0.0260000005364 1443.0
0.930999994278 -0.129999995232 0.0270000007004 1440.0
0.933000028133 -0.136000007391 0.0270000007004 1431.0
0.930000007153 -0.141000002623 0.0270000007004 1425.0
0.933000028133 -0.146999999881 0.0270000007004 1417.0
0.929000020027 -0.151999995112 0.0270000007004 1425.0
0.931999981403 -0.158000007272 0.0270000007004 1437.0
0.931999981403 -0.163000002503 0.0270000007004 1419.0
0.935000002384 -0.168999999762 0.0270000007004 1443.0
0.93900001049 -0.175999999046 0.0270000007004 1457.0
0.936999976635 -0.180999994278 0.0270000007004 1460.0
0.931999981403 -0.186000004411 0.0270000007004 1444.0
0.93599998951 -0.192000001669 0.0270000007004 1390.0
0.934000015259 -0.196999996901 0.0270000007004 1438.0
0.938000023365 -0.203999996185 0.0270000007004 1416.0
0.93599998951 -0.209000006318 0.0270000007004 1421.0
0.938000023365 -0.215000003576 0.0280000008643 1411.0
0.940999984741 -0.222000002861 0.0280000008643 1401.0
0.941999971867 -0.228000000119 0.0280000008643 1392.0
0.939999997616 -0.232999995351 0.0280000008643 1367.0
0.938000023365 -0.238000005484 0.0280000008643 1360.0
0.940999984741 -0.245000004768 0.0280000008643 1385.0
0.939999997616 -0.250999987125 0.0280000008643 1395.0
0.940999984741 -0.256999999285 0.0280000008643 1378.0
0.948000013828 -0.264999985695 0.0280000008643 1375.0
0.940999984741 -0.268999993801 0.0280000008643 1372.0
0.945999979973 -0.275999993086 0.0280000008643 1381.0
0.948000013828 -0.282999992371 0.0289999991655 1356.0
0.949000000954 -0.28900000453 0.0289999991655 1365.0
0.949000000954 -0.294999986887 0.0289999991655 1370.0
0.947000026703 -0.300999999046 0.0289999991655 1347.0
0.945999979973 -0.305999994278 0.0289999991655 1331.0
0.945999979973 -0.312999993563 0.0289999991655 1331.0
0.944999992847 -0.319000005722 0.0289999991655 1326.0
0.95300000906 -0.32800000906 0.0289999991655 1328.0
0.953999996185 -0.333999991417 0.0289999991655 1335.0
0.949999988079 -0.338999986649 0.0289999991655 1352.0
0.949999988079 -0.344999998808 0.0289999991655 1347.0
0.950999975204 -0.351999998093 0.0299999993294 1325.0
0.955999970436 -0.361000001431 0.0299999993294 1318.0
0.961000025272 -0.368999987841 0.0299999993294 1293.0
0.953999996185 -0.372999995947 0.0299999993294 1278.0
0.954999983311 -0.379999995232 0.0299999993294 1270.0
0.959999978542 -0.388999998569 0.0299999993294 1238.0
0.957000017166 -0.393999993801 0.0299999993294 1254.0
0.95300000906 -0.398999989033 0.0299999993294 1258.0
0.958999991417 -0.407999992371 0.0309999994934 1243.0
0.954999983311 -0.412999987602 0.0309999994934 1242.0
0.953999996185 -0.419999986887 0.0309999994934 1231.0
0.959999978542 -0.430000007153 0.0309999994934 1217.0
0.958999991417 -0.43599998951 0.0309999994934 1202.0
0.961000025272 -0.444000005722 0.0309999994934 1179.0
0.958999991417 -0.449999988079 0.0309999994934 1193.0
1.03100001812 -0.49200001359 0.0340000018477 712.0
1.66499996185 -0.810000002384 0.0560000017285 183.0
1.92200005054 -0.950999975204 0.0649999976158 184.0
1.93700003624 -0.972999989986 0.0659999996424 193.0
1.90799999237 -0.972999989986 0.0649999976158 181.0
1.50899994373 -0.77999997139 0.0509999990463 265.0
1.32500004768 -0.694999992847 0.0450000017881 699.0
1.33899998665 -0.712999999523 0.0460000000894 779.0
1.46500003338 -0.791999995708 0.0500000007451 380.0
1.7539999485 -0.963999986649 0.0610000006855 259.0
1.81700003147 -1.01300001144 0.0630000010133 238.0
3.72699999809 2.13800001144 0.0879999995232 143.0
3.70799994469 2.09699988365 0.0869999974966 142.0
3.68700003624 2.05500006676 0.0869999974966 142.0
3.72099995613 2.04399991035 0.0869999974966 133.0
3.73699998856 2.02300000191 0.0879999995232 136.0
3.74000000954 1.99399995804 0.0879999995232 138.0
3.70900011063 1.94799995422 0.0869999974966 140.0
3.72199988365 1.92599999905 0.0869999974966 141.0
3.78500008583 1.92900002003 0.0879999995232 134.0
3.71099996567 1.86300003529 0.0860000029206 139.0
3.68600010872 1.8220000267 0.0860000029206 139.0
3.79299998283 1.84599995613 0.0879999995232 143.0
3.70700001717 1.77699995041 0.0860000029206 137.0
3.74799990654 1.76800000668 0.0869999974966 129.0
3.79800009727 1.76300001144 0.0879999995232 140.0
3.77699995041 1.72599995136 0.0869999974966 128.0
3.75600004196 1.68900001049 0.0869999974966 132.0
3.78299999237 1.67299997807 0.0869999974966 142.0
3.81500005722 1.65999996662 0.0879999995232 144.0
3.82800006866 1.63900005817 0.0879999995232 152.0
3.84899997711 1.62000000477 0.0879999995232 114.0
0.884000003338 0.141000002623 0.0189999993891 1494.0
0.899999976158 0.137999996543 0.0189999993891 1786.0
0.903999984264 0.133000001311 0.0189999993891 1762.0
0.902000010014 0.12800000608 0.0189999993891 1693.0
0.902000010014 0.123000003397 0.0189999993891 1665.0
0.898999989033 0.116999998689 0.0189999993891 1726.0
0.902999997139 0.112000003457 0.0189999993891 1688.0
0.90600001812 0.107000000775 0.0189999993891 1655.0
0.907999992371 0.101999998093 0.0189999993891 1667.0
0.903999984264 0.097000002861 0.0189999993891 1624.0
0.90600001812 0.0920000001788 0.0189999993891 1608.0
0.90499997139 0.0860000029206 0.0189999993891 1591.0
0.90600001812 0.0810000002384 0.0189999993891 1616.0
0.90499997139 0.0759999975562 0.0189999993891 1598.0
0.907999992371 0.0710000023246 0.019999999553 1570.0
0.907999992371 0.0659999996424 0.019999999553 1598.0
0.907000005245 0.0599999986589 0.019999999553 1583.0
0.908999979496 0.054999999702 0.019999999553 1573.0
0.913999974728 0.0500000007451 0.019999999553 1548.0
0.911000013351 0.0450000017881 0.019999999553 1521.0
0.90499997139 0.0390000008047 0.019999999553 1588.0
0.911000013351 0.0340000018477 0.019999999553 1628.0
0.913999974728 0.0289999991655 0.019999999553 1597.0
0.913999974728 0.0240000002086 0.019999999553 1591.0
0.916999995708 0.0189999993891 0.019999999553 1594.0
0.912999987602 0.0140000004321 0.019999999553 1589.0
0.913999974728 0.00800000037998 0.019999999553 1591.0
0.917999982834 0.00300000002608 0.019999999553 1553.0
0.916999995708 -0.0010000000475 0.019999999553 1577.0
0.916999995708 -0.00600000005215 0.019999999553 1537.0
0.919000029564 -0.0120000001043 0.019999999553 1532.0
0.919000029564 -0.0170000009239 0.019999999553 1532.0
0.924000024796 -0.0219999998808 0.019999999553 1531.0
0.919000029564 -0.0270000007004 0.019999999553 1535.0
0.922999978065 -0.0329999998212 0.019999999553 1511.0
0.924000024796 -0.0379999987781 0.019999999553 1486.0
0.920000016689 -0.0430000014603 0.019999999553 1467.0
0.920000016689 -0.0489999987185 0.019999999553 1469.0
0.921000003815 -0.0540000014007 0.019999999553 1484.0
0.92199999094 -0.0590000003576 0.019999999553 1507.0
0.921000003815 -0.0649999976158 0.019999999553 1507.0
0.925000011921 -0.070000000298 0.0209999997169 1493.0
0.930000007153 -0.0759999975562 0.0209999997169 1507.0
0.927999973297 -0.0810000002384 0.0209999997169 1494.0
0.930999994278 -0.0869999974966 0.0209999997169 1488.0
0.930000007153 -0.0920000001788 0.0209999997169 1484.0
0.926999986172 -0.097000002861 0.0209999997169 1473.0
0.929000020027 -0.103000000119 0.0209999997169 1477.0
0.929000020027 -0.108000002801 0.0209999997169 1490.0
0.930999994278 -0.11400000006 0.0209999997169 1465.0
0.925999999046 -0.119000002742 0.0209999997169 1465.0
0.926999986172 -0.123999997973 0.0209999997169 1458.0
0.926999986172 -0.129999995232 0.0209999997169 1456.0
0.930000007153 -0.136000007391 0.0209999997169 1443.0
0.929000020027 -0.141000002623 0.0209999997169 1425.0
0.925999999046 -0.145999997854 0.0209999997169 1427.0
0.933000028133 -0.151999995112 0.0209999997169 1428.0
0.933000028133 -0.158000007272 0.0209999997169 1435.0
