ply
format ascii 1.0
element vertex 915
property float x
property float y
property float z
property float intensity
end_header
1.01300001144 -0.0909999981523 -0.188999995589 131.0
0.963999986649 -0.0920000001788 -0.180000007153 133.0
0.977999985218 -0.0989999994636 -0.181999996305 134.0
0.967000007629 -0.104000002146 -0.180000007153 134.0
0.964999973774 -0.108999997377 -0.180000007153 139.0
0.980000019073 -0.116999998689 -0.182999998331 144.0
0.981000006199 -0.123000003397 -0.182999998331 134.0
0.955999970436 -0.125 -0.179000005126 141.0
0.961000025272 -0.131999999285 -0.180000007153 138.0
0.978999972343 -0.140000000596 -0.182999998331 142.0
0.958999991417 -0.143000006676 -0.180000007153 138.0
0.973999977112 -0.150999993086 -0.182999998331 142.0
0.958000004292 -0.153999999166 -0.180000007153 148.0
0.931999981403 -0.155000001192 -0.17499999702 148.0
0.944000005722 -0.163000002503 -0.177000001073 146.0
0.973999977112 -0.173999994993 -0.182999998331 147.0
0.958999991417 -0.177000001073 -0.180000007153 147.0
0.958999991417 -0.182999998331 -0.180000007153 148.0
0.971000015736 -0.190999999642 -0.182999998331 151.0
0.967999994755 -0.196999996901 -0.181999996305 149.0
0.961000025272 -0.201000005007 -0.180999994278 155.0
0.962999999523 -0.207000002265 -0.181999996305 145.0
0.949999988079 -0.21099999547 -0.180000007153 148.0
0.957000017166 -0.217999994755 -0.180999994278 152.0
0.963999986649 -0.225999996066 -0.182999998331 144.0
0.962000012398 -0.231000006199 -0.181999996305 143.0
0.950999975204 -0.233999997377 -0.180000007153 154.0
0.964999973774 -0.244000002742 -0.182999998331 148.0
0.952000021935 -0.24699999392 -0.180999994278 149.0
0.97000002861 -0.256999999285 -0.185000002384 147.0
0.941999971867 -0.256000012159 -0.179000005126 151.0
0.953999996185 -0.264999985695 -0.181999996305 151.0
0.976999998093 -0.277999997139 -0.187000006437 144.0
0.95300000906 -0.277000010014 -0.181999996305 146.0
0.949000000954 -0.282000005245 -0.181999996305 147.0
0.929000020027 -0.282000005245 -0.178000003099 145.0
0.936999976635 -0.291000008583 -0.180000007153 146.0
0.933000028133 -0.296000003815 -0.180000007153 140.0
0.925000011921 -0.298999994993 -0.178000003099 139.0
0.930000007153 -0.307000011206 -0.180000007153 141.0
0.96899998188 -0.326000005007 -0.187000006437 134.0
0.939999997616 -0.323000013828 -0.181999996305 138.0
0.925999999046 -0.324000000954 -0.180000007153 130.0
0.921000003815 -0.328999996185 -0.179000005126 127.0
0.943000018597 -0.342999994755 -0.184000000358 132.0
0.950999975204 -0.352999985218 -0.186000004411 126.0
0.893000006676 -0.337000012398 -0.173999994993 126.0
0.947000026703 -0.363999992609 -0.185000002384 128.0
0.897000014782 -0.351000010967 -0.175999999046 122.0
0.894999980927 -0.356000006199 -0.175999999046 126.0
0.947000026703 -0.384000003338 -0.186000004411 123.0
0.924000024796 -0.381000012159 -0.181999996305 122.0
0.938000023365 -0.393000006676 -0.185000002384 125.0
0.915000021458 -0.389999985695 -0.180999994278 121.0
0.908999979496 -0.393999993801 -0.180000007153 114.0
0.893000006676 -0.393999993801 -0.178000003099 118.0
0.899999976158 -0.404000014067 -0.179000005126 117.0
0.920000016689 -0.419999986887 -0.184000000358 115.0
0.875 -0.405000001192 -0.17499999702 109.0
0.902999997139 -0.425000011921 -0.180999994278 111.0
0.875999987125 -0.418999999762 -0.175999999046 104.0
0.92199999094 -0.448000013828 -0.186000004411 106.0
0.902000010014 -0.444999992847 -0.181999996305 105.0
0.915000021458 -0.458999991417 -0.186000004411 110.0
0.924000024796 -0.470999985933 -0.187999993563 107.0
0.911000013351 -0.470999985933 -0.186000004411 107.0
0.915000021458 -0.479999989271 -0.187000006437 101.0
0.907000005245 -0.483000010252 -0.186000004411 102.0
0.897000014782 -0.485000014305 -0.184000000358 97.0
0.867999970913 -0.476999998093 -0.179000005126 101.0
0.910000026226 -0.507000029087 -0.187999993563 88.0
0.861999988556 -0.488000005484 -0.179000005126 100.0
3.04399991035 1.57700002193 -0.657000005245 125.0
3.18099999428 1.62199997902 -0.684000015259 109.0
3.40199995041 1.35599994659 -0.703999996185 65.0
3.45399999619 1.32799994946 -0.712000012398 67.0
3.875 1.22699999809 -0.782999992371 73.0
3.92499995232 1.21700000763 -0.791999995708 113.0
3.96199989319 1.20299994946 -0.797999978065 120.0
3.97399997711 1.18099999428 -0.799000024796 122.0
3.94600009918 1.14699995518 -0.791999995708 116.0
2.39100003242 -0.122000001371 -0.460000008345 189.0
2.39800000191 -0.136000007391 -0.462000012398 141.0
2.33699989319 -0.145999997854 -0.449999988079 148.0
2.31599998474 -0.158999994397 -0.446000009775 145.0
1.30200004578 -0.0949999988079 -0.250999987125 72.0
0.978999972343 -0.0769999995828 -0.187999993563 128.0
0.981999993324 -0.082999996841 -0.188999995589 133.0
0.981000006199 -0.0879999995232 -0.188999995589 134.0
0.97000002861 -0.0930000022054 -0.187000006437 136.0
0.954999983311 -0.097000002861 -0.184000000358 133.0
0.976999998093 -0.104999996722 -0.187999993563 136.0
0.981999993324 -0.112000003457 -0.188999995589 132.0
0.972999989986 -0.115999996662 -0.187999993563 136.0
0.972999989986 -0.122000001371 -0.187999993563 129.0
0.995000004768 -0.130999997258 -0.192000001669 141.0
0.957000017166 -0.130999997258 -0.185000002384 140.0
0.938000023365 -0.134000003338 -0.180999994278 140.0
0.975000023842 -0.144999995828 -0.187999993563 138.0
0.972000002861 -0.150999993086 -0.187999993563 146.0
0.976999998093 -0.157000005245 -0.188999995589 140.0
0.949000000954 -0.158999994397 -0.184000000358 142.0
0.959999978542 -0.165999993682 -0.186000004411 146.0
0.964999973774 -0.172999992967 -0.187000006437 150.0
0.98299998045 -0.181999996305 -0.190999999642 142.0
0.949999988079 -0.181999996305 -0.185000002384 144.0
0.949000000954 -0.187000006437 -0.185000002384 144.0
0.955999970436 -0.194999992847 -0.186000004411 149.0
0.924000024796 -0.194000005722 -0.180000007153 150.0
0.959999978542 -0.207000002265 -0.187000006437 152.0
0.97000002861 -0.215000003576 -0.188999995589 152.0
0.930000007153 -0.211999997497 -0.181999996305 149.0
0.949999988079 -0.222000002861 -0.186000004411 143.0
0.941999971867 -0.226999998093 -0.184000000358 148.0
0.940999984741 -0.231999993324 -0.184000000358 147.0
0.938000023365 -0.237000003457 -0.184000000358 152.0
0.944000005722 -0.245000004768 -0.185000002384 148.0
0.976000010967 -0.259000003338 -0.192000001669 143.0
0.930000007153 -0.252999991179 -0.182999998331 147.0
0.952000021935 -0.264999985695 -0.187999993563 150.0
0.93900001049 -0.266999989748 -0.185000002384 143.0
0.97000002861 -0.282999992371 -0.192000001669 147.0
0.958000004292 -0.284999996424 -0.188999995589 141.0
0.902999997139 -0.27500000596 -0.179000005126 150.0
0.921000003815 -0.286000013351 -0.182999998331 140.0
0.920000016689 -0.291999995708 -0.182999998331 142.0
0.955999970436 -0.310000002384 -0.189999997616 139.0
0.924000024796 -0.305000007153 -0.184000000358 135.0
0.944000005722 -0.317999988794 -0.187999993563 132.0
0.925000011921 -0.317999988794 -0.185000002384 135.0
0.955999970436 -0.335000008345 -0.192000001669 128.0
0.921000003815 -0.328999996185 -0.185000002384 132.0
0.912999987602 -0.331999987364 -0.182999998331 130.0
0.93900001049 -0.347999989986 -0.188999995589 127.0
0.940999984741 -0.356000006199 -0.189999997616 131.0
0.912000000477 -0.351000010967 -0.184000000358 126.0
0.929000020027 -0.363999992609 -0.187999993563 122.0
0.926999986172 -0.370000004768 -0.187999993563 120.0
0.962999999523 -0.391000002623 -0.195999994874 122.0
0.884999990463 -0.365000009537 -0.180000007153 115.0
0.933000028133 -0.391999989748 -0.189999997616 128.0
0.925000011921 -0.395000010729 -0.188999995589 123.0
0.908999979496 -0.395000010729 -0.186000004411 122.0
0.875 -0.386000007391 -0.180000007153 123.0
0.898999989033 -0.404000014067 -0.185000002384 113.0
0.936999976635 -0.428000003099 -0.193000003695 115.0
0.929000020027 -0.430999994278 -0.192000001669 117.0
0.934000015259 -0.441000014544 -0.194000005722 112.0
0.902999997139 -0.432000011206 -0.187999993563 103.0
0.90499997139 -0.439999997616 -0.187999993563 106.0
0.873000025749 -0.430999994278 -0.181999996305 103.0
0.907999992371 -0.456000000238 -0.189999997616 114.0
0.888999998569 -0.45300000906 -0.187000006437 102.0
0.89200001955 -0.462000012398 -0.187999993563 107.0
0.889999985695 -0.467999994755 -0.187999993563 97.0
0.90499997139 -0.483000010252 -0.192000001669 100.0
0.893999993801 -0.485000014305 -0.189999997616 100.0
0.920000016689 -0.505999982357 -0.195999994874 99.0
0.913999974728 -0.509999990463 -0.194999992847 87.0
0.944999992847 -0.536000013351 -0.202000007033 97.0
3.13199996948 1.62399995327 -0.697000026703 128.0
3.13000011444 1.59800004959 -0.694000005722 104.0
3.1930000782 1.60500001907 -0.705999970436 94.0
3.57699990273 1.50300002098 -0.768999993801 68.0
3.49399995804 1.44400000572 -0.749000012875 68.0
3.66100001335 1.46000003815 -0.78100001812 65.0
3.47600007057 1.36199998856 -0.740000009537 67.0
3.45199990273 1.32899999619 -0.73400002718 67.0
3.41899991035 1.29200005531 -0.725000023842 68.0
3.54099988937 1.28900003433 -0.748000025749 63.0
3.92000007629 1.24300003052 -0.816999971867 80.0
3.94400000572 1.22399997711 -0.819999992847 124.0
3.88899993896 1.18200004101 -0.808000028133 131.0
3.92700004578 1.16799998283 -0.81400001049 136.0
3.93300008774 1.14400005341 -0.81400001049 129.0
3.98399996758 1.13300001621 -0.823000013828 95.0
2.40799999237 -0.108999997377 -0.477999985218 139.0
2.38700008392 -0.122000001371 -0.474000006914 239.0
2.3789999485 -0.135000005364 -0.472000002861 193.0
2.35500001907 -0.148000001907 -0.467999994755 171.0
2.3029999733 -0.158000007272 -0.456999987364 147.0
1.32899999619 -0.097999997437 -0.263999998569 65.0
0.994000017643 -0.0780000016093 -0.196999996901 123.0
0.972999989986 -0.082000002265 -0.193000003695 134.0
0.991999983788 -0.0900000035763 -0.196999996901 135.0
0.976000010967 -0.0939999967813 -0.194000005722 135.0
0.987999975681 -0.101000003517 -0.195999994874 139.0
0.986000001431 -0.105999998748 -0.195999994874 133.0
0.971000015736 -0.109999999404 -0.193000003695 137.0
0.952000021935 -0.11400000006 -0.188999995589 131.0
0.97000002861 -0.122000001371 -0.193000003695 135.0
0.976999998093 -0.128999993205 -0.194999992847 136.0
0.972000002861 -0.134000003338 -0.194000005722 138.0
0.977999985218 -0.140000000596 -0.194999992847 135.0
0.961000025272 -0.143999993801 -0.192000001669 139.0
0.976000010967 -0.151999995112 -0.194999992847 144.0
0.966000020504 -0.156000003219 -0.193000003695 145.0
0.978999972343 -0.16400000453 -0.195999994874 140.0
0.962999999523 -0.166999995708 -0.193000003695 142.0
0.972000002861 -0.173999994993 -0.194000005722 143.0
0.967999994755 -0.180000007153 -0.194000005722 146.0
0.962999999523 -0.185000002384 -0.193000003695 143.0
0.958000004292 -0.188999995589 -0.192000001669 140.0
0.962999999523 -0.195999994874 -0.193000003695 147.0
0.938000023365 -0.196999996901 -0.187999993563 145.0
0.958000004292 -0.207000002265 -0.193000003695 145.0
0.962999999523 -0.21400000155 -0.194000005722 144.0
0.959999978542 -0.218999996781 -0.193000003695 148.0
0.978999972343 -0.230000004172 -0.196999996901 142.0
0.958999991417 -0.231000006199 -0.194000005722 140.0
0.93599998951 -0.231000006199 -0.188999995589 150.0
0.944999992847 -0.238999992609 -0.190999999642 148.0
0.93900001049 -0.244000002742 -0.189999997616 149.0
0.952000021935 -0.252999991179 -0.193000003695 141.0
0.93900001049 -0.256000012159 -0.190999999642 141.0
0.944000005722 -0.263000011444 -0.192000001669 143.0
0.919000029564 -0.261999994516 -0.187000006437 143.0
0.961000025272 -0.280000001192 -0.195999994874 139.0
0.95300000906 -0.284000009298 -0.194000005722 140.0
0.901000022888 -0.273999989033 -0.184000000358 143.0
0.958000004292 -0.298000007868 -0.195999994874 139.0
0.950999975204 -0.301999986172 -0.194999992847 141.0
0.924000024796 -0.300000011921 -0.189999997616 131.0
0.961000025272 -0.317999988794 -0.197999998927 131.0
0.912000000477 -0.307999998331 -0.187999993563 135.0
0.971000015736 -0.333999991417 -0.20000000298 133.0
0.927999973297 -0.326000005007 -0.192000001669 135.0
0.924000024796 -0.330000013113 -0.190999999642 132.0
0.944000005722 -0.344000011683 -0.195999994874 124.0
0.929000020027 -0.344999998808 -0.193000003695 127.0
0.910000026226 -0.344000011683 -0.188999995589 124.0
0.947000026703 -0.365000009537 -0.196999996901 120.0
0.90499997139 -0.354999989271 -0.188999995589 116.0
0.915000021458 -0.365000009537 -0.192000001669 116.0
0.912999987602 -0.370999991894 -0.190999999642 119.0
0.917999982834 -0.379999995232 -0.193000003695 118.0
0.902000010014 -0.379000008106 -0.189999997616 120.0
0.924000024796 -0.395000010729 -0.194999992847 118.0
0.898000001907 -0.389999985695 -0.189999997616 125.0
0.910000026226 -0.402000010014 -0.193000003695 121.0
0.911000013351 -0.409999996424 -0.194000005722 114.0
0.934000015259 -0.426999986172 -0.199000000954 105.0
0.913999974728 -0.425000011921 -0.194999992847 114.0
0.910000026226 -0.428999990225 -0.194999992847 104.0
0.941999971867 -0.451999992132 -0.202000007033 102.0
0.910000026226 -0.444000005722 -0.195999994874 109.0
0.90499997139 -0.448000013828 -0.194999992847 107.0
0.897000014782 -0.451000005007 -0.194000005722 108.0
0.912000000477 -0.465999990702 -0.197999998927 107.0
0.90600001812 -0.469999998808 -0.196999996901 105.0
0.880999982357 -0.463999986649 -0.192000001669 98.0
0.912999987602 -0.488000005484 -0.199000000954 104.0
0.887000024319 -0.481000006199 -0.194000005722 99.0
0.903999984264 -0.497999995947 -0.199000000954 98.0
0.907000005245 -0.507000029087 -0.20000000298 101.0
0.884000003338 -0.501999974251 -0.194999992847 97.0
3.04500007629 1.58099997044 -0.698000013828 128.0
3.12599992752 1.59800004959 -0.714999973774 106.0
3.54999995232 1.34300005436 -0.776000022888 66.0
3.58500003815 1.33200001717 -0.782000005245 65.0
3.49099993706 1.27199995518 -0.759999990463 70.0
3.96300005913 1.25800001621 -0.851000010967 84.0
3.91799998283 1.21800005436 -0.839999973774 128.0
3.90400004387 1.18799996376 -0.834999978542 118.0
3.93499994278 1.17100000381 -0.839999973774 125.0
3.97099995613 1.15600001812 -0.847000002861 119.0
3.9430000782 1.12300002575 -0.838999986649 81.0
4.10300016403 0.883000016212 -0.860000014305 64.0
4.05700016022 0.847999989986 -0.848999977112 59.0
4.15100002289 0.816999971867 -0.866999983788 59.0
2.38100004196 -0.108000002801 -0.486999988556 145.0
2.38899993896 -0.122000001371 -0.488999992609 244.0
2.3599998951 -0.134000003338 -0.483000010252 206.0
2.32699990273 -0.145999997854 -0.476000010967 196.0
2.31100010872 -0.158999994397 -0.472999989986 140.0
1.41999995708 -0.104999996722 -0.289999991655 77.0
0.986000001431 -0.0769999995828 -0.202000007033 126.0
0.967000007629 -0.082000002265 -0.197999998927 135.0
0.978999972343 -0.0879999995232 -0.20000000298 132.0
0.978999972343 -0.0939999967813 -0.20000000298 133.0
0.96899998188 -0.0989999994636 -0.197999998927 137.0
0.972000002861 -0.104999996722 -0.199000000954 135.0
0.929000020027 -0.105999998748 -0.189999997616 130.0
0.945999979973 -0.112999998033 -0.194000005722 133.0
0.964999973774 -0.120999999344 -0.197999998927 134.0
0.963999986649 -0.127000004053 -0.197999998927 136.0
0.977999985218 -0.135000005364 -0.201000005007 138.0
0.976999998093 -0.140000000596 -0.201000005007 140.0
0.955999970436 -0.143000006676 -0.195999994874 145.0
0.958000004292 -0.149000003934 -0.196999996901 143.0
0.955999970436 -0.153999999166 -0.196999996901 142.0
0.964999973774 -0.162000000477 -0.199000000954 143.0
0.953999996185 -0.165000006557 -0.195999994874 140.0
0.936999976635 -0.167999997735 -0.193000003695 143.0
0.954999983311 -0.177000001073 -0.196999996901 146.0
0.964999973774 -0.185000002384 -0.199000000954 149.0
0.931999981403 -0.184000000358 -0.193000003695 142.0
0.958000004292 -0.194999992847 -0.197999998927 147.0
0.945999979973 -0.199000000954 -0.195999994874 146.0
0.958999991417 -0.207000002265 -0.199000000954 143.0
0.949000000954 -0.21099999547 -0.196999996901 147.0
0.920000016689 -0.209999993443 -0.190999999642 144.0
0.945999979973 -0.222000002861 -0.196999996901 138.0
0.949000000954 -0.229000002146 -0.197999998927 140.0
0.972000002861 -0.240999996662 -0.202999994159 144.0
0.931999981403 -0.236000001431 -0.194000005722 141.0
0.961000025272 -0.25 -0.201000005007 142.0
0.949999988079 -0.252999991179 -0.197999998927 140.0
0.947000026703 -0.25799998641 -0.197999998927 143.0
0.948000013828 -0.264999985695 -0.199000000954 136.0
0.924000024796 -0.263999998569 -0.194000005722 137.0
0.939999997616 -0.273999989033 -0.197999998927 137.0
0.901000022888 -0.268999993801 -0.189999997616 137.0
0.93599998951 -0.284999996424 -0.196999996901 139.0
0.927999973297 -0.28900000453 -0.195999994874 137.0
0.938000023365 -0.298000007868 -0.197999998927 139.0
0.90600001812 -0.293999999762 -0.192000001669 135.0
0.976000010967 -0.323000013828 -0.207000002265 128.0
0.944000005722 -0.319000005722 -0.20000000298 128.0
0.93900001049 -0.324000000954 -0.20000000298 138.0
0.925000011921 -0.324999988079 -0.196999996901 130.0
0.952000021935 -0.340999990702 -0.202999994159 126.0
0.945999979973 -0.344999998808 -0.202000007033 126.0
0.89200001955 -0.331000000238 -0.190999999642 126.0
0.930000007153 -0.351999998093 -0.199000000954 123.0
0.927999973297 -0.358000010252 -0.199000000954 123.0
0.941999971867 -0.370000004768 -0.202999994159 128.0
0.929000020027 -0.370999991894 -0.20000000298 122.0
0.907000005245 -0.368999987841 -0.195999994874 119.0
0.907000005245 -0.375 -0.195999994874 119.0
0.940999984741 -0.395999997854 -0.203999996185 116.0
0.945999979973 -0.405000001192 -0.206000000238 115.0
0.925000011921 -0.402999997139 -0.202000007033 115.0
0.912999987602 -0.404000014067 -0.20000000298 113.0
0.930999994278 -0.418999999762 -0.203999996185 121.0
0.944000005722 -0.432000011206 -0.207000002265 113.0
0.927999973297 -0.432000011206 -0.203999996185 108.0
0.896000027657 -0.423000007868 -0.197999998927 108.0
0.885999977589 -0.425000011921 -0.195999994874 107.0
0.903999984264 -0.441000014544 -0.20000000298 109.0
0.907000005245 -0.449000000954 -0.201000005007 112.0
0.893000006676 -0.449000000954 -0.199000000954 106.0
0.899999976158 -0.460000008345 -0.201000005007 97.0
0.882000029087 -0.458000004292 -0.197999998927 103.0
0.947000026703 -0.499000012875 -0.212999999523 107.0
0.883000016212 -0.472000002861 -0.199000000954 110.0
0.907000005245 -0.493000000715 -0.204999998212 90.0
0.879999995232 -0.485000014305 -0.199000000954 90.0
0.930000007153 -0.521000027657 -0.21099999547 93.0
0.823000013828 -0.467000007629 -0.187000006437 94.0
3.05100011826 1.58599996567 -0.72000002861 114.0
3.15499997139 1.61500000954 -0.742999970913 115.0
3.19400000572 1.61000001431 -0.75 118.0
3.47099995613 1.43700003624 -0.790000021458 70.0
3.42700004578 1.29799997807 -0.771000027657 65.0
3.54099988937 1.31599998474 -0.795000016689 68.0
3.58599996567 1.2840000391 -0.801999986172 66.0
3.90100002289 1.21399998665 -0.861000001431 66.0
3.86100006104 1.17599999905 -0.851000010967 74.0
3.86599993706 1.15199995041 -0.850000023842 66.0
4.07000017166 1.18599998951 -0.893999993801 63.0
4.05000019073 0.79699999094 -0.870999991894 58.0
3.71700000763 0.708999991417 -0.799000024796 62.0
3.77800011635 0.698000013828 -0.81099998951 59.0
2.41499996185 -0.108999997377 -0.508000016212 147.0
2.40000009537 -0.123000003397 -0.504999995232 245.0
2.35899996758 -0.135000005364 -0.497000008821 206.0
2.31599998474 -0.145999997854 -0.488000005484 185.0
2.32299995422 -0.159999996424 -0.490000009537 125.0
1.24000000954 -0.0909999981523 -0.261000007391 79.0
0.975000023842 -0.0769999995828 -0.204999998212 129.0
0.98400002718 -0.082999996841 -0.207000002265 131.0
0.950999975204 -0.0860000029206 -0.20000000298 131.0
0.963999986649 -0.0930000022054 -0.202999994159 143.0
0.954999983311 -0.097000002861 -0.201000005007 135.0
0.975000023842 -0.104999996722 -0.206000000238 136.0
0.967999994755 -0.109999999404 -0.203999996185 129.0
0.976999998093 -0.116999998689 -0.206000000238 136.0
0.978999972343 -0.123000003397 -0.207000002265 141.0
0.933000028133 -0.123000003397 -0.196999996901 138.0
0.953999996185 -0.130999997258 -0.202000007033 141.0
0.977999985218 -0.141000002623 -0.207000002265 137.0
0.972000002861 -0.145999997854 -0.206000000238 140.0
0.995999991894 -0.155000001192 -0.21099999547 141.0
0.97000002861 -0.157000005245 -0.206000000238 139.0
0.967999994755 -0.162000000477 -0.204999998212 142.0
0.957000017166 -0.165999993682 -0.202999994159 143.0
0.978999972343 -0.175999999046 -0.208000004292 142.0
0.972000002861 -0.180999994278 -0.207000002265 140.0
0.950999975204 -0.182999998331 -0.202000007033 142.0
0.954999983311 -0.188999995589 -0.202999994159 143.0
0.967000007629 -0.196999996901 -0.206000000238 139.0
0.966000020504 -0.202999994159 -0.206000000238 144.0
0.966000020504 -0.209000006318 -0.206000000238 141.0
0.948000013828 -0.21099999547 -0.202000007033 150.0
0.947000026703 -0.216999992728 -0.202000007033 140.0
0.940999984741 -0.221000000834 -0.201000005007 142.0
0.920000016689 -0.222000002861 -0.196999996901 139.0
0.952000021935 -0.236000001431 -0.203999996185 132.0
0.936999976635 -0.238000005484 -0.201000005007 143.0
0.957000017166 -0.248999997973 -0.206000000238 139.0
0.945999979973 -0.252000004053 -0.203999996185 147.0
0.95300000906 -0.259999990463 -0.204999998212 139.0
0.947000026703 -0.263999998569 -0.203999996185 147.0
0.921000003815 -0.263000011444 -0.199000000954 143.0
0.92199999094 -0.270000010729 -0.20000000298 137.0
0.955999970436 -0.286000013351 -0.207000002265 136.0
0.934000015259 -0.284999996424 -0.202999994159 135.0
0.922999978065 -0.287999987602 -0.201000005007 138.0
0.935000002384 -0.298000007868 -0.202999994159 131.0
0.936999976635 -0.303999990225 -0.203999996185 136.0
0.917999982834 -0.303999990225 -0.20000000298 132.0
0.930000007153 -0.314999997616 -0.202999994159 128.0
0.921000003815 -0.317999988794 -0.202000007033 131.0
0.913999974728 -0.321999996901 -0.201000005007 125.0
0.961000025272 -0.344999998808 -0.21099999547 127.0
0.913999974728 -0.333999991417 -0.201000005007 124.0
0.89200001955 -0.331999987364 -0.196999996901 126.0
0.939999997616 -0.356000006199 -0.208000004292 127.0
0.915000021458 -0.352999985218 -0.202000007033 119.0
0.912000000477 -0.358999997377 -0.202000007033 121.0
0.907999992371 -0.363000005484 -0.202000007033 114.0
0.893999993801 -0.363999992609 -0.199000000954 118.0
0.920000016689 -0.381000012159 -0.204999998212 116.0
0.913999974728 -0.384999990463 -0.203999996185 118.0
0.940999984741 -0.404000014067 -0.21099999547 113.0
0.949999988079 -0.41400000453 -0.212999999523 108.0
0.93599998951 -0.414999991655 -0.21099999547 111.0
0.927999973297 -0.418000012636 -0.209000006318 110.0
0.916000008583 -0.419999986887 -0.207000002265 115.0
0.924000024796 -0.430999994278 -0.209999993443 115.0
0.898000001907 -0.425000011921 -0.203999996185 109.0
0.888000011444 -0.426999986172 -0.202000007033 113.0
0.907000005245 -0.442999988794 -0.207000002265 106.0
0.908999979496 -0.451000005007 -0.208000004292 109.0
0.864000022411 -0.435000002384 -0.197999998927 104.0
0.907999992371 -0.465000003576 -0.209000006318 97.0
0.908999979496 -0.472999989986 -0.209999993443 110.0
0.925999999046 -0.488999992609 -0.21400000155 103.0
0.902000010014 -0.483000010252 -0.209000006318 99.0
0.89200001955 -0.485000014305 -0.208000004292 106.0
0.876999974251 -0.483999997377 -0.204999998212 99.0
0.889999985695 -0.499000012875 -0.208000004292 98.0
0.894999980927 -0.509000003338 -0.209999993443 98.0
3.04200005531 1.58299994469 -0.739000022411 112.0
3.09599995613 1.58599996567 -0.75 111.0
3.15000009537 1.58899998665 -0.760999977589 96.0
3.56299996376 1.47699999809 -0.833999991417 71.0
3.73600006104 0.713999986649 -0.825999975204 67.0
3.73900008202 0.690999984741 -0.825999975204 65.0
3.75999999046 0.67199999094 -0.828999996185 64.0
3.85899996758 0.666000008583 -0.850000023842 61.0
2.40400004387 -0.108999997377 -0.521000027657 153.0
2.38599991798 -0.122000001371 -0.51700001955 247.0
2.35199999809 -0.134000003338 -0.509999990463 216.0
2.31100010872 -0.145999997854 -0.500999987125 194.0
2.31200003624 -0.158999994397 -0.500999987125 125.0
1.27799999714 -0.0939999967813 -0.277000010014 76.0
0.985000014305 -0.0780000016093 -0.212999999523 129.0
0.973999977112 -0.082000002265 -0.21099999547 135.0
0.978999972343 -0.0890000015497 -0.211999997497 132.0
0.953999996185 -0.0920000001788 -0.207000002265 139.0
0.953999996185 -0.097999997437 -0.207000002265 134.0
0.962999999523 -0.104000002146 -0.209000006318 135.0
0.991999983788 -0.112999998033 -0.215000003576 130.0
0.957000017166 -0.115000002086 -0.208000004292 131.0
0.975000023842 -0.123000003397 -0.211999997497 134.0
0.95300000906 -0.126000002027 -0.207000002265 127.0
0.977999985218 -0.135000005364 -0.212999999523 138.0
0.955999970436 -0.136999994516 -0.208000004292 142.0
0.973999977112 -0.145999997854 -0.211999997497 140.0
0.941999971867 -0.146999999881 -0.204999998212 137.0
0.961000025272 -0.156000003219 -0.209999993443 128.0
0.950999975204 -0.159999996424 -0.207000002265 137.0
0.958000004292 -0.166999995708 -0.209000006318 143.0
0.97000002861 -0.17499999702 -0.211999997497 150.0
0.935000002384 -0.173999994993 -0.203999996185 139.0
0.949000000954 -0.181999996305 -0.208000004292 143.0
0.948000013828 -0.187999993563 -0.208000004292 146.0
0.964999973774 -0.196999996901 -0.21099999547 148.0
0.952000021935 -0.20000000298 -0.209000006318 147.0
0.929000020027 -0.201000005007 -0.203999996185 147.0
0.95300000906 -0.211999997497 -0.209000006318 145.0
0.95300000906 -0.217999994755 -0.209999993443 141.0
0.949000000954 -0.223000004888 -0.209000006318 140.0
0.977999985218 -0.236000001431 -0.216000005603 148.0
0.953999996185 -0.236000001431 -0.209999993443 146.0
0.921000003815 -0.233999997377 -0.203999996185 139.0
0.953999996185 -0.248999997973 -0.21099999547 144.0
0.925999999046 -0.24699999392 -0.204999998212 143.0
0.930000007153 -0.254000008106 -0.206000000238 142.0
0.97000002861 -0.270999997854 -0.215000003576 146.0
0.944000005722 -0.270000010729 -0.209999993443 143.0
0.949999988079 -0.277999997139 -0.211999997497 133.0
0.953999996185 -0.284999996424 -0.212999999523 141.0
0.898999989033 -0.273999989033 -0.201000005007 133.0
0.955999970436 -0.298000007868 -0.21400000155 143.0
0.930000007153 -0.296000003815 -0.208000004292 133.0
0.925000011921 -0.300999999046 -0.208000004292 131.0
0.933000028133 -0.310000002384 -0.209999993443 129.0
0.941999971867 -0.319000005722 -0.211999997497 130.0
0.929000020027 -0.321000009775 -0.209000006318 133.0
0.926999986172 -0.326999992132 -0.209000006318 130.0
0.936999976635 -0.337000012398 -0.211999997497 126.0
0.912000000477 -0.333000004292 -0.207000002265 123.0
0.917999982834 -0.342000007629 -0.208000004292 129.0
0.933000028133 -0.354000002146 -0.211999997497 122.0
0.93900001049 -0.363000005484 -0.21400000155 126.0
0.933000028133 -0.36700001359 -0.212999999523 115.0
0.902999997139 -0.361999988556 -0.207000002265 124.0
0.917999982834 -0.374000012875 -0.209999993443 111.0
0.920000016689 -0.381999999285 -0.21099999547 111.0
0.885999977589 -0.374000012875 -0.203999996185 116.0
0.884999990463 -0.379999995232 -0.203999996185 108.0
0.924000024796 -0.402999997139 -0.21400000155 111.0
0.908999979496 -0.402999997139 -0.21099999547 114.0
0.916999995708 -0.41400000453 -0.212999999523 116.0
0.913999974728 -0.419999986887 -0.212999999523 105.0
0.887000024319 -0.41400000453 -0.207000002265 109.0
0.920000016689 -0.43599998951 -0.215000003576 113.0
0.901000022888 -0.433999985456 -0.21099999547 111.0
0.879999995232 -0.430000007153 -0.207000002265 111.0
0.915000021458 -0.455000013113 -0.216000005603 108.0
0.902999997139 -0.456000000238 -0.212999999523 103.0
0.915000021458 -0.469000011683 -0.216999992728 104.0
0.922999978065 -0.479999989271 -0.218999996781 101.0
0.903999984264 -0.485000014305 -0.216000005603 104.0
0.90499997139 -0.493000000715 -0.216999992728 96.0
0.889999985695 -0.49200001359 -0.21400000155 103.0
0.884999990463 -0.497000008821 -0.212999999523 95.0
0.888000011444 -0.505999982357 -0.215000003576 104.0
3.02399992943 1.5759999752 -0.754999995232 145.0
3.10599994659 1.59399998188 -0.773999989033 119.0
3.1930000782 1.61300003529 -0.792999982834 100.0
3.69799995422 0.730000019073 -0.841000020504 65.0
3.68000006676 0.70300000906 -0.836000025272 58.0
3.8180000782 0.705999970436 -0.866999983788 60.0
3.73399996758 0.667999982834 -0.847000002861 69.0
3.84100008011 0.663999974728 -0.870000004768 57.0
2.41899991035 -0.109999999404 -0.538999974728 159.0
2.39100003242 -0.123000003397 -0.532999992371 248.0
2.35700011253 -0.135000005364 -0.524999976158 217.0
2.3180000782 -0.145999997854 -0.51700001955 197.0
2.29299998283 -0.158000007272 -0.510999977589 111.0
1.2009999752 -0.0879999995232 -0.268000006676 84.0
1.01199996471 -0.0799999982119 -0.22499999404 126.0
0.944000005722 -0.0799999982119 -0.209999993443 128.0
0.985000014305 -0.0890000015497 -0.218999996781 130.0
0.972000002861 -0.0939999967813 -0.216999992728 133.0
0.972999989986 -0.10000000149 -0.216999992728 135.0
0.972000002861 -0.104999996722 -0.216999992728 128.0
0.955999970436 -0.108999997377 -0.212999999523 130.0
0.976999998093 -0.116999998689 -0.217999994755 133.0
0.98400002718 -0.123999997973 -0.219999998808 130.0
0.981999993324 -0.129999995232 -0.219999998808 139.0
0.959999978542 -0.133000001311 -0.215000003576 134.0
0.934000015259 -0.134000003338 -0.209000006318 137.0
0.958000004292 -0.143999993801 -0.21400000155 137.0
0.945999979973 -0.148000001907 -0.211999997497 141.0
0.958999991417 -0.155000001192 -0.215000003576 139.0
0.967000007629 -0.163000002503 -0.216999992728 137.0
0.949999988079 -0.165000006557 -0.212999999523 141.0
0.957000017166 -0.172999992967 -0.215000003576 141.0
0.977999985218 -0.181999996305 -0.219999998808 139.0
0.93900001049 -0.180999994278 -0.21099999547 139.0
0.952000021935 -0.188999995589 -0.21400000155 139.0
0.943000018597 -0.193000003695 -0.212999999523 138.0
0.953999996185 -0.201000005007 -0.215000003576 146.0
0.961000025272 -0.209000006318 -0.216999992728 142.0
0.943000018597 -0.21099999547 -0.212999999523 138.0
0.954999983311 -0.218999996781 -0.216000005603 141.0
0.961000025272 -0.226999998093 -0.217999994755 136.0
0.947000026703 -0.229000002146 -0.215000003576 142.0
0.944999992847 -0.234999999404 -0.215000003576 140.0
0.92199999094 -0.233999997377 -0.209000006318 136.0
0.933000028133 -0.243000000715 -0.211999997497 140.0
0.935000002384 -0.25 -0.212999999523 141.0
0.943000018597 -0.25799998641 -0.215000003576 132.0
0.935000002384 -0.261999994516 -0.21400000155 135.0
0.944000005722 -0.270999997854 -0.216000005603 136.0
0.945999979973 -0.277000010014 -0.216999992728 136.0
0.949000000954 -0.284000009298 -0.217999994755 134.0
0.929000020027 -0.284000009298 -0.212999999523 138.0
0.930999994278 -0.291000008583 -0.21400000155 141.0
0.944000005722 -0.300999999046 -0.216999992728 132.0
0.948000013828 -0.308999985456 -0.218999996781 129.0
0.924000024796 -0.307000011206 -0.212999999523 131.0
0.938000023365 -0.317999988794 -0.216999992728 127.0
0.924000024796 -0.319999992847 -0.21400000155 133.0
0.907999992371 -0.319999992847 -0.21099999547 125.0
0.919000029564 -0.330000013113 -0.21400000155 117.0
0.93900001049 -0.344000011683 -0.218999996781 125.0
0.930999994278 -0.347000002861 -0.216999992728 125.0
0.949000000954 -0.361000001431 -0.222000002861 125.0
0.899999976158 -0.347999989986 -0.21099999547 121.0
0.934000015259 -0.368000000715 -0.218999996781 126.0
0.930999994278 -0.374000012875 -0.218999996781 122.0
0.929000020027 -0.379999995232 -0.218999996781 120.0
0.902000010014 -0.375 -0.212999999523 116.0
0.912000000477 -0.386000007391 -0.216000005603 114.0
0.90499997139 -0.388999998569 -0.215000003576 124.0
0.915000021458 -0.40000000596 -0.217999994755 115.0
0.889999985695 -0.395999997854 -0.211999997497 113.0
0.912000000477 -0.412000000477 -0.217999994755 114.0
0.933000028133 -0.428999990225 -0.223000004888 109.0
0.959999978542 -0.449000000954 -0.231000006199 106.0
0.927999973297 -0.441000014544 -0.223000004888 113.0
0.897000014782 -0.432999998331 -0.216000005603 106.0
0.924000024796 -0.45300000906 -0.223000004888 104.0
0.879999995232 -0.437999993563 -0.212999999523 109.0
0.92199999094 -0.465999990702 -0.224000006914 97.0
0.880999982357 -0.451999992132 -0.215000003576 96.0
0.981000006199 -0.512000024319 -0.239999994636 105.0
0.901000022888 -0.476999998093 -0.221000000834 95.0
0.898000001907 -0.481999993324 -0.221000000834 108.0
0.898999989033 -0.490999996662 -0.222000002861 98.0
0.925999999046 -0.513000011444 -0.229000002146 94.0
0.916999995708 -0.51599997282 -0.226999998093 97.0
0.876999974251 -0.5 -0.217999994755 99.0
3.05500006676 1.59399998188 -0.783999979496 134.0
3.08699989319 1.58599996567 -0.790000021458 121.0
3.13599991798 1.5870000124 -0.800000011921 99.0
2.40700006485 -0.109999999404 -0.550999999046 165.0
2.38800001144 -0.123000003397 -0.54699999094 248.0
2.35299992561 -0.135000005364 -0.538999974728 213.0
2.29999995232 -0.144999995828 -0.527000010014 197.0
2.2990000248 -0.158999994397 -0.527000010014 113.0
1.1740000248 -0.0860000029206 -0.268999993801 86.0
0.996999979019 -0.0790000036359 -0.228000000119 123.0
0.990000009537 -0.0839999988675 -0.226999998093 125.0
0.966000020504 -0.0879999995232 -0.221000000834 128.0
0.95300000906 -0.0920000001788 -0.217999994755 126.0
0.981000006199 -0.101000003517 -0.22499999404 128.0
0.949999988079 -0.103000000119 -0.217999994755 130.0
0.971000015736 -0.111000001431 -0.223000004888 130.0
0.976000010967 -0.118000000715 -0.224000006914 132.0
0.962000012398 -0.122000001371 -0.221000000834 137.0
0.958999991417 -0.127000004053 -0.219999998808 129.0
0.966000020504 -0.134000003338 -0.222000002861 139.0
0.977999985218 -0.141000002623 -0.22499999404 136.0
0.958000004292 -0.143999993801 -0.219999998808 135.0
0.93900001049 -0.146999999881 -0.216000005603 141.0
0.978999972343 -0.158999994397 -0.22499999404 142.0
0.949999988079 -0.159999996424 -0.218999996781 135.0
0.944000005722 -0.165000006557 -0.217999994755 138.0
0.931999981403 -0.167999997735 -0.215000003576 143.0
0.967999994755 -0.180999994278 -0.224000006914 134.0
0.963999986649 -0.186000004411 -0.223000004888 138.0
0.96899998188 -0.193000003695 -0.224000006914 139.0
0.949000000954 -0.194999992847 -0.219999998808 132.0
0.964999973774 -0.203999996185 -0.224000006914 136.0
0.949999988079 -0.206000000238 -0.219999998808 138.0
0.966000020504 -0.216000005603 -0.224000006914 144.0
0.940999984741 -0.216000005603 -0.218999996781 142.0
0.97000002861 -0.229000002146 -0.225999996066 141.0
0.976000010967 -0.237000003457 -0.226999998093 143.0
0.964999973774 -0.239999994636 -0.22499999404 140.0
0.945999979973 -0.240999996662 -0.221000000834 134.0
0.919000029564 -0.239999994636 -0.215000003576 140.0
0.930999994278 -0.248999997973 -0.217999994755 145.0
0.944000005722 -0.259000003338 -0.221000000834 138.0
0.972000002861 -0.273000001907 -0.228000000119 137.0
0.938000023365 -0.268999993801 -0.219999998808 132.0
0.930000007153 -0.273000001907 -0.218999996781 142.0
0.912999987602 -0.273999989033 -0.215000003576 137.0
0.959999978542 -0.293999999762 -0.226999998093 136.0
0.961000025272 -0.300999999046 -0.226999998093 137.0
0.936999976635 -0.300000011921 -0.222000002861 128.0
0.939999997616 -0.307000011206 -0.223000004888 122.0
0.921000003815 -0.307000011206 -0.218999996781 123.0
0.963999986649 -0.326999992132 -0.229000002146 123.0
0.930999994278 -0.323000013828 -0.222000002861 125.0
0.917999982834 -0.324000000954 -0.218999996781 127.0
0.939999997616 -0.338999986649 -0.22499999404 116.0
0.927999973297 -0.340999990702 -0.222000002861 126.0
0.947000026703 -0.354000002146 -0.226999998093 120.0
0.930000007153 -0.354000002146 -0.224000006914 121.0
0.924000024796 -0.358000010252 -0.222000002861 124.0
0.879000008106 -0.347000002861 -0.211999997497 123.0
0.925000011921 -0.372000008821 -0.224000006914 120.0
0.92199999094 -0.377000004053 -0.223000004888 121.0
0.910000026226 -0.377999991179 -0.221000000834 111.0
0.935000002384 -0.395999997854 -0.228000000119 117.0
0.959999978542 -0.41400000453 -0.233999997377 117.0
0.90600001812 -0.397000014782 -0.221000000834 115.0
0.908999979496 -0.405000001192 -0.223000004888 112.0
0.944000005722 -0.428000003099 -0.231999993324 107.0
0.903999984264 -0.416000008583 -0.223000004888 112.0
0.93900001049 -0.43900001049 -0.231999993324 107.0
0.903999984264 -0.430000007153 -0.224000006914 108.0
0.930999994278 -0.449000000954 -0.231000006199 109.0
0.899999976158 -0.441000014544 -0.224000006914 104.0
0.943000018597 -0.469999998808 -0.234999999404 105.0
0.871999979019 -0.441000014544 -0.217999994755 100.0
0.878000020981 -0.451000005007 -0.219999998808 103.0
0.874000012875 -0.456000000238 -0.218999996781 105.0
0.875 -0.462999999523 -0.219999998808 104.0
0.919000029564 -0.493999987841 -0.231999993324 94.0
0.913999974728 -0.5 -0.231999993324 96.0
0.883000016212 -0.490000009537 -0.224000006914 99.0
0.896000027657 -0.504000008106 -0.228000000119 96.0
0.887000024319 -0.507000029087 -0.226999998093 98.0
3.09999990463 1.59500002861 -0.814999997616 127.0
3.12199997902 1.58200001717 -0.818000018597 89.0
2.38800001144 -0.108999997377 -0.56099998951 173.0
2.38800001144 -0.123000003397 -0.56099998951 245.0
2.35400009155 -0.135000005364 -0.554000020027 223.0
2.30399990082 -0.145999997854 -0.541999995708 192.0
2.28099989891 -0.158000007272 -0.536000013351 109.0
1.14300000668 -0.0839999988675 -0.268999993801 93.0
0.973999977112 -0.0769999995828 -0.229000002146 129.0
0.947000026703 -0.0799999982119 -0.223000004888 129.0
0.959999978542 -0.0869999974966 -0.225999996066 122.0
0.966000020504 -0.0939999967813 -0.226999998093 120.0
0.986000001431 -0.101000003517 -0.231999993324 129.0
0.977999985218 -0.105999998748 -0.230000004172 126.0
0.967000007629 -0.111000001431 -0.228000000119 130.0
0.972000002861 -0.116999998689 -0.229000002146 128.0
0.947000026703 -0.119999997318 -0.223000004888 140.0
0.985000014305 -0.130999997258 -0.231999993324 124.0
0.986000001431 -0.136999994516 -0.232999995351 134.0
0.964999973774 -0.138999998569 -0.228000000119 139.0
0.958999991417 -0.143999993801 -0.226999998093 136.0
0.952000021935 -0.149000003934 -0.22499999404 139.0
0.958999991417 -0.156000003219 -0.226999998093 137.0
0.957000017166 -0.16099999845 -0.226999998093 138.0
0.973999977112 -0.170000001788 -0.231000006199 142.0
0.93900001049 -0.170000001788 -0.222000002861 138.0
0.961000025272 -0.180000007153 -0.228000000119 135.0
0.95300000906 -0.184000000358 -0.225999996066 137.0
0.980000019073 -0.194999992847 -0.232999995351 140.0
0.947000026703 -0.194000005722 -0.22499999404 133.0
0.958000004292 -0.202999994159 -0.228000000119 142.0
0.958000004292 -0.208000004292 -0.228000000119 140.0
0.943000018597 -0.21099999547 -0.22499999404 136.0
0.980000019073 -0.225999996066 -0.233999997377 136.0
0.948000013828 -0.224000006914 -0.226999998093 139.0
0.944999992847 -0.229000002146 -0.225999996066 140.0
0.957000017166 -0.238000005484 -0.229000002146 137.0
0.93599998951 -0.238999992609 -0.224000006914 130.0
0.941999971867 -0.246000006795 -0.225999996066 137.0
0.949999988079 -0.254999995232 -0.229000002146 139.0
0.964999973774 -0.264999985695 -0.231999993324 138.0
0.964999973774 -0.270999997854 -0.232999995351 142.0
0.915000021458 -0.263000011444 -0.221000000834 133.0
0.938000023365 -0.27500000596 -0.226999998093 134.0
0.981000006199 -0.294999986887 -0.237000003457 133.0
0.934000015259 -0.287000000477 -0.225999996066 133.0
0.930999994278 -0.291999995708 -0.225999996066 132.0
0.939999997616 -0.300999999046 -0.229000002146 126.0
0.925999999046 -0.303000003099 -0.225999996066 130.0
0.901000022888 -0.300000011921 -0.219999998808 127.0
0.930000007153 -0.316000014544 -0.226999998093 123.0
0.930999994278 -0.323000013828 -0.228000000119 128.0
0.912999987602 -0.323000013828 -0.224000006914 123.0
0.915000021458 -0.330000013113 -0.22499999404 120.0
0.936999976635 -0.344000011683 -0.231000006199 117.0
0.925999999046 -0.345999985933 -0.228000000119 126.0
0.920000016689 -0.351000010967 -0.226999998093 121.0
0.912000000477 -0.354000002146 -0.225999996066 124.0
0.903999984264 -0.356999993324 -0.224000006914 115.0
0.949999988079 -0.38299998641 -0.236000001431 125.0
0.912999987602 -0.374000012875 -0.226999998093 114.0
0.903999984264 -0.377000004053 -0.22499999404 119.0
0.90600001812 -0.384000003338 -0.226999998093 119.0
0.908999979496 -0.391999989748 -0.228000000119 111.0
0.931999981403 -0.409000009298 -0.233999997377 107.0
0.902000010014 -0.402000010014 -0.226999998093 107.0
0.925999999046 -0.419999986887 -0.232999995351 106.0
0.958000004292 -0.442000001669 -0.241999998689 111.0
0.940999984741 -0.441000014544 -0.238000005484 103.0
0.949000000954 -0.451999992132 -0.240999996662 100.0
0.893999993801 -0.432000011206 -0.228000000119 103.0
0.910000026226 -0.446999996901 -0.231999993324 101.0
0.907000005245 -0.45300000906 -0.231999993324 101.0
0.93900001049 -0.476000010967 -0.240999996662 98.0
0.902999997139 -0.465000003576 -0.231999993324 102.0
0.870000004768 -0.455000013113 -0.224000006914 103.0
0.927999973297 -0.493000000715 -0.239999994636 96.0
0.921000003815 -0.497000008821 -0.238999992609 97.0
0.861999988556 -0.470999985933 -0.224000006914 93.0
0.949999988079 -0.527999997139 -0.247999995947 89.0
0.944000005722 -0.532000005245 -0.24699999392 92.0
0.939999997616 -0.537999987602 -0.24699999392 99.0
3.08299994469 1.58800005913 -0.830999970436 86.0
2.38499999046 -0.108999997377 -0.574999988079 185.0
2.3599998951 -0.122000001371 -0.569000005722 244.0
2.33200001717 -0.134000003338 -0.563000023365 214.0
2.32100009918 -0.146999999881 -0.560000002384 185.0
2.28800010681 -0.158999994397 -0.551999986172 105.0
1.11500000954 -0.082000002265 -0.268999993801 98.0
0.98299998045 -0.0780000016093 -0.237000003457 119.0
0.972000002861 -0.082999996841 -0.233999997377 120.0
0.98400002718 -0.0900000035763 -0.237000003457 127.0
0.977999985218 -0.0949999988079 -0.236000001431 127.0
0.978999972343 -0.101000003517 -0.236000001431 127.0
0.97000002861 -0.105999998748 -0.233999997377 119.0
0.959999978542 -0.109999999404 -0.231999993324 133.0
0.959999978542 -0.115999996662 -0.231999993324 130.0
0.962000012398 -0.122000001371 -0.232999995351 130.0
0.961000025272 -0.12800000608 -0.232999995351 132.0
0.962000012398 -0.133000001311 -0.232999995351 136.0
0.972999989986 -0.141000002623 -0.236000001431 131.0
0.936999976635 -0.141000002623 -0.226999998093 135.0
0.949999988079 -0.149000003934 -0.230000004172 134.0
0.95300000906 -0.155000001192 -0.231000006199 140.0
0.967999994755 -0.16400000453 -0.234999999404 132.0
0.972999989986 -0.170000001788 -0.237000003457 134.0
0.958999991417 -0.173999994993 -0.232999995351 133.0
0.949000000954 -0.178000003099 -0.231000006199 135.0
0.949999988079 -0.184000000358 -0.231999993324 139.0
0.95300000906 -0.189999997616 -0.231999993324 138.0
0.955999970436 -0.195999994874 -0.232999995351 140.0
0.967999994755 -0.204999998212 -0.236000001431 136.0
0.926999986172 -0.202000007033 -0.226999998093 128.0
0.954999983311 -0.21400000155 -0.233999997377 134.0
0.924000024796 -0.212999999523 -0.225999996066 136.0
0.941999971867 -0.223000004888 -0.231000006199 137.0
0.925000011921 -0.22499999404 -0.226999998093 136.0
0.945999979973 -0.236000001431 -0.231999993324 139.0
0.930000007153 -0.238000005484 -0.229000002146 138.0
0.944000005722 -0.24699999392 -0.232999995351 133.0
0.954999983311 -0.256000012159 -0.236000001431 136.0
0.959999978542 -0.263999998569 -0.237000003457 131.0
0.941999971867 -0.264999985695 -0.232999995351 136.0
0.948000013828 -0.273000001907 -0.234999999404 131.0
0.949000000954 -0.279000014067 -0.234999999404 128.0
0.917999982834 -0.275999993086 -0.228000000119 128.0
0.962999999523 -0.296000003815 -0.239999994636 127.0
0.907000005245 -0.284999996424 -0.225999996066 129.0
0.934000015259 -0.298999994993 -0.232999995351 129.0
0.927999973297 -0.303999990225 -0.231999993324 125.0
0.935000002384 -0.312000006437 -0.233999997377 126.0
0.935000002384 -0.317999988794 -0.233999997377 124.0
0.957000017166 -0.333000004292 -0.240999996662 124.0
0.924000024796 -0.326999992132 -0.231999993324 123.0
0.920000016689 -0.331999987364 -0.231999993324 116.0
0.934000015259 -0.344000011683 -0.236000001431 123.0
0.943000018597 -0.352999985218 -0.238999992609 118.0
0.917999982834 -0.351000010967 -0.232999995351 113.0
0.954999983311 -0.370999991894 -0.243000000715 116.0
0.941999971867 -0.372999995947 -0.239999994636 125.0
0.907999992371 -0.365999996662 -0.231999993324 113.0
0.936999976635 -0.384000003338 -0.238999992609 110.0
0.933000028133 -0.388999998569 -0.238999992609 117.0
0.911000013351 -0.386999994516 -0.233999997377 115.0
0.922999978065 -0.398000001907 -0.237000003457 117.0
0.902000010014 -0.395999997854 -0.231999993324 112.0
0.919000029564 -0.411000013351 -0.238000005484 108.0
0.902999997139 -0.409999996424 -0.233999997377 105.0
0.913999974728 -0.42199999094 -0.237000003457 108.0
0.919000029564 -0.430999994278 -0.238999992609 116.0
0.90600001812 -0.432000011206 -0.236000001431 107.0
0.917999982834 -0.444000005722 -0.239999994636 102.0
0.903999984264 -0.444999992847 -0.237000003457 104.0
0.907000005245 -0.45300000906 -0.238000005484 106.0
0.888999998569 -0.451000005007 -0.233999997377 109.0
0.874000012875 -0.451000005007 -0.231000006199 103.0
0.898999989033 -0.470999985933 -0.238000005484 90.0
0.893999993801 -0.47499999404 -0.238000005484 99.0
0.888000011444 -0.479000002146 -0.237000003457 94.0
0.938000023365 -0.513999998569 -0.250999987125 93.0
0.846000015736 -0.469999998808 -0.226999998093 97.0
0.89099997282 -0.503000020981 -0.239999994636 95.0
0.879000008106 -0.504000008106 -0.237000003457 90.0
2.39299988747 -0.109999999404 -0.592000007629 191.0
2.37599992752 -0.123000003397 -0.587999999523 254.0
2.34400010109 -0.135000005364 -0.579999983311 209.0
2.30399990082 -0.145999997854 -0.569999992847 187.0
2.26600003242 -0.157000005245 -0.56099998951 103.0
1.06799995899 -0.0790000036359 -0.263999998569 99.0
0.989000022411 -0.0790000036359 -0.245000004768 123.0
0.987999975681 -0.0839999988675 -0.244000002742 117.0
0.975000023842 -0.0890000015497 -0.240999996662 124.0
0.987999975681 -0.0960000008345 -0.245000004768 125.0
0.976999998093 -0.101000003517 -0.241999998689 121.0
0.953999996185 -0.104000002146 -0.236000001431 131.0
0.977999985218 -0.112000003457 -0.241999998689 127.0
0.959999978542 -0.115999996662 -0.238000005484 129.0
0.967000007629 -0.123000003397 -0.239999994636 134.0
0.959999978542 -0.12800000608 -0.238000005484 126.0
0.958000004292 -0.133000001311 -0.238000005484 134.0
0.953999996185 -0.137999996543 -0.237000003457 137.0
0.966000020504 -0.145999997854 -0.239999994636 132.0
0.953999996185 -0.15000000596 -0.237000003457 137.0
0.967000007629 -0.158000007272 -0.240999996662 138.0
0.955999970436 -0.162000000477 -0.238000005484 137.0
0.972999989986 -0.171000003815 -0.243000000715 133.0
0.958000004292 -0.173999994993 -0.238999992609 135.0
0.981000006199 -0.184000000358 -0.245000004768 141.0
0.949000000954 -0.184000000358 -0.237000003457 137.0
0.935000002384 -0.187000006437 -0.233999997377 140.0
0.949999988079 -0.195999994874 -0.238000005484 132.0
0.947000026703 -0.201000005007 -0.237000003457 134.0
0.929000020027 -0.202999994159 -0.232999995351 134.0
0.927999973297 -0.208000004292 -0.232999995351 136.0
0.948000013828 -0.218999996781 -0.238000005484 138.0
0.971000015736 -0.230000004172 -0.244000002742 129.0
0.945999979973 -0.230000004172 -0.238000005484 136.0
0.931999981403 -0.232999995351 -0.234999999404 139.0
0.97000002861 -0.247999995947 -0.245000004768 135.0
0.916999995708 -0.239999994636 -0.231999993324 136.0
0.943000018597 -0.252999991179 -0.238999992609 138.0
0.910000026226 -0.25 -0.231000006199 139.0
0.945999979973 -0.266000002623 -0.239999994636 137.0
0.955999970436 -0.27500000596 -0.243000000715 128.0
0.953999996185 -0.280999988317 -0.243000000715 132.0
0.92199999094 -0.277999997139 -0.234999999404 133.0
0.931999981403 -0.287000000477 -0.238000005484 133.0
0.935000002384 -0.293999999762 -0.238999992609 132.0
0.924000024796 -0.296000003815 -0.237000003457 131.0
0.912999987602 -0.298999994993 -0.233999997377 131.0
0.910000026226 -0.303999990225 -0.233999997377 129.0
0.925999999046 -0.316000014544 -0.238000005484 130.0
0.938000023365 -0.326000005007 -0.241999998689 123.0
