ply
format ascii 1.0
element vertex 941
property float x
property float y
property float z
property float intensity
end_header
0.925999999046 -0.338999986649 0.241999998689 1402.0
0.920000016689 -0.342999994755 0.240999996662 1401.0
0.921000003815 -0.34999999404 0.241999998689 1394.0
0.916000008583 -0.354000002146 0.240999996662 1394.0
0.922999978065 -0.363000005484 0.244000002742 1406.0
0.910000026226 -0.365000009537 0.240999996662 1410.0
0.907999992371 -0.370000004768 0.240999996662 1409.0
0.907999992371 -0.377000004053 0.240999996662 1414.0
0.902999997139 -0.381000012159 0.240999996662 1417.0
0.899999976158 -0.386999994516 0.239999994636 1428.0
0.902999997139 -0.395000010729 0.241999998689 1419.0
0.897000014782 -0.398999989033 0.240999996662 1406.0
0.902000010014 -0.407000005245 0.243000000715 1420.0
0.893999993801 -0.411000013351 0.240999996662 1439.0
0.898999989033 -0.419999986887 0.243000000715 1428.0
0.89099997282 -0.423000007868 0.241999998689 1417.0
0.885999977589 -0.426999986172 0.240999996662 1422.0
0.888000011444 -0.435000002384 0.241999998689 1424.0
0.884999990463 -0.441000014544 0.241999998689 1424.0
0.887000024319 -0.448000013828 0.243000000715 1418.0
0.879999995232 -0.451999992132 0.241999998689 1407.0
0.878000020981 -0.458000004292 0.241999998689 1419.0
0.879999995232 -0.465999990702 0.244000002742 1423.0
0.878000020981 -0.472000002861 0.244000002742 1402.0
0.873000025749 -0.476999998093 0.243000000715 1421.0
0.865999996662 -0.479999989271 0.241999998689 1414.0
0.870999991894 -0.490000009537 0.244000002742 1404.0
0.864000022411 -0.493000000715 0.243000000715 1414.0
4.19299983978 2.48600006104 1.14499998093 108.0
4.11600017548 2.40499997139 1.12000000477 90.0
4.21899986267 2.42899990082 1.14499998093 111.0
4.19899988174 2.382999897 1.13600003719 116.0
4.24900007248 2.375 1.14600002766 98.0
4.17000007629 2.29600000381 1.1210000515 108.0
4.23299980164 2.29600000381 1.13499999046 118.0
4.20699977875 2.24799990654 1.125 110.0
4.22800016403 2.22499990463 1.12699997425 112.0
4.27699995041 2.21700000763 1.13699996471 125.0
4.20599985123 2.14599990845 1.11500000954 107.0
4.29799985886 2.15899991989 1.13699996471 110.0
4.33900022507 2.14599990845 1.14499998093 119.0
4.10300016403 1.99699997902 1.07899999619 112.0
3.92499995232 1.88100004196 1.02999997139 124.0
4.09299993515 1.92999994755 1.07099997997 122.0
4.15299987793 1.92700004578 1.08500003815 147.0
4.09600019455 1.86899995804 1.06700003147 183.0
4.09100008011 1.83599996567 1.06299996376 172.0
4.17399978638 1.84300005436 1.08200001717 157.0
4.31500005722 1.87300002575 1.11699998379 142.0
4.36199998856 1.86099994183 1.12600004673 141.0
4.35799980164 1.82799994946 1.12300002575 148.0
4.30700016022 1.77499997616 1.10699999332 177.0
4.25099992752 1.72200000286 1.0909999609 193.0
4.29199981689 1.70799994469 1.09899997711 188.0
4.29199981689 1.6779999733 1.09700000286 175.0
4.30100011826 1.65100002289 1.09700000286 177.0
4.28700017929 1.61500000954 1.0909999609 173.0
4.3109998703 1.59500002861 1.09500002861 171.0
4.29099988937 1.55799996853 1.08800005913 173.0
4.34999990463 1.5490000248 1.10099995136 175.0
4.33599996567 1.51400005817 1.09599995613 168.0
4.34999990463 1.49000000954 1.09800004959 173.0
4.38000011444 1.47000002861 1.10300004482 167.0
4.35599994659 1.43299996853 1.09500002861 161.0
4.367000103 1.40699994564 1.09700000286 168.0
4.34899997711 1.37199997902 1.09000003338 169.0
4.34200000763 1.3409999609 1.0870000124 166.0
4.39699983597 1.32899999619 1.09899997711 161.0
4.36899995804 1.29200005531 1.0909999609 164.0
4.35799980164 1.26100003719 1.08599996567 158.0
4.37099981308 1.23599994183 1.08800005913 162.0
4.38399982452 1.21099996567 1.09000003338 155.0
4.34999990463 1.1740000248 1.08000004292 156.0
4.39300012589 1.15699994564 1.08899998665 161.0
4.45300006866 1.14499998093 1.10300004482 118.0
4.77799987793 1.1970000267 1.18200004101 65.0
4.74900007248 1.15999996662 1.1740000248 61.0
4.757999897 1.10199999809 1.17299997807 65.0
4.75600004196 1.0720000267 1.17200005054 58.0
4.75699996948 1.04200005531 1.17100000381 57.0
4.75 1.01100003719 1.16799998283 58.0
4.7610001564 0.837999999523 1.16499996185 57.0
4.75899982452 0.721000015736 1.16100001335 54.0
0.0960000008345 0.0149999996647 0.0209999997169 63.0
4.82499980927 0.527999997139 1.17299997807 56.0
0.0930000022054 0.00700000021607 0.019999999553 61.0
0.0399999991059 0.00300000002608 0.00700000021607 60.0
0.158999994397 0.00700000021607 0.0359999984503 59.0
4.80100011826 0.12800000608 1.1629999876 53.0
4.93400001526 0.0729999989271 1.19599997997 55.0
4.88399982452 0.0149999996647 1.18299996853 56.0
4.91400003433 -0.0130000002682 1.19099998474 53.0
0.229000002146 -0.0010000000475 0.0529999993742 62.0
0.286000013351 -0.00300000002608 0.0670000016689 53.0
0.751999974251 -0.0170000009239 0.180000007153 131.0
0.991999983788 -0.0299999993294 0.238999992609 901.0
0.995000004768 -0.035000000149 0.238999992609 1016.0
0.999000012875 -0.0419999994338 0.239999994636 954.0
1.00199997425 -0.0480000004172 0.240999996662 1253.0
0.991999983788 -0.0529999993742 0.238999992609 1133.0
0.995999991894 -0.0590000003576 0.239999994636 1139.0
0.999000012875 -0.0649999976158 0.240999996662 1151.0
0.994000017643 -0.0710000023246 0.239999994636 1169.0
0.994000017643 -0.0759999975562 0.239999994636 1163.0
0.998000025749 -0.082999996841 0.240999996662 1166.0
0.996999979019 -0.0879999995232 0.240999996662 1174.0
0.990999996662 -0.0939999967813 0.238999992609 1198.0
0.992999970913 -0.10000000149 0.239999994636 1197.0
0.990000009537 -0.104999996722 0.238999992609 1196.0
0.98299998045 -0.109999999404 0.238000005484 1205.0
0.986000001431 -0.116999998689 0.238999992609 1219.0
0.980000019073 -0.122000001371 0.237000003457 1215.0
0.986000001431 -0.128999993205 0.238999992609 1215.0
0.976999998093 -0.133000001311 0.237000003457 1223.0
0.975000023842 -0.138999998569 0.237000003457 1248.0
0.980000019073 -0.144999995828 0.238000005484 1244.0
0.976000010967 -0.150999993086 0.237000003457 1262.0
0.976999998093 -0.157000005245 0.238000005484 1263.0
0.971000015736 -0.162000000477 0.237000003457 1257.0
0.971000015736 -0.166999995708 0.237000003457 1266.0
0.972999989986 -0.173999994993 0.238000005484 1276.0
0.963999986649 -0.178000003099 0.236000001431 1274.0
0.972999989986 -0.186000004411 0.238000005484 1294.0
0.967999994755 -0.190999999642 0.237000003457 1292.0
0.962999999523 -0.195999994874 0.236000001431 1280.0
0.962999999523 -0.201000005007 0.236000001431 1293.0
0.963999986649 -0.208000004292 0.237000003457 1307.0
0.962000012398 -0.212999999523 0.237000003457 1304.0
0.957000017166 -0.217999994755 0.236000001431 1319.0
0.958999991417 -0.22499999404 0.237000003457 1324.0
0.95300000906 -0.229000002146 0.234999999404 1334.0
0.957000017166 -0.236000001431 0.237000003457 1326.0
0.95300000906 -0.240999996662 0.236000001431 1321.0
0.950999975204 -0.24699999392 0.236000001431 1335.0
0.957000017166 -0.254000008106 0.238000005484 1351.0
0.945999979973 -0.25799998641 0.234999999404 1358.0
0.945999979973 -0.263999998569 0.236000001431 1358.0
0.940999984741 -0.268000006676 0.234999999404 1368.0
0.93900001049 -0.273999989033 0.234999999404 1374.0
0.943000018597 -0.280999988317 0.236000001431 1369.0
0.93900001049 -0.286000013351 0.236000001431 1363.0
0.938000023365 -0.291999995708 0.236000001431 1365.0
0.93900001049 -0.298999994993 0.236000001431 1378.0
0.93599998951 -0.303999990225 0.236000001431 1387.0
0.933000028133 -0.308999985456 0.236000001431 1385.0
0.927999973297 -0.31400001049 0.234999999404 1387.0
0.930999994278 -0.321000009775 0.236000001431 1393.0
0.924000024796 -0.324999988079 0.234999999404 1401.0
0.927999973297 -0.333000004292 0.236000001431 1398.0
0.921000003815 -0.33599999547 0.234999999404 1395.0
0.922999978065 -0.344000011683 0.236000001431 1421.0
0.915000021458 -0.347000002861 0.233999997377 1412.0
0.915000021458 -0.352999985218 0.234999999404 1410.0
0.915000021458 -0.360000014305 0.234999999404 1405.0
0.913999974728 -0.365999996662 0.236000001431 1407.0
0.910000026226 -0.370999991894 0.234999999404 1420.0
0.90499997139 -0.375 0.234999999404 1415.0
0.908999979496 -0.384000003338 0.236000001431 1406.0
0.90499997139 -0.388999998569 0.236000001431 1418.0
0.902000010014 -0.393999993801 0.234999999404 1428.0
0.90499997139 -0.402000010014 0.237000003457 1416.0
0.901000022888 -0.407000005245 0.236000001431 1409.0
0.894999980927 -0.411000013351 0.234999999404 1421.0
0.893000006676 -0.416000008583 0.236000001431 1430.0
0.889999985695 -0.42199999094 0.236000001431 1405.0
0.897000014782 -0.432000011206 0.238000005484 1431.0
0.89099997282 -0.43599998951 0.237000003457 1421.0
0.888000011444 -0.441000014544 0.237000003457 1433.0
0.883000016212 -0.446000009775 0.236000001431 1433.0
0.884000003338 -0.45300000906 0.237000003457 1416.0
0.879999995232 -0.458000004292 0.237000003457 1441.0
0.874000012875 -0.462000012398 0.236000001431 1419.0
0.879000008106 -0.472000002861 0.238000005484 1421.0
0.873000025749 -0.476000010967 0.237000003457 1417.0
0.867999970913 -0.479999989271 0.236000001431 1431.0
0.867999970913 -0.486999988556 0.237000003457 1420.0
0.867999970913 -0.495000004768 0.238000005484 1435.0
4.1970000267 2.4849998951 1.11600005627 105.0
4.0720000267 2.37599992752 1.07899999619 93.0
4.20800018311 2.42000007629 1.11199998856 116.0
4.22900009155 2.39599990845 1.11399996281 117.0
4.17299985886 2.32899999619 1.09599995613 101.0
4.20100021362 2.30999994278 1.10000002384 115.0
4.29500007629 2.32699990273 1.12199997902 119.0
4.1859998703 2.23300004005 1.09000003338 110.0
4.28399991989 2.25099992752 1.11199998856 111.0
4.25500011444 2.20199990273 1.10199999809 125.0
4.22599983215 2.15300011635 1.0909999609 101.0
4.31599998474 2.16499996185 1.11199998856 118.0
4.30999994278 2.12800002098 1.10699999332 119.0
4.05399990082 1.97099995613 1.03900003433 117.0
4.01200008392 1.91900002956 1.02600002289 115.0
4.15000009537 1.95399999619 1.05799996853 126.0
4.15700006485 1.92499995232 1.05700004101 161.0
4.12099981308 1.87800002098 1.04600000381 172.0
4.10599994659 1.84000003338 1.03999996185 176.0
4.21299982071 1.85699999332 1.06400001049 154.0
4.32800006866 1.87600004673 1.0909999609 133.0
4.34600019455 1.85199999809 1.09300005436 148.0
4.36600017548 1.82899999619 1.09599995613 149.0
4.29699993134 1.76900005341 1.0759999752 185.0
4.28499984741 1.73300004005 1.07099997997 197.0
4.30399990082 1.71000003815 1.07299995422 187.0
4.31300020218 1.68400001526 1.07400000095 181.0
4.30399990082 1.64999997616 1.06900000572 176.0
4.31799983978 1.625 1.07099997997 176.0
4.32399988174 1.59700000286 1.07000005245 173.0
4.33500003815 1.57099997997 1.07099997997 170.0
4.3029999733 1.52999997139 1.06099998951 169.0
4.32999992371 1.50999999046 1.06599998474 175.0
4.35300016403 1.48899996281 1.07000005245 173.0
4.3639998436 1.46300005913 1.07099997997 166.0
4.36499977112 1.43400001526 1.07000005245 174.0
4.34700012207 1.39900004864 1.06299996376 163.0
4.3639998436 1.375 1.06599998474 165.0
4.37599992752 1.35000002384 1.06700003147 162.0
4.34499979019 1.31200003624 1.05799996853 163.0
4.36299991608 1.28900003433 1.06099998951 161.0
4.35099983215 1.25699996948 1.05700004101 165.0
4.37599992752 1.23599994183 1.06099998951 161.0
4.36100006104 1.20299994946 1.05599999428 159.0
4.39200019836 1.18299996853 1.06200003624 154.0
4.39699983597 1.15699994564 1.06200003624 156.0
4.51300001144 1.15799999237 1.08899998665 110.0
4.7610001564 1.19200003147 1.14800000191 62.0
0.0240000002086 0.00600000005215 0.00300000002608 62.0
0.0410000011325 0.00999999977648 0.00700000021607 65.0
0.0640000030398 0.00600000005215 0.0120000001043 56.0
4.90299987793 0.245000004768 1.15799999237 57.0
0.0610000006855 0.00200000009499 0.0120000001043 52.0
0.0289999991655 0.00200000009499 0.00400000018999 56.0
4.93699979782 -0.0710000023246 1.16600000858 53.0
0.035000000149 0.0010000000475 0.00499999988824 54.0
0.778999984264 -0.0179999992251 0.181999996305 139.0
0.995000004768 -0.0299999993294 0.232999995351 931.0
1.00499999523 -0.0359999984503 0.236000001431 1113.0
1.00100004673 -0.0419999994338 0.234999999404 1135.0
1.0039999485 -0.0480000004172 0.234999999404 1136.0
0.999000012875 -0.0529999993742 0.233999997377 1151.0
0.995000004768 -0.0590000003576 0.232999995351 1142.0
0.999000012875 -0.0649999976158 0.233999997377 1162.0
0.994000017643 -0.070000000298 0.232999995351 1164.0
1.0 -0.0769999995828 0.234999999404 1166.0
0.991999983788 -0.082000002265 0.232999995351 1177.0
0.991999983788 -0.0879999995232 0.232999995351 1177.0
0.98400002718 -0.0930000022054 0.231999993324 1195.0
0.990000009537 -0.0989999994636 0.232999995351 1194.0
0.981999993324 -0.104000002146 0.231000006199 1198.0
0.986000001431 -0.111000001431 0.231999993324 1217.0
0.98400002718 -0.115999996662 0.231999993324 1221.0
0.98299998045 -0.122000001371 0.231999993324 1207.0
0.976999998093 -0.127000004053 0.231000006199 1237.0
0.978999972343 -0.133000001311 0.231000006199 1214.0
0.981000006199 -0.138999998569 0.231999993324 1240.0
0.977999985218 -0.144999995828 0.231999993324 1249.0
0.976000010967 -0.150999993086 0.231000006199 1245.0
0.977999985218 -0.157000005245 0.231999993324 1263.0
0.972999989986 -0.162000000477 0.231000006199 1283.0
0.963999986649 -0.165999993682 0.229000002146 1268.0
0.97000002861 -0.172999992967 0.231000006199 1283.0
0.96899998188 -0.179000005126 0.231000006199 1276.0
0.971000015736 -0.185000002384 0.231000006199 1296.0
0.962999999523 -0.188999995589 0.230000004172 1303.0
0.966000020504 -0.195999994874 0.231000006199 1297.0
0.962999999523 -0.201000005007 0.230000004172 1299.0
0.961000025272 -0.207000002265 0.230000004172 1308.0
0.963999986649 -0.21400000155 0.231000006199 1307.0
0.962999999523 -0.218999996781 0.231000006199 1307.0
0.955999970436 -0.224000006914 0.230000004172 1326.0
0.955999970436 -0.230000004172 0.230000004172 1323.0
0.948000013828 -0.233999997377 0.228000000119 1326.0
0.949000000954 -0.239999994636 0.229000002146 1328.0
0.953999996185 -0.24699999392 0.231000006199 1343.0
0.952000021935 -0.252999991179 0.230000004172 1342.0
0.950999975204 -0.259000003338 0.231000006199 1358.0
0.945999979973 -0.263000011444 0.230000004172 1362.0
0.945999979973 -0.268999993801 0.230000004172 1349.0
0.941999971867 -0.273999989033 0.229000002146 1369.0
0.943000018597 -0.280999988317 0.230000004172 1382.0
0.936999976635 -0.284999996424 0.229000002146 1371.0
0.940999984741 -0.293000012636 0.230000004172 1377.0
0.933000028133 -0.296000003815 0.229000002146 1384.0
0.936999976635 -0.303999990225 0.230000004172 1393.0
0.934000015259 -0.308999985456 0.230000004172 1384.0
0.931999981403 -0.314999997616 0.230000004172 1403.0
0.926999986172 -0.319000005722 0.229000002146 1406.0
0.926999986172 -0.324999988079 0.229000002146 1402.0
0.92199999094 -0.330000013113 0.229000002146 1396.0
0.92199999094 -0.337000012398 0.229000002146 1403.0
0.921000003815 -0.342000007629 0.229000002146 1418.0
0.917999982834 -0.347000002861 0.229000002146 1416.0
0.916000008583 -0.352999985218 0.229000002146 1424.0
0.913999974728 -0.358999997377 0.229000002146 1412.0
0.913999974728 -0.365000009537 0.230000004172 1413.0
0.907999992371 -0.370000004768 0.229000002146 1412.0
0.90600001812 -0.375 0.229000002146 1414.0
0.907999992371 -0.38299998641 0.230000004172 1427.0
0.901000022888 -0.386000007391 0.229000002146 1419.0
0.902999997139 -0.393999993801 0.230000004172 1428.0
0.901000022888 -0.40000000596 0.230000004172 1425.0
0.896000027657 -0.404000014067 0.229000002146 1407.0
0.896000027657 -0.411000013351 0.230000004172 1440.0
0.894999980927 -0.416999995708 0.230000004172 1430.0
0.896000027657 -0.423999994993 0.231000006199 1427.0
0.89099997282 -0.428999990225 0.230000004172 1435.0
0.89099997282 -0.435000002384 0.231000006199 1432.0
0.885999977589 -0.439999997616 0.230000004172 1447.0
0.89099997282 -0.449000000954 0.231999993324 1440.0
0.885999977589 -0.453999996185 0.231999993324 1427.0
0.879000008106 -0.456999987364 0.231000006199 1424.0
0.876999974251 -0.462999999523 0.231000006199 1433.0
0.876999974251 -0.469999998808 0.231000006199 1423.0
0.876999974251 -0.476999998093 0.231999993324 1436.0
0.870999991894 -0.481000006199 0.231000006199 1437.0
0.866999983788 -0.486000001431 0.231000006199 1424.0
0.869000017643 -0.495000004768 0.231999993324 1442.0
4.20100021362 2.48399996758 1.0870000124 111.0
4.20900011063 2.45199990273 1.08599996567 100.0
4.20399999619 2.41300010681 1.08099997044 110.0
4.20100021362 2.37700009346 1.07700002193 115.0
4.22399997711 2.35400009155 1.08000004292 92.0
4.19799995422 2.30500006676 1.07000005245 111.0
4.26200008392 2.30500006676 1.08299994469 121.0
4.17399978638 2.22399997711 1.05799996853 103.0
4.19500017166 2.2009999752 1.05999994278 112.0
4.27699995041 2.21000003815 1.07799994946 121.0
4.1970000267 2.13499999046 1.05499994755 104.0
4.31300020218 2.16100001335 1.08200001717 118.0
4.34499979019 2.14299988747 1.0870000124 118.0
3.97000002861 1.92700004578 0.990000009537 111.0
4.01200008392 1.91600000858 0.998000025749 126.0
4.10200023651 1.9279999733 1.01800000668 121.0
4.11999988556 1.90600001812 1.01999998093 158.0
4.10400009155 1.86699998379 1.01400005817 191.0
4.13500022888 1.85000002384 1.01900005341 171.0
4.17999982834 1.84000003338 1.02799999714 153.0
4.35900020599 1.88699996471 1.07000005245 127.0
4.34999990463 1.85099995136 1.06500005722 142.0
4.32600021362 1.80900001526 1.05700004101 153.0
4.26000022888 1.75100004673 1.03900003433 181.0
4.29600000381 1.73500001431 1.04499995708 186.0
4.29099988937 1.70299994946 1.04200005531 179.0
4.29500007629 1.6740000248 1.04100000858 178.0
4.3109998703 1.64999997616 1.04299998283 180.0
4.30700016022 1.61800003052 1.03999996185 172.0
4.30800008774 1.58899998665 1.0379999876 171.0
4.30000019073 1.55599999428 1.0340000391 176.0
4.35300016403 1.54499995708 1.04499995708 172.0
4.34700012207 1.51400005817 1.04200005531 162.0
4.32700014114 1.47800004482 1.03600001335 171.0
4.36000013351 1.45899999142 1.04200005531 163.0
4.3639998436 1.43200004101 1.04100000858 167.0
4.37900018692 1.40699994564 1.04299998283 165.0
4.35799980164 1.3710000515 1.03600001335 164.0
4.36100006104 1.34300005436 1.03499996662 165.0
4.35400009155 1.31299996376 1.03199994564 168.0
4.40299987793 1.2990000248 1.04299998283 164.0
4.3860001564 1.26499998569 1.03699994087 157.0
4.40500020981 1.24199998379 1.03999996185 164.0
4.36299991608 1.20200002193 1.02900004387 156.0
4.38800001144 1.18099999428 1.03299999237 160.0
4.40199995041 1.15600001812 1.03600001335 152.0
4.49700021744 1.15199995041 1.05700004101 105.0
4.78900003433 1.1970000267 1.12399995327 59.0
4.85500001907 -0.0989999994636 1.11699998379 55.0
0.832000017166 -0.0189999993891 0.188999995589 146.0
1.0 -0.0299999993294 0.228000000119 938.0
1.00100004673 -0.0359999984503 0.228000000119 1122.0
1.0039999485 -0.0419999994338 0.229000002146 1129.0
1.0 -0.0469999983907 0.228000000119 1145.0
1.0 -0.0529999993742 0.228000000119 1144.0
1.00199997425 -0.0590000003576 0.229000002146 1140.0
0.992999970913 -0.0640000030398 0.226999998093 1163.0
0.996999979019 -0.0710000023246 0.228000000119 1178.0
0.999000012875 -0.0769999995828 0.229000002146 1176.0
0.989000022411 -0.082000002265 0.225999996066 1182.0
0.995999991894 -0.0879999995232 0.228000000119 1187.0
0.989000022411 -0.0930000022054 0.226999998093 1196.0
0.989000022411 -0.0989999994636 0.226999998093 1206.0
0.991999983788 -0.104999996722 0.228000000119 1197.0
0.987999975681 -0.111000001431 0.226999998093 1210.0
0.981000006199 -0.115999996662 0.22499999404 1225.0
0.981999993324 -0.122000001371 0.225999996066 1226.0
0.981999993324 -0.12800000608 0.225999996066 1233.0
0.972999989986 -0.131999999285 0.224000006914 1237.0
0.977999985218 -0.138999998569 0.22499999404 1236.0
0.977999985218 -0.144999995828 0.225999996066 1257.0
0.977999985218 -0.150999993086 0.225999996066 1247.0
0.973999977112 -0.156000003219 0.22499999404 1262.0
0.967999994755 -0.16099999845 0.224000006914 1282.0
0.973999977112 -0.167999997735 0.22499999404 1270.0
0.972000002861 -0.172999992967 0.22499999404 1280.0
0.966000020504 -0.178000003099 0.224000006914 1283.0
0.97000002861 -0.185000002384 0.22499999404 1293.0
0.971000015736 -0.190999999642 0.225999996066 1298.0
0.97000002861 -0.196999996901 0.225999996066 1302.0
0.962000012398 -0.201000005007 0.224000006914 1308.0
0.962999999523 -0.207000002265 0.22499999404 1323.0
0.961000025272 -0.212999999523 0.22499999404 1322.0
0.958000004292 -0.217999994755 0.224000006914 1328.0
0.961000025272 -0.22499999404 0.22499999404 1331.0
0.950999975204 -0.228000000119 0.223000004888 1335.0
0.953999996185 -0.234999999404 0.224000006914 1343.0
0.954999983311 -0.240999996662 0.22499999404 1334.0
0.952000021935 -0.246000006795 0.224000006914 1344.0
0.955999970436 -0.254000008106 0.22499999404 1361.0
0.949000000954 -0.25799998641 0.224000006914 1360.0
0.945999979973 -0.263000011444 0.224000006914 1351.0
0.944999992847 -0.268999993801 0.224000006914 1364.0
0.945999979973 -0.27500000596 0.224000006914 1383.0
0.939999997616 -0.280000001192 0.223000004888 1368.0
0.936999976635 -0.284999996424 0.223000004888 1361.0
0.939999997616 -0.291999995708 0.224000006914 1384.0
0.93599998951 -0.29699999094 0.224000006914 1403.0
0.930000007153 -0.300999999046 0.222000002861 1394.0
0.93599998951 -0.308999985456 0.224000006914 1402.0
0.931999981403 -0.31400001049 0.224000006914 1400.0
0.924000024796 -0.317999988794 0.222000002861 1405.0
0.925999999046 -0.324999988079 0.223000004888 1414.0
0.922999978065 -0.330000013113 0.223000004888 1408.0
0.927999973297 -0.337999999523 0.22499999404 1406.0
0.920000016689 -0.342000007629 0.223000004888 1417.0
0.920000016689 -0.347999989986 0.224000006914 1423.0
0.915000021458 -0.351999998093 0.223000004888 1414.0
0.916999995708 -0.360000014305 0.224000006914 1418.0
0.913999974728 -0.365000009537 0.224000006914 1425.0
0.912999987602 -0.370999991894 0.224000006914 1419.0
0.908999979496 -0.375999987125 0.224000006914 1418.0
0.907999992371 -0.381999999285 0.224000006914 1430.0
0.903999984264 -0.386999994516 0.223000004888 1438.0
0.907999992371 -0.395000010729 0.22499999404 1429.0
0.898000001907 -0.398000001907 0.223000004888 1434.0
0.898000001907 -0.404000014067 0.223000004888 1434.0
0.899999976158 -0.412000000477 0.22499999404 1441.0
0.893000006676 -0.416000008583 0.224000006914 1452.0
0.894999980927 -0.423000007868 0.22499999404 1448.0
0.893000006676 -0.428999990225 0.22499999404 1437.0
0.888000011444 -0.432999998331 0.224000006914 1444.0
0.888999998569 -0.439999997616 0.22499999404 1435.0
0.888000011444 -0.446999996901 0.22499999404 1425.0
0.880999982357 -0.449999988079 0.224000006914 1438.0
0.885999977589 -0.460000008345 0.225999996066 1438.0
0.874000012875 -0.46099999547 0.224000006914 1453.0
0.873000025749 -0.467000007629 0.224000006914 1443.0
0.879000008106 -0.477999985218 0.225999996066 1422.0
0.870999991894 -0.481000006199 0.22499999404 1453.0
0.870000004768 -0.486999988556 0.225999996066 1448.0
0.865999996662 -0.49200001359 0.22499999404 1446.0
4.17500019073 2.46399998665 1.05099999905 90.0
4.20399999619 2.44600009918 1.05499994755 105.0
4.20499992371 2.41100001335 1.05200004578 113.0
4.257999897 2.40499997139 1.06200003624 112.0
4.16200017929 2.31599998474 1.03499996662 97.0
4.21099996567 2.30900001526 1.04400002956 104.0
4.2389998436 2.28999996185 1.04799997807 113.0
4.15100002289 2.20799994469 1.02400004864 99.0
4.28000020981 2.24300003052 1.0529999733 117.0
4.32100009918 2.22900009155 1.05999994278 113.0
4.1939997673 2.13100004196 1.02600002289 103.0
4.35099983215 2.17600011826 1.06099998951 118.0
4.33099985123 2.132999897 1.05400002003 109.0
3.91199994087 1.89600002766 0.949000000954 126.0
3.99300003052 1.90499997139 0.966000020504 120.0
4.1890001297 1.9659999609 1.01199996471 124.0
4.19500017166 1.93799996376 1.01100003719 158.0
4.09399986267 1.86000001431 0.98400002718 175.0
4.117000103 1.84000003338 0.986999988556 174.0
4.24300003052 1.86500000954 1.01499998569 140.0
4.33799982071 1.875 1.03600001335 137.0
4.33799982071 1.84300005436 1.03299999237 137.0
4.34399986267 1.81400001049 1.03299999237 156.0
4.26499986649 1.75100004673 1.01199996471 183.0
4.30200004578 1.73500001431 1.01800000668 187.0
4.28999996185 1.70000004768 1.01400005817 183.0
4.29799985886 1.67299997807 1.01300001144 181.0
4.3189997673 1.65100002289 1.01600003242 179.0
4.33900022507 1.62800002098 1.01900005341 171.0
4.32600021362 1.59300005436 1.01400005817 166.0
4.34200000763 1.56900000572 1.01600003242 173.0
4.32999992371 1.53499996662 1.01199996471 164.0
4.35599994659 1.51499998569 1.01600003242 164.0
4.34200000763 1.48000001907 1.01100003719 164.0
4.34700012207 1.45299994946 1.01100003719 171.0
4.35799980164 1.4279999733 1.01199996471 170.0
4.38199996948 1.40600001812 1.01600003242 162.0
4.39400005341 1.38100004196 1.01699995995 168.0
4.35300016403 1.33899998665 1.00600004196 160.0
4.36199998856 1.31299996376 1.00600004196 159.0
4.37599992752 1.28900003433 1.00800001621 156.0
4.40500020981 1.26900005341 1.01300001144 156.0
4.38800001144 1.23599994183 1.00800001621 163.0
4.37400007248 1.20399999619 1.0039999485 159.0
4.40799999237 1.18499994278 1.00999999046 152.0
4.382999897 1.14999997616 1.00300002098 149.0
4.51900005341 1.15699994564 1.03299999237 101.0
0.166999995708 0.0419999994338 0.0359999984503 69.0
0.00600000005215 0.00200000009499 0.0 52.0
0.827000021935 -0.0189999993891 0.182999998331 151.0
1.00100004673 -0.0299999993294 0.222000002861 949.0
1.0 -0.0359999984503 0.222000002861 1127.0
1.00499999523 -0.0419999994338 0.223000004888 1135.0
1.00499999523 -0.0480000004172 0.223000004888 1153.0
0.998000025749 -0.0529999993742 0.222000002861 1157.0
0.992999970913 -0.0590000003576 0.221000000834 1157.0
0.995000004768 -0.0649999976158 0.221000000834 1174.0
0.999000012875 -0.0710000023246 0.222000002861 1174.0
0.996999979019 -0.0759999975562 0.222000002861 1179.0
0.991999983788 -0.082000002265 0.221000000834 1190.0
0.994000017643 -0.0879999995232 0.221000000834 1189.0
0.991999983788 -0.0939999967813 0.221000000834 1196.0
0.990999996662 -0.0989999994636 0.221000000834 1213.0
0.985000014305 -0.104999996722 0.219999998808 1211.0
0.980000019073 -0.109999999404 0.218999996781 1208.0
0.985000014305 -0.115999996662 0.219999998808 1239.0
0.98299998045 -0.122000001371 0.219999998808 1222.0
0.981000006199 -0.127000004053 0.219999998808 1231.0
0.980000019073 -0.133000001311 0.218999996781 1230.0
0.976000010967 -0.138999998569 0.218999996781 1254.0
0.978999972343 -0.144999995828 0.219999998808 1258.0
0.978999972343 -0.150999993086 0.219999998808 1258.0
0.976000010967 -0.156000003219 0.218999996781 1270.0
0.976000010967 -0.162000000477 0.219999998808 1281.0
0.976000010967 -0.167999997735 0.219999998808 1287.0
0.973999977112 -0.172999992967 0.219999998808 1288.0
0.97000002861 -0.179000005126 0.218999996781 1283.0
0.967999994755 -0.184000000358 0.218999996781 1305.0
0.967999994755 -0.189999997616 0.218999996781 1308.0
0.966000020504 -0.195999994874 0.218999996781 1306.0
0.963999986649 -0.201000005007 0.218999996781 1318.0
0.966000020504 -0.207000002265 0.218999996781 1324.0
0.959999978542 -0.211999997497 0.217999994755 1317.0
0.958999991417 -0.217999994755 0.217999994755 1322.0
0.958000004292 -0.224000006914 0.217999994755 1331.0
0.955999970436 -0.229000002146 0.217999994755 1348.0
0.954999983311 -0.234999999404 0.217999994755 1354.0
0.955999970436 -0.240999996662 0.218999996781 1343.0
0.953999996185 -0.24699999392 0.217999994755 1348.0
0.949999988079 -0.252000004053 0.217999994755 1371.0
0.952000021935 -0.25799998641 0.218999996781 1370.0
0.944000005722 -0.261999994516 0.216999992728 1372.0
0.944000005722 -0.268000006676 0.217999994755 1362.0
0.948000013828 -0.275999993086 0.218999996781 1382.0
0.938000023365 -0.279000014067 0.216999992728 1381.0
0.939999997616 -0.284999996424 0.217999994755 1362.0
0.940999984741 -0.291999995708 0.217999994755 1402.0
0.938000023365 -0.29699999094 0.217999994755 1401.0
0.936999976635 -0.303000003099 0.217999994755 1386.0
0.934000015259 -0.307999998331 0.217999994755 1391.0
0.931999981403 -0.31400001049 0.217999994755 1406.0
0.926999986172 -0.317999988794 0.216999992728 1402.0
0.926999986172 -0.324999988079 0.216999992728 1413.0
0.925000011921 -0.330000013113 0.217999994755 1402.0
0.925999999046 -0.337000012398 0.217999994755 1408.0
0.922999978065 -0.342000007629 0.217999994755 1419.0
0.925000011921 -0.349000006914 0.218999996781 1418.0
0.916000008583 -0.352999985218 0.216999992728 1420.0
0.913999974728 -0.358000010252 0.216999992728 1427.0
0.913999974728 -0.365000009537 0.217999994755 1424.0
0.913999974728 -0.370999991894 0.217999994755 1424.0
0.912000000477 -0.377000004053 0.217999994755 1421.0
0.912000000477 -0.38299998641 0.218999996781 1428.0
0.907999992371 -0.388000011444 0.217999994755 1434.0
0.907000005245 -0.393999993801 0.218999996781 1438.0
0.898999989033 -0.398000001907 0.216999992728 1441.0
0.903999984264 -0.405999988317 0.218999996781 1441.0
0.901000022888 -0.412000000477 0.218999996781 1439.0
0.894999980927 -0.416000008583 0.217999994755 1430.0
0.894999980927 -0.423000007868 0.218999996781 1436.0
0.888999998569 -0.425999999046 0.217999994755 1454.0
0.889999985695 -0.433999985456 0.218999996781 1446.0
0.888999998569 -0.439999997616 0.218999996781 1448.0
0.887000024319 -0.446000009775 0.218999996781 1444.0
0.887000024319 -0.45300000906 0.219999998808 1444.0
0.875999987125 -0.455000013113 0.217999994755 1431.0
0.879999995232 -0.462999999523 0.218999996781 1447.0
0.875999987125 -0.467999994755 0.218999996781 1454.0
0.879000008106 -0.476999998093 0.219999998808 1438.0
0.873000025749 -0.481000006199 0.219999998808 1451.0
0.864000022411 -0.483000010252 0.217999994755 1435.0
0.865999996662 -0.490999996662 0.218999996781 1441.0
4.125 2.43099999428 1.00899994373 98.0
4.15799999237 2.41499996185 1.01400005817 95.0
4.21600008011 2.41300010681 1.02499997616 115.0
4.23699998856 2.3900001049 1.02699995041 116.0
4.13500022888 2.29800009727 1.0 84.0
4.20800018311 2.30399990082 1.01400005817 112.0
4.25899982452 2.29699993134 1.02400004864 110.0
4.132999897 2.19499993324 0.990000009537 93.0
4.3029999733 2.25099992752 1.02900004387 113.0
4.26599979401 2.19799995422 1.01699995995 116.0
4.21600008011 2.13899993896 1.00199997425 107.0
4.3639998436 2.18000006676 1.03499996662 112.0
4.29099988937 2.1099998951 1.01499998569 112.0
3.97699999809 1.92499995232 0.938000023365 125.0
3.97699999809 1.89499998093 0.93599998951 124.0
4.20499992371 1.97099995613 0.986999988556 138.0
4.15000009537 1.91400003433 0.972000002861 170.0
4.09700012207 1.85899996758 0.957000017166 172.0
4.15299987793 1.85300004482 0.967999994755 166.0
4.24300003052 1.86199998856 0.986999988556 141.0
4.34100008011 1.87399995327 1.00800001621 127.0
4.38000011444 1.85899996758 1.01499998569 131.0
4.33699989319 1.80900001526 1.00199997425 152.0
4.28900003433 1.75800001621 0.989000022411 181.0
4.28599977493 1.72699999809 0.986999988556 176.0
4.32499980927 1.71099996567 0.992999970913 181.0
4.29199981689 1.66799998283 0.98400002718 178.0
4.33599996567 1.65499997139 0.991999983788 172.0
4.35699987411 1.63300001621 0.995000004768 168.0
4.31699991226 1.58800005913 0.98400002718 173.0
4.34600019455 1.56900000572 0.989000022411 166.0
4.35500001907 1.54200005531 0.989000022411 172.0
4.37599992752 1.51999998093 0.992999970913 163.0
4.33500003815 1.47599995136 0.981000006199 168.0
4.37799978256 1.46099996567 0.990000009537 163.0
4.35099983215 1.4240000248 0.981999993324 155.0
4.36800003052 1.39999997616 0.98400002718 165.0
4.367000103 1.3710000515 0.98299998045 162.0
4.36600017548 1.34200000763 0.981000006199 164.0
4.3860001564 1.31900000572 0.98400002718 171.0
4.36499977112 1.2840000391 0.977999985218 159.0
4.38399982452 1.26100003719 0.981000006199 158.0
4.38800001144 1.23399996758 0.980000019073 166.0
4.38999986649 1.20599997044 0.980000019073 151.0
4.41699981689 1.18499994278 0.98400002718 156.0
4.40999984741 1.15499997139 0.981999993324 149.0
4.53599977493 1.1590000391 1.00899994373 96.0
0.0370000004768 0.00999999977648 0.00499999988824 58.0
0.01600000076 0.00400000018999 0.0010000000475 59.0
4.73099994659 0.799000024796 1.0379999876 55.0
0.0340000018477 0.0010000000475 0.00499999988824 53.0
0.837999999523 -0.019999999553 0.180000007153 155.0
0.998000025749 -0.0299999993294 0.215000003576 958.0
1.00199997425 -0.0359999984503 0.216000005603 1142.0
1.00699996948 -0.0419999994338 0.217999994755 1143.0
1.0 -0.0469999983907 0.216000005603 1153.0
0.999000012875 -0.0529999993742 0.216000005603 1168.0
0.992999970913 -0.0590000003576 0.215000003576 1154.0
0.994000017643 -0.0640000030398 0.215000003576 1178.0
0.994000017643 -0.070000000298 0.215000003576 1182.0
0.995999991894 -0.0759999975562 0.216000005603 1181.0
0.992999970913 -0.082000002265 0.215000003576 1183.0
0.995000004768 -0.0879999995232 0.216000005603 1187.0
0.989000022411 -0.0930000022054 0.21400000155 1195.0
0.994000017643 -0.10000000149 0.216000005603 1204.0
0.990999996662 -0.104999996722 0.215000003576 1204.0
0.986999988556 -0.109999999404 0.21400000155 1206.0
0.981999993324 -0.115999996662 0.212999999523 1221.0
0.989000022411 -0.122000001371 0.215000003576 1230.0
0.980000019073 -0.127000004053 0.212999999523 1227.0
0.981999993324 -0.133000001311 0.21400000155 1242.0
0.981000006199 -0.138999998569 0.21400000155 1248.0
0.976000010967 -0.143999993801 0.212999999523 1265.0
0.975000023842 -0.15000000596 0.212999999523 1263.0
0.972999989986 -0.155000001192 0.212999999523 1273.0
0.976000010967 -0.162000000477 0.21400000155 1278.0
0.973999977112 -0.166999995708 0.212999999523 1291.0
0.971000015736 -0.172999992967 0.212999999523 1287.0
0.967999994755 -0.178000003099 0.212999999523 1298.0
0.966000020504 -0.182999998331 0.211999997497 1301.0
0.967999994755 -0.189999997616 0.212999999523 1311.0
0.962999999523 -0.194999992847 0.211999997497 1310.0
0.962000012398 -0.201000005007 0.211999997497 1327.0
0.967000007629 -0.208000004292 0.212999999523 1323.0
0.967999994755 -0.21400000155 0.21400000155 1329.0
0.959999978542 -0.217999994755 0.211999997497 1326.0
0.961000025272 -0.224000006914 0.212999999523 1332.0
0.957000017166 -0.229000002146 0.211999997497 1355.0
0.957000017166 -0.234999999404 0.212999999523 1360.0
0.95300000906 -0.239999994636 0.211999997497 1350.0
0.95300000906 -0.246000006795 0.211999997497 1351.0
0.949999988079 -0.250999987125 0.211999997497 1376.0
0.952000021935 -0.25799998641 0.212999999523 1365.0
0.947000026703 -0.263000011444 0.211999997497 1371.0
0.945999979973 -0.268999993801 0.211999997497 1369.0
0.952000021935 -0.277000010014 0.21400000155 1396.0
0.944000005722 -0.280000001192 0.211999997497 1383.0
0.944999992847 -0.287000000477 0.212999999523 1390.0
0.944000005722 -0.293000012636 0.212999999523 1397.0
0.940999984741 -0.298000007868 0.212999999523 1403.0
0.939999997616 -0.303999990225 0.212999999523 1399.0
0.93599998951 -0.308999985456 0.211999997497 1417.0
0.93599998951 -0.314999997616 0.212999999523 1405.0
0.930000007153 -0.319000005722 0.211999997497 1415.0
0.924000024796 -0.323000013828 0.21099999547 1435.0
0.927999973297 -0.331000000238 0.211999997497 1419.0
0.929000020027 -0.337999999523 0.212999999523 1409.0
0.925999999046 -0.342999994755 0.212999999523 1421.0
0.917999982834 -0.347000002861 0.21099999547 1423.0
0.912999987602 -0.351000010967 0.21099999547 1422.0
0.920000016689 -0.360000014305 0.212999999523 1432.0
0.913999974728 -0.363999992609 0.211999997497 1438.0
0.912000000477 -0.370000004768 0.211999997497 1432.0
0.916000008583 -0.377999991179 0.212999999523 1426.0
0.907999992371 -0.381000012159 0.211999997497 1429.0
0.910000026226 -0.388999998569 0.212999999523 1451.0
0.903999984264 -0.393000006676 0.211999997497 1445.0
0.901000022888 -0.398000001907 0.211999997497 1441.0
0.901000022888 -0.405000001192 0.211999997497 1436.0
0.897000014782 -0.409000009298 0.211999997497 1439.0
0.894999980927 -0.414999991655 0.211999997497 1467.0
0.896000027657 -0.423000007868 0.212999999523 1449.0
0.89200001955 -0.426999986172 0.211999997497 1457.0
0.888999998569 -0.432999998331 0.211999997497 1453.0
0.884000003338 -0.437000006437 0.211999997497 1448.0
0.880999982357 -0.442999988794 0.211999997497 1449.0
0.885999977589 -0.451999992132 0.212999999523 1456.0
0.887000024319 -0.458999991417 0.21400000155 1447.0
0.876999974251 -0.46099999547 0.212999999523 1452.0
0.879999995232 -0.469999998808 0.21400000155 1452.0
0.875999987125 -0.47499999404 0.21400000155 1460.0
0.876999974251 -0.483000010252 0.21400000155 1469.0
0.867999970913 -0.485000014305 0.212999999523 1447.0
0.870000004768 -0.493000000715 0.21400000155 1458.0
4.16699981689 2.41700005531 0.986999988556 96.0
4.2389998436 2.42300009727 1.00199997425 115.0
4.17999982834 2.35400009155 0.985000014305 104.0
4.09000015259 2.26999998093 0.961000025272 85.0
4.23000001907 2.31299996376 0.990999996662 111.0
4.25199985504 2.28999996185 0.992999970913 113.0
4.09899997711 2.1740000248 0.953999996185 94.0
4.23400020599 2.21199989319 0.98299998045 118.0
4.24900007248 2.18600010872 0.98400002718 119.0
4.25400018692 2.15499997139 0.98299998045 97.0
4.34700012207 2.16899991035 1.00199997425 118.0
4.30100011826 2.11199998856 0.987999975681 108.0
3.94600009918 1.90699994564 0.903999984264 115.0
4.01900005341 1.91199994087 0.919000029564 124.0
4.19500017166 1.96399998665 0.957000017166 125.0
4.10799980164 1.89199995995 0.935000002384 169.0
4.09000015259 1.85300004482 0.927999973297 178.0
4.15600013733 1.85199999809 0.940999984741 173.0
4.28299999237 1.87699997425 0.967999994755 136.0
4.3639998436 1.88100004196 0.98400002718 130.0
4.367000103 1.85099995136 0.98299998045 139.0
4.31799983978 1.7990000248 0.97000002861 147.0
4.28299999237 1.75300002098 0.959999978542 183.0
4.28800010681 1.72500002384 0.958999991417 179.0
4.31199979782 1.70399999619 0.962000012398 179.0
4.32299995422 1.6779999733 0.962999999523 180.0
4.32600021362 1.64900004864 0.962000012398 174.0
4.32499980927 1.61899995804 0.959999978542 180.0
4.35099983215 1.59800004959 0.963999986649 169.0
4.35900020599 1.57099997997 0.963999986649 165.0
4.34899997711 1.5379999876 0.959999978542 156.0
4.35500001907 1.51100003719 0.959999978542 156.0
4.382999897 1.49100005627 0.963999986649 146.0
4.36800003052 1.45599997044 0.958999991417 154.0
4.36199998856 1.42499995232 0.957000017166 162.0
4.38399982452 1.40299999714 0.959999978542 166.0
4.33799982071 1.36000001431 0.948000013828 162.0
4.36600017548 1.34000003338 0.95300000906 158.0
4.36499977112 1.31099998951 0.952000021935 156.0
4.39099979401 1.28999996185 0.955999970436 163.0
4.37900018692 1.25800001621 0.952000021935 163.0
4.38899993896 1.23300004005 0.95300000906 158.0
4.40700006485 1.20899999142 0.955999970436 151.0
4.39799976349 1.17900002003 0.952000021935 148.0
4.40100002289 1.15199995041 0.952000021935 141.0
4.55700016022 1.16400003433 0.985000014305 90.0
4.80800008774 1.1970000267 1.0379999876 64.0
0.860000014305 -0.019999999553 0.180000007153 175.0
0.998000025749 -0.0299999993294 0.209000006318 976.0
1.0039999485 -0.0359999984503 0.21099999547 1121.0
1.0039999485 -0.0419999994338 0.21099999547 1133.0
1.00199997425 -0.0469999983907 0.209999993443 1151.0
0.998000025749 -0.0529999993742 0.209999993443 1158.0
1.00100004673 -0.0590000003576 0.209999993443 1151.0
0.990999996662 -0.0640000030398 0.208000004292 1164.0
0.998000025749 -0.0710000023246 0.209999993443 1176.0
0.990999996662 -0.0759999975562 0.209000006318 1177.0
0.990000009537 -0.082000002265 0.208000004292 1180.0
0.990000009537 -0.0869999974966 0.209000006318 1192.0
0.986999988556 -0.0930000022054 0.208000004292 1208.0
0.991999983788 -0.0989999994636 0.209000006318 1214.0
0.987999975681 -0.104999996722 0.209000006318 1208.0
0.981999993324 -0.109999999404 0.207000002265 1210.0
0.985000014305 -0.115999996662 0.208000004292 1220.0
0.985000014305 -0.122000001371 0.208000004292 1237.0
0.985000014305 -0.12800000608 0.209000006318 1232.0
0.981000006199 -0.133000001311 0.208000004292 1233.0
0.978999972343 -0.138999998569 0.207000002265 1255.0
0.978999972343 -0.143999993801 0.208000004292 1257.0
0.973999977112 -0.15000000596 0.207000002265 1252.0
0.976000010967 -0.156000003219 0.208000004292 1269.0
0.976999998093 -0.162000000477 0.208000004292 1292.0
0.973999977112 -0.166999995708 0.207000002265 1281.0
0.966000020504 -0.172000005841 0.206000000238 1294.0
0.972999989986 -0.179000005126 0.208000004292 1305.0
0.964999973774 -0.182999998331 0.206000000238 1305.0
0.97000002861 -0.189999997616 0.207000002265 1312.0
0.964999973774 -0.194999992847 0.207000002265 1315.0
0.967999994755 -0.202000007033 0.207000002265 1323.0
0.962000012398 -0.206000000238 0.206000000238 1323.0
0.962999999523 -0.211999997497 0.207000002265 1341.0
0.959999978542 -0.217999994755 0.207000002265 1325.0
0.95300000906 -0.222000002861 0.204999998212 1348.0
0.958999991417 -0.229000002146 0.207000002265 1353.0
0.959999978542 -0.236000001431 0.207000002265 1350.0
0.949999988079 -0.238999992609 0.206000000238 1347.0
0.955999970436 -0.24699999392 0.207000002265 1358.0
0.949999988079 -0.250999987125 0.206000000238 1379.0
0.949000000954 -0.256999999285 0.206000000238 1361.0
0.945999979973 -0.261999994516 0.206000000238 1378.0
0.941999971867 -0.266999989748 0.204999998212 1374.0
0.940999984741 -0.273000001907 0.204999998212 1379.0
0.940999984741 -0.279000014067 0.206000000238 1391.0
0.945999979973 -0.287000000477 0.207000002265 1396.0
0.944000005722 -0.291999995708 0.207000002265 1390.0
0.944999992847 -0.298999994993 0.208000004292 1405.0
0.931999981403 -0.300999999046 0.204999998212 1401.0
0.93599998951 -0.307999998331 0.206000000238 1410.0
0.936999976635 -0.314999997616 0.207000002265 1407.0
0.933000028133 -0.319999992847 0.207000002265 1420.0
0.931999981403 -0.326000005007 0.207000002265 1417.0
0.930000007153 -0.331000000238 0.207000002265 1429.0
0.925999999046 -0.33599999547 0.206000000238 1418.0
0.919000029564 -0.340000003576 0.204999998212 1440.0
0.925000011921 -0.349000006914 0.207000002265 1426.0
0.920000016689 -0.352999985218 0.206000000238 1425.0
0.919000029564 -0.358999997377 0.206000000238 1412.0
0.912000000477 -0.363000005484 0.204999998212 1437.0
0.917999982834 -0.372000008821 0.207000002265 1436.0
0.908999979496 -0.375 0.206000000238 1419.0
0.907000005245 -0.379999995232 0.206000000238 1450.0
0.910000026226 -0.388000011444 0.207000002265 1443.0
0.907000005245 -0.393000006676 0.207000002265 1437.0
0.899999976158 -0.397000014782 0.204999998212 1440.0
0.90499997139 -0.405999988317 0.207000002265 1450.0
0.897000014782 -0.409000009298 0.206000000238 1458.0
0.894999980927 -0.414999991655 0.206000000238 1443.0
0.898999989033 -0.423000007868 0.208000004292 1457.0
0.89200001955 -0.426999986172 0.207000002265 1445.0
0.889999985695 -0.432999998331 0.207000002265 1456.0
0.887000024319 -0.437999993563 0.206000000238 1474.0
0.884999990463 -0.444000005722 0.207000002265 1459.0
0.885999977589 -0.451000005007 0.207000002265 1449.0
0.884000003338 -0.458000004292 0.208000004292 1461.0
0.882000029087 -0.462999999523 0.208000004292 1456.0
0.876999974251 -0.467999994755 0.207000002265 1440.0
0.879000008106 -0.476000010967 0.208000004292 1468.0
0.878000020981 -0.483000010252 0.209000006318 1460.0
0.869000017643 -0.485000014305 0.207000002265 1468.0
0.869000017643 -0.49200001359 0.208000004292 1463.0
4.07899999619 2.39800000191 0.940999984741 86.0
4.24800014496 2.42499995232 0.973999977112 110.0
4.18800020218 2.35500001907 0.957000017166 109.0
4.06699991226 2.2539999485 0.926999986172 82.0
4.25400018692 2.32299995422 0.967000007629 103.0
4.257999897 2.28999996185 0.964999973774 109.0
4.22800016403 2.24000000954 0.955999970436 87.0
4.34299993515 2.26600003242 0.978999972343 117.0
4.3029999733 2.21099996567 0.967999994755 105.0
4.28900003433 2.17000007629 0.962000012398 101.0
4.38999986649 2.18700003624 0.981999993324 111.0
4.30700016022 2.11199998856 0.961000025272 110.0
3.93099999428 1.89699995518 0.874000012875 121.0
4.05700016022 1.92700004578 0.899999976158 118.0
4.23400020599 1.97899997234 0.936999976635 128.0
4.13899993896 1.90400004387 0.913999974728 160.0
4.11100006104 1.86000001431 0.90600001812 174.0
4.15500020981 1.85000002384 0.913999974728 156.0
4.33300018311 1.89699995518 0.950999975204 136.0
4.39099979401 1.88999998569 0.961000025272 136.0
4.38500022888 1.85599994659 0.958000004292 139.0
4.33699989319 1.80499994755 0.945999979973 160.0
4.26999998093 1.7460000515 0.929000020027 187.0
4.29099988937 1.72399997711 0.931999981403 180.0
4.28700017929 1.69200003147 0.929000020027 177.0
4.33300018311 1.67999994755 0.936999976635 166.0
4.32299995422 1.64600002766 0.933000028133 167.0
4.32600021362 1.61699998379 0.931999981403 167.0
4.39799976349 1.61399996281 0.945999979973 157.0
4.42700004578 1.59399998188 0.949999988079 130.0
4.4439997673 1.57000005245 0.95300000906 116.0
4.52400016785 1.56700003147 0.967999994755 110.0
4.51700019836 1.5340000391 0.964999973774 113.0
4.45800018311 1.48500001431 0.950999975204 121.0
4.39900016785 1.43499994278 0.936999976635 129.0
4.38999986649 1.40299999714 0.933000028133 151.0
4.38399982452 1.37199997902 0.930999994278 163.0
4.37400007248 1.3409999609 0.926999986172 156.0
4.41400003433 1.32400000095 0.934000015259 156.0
4.38399982452 1.28600001335 0.926999986172 157.0
4.38800001144 1.25899994373 0.925999999046 168.0
4.41499996185 1.23899996281 0.930999994278 156.0
4.41099977493 1.20899999142 0.929000020027 149.0
4.41200017929 1.18099999428 0.927999973297 155.0
4.40399980545 1.15100002289 0.925000011921 148.0
4.632999897 1.18200004101 0.972000002861 85.0
0.0149999996647 0.00400000018999 0.0 62.0
4.79600000381 1.16199994087 1.0039999485 59.0
0.870000004768 -0.019999999553 0.177000001073 174.0
0.999000012875 -0.0299999993294 0.202999994159 992.0
1.0039999485 -0.0359999984503 0.204999998212 1135.0
1.00600004196 -0.0419999994338 0.204999998212 1141.0
0.998000025749 -0.0469999983907 0.203999996185 1166.0
1.0 -0.0529999993742 0.203999996185 1155.0
0.996999979019 -0.0590000003576 0.202999994159 1167.0
0.998000025749 -0.0649999976158 0.203999996185 1171.0
0.994000017643 -0.070000000298 0.202999994159 1176.0
0.992999970913 -0.0759999975562 0.202999994159 1170.0
0.992999970913 -0.082000002265 0.202999994159 1185.0
0.990999996662 -0.0869999974966 0.202999994159 1183.0
0.989000022411 -0.0930000022054 0.202000007033 1200.0
0.985000014305 -0.0989999994636 0.202000007033 1201.0
0.990000009537 -0.104999996722 0.202999994159 1205.0
0.985000014305 -0.109999999404 0.202000007033 1226.0
0.98400002718 -0.115999996662 0.202000007033 1225.0
0.981000006199 -0.120999999344 0.201000005007 1236.0
0.989000022411 -0.12800000608 0.202999994159 1243.0
0.985000014305 -0.134000003338 0.202999994159 1240.0
0.980000019073 -0.138999998569 0.202000007033 1274.0
0.973999977112 -0.143999993801 0.201000005007 1267.0
0.975000023842 -0.15000000596 0.201000005007 1261.0
0.978999972343 -0.156000003219 0.202000007033 1268.0
0.976000010967 -0.16099999845 0.202000007033 1288.0
0.976000010967 -0.166999995708 0.202000007033 1304.0
0.967999994755 -0.172000005841 0.20000000298 1307.0
0.971000015736 -0.178000003099 0.201000005007 1299.0
0.962000012398 -0.181999996305 0.199000000954 1314.0
0.961000025272 -0.187999993563 0.199000000954 1313.0
0.966000020504 -0.194999992847 0.201000005007 1313.0
0.961000025272 -0.20000000298 0.20000000298 1302.0
0.963999986649 -0.207000002265 0.201000005007 1325.0
0.954999983311 -0.209999993443 0.199000000954 1330.0
0.958999991417 -0.216999992728 0.20000000298 1330.0
0.958999991417 -0.223000004888 0.201000005007 1346.0
0.957000017166 -0.229000002146 0.20000000298 1344.0
0.954999983311 -0.233999997377 0.20000000298 1349.0
0.955999970436 -0.240999996662 0.201000005007 1352.0
0.949999988079 -0.245000004768 0.20000000298 1358.0
0.953999996185 -0.252000004053 0.201000005007 1366.0
0.953999996185 -0.25799998641 0.201000005007 1364.0
0.949000000954 -0.263000011444 0.201000005007 1375.0
0.949000000954 -0.268999993801 0.201000005007 1385.0
0.941999971867 -0.273000001907 0.20000000298 1384.0
0.944999992847 -0.280000001192 0.201000005007 1385.0
0.943000018597 -0.286000013351 0.201000005007 1380.0
0.938000023365 -0.289999991655 0.20000000298 1398.0
0.93900001049 -0.29699999094 0.20000000298 1416.0
