ply
format ascii 1.0
element vertex 943
property float x
property float y
property float z
property float intensity
end_header
3.36500000954 1.0340000391 1.31700003147 77.0
4.08599996567 1.06400001049 1.58500003815 71.0
3.99799990654 1.01400005817 1.54799997807 88.0
4.09200000763 1.01100003719 1.58299994469 109.0
4.02799987793 0.96899998188 1.55599999428 119.0
4.13000011444 0.967000007629 1.59399998188 110.0
4.08599996567 0.930000007153 1.57500004768 104.0
4.04500007629 0.893999993801 1.55700004101 108.0
4.08799982071 0.876999974251 1.5720000267 101.0
4.09100008011 0.851999998093 1.5720000267 106.0
4.03000020981 0.813000023365 1.54700005054 101.0
4.07499980927 0.796000003815 1.56299996376 104.0
4.11600017548 0.777999997139 1.57700002193 111.0
4.07299995422 0.744000017643 1.55900001526 118.0
4.0529999733 0.714999973774 1.54999995232 113.0
4.10799980164 0.699000000954 1.57000005245 104.0
4.13500022888 0.676999986172 1.57899999619 111.0
4.0689997673 0.64099997282 1.55200004578 110.0
4.0720000267 0.615999996662 1.55200004578 111.0
4.0720000267 0.589999973774 1.55099999905 106.0
4.14300012589 0.574999988079 1.57799994946 98.0
4.05900001526 0.537999987602 1.54499995708 108.0
4.01900005341 0.508000016212 1.52799999714 108.0
4.10400009155 0.493000000715 1.55999994278 102.0
4.03800010681 0.460000008345 1.5340000391 92.0
4.05900001526 0.437000006437 1.54100000858 105.0
0.903999984264 -0.120999999344 0.342999994755 891.0
0.90499997139 -0.127000004053 0.342999994755 1183.0
0.908999979496 -0.133000001311 0.344999998808 1203.0
0.901000022888 -0.136999994516 0.342000007629 1178.0
0.908999979496 -0.143999993801 0.345999985933 1161.0
0.902000010014 -0.149000003934 0.342999994755 1195.0
0.907000005245 -0.155000001192 0.345999985933 1221.0
0.898000001907 -0.158999994397 0.342999994755 1180.0
0.902000010014 -0.165999993682 0.344000011683 1181.0
0.902000010014 -0.172000005841 0.344999998808 1193.0
0.898999989033 -0.177000001073 0.344000011683 1191.0
0.894999980927 -0.181999996305 0.342999994755 1193.0
0.898999989033 -0.187999993563 0.344999998808 1213.0
0.899999976158 -0.194000005722 0.345999985933 1208.0
0.897000014782 -0.199000000954 0.344999998808 1205.0
0.897000014782 -0.204999998212 0.344999998808 1213.0
0.897000014782 -0.21099999547 0.345999985933 1221.0
0.893999993801 -0.216000005603 0.344999998808 1249.0
0.89200001955 -0.221000000834 0.344999998808 1275.0
0.89099997282 -0.226999998093 0.344999998808 1262.0
0.894999980927 -0.233999997377 0.347000002861 1245.0
0.89200001955 -0.238999992609 0.345999985933 1240.0
0.888000011444 -0.244000002742 0.344999998808 1234.0
0.888000011444 -0.25 0.345999985933 1265.0
0.882000029087 -0.254000008106 0.344000011683 1275.0
0.885999977589 -0.261000007391 0.345999985933 1259.0
0.884999990463 -0.266999989748 0.345999985933 1257.0
0.888000011444 -0.273999989033 0.347999989986 1209.0
0.878000020981 -0.277000010014 0.344999998808 1234.0
0.879000008106 -0.282999992371 0.345999985933 1236.0
0.879999995232 -0.28900000453 0.347000002861 1265.0
0.883000016212 -0.29699999094 0.349000006914 1286.0
0.879999995232 -0.301999986172 0.347999989986 1262.0
0.875 -0.305999994278 0.347000002861 1279.0
0.875999987125 -0.312999993563 0.347999989986 1279.0
0.884999990463 -0.321999996901 0.351999998093 1255.0
0.871999979019 -0.324000000954 0.347999989986 1236.0
0.875 -0.331000000238 0.34999999404 1232.0
0.875999987125 -0.337999999523 0.351000010967 1269.0
0.865999996662 -0.340000003576 0.347999989986 1258.0
0.870999991894 -0.347999989986 0.351000010967 1253.0
0.874000012875 -0.356000006199 0.352999985218 1239.0
0.862999975681 -0.358000010252 0.349000006914 1223.0
0.867999970913 -0.365999996662 0.351999998093 1249.0
0.861999988556 -0.370999991894 0.34999999404 1256.0
0.873000025749 -0.381999999285 0.356000006199 1257.0
0.870000004768 -0.386999994516 0.356000006199 1248.0
0.85900002718 -0.388999998569 0.351999998093 1252.0
0.864000022411 -0.398000001907 0.354999989271 1252.0
0.865000009537 -0.405000001192 0.356000006199 1255.0
0.862999975681 -0.411000013351 0.356999993324 1279.0
0.861000001431 -0.416999995708 0.356999993324 1253.0
0.861000001431 -0.423999994993 0.358000010252 1248.0
0.856000006199 -0.428000003099 0.356999993324 1270.0
0.853999972343 -0.433999985456 0.356999993324 1246.0
0.853999972343 -0.441000014544 0.358000010252 1230.0
0.853999972343 -0.448000013828 0.358999997377 1252.0
0.853999972343 -0.455000013113 0.360000014305 1233.0
0.855000019073 -0.462999999523 0.361000001431 1240.0
0.847000002861 -0.465999990702 0.358999997377 1290.0
0.851000010967 -0.47499999404 0.361999988556 1277.0
0.84500002861 -0.479000002146 0.361000001431 1270.0
0.84500002861 -0.486999988556 0.361999988556 1261.0
0.847999989986 -0.495999991894 0.363999992609 1268.0
0.84500002861 -0.500999987125 0.363999992609 1262.0
1.04400002956 0.643999993801 0.43900001049 520.0
1.06900000572 0.648999989033 0.448000013828 499.0
1.06599998474 0.638000011444 0.446000009775 478.0
1.10000002384 0.648000001907 0.458999991417 478.0
1.12699997425 0.65499997139 0.467999994755 434.0
1.48099994659 0.847999989986 0.615000009537 225.0
1.7120000124 0.964999973774 0.708999991417 230.0
1.72699999809 0.958999991417 0.712999999523 223.0
1.77499997616 0.971000015736 0.731000006199 200.0
1.77600002289 0.955999970436 0.728999972343 183.0
1.83800005913 0.973999977112 0.753000020981 129.0
2.06999993324 1.06299996376 0.842999994755 117.0
2.09599995613 1.05999994278 0.851999998093 203.0
2.08100008965 1.03600001335 0.842999994755 279.0
2.10199999809 1.02900004387 0.848999977112 277.0
2.08899998665 1.00600004196 0.842000007629 276.0
2.11800003052 1.0039999485 0.851999998093 267.0
2.07399988174 0.967000007629 0.832000017166 161.0
2.13899993896 0.980000019073 0.856000006199 118.0
2.17600011826 0.981000006199 0.869000017643 180.0
2.19099998474 0.971000015736 0.873000025749 250.0
2.2460000515 0.977999985218 0.89200001955 147.0
3.28600001335 1.02999997139 1.26499998569 89.0
3.31200003624 1.01499998569 1.27300000191 78.0
3.32500004768 0.996999979019 1.27600002289 72.0
4.13199996948 1.07299995422 1.57299995422 66.0
4.11899995804 1.04299998283 1.56599998474 88.0
4.08699989319 1.00800001621 1.55200004578 113.0
4.02500009537 0.966000020504 1.52699995041 108.0
4.11000013351 0.959999978542 1.55700004101 111.0
4.03200006485 0.916000008583 1.52600002289 105.0
4.09999990463 0.903999984264 1.54999995232 105.0
4.14599990845 0.888000011444 1.56599998474 105.0
4.08500003815 0.848999977112 1.54100000858 104.0
4.06699991226 0.819000005722 1.53299999237 101.0
4.14900016785 0.809000015259 1.56200003624 111.0
4.08799982071 0.771000027657 1.5379999876 114.0
4.08199977875 0.744000017643 1.5340000391 108.0
4.15600013733 0.731000006199 1.56099998951 104.0
4.06599998474 0.689999997616 1.52600002289 108.0
4.12300014496 0.674000024796 1.54600000381 103.0
4.08799982071 0.64200001955 1.53199994564 112.0
4.06300020218 0.612999975681 1.52100002766 106.0
4.07499980927 0.588999986649 1.52499997616 104.0
4.07899999619 0.564999997616 1.52499997616 106.0
4.13000011444 0.546000003815 1.54299998283 105.0
4.0689997673 0.513000011444 1.51900005341 110.0
4.03399991989 0.483999997377 1.50600004196 106.0
4.03200006485 0.458000004292 1.5039999485 102.0
4.02699995041 0.432999998331 1.50100004673 95.0
4.07000017166 0.412999987602 1.51699995995 71.0
0.875999987125 -0.112000003457 0.326000005007 192.0
0.913999974728 -0.122000001371 0.340000003576 870.0
0.907999992371 -0.127000004053 0.337999999523 1171.0
0.903999984264 -0.131999999285 0.337000012398 1198.0
0.912000000477 -0.138999998569 0.340000003576 1210.0
0.903999984264 -0.143000006676 0.337999999523 1193.0
0.903999984264 -0.149000003934 0.337999999523 1229.0
0.903999984264 -0.153999999166 0.337999999523 1230.0
0.902999997139 -0.159999996424 0.337999999523 1187.0
0.899999976158 -0.165000006557 0.337000012398 1186.0
0.899999976158 -0.171000003815 0.337999999523 1209.0
0.893999993801 -0.17499999702 0.33599999547 1204.0
0.894999980927 -0.180999994278 0.337000012398 1188.0
0.894999980927 -0.187000006437 0.337000012398 1181.0
0.898000001907 -0.193000003695 0.338999986649 1223.0
0.89200001955 -0.197999998927 0.337000012398 1222.0
0.894999980927 -0.203999996185 0.337999999523 1214.0
0.898000001907 -0.21099999547 0.340000003576 1214.0
0.893999993801 -0.216000005603 0.338999986649 1210.0
0.89200001955 -0.221000000834 0.338999986649 1253.0
0.89099997282 -0.226999998093 0.338999986649 1252.0
0.89099997282 -0.231999993324 0.338999986649 1237.0
0.887000024319 -0.237000003457 0.337999999523 1238.0
0.889999985695 -0.244000002742 0.340000003576 1234.0
0.896000027657 -0.250999987125 0.342999994755 1260.0
0.884000003338 -0.254000008106 0.338999986649 1272.0
0.888000011444 -0.261000007391 0.340999990702 1287.0
0.884999990463 -0.266000002623 0.340000003576 1270.0
0.884000003338 -0.272000014782 0.340000003576 1248.0
0.878000020981 -0.275999993086 0.338999986649 1246.0
0.884999990463 -0.284000009298 0.342000007629 1250.0
0.883000016212 -0.289999991655 0.342000007629 1270.0
0.879000008106 -0.294999986887 0.340999990702 1294.0
0.879000008106 -0.300999999046 0.342000007629 1270.0
0.883000016212 -0.307999998331 0.344000011683 1272.0
0.878000020981 -0.312999993563 0.342999994755 1284.0
0.882000029087 -0.319999992847 0.344999998808 1273.0
0.875999987125 -0.324000000954 0.342999994755 1264.0
0.875 -0.330000013113 0.344000011683 1232.0
0.871999979019 -0.33599999547 0.342999994755 1251.0
0.875 -0.342999994755 0.344999998808 1253.0
0.878000020981 -0.34999999404 0.347000002861 1228.0
0.866999983788 -0.351999998093 0.342999994755 1251.0
0.870000004768 -0.360000014305 0.345999985933 1246.0
0.869000017643 -0.365999996662 0.345999985933 1234.0
0.871999979019 -0.374000012875 0.347999989986 1267.0
0.865999996662 -0.377999991179 0.345999985933 1263.0
0.874000012875 -0.388000011444 0.34999999404 1265.0
0.865999996662 -0.391000002623 0.347999989986 1270.0
0.861000001431 -0.395999997854 0.347000002861 1266.0
0.85900002718 -0.400999993086 0.347000002861 1250.0
0.862999975681 -0.409999996424 0.34999999404 1279.0
0.864000022411 -0.416999995708 0.351000010967 1260.0
0.864000022411 -0.423999994993 0.351999998093 1239.0
0.85900002718 -0.428999990225 0.351000010967 1270.0
0.856999993324 -0.433999985456 0.351000010967 1271.0
0.852999985218 -0.439999997616 0.351000010967 1277.0
0.856999993324 -0.449000000954 0.354000002146 1265.0
0.852999985218 -0.45300000906 0.352999985218 1236.0
0.850000023842 -0.458999991417 0.352999985218 1266.0
0.853999972343 -0.469000011683 0.356000006199 1264.0
0.850000023842 -0.474000006914 0.354999989271 1294.0
0.84399998188 -0.477999985218 0.354000002146 1270.0
0.851000010967 -0.488999992609 0.358000010252 1277.0
0.847000002861 -0.493999987841 0.356999993324 1286.0
0.84399998188 -0.499000012875 0.356999993324 1277.0
1.04600000381 0.643000006676 0.432000011206 523.0
1.05099999905 0.635999977589 0.432000011206 504.0
1.08899998665 0.649999976158 0.446999996901 475.0
1.08399999142 0.637000024319 0.442999988794 462.0
1.14600002766 0.663999974728 0.467999994755 400.0
1.61899995804 0.925000011921 0.660000026226 221.0
1.69000005722 0.950999975204 0.686999976635 226.0
1.73099994659 0.958999991417 0.702000021935 215.0
1.74800002575 0.953999996185 0.705999970436 197.0
1.7879999876 0.961000025272 0.721000015736 182.0
1.86600005627 0.986999988556 0.75 112.0
2.06299996376 1.05700004101 0.824999988079 162.0
2.07100009918 1.04499995708 0.825999975204 259.0
2.10400009155 1.04499995708 0.837000012398 288.0
2.09100008011 1.02199995518 0.828999996185 281.0
2.08899998665 1.0039999485 0.825999975204 286.0
2.07999992371 0.98400002718 0.820999979973 259.0
2.10700011253 0.980000019073 0.828999996185 144.0
2.08999991417 0.954999983311 0.819999992847 116.0
2.18000006676 0.980000019073 0.853999972343 199.0
2.20199990273 0.972999989986 0.861000001431 250.0
2.2349998951 0.971000015736 0.870999991894 123.0
3.27999997139 1.02600002289 1.24000000954 78.0
3.382999897 1.03499996662 1.27699995041 77.0
4.17600011826 1.08200001717 1.56099998951 67.0
4.09899997711 1.03499996662 1.52999997139 88.0
4.08099985123 1.0039999485 1.52100002766 113.0
4.0640001297 0.972999989986 1.51300001144 104.0
4.11000013351 0.958000004292 1.52900004387 111.0
4.10900020599 0.930999994278 1.52600002289 104.0
4.06699991226 0.894999980927 1.50899994373 101.0
4.08900022507 0.874000012875 1.51600003242 110.0
4.08799982071 0.847999989986 1.51400005817 109.0
4.09299993515 0.822000026703 1.51400005817 105.0
4.1139998436 0.800999999046 1.52100002766 108.0
4.0529999733 0.763000011444 1.49699997902 109.0
4.11299991608 0.748000025749 1.51800000668 113.0
4.07800006866 0.716000020504 1.50300002098 104.0
4.15999984741 0.703999996185 1.53199994564 95.0
4.05800008774 0.662000000477 1.49300003052 107.0
4.12799978256 0.647000014782 1.51800000668 107.0
4.08900022507 0.615999996662 1.50300002098 106.0
4.09899997711 0.592000007629 1.50600004196 103.0
4.09700012207 0.565999984741 1.5039999485 101.0
4.14599990845 0.54699999094 1.52100002766 105.0
4.04099988937 0.508000016212 1.48099994659 108.0
4.09000015259 0.488999992609 1.49800002575 104.0
4.10500001907 0.465999990702 1.50300002098 101.0
4.09600019455 0.43900001049 1.49899995327 95.0
4.03100013733 0.407999992371 1.47500002384 63.0
0.919000029564 -0.116999998689 0.33599999547 182.0
0.907999992371 -0.120999999344 0.331999987364 860.0
0.90600001812 -0.126000002027 0.331000000238 1170.0
0.907999992371 -0.131999999285 0.331999987364 1194.0
0.910000026226 -0.137999996543 0.333000004292 1212.0
0.907000005245 -0.143000006676 0.331999987364 1198.0
0.90600001812 -0.149000003934 0.331999987364 1220.0
0.898000001907 -0.152999997139 0.330000013113 1240.0
0.902999997139 -0.159999996424 0.331999987364 1203.0
0.902000010014 -0.165000006557 0.331999987364 1200.0
0.896000027657 -0.170000001788 0.330000013113 1218.0
0.896000027657 -0.17499999702 0.330000013113 1210.0
0.901000022888 -0.181999996305 0.333000004292 1209.0
0.898999989033 -0.187999993563 0.331999987364 1196.0
0.903999984264 -0.194000005722 0.335000008345 1227.0
0.901000022888 -0.199000000954 0.333999991417 1264.0
0.897000014782 -0.203999996185 0.333000004292 1250.0
0.893000006676 -0.209000006318 0.331999987364 1228.0
0.893000006676 -0.215000003576 0.331999987364 1214.0
0.893999993801 -0.221000000834 0.333000004292 1258.0
0.884999990463 -0.22499999404 0.330000013113 1261.0
0.889999985695 -0.231999993324 0.333000004292 1237.0
0.89099997282 -0.238000005484 0.333000004292 1255.0
0.894999980927 -0.245000004768 0.335000008345 1251.0
0.887000024319 -0.247999995947 0.333000004292 1252.0
0.883000016212 -0.252999991179 0.331999987364 1294.0
0.885999977589 -0.259999990463 0.333999991417 1306.0
0.889999985695 -0.266999989748 0.33599999547 1276.0
0.885999977589 -0.272000014782 0.335000008345 1247.0
0.879999995232 -0.275999993086 0.333000004292 1244.0
0.888000011444 -0.284999996424 0.337000012398 1277.0
0.884000003338 -0.289999991655 0.33599999547 1260.0
0.880999982357 -0.294999986887 0.335000008345 1276.0
0.879999995232 -0.300000011921 0.33599999547 1267.0
0.880999982357 -0.307000011206 0.337000012398 1277.0
0.875 -0.31099998951 0.335000008345 1283.0
0.879999995232 -0.319000005722 0.337999999523 1284.0
0.873000025749 -0.323000013828 0.33599999547 1272.0
0.874000012875 -0.328999996185 0.337000012398 1233.0
0.870000004768 -0.333999991417 0.33599999547 1240.0
0.879999995232 -0.344000011683 0.340999990702 1251.0
0.871999979019 -0.347000002861 0.337999999523 1256.0
0.870000004768 -0.352999985218 0.337999999523 1277.0
0.867999970913 -0.358999997377 0.337999999523 1279.0
0.867999970913 -0.365000009537 0.338999986649 1251.0
0.869000017643 -0.372000008821 0.340000003576 1284.0
0.873000025749 -0.379999995232 0.342999994755 1260.0
0.867999970913 -0.384999990463 0.342000007629 1281.0
0.867999970913 -0.391000002623 0.342999994755 1289.0
0.862999975681 -0.395999997854 0.340999990702 1267.0
0.864000022411 -0.402999997139 0.342999994755 1261.0
0.861999988556 -0.409000009298 0.342999994755 1247.0
0.864000022411 -0.416000008583 0.344999998808 1279.0
0.861000001431 -0.42199999094 0.344999998808 1302.0
0.85900002718 -0.428000003099 0.344999998808 1268.0
0.85799998045 -0.433999985456 0.344999998808 1291.0
0.852999985218 -0.43900001049 0.344000011683 1304.0
0.851000010967 -0.444999992847 0.344999998808 1284.0
0.864000022411 -0.458999991417 0.351000010967 1265.0
0.848999977112 -0.456999987364 0.345999985933 1256.0
0.847999989986 -0.463999986649 0.345999985933 1254.0
0.851999998093 -0.472999989986 0.349000006914 1248.0
0.853999972343 -0.481999993324 0.351000010967 1278.0
0.837999999523 -0.479999989271 0.345999985933 1285.0
0.84500002861 -0.49200001359 0.34999999404 1279.0
0.847000002861 -0.5 0.351999998093 1295.0
1.0490000248 0.643999993801 0.425000011921 504.0
1.06400001049 0.643000006676 0.428999990225 493.0
1.08500003815 0.646000027657 0.437000006437 481.0
1.09300005436 0.64200001955 0.43900001049 475.0
1.1740000248 0.679000020027 0.469999998808 363.0
1.67299997807 0.95300000906 0.669000029564 216.0
1.72500002384 0.967999994755 0.688000023365 212.0
1.71300005913 0.947000026703 0.680999994278 218.0
1.75899994373 0.958000004292 0.697000026703 202.0
1.77100002766 0.949000000954 0.699999988079 171.0
2.06699991226 1.05700004101 0.81099998951 117.0
2.09299993515 1.05400002003 0.819000005722 215.0
2.08200001717 1.03100001812 0.811999976635 291.0
2.09299993515 1.01999998093 0.81400001049 275.0
2.09100008011 1.00300002098 0.811999976635 283.0
2.09299993515 0.986999988556 0.810000002384 248.0
2.10899996758 0.977999985218 0.81400001049 137.0
2.16499996185 0.987999975681 0.833999991417 128.0
2.1779999733 0.976999998093 0.837000012398 225.0
2.20600008965 0.972999989986 0.846000015736 229.0
2.22499990463 0.964999973774 0.851000010967 112.0
3.3180000782 1.03600001335 1.23000001907 90.0
3.42600011826 1.04600000381 1.26800000668 75.0
4.11100006104 1.09000003338 1.50999999046 68.0
4.06599998474 1.05099999905 1.49100005627 80.0
4.1139998436 1.03699994087 1.50699996948 91.0
4.09700012207 1.00600004196 1.49899995327 109.0
4.08199977875 0.976000010967 1.49199998379 114.0
4.11199998856 0.955999970436 1.50100004673 110.0
4.03800010681 0.912999987602 1.47200000286 105.0
4.10099983215 0.901000022888 1.49399995804 104.0
4.04199981689 0.861999988556 1.47099995613 100.0
4.05100011826 0.837999999523 1.47200000286 105.0
4.12799978256 0.82800000906 1.49899995327 103.0
4.01999998093 0.78100001812 1.45799994469 107.0
4.09000015259 0.768000006676 1.48199999332 109.0
4.07800006866 0.740000009537 1.47599995136 107.0
4.09700012207 0.717999994755 1.48199999332 104.0
4.05999994278 0.68599998951 1.46800005436 103.0
4.07399988174 0.662999987602 1.47099995613 104.0
4.09299993515 0.639999985695 1.47699999809 108.0
4.04799985886 0.60799998045 1.46000003815 101.0
4.0689997673 0.586000025272 1.46700000763 105.0
4.11499977112 0.566999971867 1.48199999332 110.0
4.1360001564 0.544000029564 1.48899996281 109.0
4.17299985886 0.523999989033 1.50100004673 103.0
4.15299987793 0.495999991894 1.49300003052 106.0
4.14499998093 0.469000011683 1.49000000954 97.0
4.10099983215 0.43900001049 1.47300004959 102.0
0.899999976158 -0.11400000006 0.323000013828 143.0
0.911000013351 -0.120999999344 0.326999992132 850.0
0.907000005245 -0.126000002027 0.324999988079 1198.0
0.907000005245 -0.131999999285 0.326000005007 1202.0
0.911000013351 -0.137999996543 0.32800000906 1207.0
0.902000010014 -0.142000004649 0.324999988079 1201.0
0.910000026226 -0.149000003934 0.32800000906 1231.0
0.902999997139 -0.153999999166 0.326000005007 1237.0
0.907000005245 -0.159999996424 0.326999992132 1210.0
0.899999976158 -0.16400000453 0.324999988079 1218.0
0.90499997139 -0.171000003815 0.326999992132 1205.0
0.898000001907 -0.175999999046 0.324999988079 1226.0
0.901000022888 -0.181999996305 0.326000005007 1213.0
0.89099997282 -0.185000002384 0.323000013828 1200.0
0.89099997282 -0.190999999642 0.324000000954 1225.0
0.899999976158 -0.199000000954 0.326999992132 1271.0
0.89200001955 -0.202999994159 0.324999988079 1275.0
0.901000022888 -0.21099999547 0.32800000906 1251.0
0.89200001955 -0.21400000155 0.326000005007 1247.0
0.89099997282 -0.219999998808 0.326000005007 1269.0
0.893999993801 -0.225999996066 0.326999992132 1260.0
0.893999993801 -0.231999993324 0.32800000906 1243.0
0.89099997282 -0.237000003457 0.326999992132 1234.0
0.888000011444 -0.241999998689 0.326999992132 1265.0
0.885999977589 -0.247999995947 0.326000005007 1270.0
0.880999982357 -0.252000004053 0.324999988079 1271.0
0.884999990463 -0.259000003338 0.326999992132 1287.0
0.882000029087 -0.263999998569 0.326999992132 1270.0
0.888999998569 -0.272000014782 0.330000013113 1261.0
0.884999990463 -0.277000010014 0.328999996185 1224.0
0.885999977589 -0.284000009298 0.330000013113 1261.0
0.876999974251 -0.287000000477 0.326999992132 1264.0
0.883000016212 -0.294999986887 0.330000013113 1268.0
0.875999987125 -0.298999994993 0.32800000906 1280.0
0.876999974251 -0.305000007153 0.328999996185 1289.0
0.875 -0.310000002384 0.328999996185 1302.0
0.874000012875 -0.316000014544 0.328999996185 1301.0
0.879000008106 -0.324000000954 0.331999987364 1276.0
0.870999991894 -0.32800000906 0.330000013113 1278.0
0.870999991894 -0.333999991417 0.330000013113 1267.0
0.870000004768 -0.340000003576 0.331000000238 1250.0
0.870999991894 -0.345999985933 0.331999987364 1316.0
0.870000004768 -0.351999998093 0.331999987364 1292.0
0.865000009537 -0.356999993324 0.331000000238 1298.0
0.869000017643 -0.365000009537 0.333000004292 1301.0
0.870000004768 -0.372000008821 0.333999991417 1271.0
0.867999970913 -0.377000004053 0.335000008345 1270.0
0.866999983788 -0.384000003338 0.335000008345 1303.0
0.860000014305 -0.386999994516 0.333000004292 1300.0
0.864000022411 -0.395000010729 0.335000008345 1281.0
0.861999988556 -0.400999993086 0.33599999547 1258.0
0.862999975681 -0.407999992371 0.337000012398 1287.0
0.862999975681 -0.414999991655 0.337999999523 1282.0
0.856999993324 -0.418999999762 0.33599999547 1279.0
0.861000001431 -0.428000003099 0.338999986649 1278.0
0.85900002718 -0.432999998331 0.338999986649 1292.0
0.85900002718 -0.441000014544 0.340000003576 1309.0
0.853999972343 -0.444999992847 0.338999986649 1307.0
0.851999998093 -0.451000005007 0.340000003576 1249.0
0.861999988556 -0.462999999523 0.344000011683 1236.0
0.850000023842 -0.463999986649 0.340999990702 1261.0
0.848999977112 -0.470999985933 0.340999990702 1247.0
0.853999972343 -0.481000006199 0.344999998808 1237.0
0.84500002861 -0.483000010252 0.342000007629 1281.0
0.847999989986 -0.49200001359 0.344000011683 1276.0
0.847999989986 -0.5 0.345999985933 1301.0
1.05900001526 0.648000001907 0.421000003815 517.0
1.08000004292 0.651000022888 0.426999986172 501.0
1.09700000286 0.652000010014 0.432999998331 480.0
1.10300004482 0.646000027657 0.433999985456 464.0
1.20899999142 0.697000026703 0.474000006914 316.0
1.66900002956 0.949000000954 0.653999984264 220.0
1.71099996567 0.958000004292 0.669000029564 219.0
1.74399995804 0.962000012398 0.680000007153 203.0
1.8029999733 0.978999972343 0.700999975204 212.0
1.84899997711 0.989000022411 0.717000007629 147.0
1.91499996185 1.00899994373 0.740999996662 84.0
2.0490000248 1.04600000381 0.787999987602 151.0
2.09299993515 1.05200004578 0.802999973297 260.0
2.09500002861 1.03600001335 0.801999986172 285.0
2.09699988365 1.01999998093 0.800000011921 290.0
2.07999992371 0.995000004768 0.791999995708 280.0
2.07999992371 0.978999972343 0.790000021458 232.0
2.11800003052 0.981000006199 0.801999986172 117.0
2.15700006485 0.981999993324 0.814999997616 130.0
2.19199991226 0.981000006199 0.825999975204 239.0
2.20799994469 0.971000015736 0.830999970436 215.0
3.2539999485 1.01300001144 1.18400001526 92.0
4.07299995422 1.10500001907 1.46899998188 69.0
3.97600007057 1.02600002289 1.43099999428 64.0
4.15199995041 1.04400002956 1.49199998379 88.0
4.03200006485 0.987999975681 1.4470000267 110.0
4.1139998436 0.981000006199 1.47500002384 108.0
4.05700016022 0.941999971867 1.45299994946 102.0
4.07700014114 0.920000016689 1.45799994469 106.0
4.03499984741 0.884999990463 1.44200003147 109.0
4.04400014877 0.861000001431 1.44299995899 109.0
4.12900018692 0.851999998093 1.47200000286 110.0
4.07700014114 0.815999984741 1.45200002193 102.0
4.09200000763 0.792999982834 1.45599997044 104.0
4.12099981308 0.773000001907 1.4659999609 100.0
4.09600019455 0.741999983788 1.45500004292 109.0
4.0529999733 0.708999991417 1.43900001049 108.0
4.11499977112 0.694000005722 1.46000003815 106.0
4.11000013351 0.666999995708 1.45700001717 117.0
4.07800006866 0.637000024319 1.44400000572 105.0
4.0720000267 0.610000014305 1.44099998474 105.0
4.11299991608 0.591000020504 1.45500004292 106.0
4.05100011826 0.556999981403 1.43200004101 113.0
4.05700016022 0.532999992371 1.43299996853 101.0
4.10900020599 0.514999985695 1.4509999752 110.0
4.12599992752 0.490999996662 1.45599997044 108.0
4.14599990845 0.467999994755 1.4620000124 103.0
4.16800022125 0.444999992847 1.46899998188 88.0
0.921000003815 -0.116999998689 0.324000000954 158.0
0.910000026226 -0.120999999344 0.319999992847 854.0
0.907999992371 -0.126000002027 0.319999992847 1208.0
0.911000013351 -0.131999999285 0.321000009775 1219.0
0.90600001812 -0.136999994516 0.319000005722 1224.0
0.908999979496 -0.143000006676 0.321000009775 1212.0
0.908999979496 -0.149000003934 0.321000009775 1220.0
0.908999979496 -0.155000001192 0.321999996901 1251.0
0.908999979496 -0.159999996424 0.321999996901 1216.0
0.903999984264 -0.165000006557 0.319999992847 1240.0
0.902000010014 -0.170000001788 0.319999992847 1228.0
0.902999997139 -0.175999999046 0.321000009775 1236.0
0.898999989033 -0.180999994278 0.319999992847 1231.0
0.899999976158 -0.187000006437 0.319999992847 1208.0
0.893000006676 -0.190999999642 0.317999988794 1219.0
0.902000010014 -0.199000000954 0.321999996901 1244.0
0.896000027657 -0.202999994159 0.319999992847 1266.0
0.894999980927 -0.209000006318 0.319999992847 1243.0
0.889999985695 -0.212999999523 0.319000005722 1245.0
0.889999985695 -0.218999996781 0.319000005722 1272.0
0.894999980927 -0.225999996066 0.321999996901 1268.0
0.893999993801 -0.231999993324 0.321999996901 1240.0
0.888999998569 -0.236000001431 0.319999992847 1236.0
0.880999982357 -0.239999994636 0.317999988794 1269.0
0.884999990463 -0.24699999392 0.319999992847 1292.0
0.885999977589 -0.252999991179 0.321000009775 1284.0
0.885999977589 -0.259000003338 0.321000009775 1311.0
0.885999977589 -0.264999985695 0.321999996901 1285.0
0.879999995232 -0.268999993801 0.319999992847 1281.0
0.880999982357 -0.27500000596 0.321000009775 1250.0
0.880999982357 -0.280999988317 0.321999996901 1253.0
0.888000011444 -0.289999991655 0.324999988079 1270.0
0.880999982357 -0.293999999762 0.323000013828 1265.0
0.876999974251 -0.298000007868 0.321999996901 1291.0
0.878000020981 -0.305000007153 0.323000013828 1276.0
0.875 -0.310000002384 0.323000013828 1284.0
0.878000020981 -0.317000001669 0.324999988079 1288.0
0.875 -0.321999996901 0.324000000954 1284.0
0.870000004768 -0.326000005007 0.323000013828 1289.0
0.874000012875 -0.333999991417 0.324999988079 1301.0
0.870000004768 -0.338999986649 0.324000000954 1266.0
0.875 -0.347000002861 0.326999992132 1273.0
0.871999979019 -0.351999998093 0.326000005007 1299.0
0.870000004768 -0.358000010252 0.326999992132 1288.0
0.870999991894 -0.365000009537 0.326999992132 1277.0
0.869000017643 -0.370999991894 0.32800000906 1268.0
0.865000009537 -0.375 0.326999992132 1277.0
0.869000017643 -0.38299998641 0.328999996185 1293.0
0.864000022411 -0.388000011444 0.32800000906 1280.0
0.864000022411 -0.393999993801 0.328999996185 1289.0
0.861999988556 -0.40000000596 0.328999996185 1290.0
0.866999983788 -0.409000009298 0.331999987364 1303.0
0.855000019073 -0.409999996424 0.32800000906 1286.0
0.861999988556 -0.419999986887 0.331999987364 1259.0
0.85799998045 -0.425999999046 0.331000000238 1257.0
0.856000006199 -0.430999994278 0.331000000238 1294.0
0.851999998093 -0.43599998951 0.331000000238 1303.0
0.853999972343 -0.444000005722 0.333000004292 1291.0
0.856000006199 -0.451999992132 0.335000008345 1247.0
0.855000019073 -0.458999991417 0.335000008345 1237.0
0.852999985218 -0.465000003576 0.335000008345 1253.0
0.851000010967 -0.470999985933 0.33599999547 1274.0
0.847000002861 -0.476000010967 0.335000008345 1257.0
0.84500002861 -0.481999993324 0.335000008345 1268.0
0.850000023842 -0.49200001359 0.338999986649 1289.0
0.846000015736 -0.497000008821 0.337999999523 1279.0
1.05599999428 0.644999980927 0.411000013351 509.0
1.07500004768 0.647000014782 0.416999995708 498.0
1.10199999809 0.652999997139 0.425999999046 475.0
1.12000000477 0.653999984264 0.432000011206 453.0
1.30799996853 0.753000020981 0.504000008106 273.0
1.65600001812 0.93900001049 0.637000024319 222.0
1.70399999619 0.952000021935 0.652999997139 226.0
1.77199995518 0.975000023842 0.676999986172 209.0
1.74800002575 0.947000026703 0.666000008583 202.0
1.85399997234 0.990000009537 0.704999983311 139.0
1.99699997902 1.03299999237 0.754999995232 110.0
2.09599995613 1.06700003147 0.791000008583 215.0
2.07800006866 1.04100000858 0.782000005245 276.0
2.08699989319 1.02900004387 0.782999992371 291.0
2.08299994469 1.01100003719 0.778999984264 293.0
2.09500002861 1.0 0.782000005245 279.0
2.09999990463 0.986000001431 0.782000005245 215.0
2.16899991035 1.00199997425 0.805999994278 116.0
2.16000008583 0.981000006199 0.800000011921 145.0
2.18700003624 0.976999998093 0.809000015259 258.0
2.20600008965 0.967999994755 0.81400001049 199.0
2.24300003052 0.967999994755 0.825999975204 105.0
3.30500006676 1.04999995232 1.18099999428 74.0
3.27200007439 1.01699995995 1.16700005531 93.0
3.36599993706 1.02300000191 1.19900000095 75.0
3.78299999237 1.07400000095 1.34200000763 68.0
3.72799992561 1.0340000391 1.32099997997 77.0
3.91799998283 1.06099998951 1.38699996471 65.0
4.01599979401 1.0340000391 1.41700005531 83.0
4.04899978638 1.01600003242 1.42700004578 101.0
4.09200000763 1.00100004673 1.44099998474 110.0
4.09200000763 0.973999977112 1.43900001049 115.0
4.15399980545 0.962000012398 1.45899999142 106.0
4.17700004578 0.940999984741 1.4659999609 103.0
4.08599996567 0.893999993801 1.43200004101 108.0
4.07800006866 0.865999996662 1.4279999733 106.0
4.11499977112 0.847999989986 1.43900001049 107.0
4.03200006485 0.805000007153 1.4090000391 101.0
4.07399988174 0.787999987602 1.42200005054 106.0
4.07100009918 0.762000024319 1.41999995708 105.0
4.10599994659 0.741999983788 1.43099999428 109.0
4.10099983215 0.716000020504 1.4279999733 102.0
4.07899999619 0.68599998951 1.41900002956 111.0
4.14499998093 0.67199999094 1.44099998474 106.0
4.15600013733 0.648000001907 1.44400000572 95.0
4.10799980164 0.615000009537 1.42599999905 106.0
4.07399988174 0.583999991417 1.41400003433 113.0
4.0689997673 0.559000015259 1.41100001335 110.0
4.08900022507 0.536000013351 1.41700005531 105.0
4.07999992371 0.509999990463 1.4129999876 108.0
4.13399982452 0.490999996662 1.43099999428 106.0
4.09000015259 0.46099999547 1.41499996185 103.0
4.10599994659 0.437999993563 1.41999995708 91.0
4.09899997711 0.412000000477 1.41700005531 62.0
0.901000022888 -0.119999997318 0.31099998951 842.0
0.910000026226 -0.126000002027 0.31400001049 1198.0
0.90499997139 -0.130999997258 0.312999993563 1233.0
0.90600001812 -0.136999994516 0.31400001049 1221.0
0.903999984264 -0.142000004649 0.312999993563 1220.0
0.903999984264 -0.148000001907 0.312999993563 1237.0
0.903999984264 -0.153999999166 0.31400001049 1275.0
0.901000022888 -0.158999994397 0.312999993563 1238.0
0.899999976158 -0.16400000453 0.312999993563 1239.0
0.902000010014 -0.170000001788 0.31400001049 1228.0
0.898000001907 -0.17499999702 0.312999993563 1245.0
0.901000022888 -0.180999994278 0.31400001049 1244.0
0.896000027657 -0.186000004411 0.312999993563 1226.0
0.894999980927 -0.190999999642 0.312999993563 1237.0
0.893000006676 -0.196999996901 0.312999993563 1258.0
0.901000022888 -0.203999996185 0.316000014544 1299.0
0.897000014782 -0.209000006318 0.314999997616 1251.0
0.887000024319 -0.211999997497 0.312000006437 1252.0
0.896000027657 -0.219999998808 0.314999997616 1266.0
0.894999980927 -0.225999996066 0.314999997616 1252.0
0.89200001955 -0.231000006199 0.314999997616 1259.0
0.889999985695 -0.236000001431 0.314999997616 1252.0
0.884999990463 -0.240999996662 0.312999993563 1271.0
0.888999998569 -0.247999995947 0.314999997616 1276.0
0.882000029087 -0.250999987125 0.312999993563 1301.0
0.888000011444 -0.259000003338 0.316000014544 1312.0
0.883000016212 -0.263999998569 0.314999997616 1332.0
0.883000016212 -0.270000010729 0.314999997616 1298.0
0.885999977589 -0.277000010014 0.317000001669 1277.0
0.885999977589 -0.282999992371 0.317000001669 1247.0
0.882000029087 -0.287000000477 0.317000001669 1271.0
0.879000008106 -0.291999995708 0.316000014544 1289.0
0.882000029087 -0.298999994993 0.317999988794 1286.0
0.875999987125 -0.303000003099 0.316000014544 1311.0
0.876999974251 -0.310000002384 0.317000001669 1289.0
0.882000029087 -0.317999988794 0.319999992847 1296.0
0.874000012875 -0.321000009775 0.317000001669 1277.0
0.879000008106 -0.328999996185 0.319999992847 1276.0
0.875 -0.333999991417 0.319000005722 1281.0
0.867999970913 -0.337999999523 0.317000001669 1274.0
0.870000004768 -0.344999998808 0.319000005722 1271.0
0.873000025749 -0.351999998093 0.321000009775 1294.0
0.869000017643 -0.356999993324 0.319999992847 1329.0
0.871999979019 -0.363999992609 0.321999996901 1287.0
0.874000012875 -0.372000008821 0.323000013828 1256.0
0.867999970913 -0.375999987125 0.321999996901 1279.0
0.865999996662 -0.381999999285 0.321999996901 1302.0
0.865000009537 -0.388000011444 0.321999996901 1311.0
0.860000014305 -0.391999989748 0.321000009775 1301.0
0.85799998045 -0.398000001907 0.321000009775 1286.0
0.860000014305 -0.405000001192 0.323000013828 1299.0
0.865999996662 -0.414999991655 0.326000005007 1320.0
0.85900002718 -0.418000012636 0.324000000954 1282.0
0.860000014305 -0.425999999046 0.326000005007 1275.0
0.855000019073 -0.430000007153 0.324999988079 1275.0
0.856000006199 -0.437000006437 0.326000005007 1268.0
0.853999972343 -0.442999988794 0.326000005007 1259.0
0.856999993324 -0.451999992132 0.32800000906 1260.0
0.855000019073 -0.458000004292 0.328999996185 1243.0
0.851999998093 -0.462999999523 0.32800000906 1243.0
0.851999998093 -0.469999998808 0.330000013113 1240.0
0.852999985218 -0.477999985218 0.331000000238 1245.0
0.847000002861 -0.481999993324 0.330000013113 1293.0
0.852999985218 -0.493000000715 0.333000004292 1267.0
0.842000007629 -0.493999987841 0.330000013113 1263.0
1.05900001526 0.644999980927 0.404000014067 512.0
1.06400001049 0.638999998569 0.405000001192 501.0
1.08599996567 0.64200001955 0.412000000477 476.0
1.11600005627 0.651000022888 0.42199999094 446.0
1.43400001526 0.824000000954 0.541999995708 240.0
1.69799995422 0.961000025272 0.639999985695 217.0
1.73099994659 0.964999973774 0.651000022888 227.0
1.76499998569 0.96899998188 0.662000000477 201.0
1.79600000381 0.971000015736 0.671000003815 196.0
1.86500000954 0.992999970913 0.694999992847 114.0
2.10599994659 1.07000005245 0.778999984264 139.0
2.08999991417 1.04499995708 0.771000027657 261.0
2.10100007057 1.0340000391 0.773000001907 289.0
2.10500001907 1.01900005341 0.772000014782 286.0
2.08500003815 0.992999970913 0.763000011444 270.0
2.11500000954 0.990999996662 0.772000014782 207.0
2.13000011444 0.981999993324 0.776000022888 115.0
2.18000006676 0.987999975681 0.791999995708 160.0
2.20900011063 0.985000014305 0.800999999046 264.0
2.20799994469 0.967000007629 0.797999978065 181.0
2.22600007057 0.958999991417 0.802999973297 118.0
3.26600003242 1.01300001144 1.14199995995 88.0
3.41400003433 1.03600001335 1.19299995899 76.0
3.71099996567 1.05200004578 1.29100000858 101.0
3.82699990273 1.05900001526 1.33000004292 88.0
4.10699987411 1.08299994469 1.42299997807 67.0
4.05700016022 1.04299998283 1.40400004387 77.0
4.08699989319 1.02400004864 1.4129999876 103.0
4.01599979401 0.980000019073 1.38600003719 112.0
4.11600017548 0.977999985218 1.41900002956 106.0
4.14300012589 0.958000004292 1.42700004578 103.0
4.04300022125 0.908999979496 1.39100003242 115.0
4.09600019455 0.893999993801 1.40799999237 107.0
4.06699991226 0.861999988556 1.39600002766 104.0
4.09499979019 0.842000007629 1.40499997139 104.0
4.05200004578 0.808000028133 1.38900005817 109.0
4.17899990082 0.806999981403 1.43099999428 108.0
4.11499977112 0.768000006676 1.40699994564 105.0
4.10300016403 0.740000009537 1.40199995041 106.0
4.05200004578 0.705999970436 1.38399994373 107.0
4.16699981689 0.699999988079 1.42200005054 109.0
4.08099985123 0.660000026226 1.39100003242 109.0
4.0720000267 0.633000016212 1.38699996471 106.0
4.09399986267 0.611000001431 1.39400005341 104.0
4.13800001144 0.592000007629 1.40799999237 105.0
4.15299987793 0.569000005722 1.41199994087 106.0
4.05000019073 0.52999997139 1.37600004673 102.0
4.09600019455 0.510999977589 1.39100003242 111.0
4.09899997711 0.486000001431 1.39100003242 108.0
4.02299976349 0.451999992132 1.36500000954 104.0
4.12200021744 0.437999993563 1.39800000191 91.0
0.90499997139 -0.119999997318 0.305999994278 799.0
0.907999992371 -0.126000002027 0.307000011206 1186.0
0.912000000477 -0.131999999285 0.308999985456 1226.0
0.90499997139 -0.136999994516 0.307000011206 1243.0
0.90600001812 -0.142000004649 0.307999998331 1247.0
0.898999989033 -0.146999999881 0.305999994278 1228.0
0.902000010014 -0.152999997139 0.307000011206 1283.0
0.907000005245 -0.158999994397 0.308999985456 1261.0
0.902999997139 -0.16400000453 0.307999998331 1242.0
0.910000026226 -0.171000003815 0.310000002384 1229.0
0.898999989033 -0.17499999702 0.307000011206 1246.0
0.902000010014 -0.180999994278 0.307999998331 1264.0
0.899999976158 -0.186000004411 0.307999998331 1250.0
0.896000027657 -0.190999999642 0.307000011206 1248.0
0.896000027657 -0.196999996901 0.307000011206 1283.0
0.898999989033 -0.202999994159 0.308999985456 1293.0
0.894999980927 -0.208000004292 0.307999998331 1268.0
0.894999980927 -0.21400000155 0.307999998331 1264.0
0.894999980927 -0.219999998808 0.308999985456 1262.0
0.889999985695 -0.224000006914 0.307999998331 1251.0
0.896000027657 -0.231000006199 0.310000002384 1269.0
0.893000006676 -0.237000003457 0.308999985456 1252.0
0.89099997282 -0.241999998689 0.308999985456 1277.0
0.882000029087 -0.245000004768 0.307000011206 1252.0
0.883000016212 -0.250999987125 0.307000011206 1267.0
0.880999982357 -0.256999999285 0.307000011206 1278.0
0.885999977589 -0.263999998569 0.310000002384 1326.0
0.883000016212 -0.268999993801 0.308999985456 1312.0
0.880999982357 -0.273999989033 0.308999985456 1281.0
0.884999990463 -0.282000005245 0.31099998951 1281.0
0.880999982357 -0.286000013351 0.310000002384 1285.0
0.876999974251 -0.291000008583 0.308999985456 1283.0
0.880999982357 -0.298000007868 0.31099998951 1292.0
0.879999995232 -0.303999990225 0.312000006437 1319.0
0.870999991894 -0.307000011206 0.308999985456 1322.0
0.874000012875 -0.31400001049 0.31099998951 1296.0
0.879999995232 -0.323000013828 0.312999993563 1310.0
0.876999974251 -0.32800000906 0.312999993563 1265.0
0.870000004768 -0.331000000238 0.31099998951 1290.0
0.870999991894 -0.337999999523 0.312000006437 1288.0
0.875999987125 -0.345999985933 0.314999997616 1292.0
0.874000012875 -0.351999998093 0.314999997616 1279.0
0.873000025749 -0.358000010252 0.314999997616 1306.0
0.869000017643 -0.363000005484 0.31400001049 1330.0
0.865000009537 -0.36700001359 0.31400001049 1298.0
0.870999991894 -0.375999987125 0.316000014544 1258.0
0.866999983788 -0.381000012159 0.316000014544 1286.0
0.870000004768 -0.388999998569 0.317999988794 1302.0
0.861000001431 -0.391999989748 0.316000014544 1299.0
0.861999988556 -0.398999989033 0.317000001669 1298.0
0.85799998045 -0.402999997139 0.316000014544 1298.0
0.865000009537 -0.412999987602 0.319000005722 1308.0
0.853999972343 -0.414999991655 0.316000014544 1307.0
0.860000014305 -0.425000011921 0.319000005722 1294.0
0.853999972343 -0.428999990225 0.317999988794 1303.0
0.856000006199 -0.437000006437 0.319999992847 1273.0
0.853999972343 -0.442999988794 0.319999992847 1275.0
0.855000019073 -0.449999988079 0.321000009775 1274.0
0.851999998093 -0.455000013113 0.321000009775 1259.0
0.860000014305 -0.467000007629 0.324999988079 1257.0
0.851999998093 -0.469999998808 0.323000013828 1258.0
0.847000002861 -0.474000006914 0.321999996901 1282.0
0.850000023842 -0.483000010252 0.324999988079 1309.0
0.847999989986 -0.488999992609 0.324999988079 1290.0
0.841000020504 -0.49200001359 0.323000013828 1268.0
1.05799996853 0.643000006676 0.395999997854 504.0
1.07400000095 0.643000006676 0.40000000596 496.0
1.08200001717 0.638000011444 0.402000010014 471.0
1.10699999332 0.643999993801 0.409999996424 417.0
1.51999998093 0.870999991894 0.563000023365 223.0
1.65499997139 0.935000002384 0.611000001431 232.0
1.74100005627 0.967999994755 0.64099997282 219.0
1.77100002766 0.97000002861 0.649999976158 217.0
1.77499997616 0.958000004292 0.649999976158 194.0
1.8370000124 0.976000010967 0.671000003815 113.0
2.08800005913 1.05900001526 0.757000029087 200.0
2.08299994469 1.03999996185 0.753000020981 293.0
2.09299993515 1.02799999714 0.754000008106 293.0
2.08400011063 1.00699996948 0.749000012875 287.0
2.09800004959 0.996999979019 0.751999974251 266.0
2.11800003052 0.990999996662 0.758000016212 173.0
2.09500002861 0.963999986649 0.748000025749 118.0
2.17499995232 0.98400002718 0.773999989033 160.0
2.16799998283 0.963999986649 0.769999980927 270.0
2.23000001907 0.975000023842 0.790000021458 161.0
2.18400001526 0.93900001049 0.772000014782 81.0
3.27099990845 1.01300001144 1.12199997902 89.0
3.36599993706 1.01900005341 1.15299999714 79.0
3.76799988747 1.06599998474 1.28499996662 120.0
3.93499994278 1.06099998951 1.33800005913 67.0
4.01200008392 1.05499994755 1.36300003529 66.0
4.02500009537 1.03199994564 1.36500000954 87.0
4.08599996567 1.02199995518 1.38499999046 105.0
4.10900020599 1.00100004673 1.39100003242 112.0
4.15000009537 0.98400002718 1.40299999714 108.0
4.03999996185 0.931999981403 1.36399996281 104.0
4.07600021362 0.913999974728 1.375 105.0
4.11999988556 0.898000001907 1.38800001144 101.0
4.09800004959 0.866999983788 1.3789999485 101.0
4.07499980927 0.836000025272 1.37000000477 96.0
4.11600017548 0.819000005722 1.38300001621 109.0
4.13500022888 0.796000003815 1.38800001144 110.0
4.11600017548 0.76700001955 1.37999999523 106.0
4.08799982071 0.736000001431 1.37000000477 102.0
4.0560002327 0.704999983311 1.35800004005 110.0
4.11899995804 0.689999997616 1.37800002098 103.0
4.08799982071 0.660000026226 1.36600005627 108.0
4.11199998856 0.638000011444 1.37399995327 102.0
4.10699987411 0.611999988556 1.3710000515 109.0
4.10200023651 0.586000025272 1.36800003052 103.0
4.1139998436 0.561999976635 1.37199997902 106.0
4.11800003052 0.537999987602 1.37199997902 103.0
4.02899980545 0.500999987125 1.34200000763 103.0
4.132999897 0.488999992609 1.37600004673 107.0
4.07299995422 0.456999987364 1.35500001907 102.0
4.06199979782 0.430999994278 1.35000002384 84.0
0.949999988079 -0.119999997318 0.314999997616 116.0
0.908999979496 -0.119999997318 0.301999986172 796.0
0.907999992371 -0.126000002027 0.301999986172 1207.0
0.90499997139 -0.130999997258 0.300999999046 1253.0
0.903999984264 -0.136000007391 0.300999999046 1257.0
0.90499997139 -0.142000004649 0.300999999046 1272.0
0.902000010014 -0.146999999881 0.300999999046 1246.0
0.901000022888 -0.151999995112 0.300999999046 1299.0
0.903999984264 -0.158999994397 0.301999986172 1279.0
0.898999989033 -0.163000002503 0.300999999046 1244.0
0.90499997139 -0.170000001788 0.303000003099 1244.0
0.901000022888 -0.17499999702 0.301999986172 1258.0
0.901000022888 -0.180999994278 0.301999986172 1260.0
0.898999989033 -0.186000004411 0.301999986172 1262.0
0.899999976158 -0.192000001669 0.301999986172 1259.0
0.897000014782 -0.196999996901 0.301999986172 1293.0
0.897000014782 -0.202999994159 0.301999986172 1313.0
0.888999998569 -0.206000000238 0.300000011921 1296.0
0.894999980927 -0.212999999523 0.301999986172 1275.0
0.889999985695 -0.217999994755 0.300999999046 1269.0
0.896000027657 -0.22499999404 0.303999990225 1262.0
0.887000024319 -0.229000002146 0.300999999046 1282.0
0.89200001955 -0.236000001431 0.303000003099 1279.0
0.89200001955 -0.241999998689 0.303999990225 1298.0
0.884000003338 -0.245000004768 0.300999999046 1274.0
0.89099997282 -0.252999991179 0.303999990225 1289.0
0.884000003338 -0.256999999285 0.301999986172 1296.0
0.879999995232 -0.261999994516 0.301999986172 1303.0
0.887000024319 -0.270000010729 0.303999990225 1323.0
0.883000016212 -0.27500000596 0.303000003099 1302.0
0.888000011444 -0.282000005245 0.305999994278 1330.0
0.884000003338 -0.287000000477 0.305000007153 1287.0
0.884000003338 -0.293000012636 0.305999994278 1277.0
0.880999982357 -0.298000007868 0.305000007153 1272.0
0.876999974251 -0.303000003099 0.303999990225 1308.0
0.873000025749 -0.307000011206 0.303999990225 1342.0
0.875999987125 -0.314999997616 0.305000007153 1329.0
0.876999974251 -0.321000009775 0.305999994278 1313.0
0.875999987125 -0.326999992132 0.305999994278 1300.0
0.875 -0.333000004292 0.307000011206 1311.0
0.874000012875 -0.338999986649 0.307000011206 1300.0
0.864000022411 -0.340999990702 0.303999990225 1320.0
0.875 -0.351999998093 0.308999985456 1316.0
0.875 -0.358000010252 0.308999985456 1294.0
0.866999983788 -0.361000001431 0.307000011206 1315.0
0.866999983788 -0.36700001359 0.307999998331 1334.0
0.867999970913 -0.374000012875 0.308999985456 1297.0
0.865999996662 -0.379999995232 0.308999985456 1278.0
0.861000001431 -0.384000003338 0.307999998331 1289.0
0.866999983788 -0.393999993801 0.31099998951 1305.0
0.864000022411 -0.398999989033 0.31099998951 1293.0
0.865999996662 -0.405999988317 0.312999993563 1297.0
0.855000019073 -0.407999992371 0.308999985456 1307.0
0.85900002718 -0.416000008583 0.312000006437 1287.0
0.861000001431 -0.423999994993 0.312999993563 1285.0
0.862999975681 -0.432000011206 0.314999997616 1283.0
0.85799998045 -0.43599998951 0.31400001049 1292.0
0.851999998093 -0.439999997616 0.312999993563 1291.0
0.855000019073 -0.449000000954 0.314999997616 1285.0
0.847999989986 -0.451999992132 0.312999993563 1236.0
0.850000023842 -0.460000008345 0.314999997616 1253.0
0.851000010967 -0.467999994755 0.316000014544 1307.0
0.84500002861 -0.472000002861 0.314999997616 1301.0
0.850000023842 -0.481999993324 0.317999988794 1319.0
0.84399998188 -0.486000001431 0.317000001669 1299.0
0.847000002861 -0.495000004768 0.319000005722 1286.0
1.0720000267 0.649999976158 0.393000006676 513.0
1.06599998474 0.637000024319 0.388999998569 493.0
1.07899999619 0.635999977589 0.393000006676 469.0
1.13999998569 0.661000013351 0.41400000453 385.0
1.61199998856 0.92199999094 0.584999978542 234.0
1.72599995136 0.972999989986 0.625 227.0
1.74100005627 0.966000020504 0.628000020981 217.0
1.77499997616 0.971000015736 0.638999998569 213.0
1.81500005722 0.977999985218 0.651000022888 186.0
1.7840000391 0.945999979973 0.638000011444 103.0
2.03200006485 1.04400002956 0.722999989986 152.0
2.07999992371 1.0529999733 0.739000022411 259.0
2.09100008011 1.04100000858 0.740000009537 287.0
2.10599994659 1.03199994564 0.744000017643 287.0
2.10599994659 1.01499998569 0.741999983788 287.0
2.06999993324 0.981999993324 0.727999985218 277.0
2.09899997711 0.978999972343 0.736000001431 154.0
2.10199999809 0.964999973774 0.735000014305 111.0
2.1740000248 0.981000006199 0.758000016212 183.0
2.18499994278 0.97000002861 0.759999990463 275.0
2.1930000782 0.957000017166 0.762000024319 145.0
3.28399991989 1.03699994087 1.10500001907 86.0
3.25099992752 1.00499999523 1.09300005436 83.0
3.71399998665 1.07299995422 1.24300003052 88.0
3.75500011444 1.05999994278 1.25499999523 114.0
3.82699990273 1.05499994755 1.27699995041 85.0
4.13399982452 1.11199998856 1.37800002098 64.0
4.09800004959 1.0759999752 1.36500000954 68.0
4.12900018692 1.05700004101 1.37300002575 80.0
4.12900018692 1.02999997139 1.3710000515 107.0
4.07100009918 0.990000009537 1.35000002384 105.0
4.09700012207 0.97000002861 1.35699999332 104.0
4.10099983215 0.944000005722 1.35699999332 111.0
4.06799983978 0.911000013351 1.34500002861 104.0
4.12200021744 0.897000014782 1.36099994183 100.0
4.09800004959 0.865000009537 1.35199999809 96.0
4.0609998703 0.832000017166 1.33800005913 103.0
4.07399988174 0.809000015259 1.34200000763 104.0
