ply
format ascii 1.0
element vertex 906
property float x
property float y
property float z
property float intensity
end_header
1.0039999485 -0.082999996841 -0.0810000002384 1245.0
0.995000004768 -0.0879999995232 -0.0799999982119 1241.0
0.994000017643 -0.0939999967813 -0.0799999982119 1246.0
0.990999996662 -0.0989999994636 -0.0799999982119 1256.0
0.996999979019 -0.105999998748 -0.0799999982119 1269.0
0.992999970913 -0.111000001431 -0.0799999982119 1266.0
0.989000022411 -0.115999996662 -0.0799999982119 1290.0
0.98400002718 -0.120999999344 -0.0790000036359 1296.0
0.98400002718 -0.127000004053 -0.0790000036359 1296.0
0.986999988556 -0.133000001311 -0.0799999982119 1305.0
0.977999985218 -0.137999996543 -0.0790000036359 1324.0
0.981999993324 -0.143999993801 -0.0790000036359 1319.0
0.972000002861 -0.148000001907 -0.0780000016093 887.0
0.940999984741 -0.149000003934 -0.0759999975562 222.0
0.925000011921 -0.151999995112 -0.0750000029802 184.0
0.944999992847 -0.16099999845 -0.0759999975562 183.0
0.935000002384 -0.165000006557 -0.0759999975562 189.0
0.936999976635 -0.171000003815 -0.0759999975562 186.0
0.922999978065 -0.173999994993 -0.0750000029802 185.0
0.930000007153 -0.180999994278 -0.0750000029802 191.0
0.907000005245 -0.181999996305 -0.0729999989271 188.0
0.925999999046 -0.190999999642 -0.0750000029802 193.0
0.912999987602 -0.194000005722 -0.0740000009537 198.0
0.916000008583 -0.20000000298 -0.0740000009537 197.0
0.927999973297 -0.208000004292 -0.0750000029802 198.0
0.925999999046 -0.212999999523 -0.0750000029802 195.0
0.911000013351 -0.215000003576 -0.0740000009537 229.0
0.950999975204 -0.231000006199 -0.0769999995828 1057.0
0.944999992847 -0.236000001431 -0.0769999995828 1462.0
0.948000013828 -0.241999998689 -0.0769999995828 1492.0
0.945999979973 -0.247999995947 -0.0769999995828 1489.0
0.945999979973 -0.252999991179 -0.0769999995828 1504.0
0.941999971867 -0.25799998641 -0.0769999995828 1516.0
0.941999971867 -0.263999998569 -0.0769999995828 1513.0
0.938000023365 -0.268999993801 -0.0769999995828 1521.0
0.936999976635 -0.27500000596 -0.0769999995828 1529.0
0.935000002384 -0.280000001192 -0.0769999995828 1530.0
0.935000002384 -0.286000013351 -0.0769999995828 1546.0
0.934000015259 -0.291999995708 -0.0769999995828 1547.0
0.933000028133 -0.29699999094 -0.0769999995828 1553.0
0.926999986172 -0.301999986172 -0.0759999975562 1545.0
0.926999986172 -0.307999998331 -0.0769999995828 1371.0
0.916000008583 -0.310000002384 -0.0759999975562 371.0
0.882000029087 -0.303999990225 -0.0729999989271 219.0
0.887000024319 -0.312000006437 -0.0740000009537 221.0
0.89099997282 -0.319000005722 -0.0740000009537 226.0
0.883000016212 -0.321999996901 -0.0729999989271 220.0
0.882000029087 -0.32800000906 -0.0740000009537 221.0
0.878000020981 -0.331999987364 -0.0729999989271 218.0
0.865999996662 -0.333999991417 -0.0719999969006 221.0
0.884999990463 -0.347000002861 -0.0740000009537 223.0
0.888000011444 -0.354000002146 -0.0740000009537 229.0
0.861000001431 -0.349000006914 -0.0719999969006 222.0
0.867999970913 -0.358000010252 -0.0729999989271 226.0
0.866999983788 -0.363999992609 -0.0729999989271 224.0
0.861999988556 -0.368000000715 -0.0729999989271 232.0
0.897000014782 -0.389999985695 -0.0759999975562 1070.0
0.898999989033 -0.397000014782 -0.0759999975562 1593.0
0.897000014782 -0.402999997139 -0.0759999975562 1645.0
0.894999980927 -0.407999992371 -0.0759999975562 1660.0
0.889999985695 -0.412999987602 -0.0759999975562 1655.0
0.888999998569 -0.418999999762 -0.0759999975562 1665.0
0.89099997282 -0.425999999046 -0.0759999975562 1660.0
0.884999990463 -0.430000007153 -0.0759999975562 1693.0
0.883000016212 -0.43599998951 -0.0759999975562 1681.0
0.879000008106 -0.441000014544 -0.0759999975562 1672.0
0.875999987125 -0.446000009775 -0.0759999975562 1682.0
0.879000008106 -0.453999996185 -0.0759999975562 1680.0
0.870999991894 -0.456999987364 -0.0759999975562 1663.0
0.874000012875 -0.465000003576 -0.0759999975562 1615.0
0.865999996662 -0.467999994755 -0.0759999975562 567.0
0.828999996185 -0.453999996185 -0.0729999989271 249.0
0.825999975204 -0.460000008345 -0.0729999989271 224.0
1.70700001717 0.981000006199 -0.171000003815 137.0
1.27499997616 0.722000002861 -0.127000004053 138.0
1.00999999046 0.56400001049 -0.101000003517 233.0
0.958999991417 0.527000010014 -0.0949999988079 288.0
0.980000019073 0.53100001812 -0.097000002861 255.0
0.958000004292 0.512000024319 -0.0949999988079 239.0
0.96899998188 0.509999990463 -0.0949999988079 272.0
1.00600004196 0.521000027657 -0.0989999994636 307.0
0.967999994755 0.493999987841 -0.0949999988079 354.0
0.971000015736 0.488000005484 -0.0949999988079 386.0
0.95300000906 0.472000002861 -0.0930000022054 437.0
0.958000004292 0.465999990702 -0.0930000022054 490.0
0.955999970436 0.458999991417 -0.0920000001788 540.0
0.957000017166 0.451999992132 -0.0920000001788 585.0
0.964999973774 0.449000000954 -0.0930000022054 613.0
0.958000004292 0.437999993563 -0.0920000001788 638.0
0.962000012398 0.432999998331 -0.0920000001788 679.0
0.962999999523 0.426999986172 -0.0920000001788 718.0
0.955999970436 0.416999995708 -0.0909999981523 763.0
0.959999978542 0.411000013351 -0.0909999981523 773.0
0.964999973774 0.407000005245 -0.0909999981523 790.0
0.967000007629 0.400999993086 -0.0909999981523 837.0
0.964999973774 0.393000006676 -0.0909999981523 868.0
0.972000002861 0.388999998569 -0.0909999981523 888.0
0.959999978542 0.377000004053 -0.0900000035763 906.0
0.962999999523 0.372000008821 -0.0900000035763 929.0
0.972000002861 0.368999987841 -0.0909999981523 956.0
0.964999973774 0.360000014305 -0.0900000035763 977.0
0.967000007629 0.354000002146 -0.0900000035763 1003.0
0.967999994755 0.347999989986 -0.0900000035763 1038.0
0.966000020504 0.340999990702 -0.0890000015497 1067.0
0.967000007629 0.335000008345 -0.0890000015497 1067.0
0.961000025272 0.326000005007 -0.0879999995232 1084.0
0.96899998188 0.321999996901 -0.0890000015497 1104.0
0.967999994755 0.316000014544 -0.0890000015497 1097.0
0.962999999523 0.307999998331 -0.0879999995232 1144.0
0.96899998188 0.303999990225 -0.0879999995232 1146.0
0.971000015736 0.298000007868 -0.0879999995232 1160.0
0.96899998188 0.291000008583 -0.0879999995232 1162.0
0.97000002861 0.284999996424 -0.0879999995232 1186.0
0.97000002861 0.279000014067 -0.0879999995232 1205.0
0.967999994755 0.272000014782 -0.0879999995232 1207.0
0.976999998093 0.268999993801 -0.0879999995232 1228.0
0.973999977112 0.261999994516 -0.0879999995232 1237.0
0.972000002861 0.254999995232 -0.0869999974966 1248.0
0.977999985218 0.250999987125 -0.0879999995232 1272.0
0.972999989986 0.243000000715 -0.0869999974966 1249.0
0.978999972343 0.238999992609 -0.0879999995232 1274.0
0.978999972343 0.232999995351 -0.0879999995232 1295.0
0.972999989986 0.22499999404 -0.0869999974966 1302.0
0.975000023842 0.219999998808 -0.0869999974966 1307.0
0.976999998093 0.21400000155 -0.0869999974966 1278.0
0.975000023842 0.208000004292 -0.0869999974966 1318.0
0.981000006199 0.202999994159 -0.0869999974966 1333.0
0.976000010967 0.195999994874 -0.0869999974966 1320.0
0.978999972343 0.190999999642 -0.0869999974966 1295.0
0.98299998045 0.186000004411 -0.0869999974966 1287.0
0.972999989986 0.178000003099 -0.0860000029206 1303.0
0.973999977112 0.172000005841 -0.0860000029206 1299.0
0.976999998093 0.166999995708 -0.0860000029206 1279.0
0.978999972343 0.162000000477 -0.0860000029206 1266.0
0.98299998045 0.157000005245 -0.0869999974966 1270.0
0.980000019073 0.15000000596 -0.0860000029206 1259.0
0.980000019073 0.143999993801 -0.0860000029206 1252.0
0.98400002718 0.138999998569 -0.0860000029206 1233.0
0.980000019073 0.133000001311 -0.0860000029206 1244.0
0.985000014305 0.12800000608 -0.0860000029206 1247.0
0.985000014305 0.122000001371 -0.0860000029206 1235.0
0.98400002718 0.115999996662 -0.0860000029206 1222.0
0.98299998045 0.109999999404 -0.0860000029206 1216.0
0.985000014305 0.104999996722 -0.0860000029206 1187.0
0.986999988556 0.0989999994636 -0.0860000029206 1172.0
0.98400002718 0.0930000022054 -0.0860000029206 1146.0
0.98400002718 0.0879999995232 -0.0860000029206 1136.0
0.986000001431 0.082000002265 -0.0860000029206 1124.0
0.985000014305 0.0759999975562 -0.0860000029206 1077.0
0.98400002718 0.0710000023246 -0.0850000008941 1066.0
0.986000001431 0.0649999976158 -0.0860000029206 1031.0
0.990999996662 0.0599999986589 -0.0860000029206 1004.0
0.986999988556 0.0540000014007 -0.0860000029206 961.0
0.987999975681 0.0480000004172 -0.0860000029206 925.0
0.986999988556 0.0419999994338 -0.0860000029206 894.0
0.990000009537 0.0370000004768 -0.0860000029206 854.0
0.990000009537 0.0309999994934 -0.0860000029206 813.0
0.985000014305 0.0250000003725 -0.0850000008941 777.0
0.996999979019 0.019999999553 -0.0860000029206 745.0
0.991999983788 0.0140000004321 -0.0860000029206 653.0
1.02100002766 0.00899999961257 -0.0879999995232 259.0
1.01300001144 -0.0599999986589 -0.0869999974966 300.0
1.00199997425 -0.0649999976158 -0.0860000029206 1070.0
1.00699996948 -0.0719999969006 -0.0869999974966 1229.0
1.00499999523 -0.0769999995828 -0.0869999974966 1227.0
1.0 -0.082999996841 -0.0860000029206 1221.0
0.992999970913 -0.0879999995232 -0.0860000029206 1240.0
1.0 -0.0939999967813 -0.0860000029206 1258.0
0.998000025749 -0.10000000149 -0.0860000029206 1260.0
0.995000004768 -0.104999996722 -0.0860000029206 1269.0
0.990999996662 -0.111000001431 -0.0850000008941 1274.0
0.995000004768 -0.116999998689 -0.0860000029206 1288.0
0.986999988556 -0.122000001371 -0.0850000008941 1294.0
0.985000014305 -0.127000004053 -0.0850000008941 1303.0
0.981000006199 -0.133000001311 -0.0850000008941 1307.0
0.98400002718 -0.138999998569 -0.0850000008941 1326.0
0.976000010967 -0.143000006676 -0.0839999988675 1322.0
0.978999972343 -0.15000000596 -0.0850000008941 854.0
0.947000026703 -0.15000000596 -0.082000002265 210.0
0.944000005722 -0.155000001192 -0.082000002265 186.0
0.93599998951 -0.158999994397 -0.0810000002384 181.0
0.935000002384 -0.165000006557 -0.0810000002384 187.0
0.90600001812 -0.165000006557 -0.0790000036359 180.0
0.911000013351 -0.171000003815 -0.0790000036359 190.0
0.930000007153 -0.180999994278 -0.0810000002384 188.0
0.912999987602 -0.182999998331 -0.0790000036359 194.0
0.925000011921 -0.190999999642 -0.0799999982119 195.0
0.899999976158 -0.190999999642 -0.0780000016093 192.0
0.927999973297 -0.202999994159 -0.0810000002384 203.0
0.926999986172 -0.208000004292 -0.0810000002384 201.0
0.907000005245 -0.209000006318 -0.0790000036359 198.0
0.911000013351 -0.216000005603 -0.0790000036359 223.0
0.947000026703 -0.230000004172 -0.082999996841 1085.0
0.95300000906 -0.238000005484 -0.082999996841 1460.0
0.949999988079 -0.243000000715 -0.082999996841 1483.0
0.943000018597 -0.24699999392 -0.082999996841 1505.0
0.947000026703 -0.254000008106 -0.082999996841 1506.0
0.941999971867 -0.25799998641 -0.082999996841 1517.0
0.938000023365 -0.263000011444 -0.082000002265 1508.0
0.93900001049 -0.268999993801 -0.082999996841 1523.0
0.944999992847 -0.277000010014 -0.082999996841 1520.0
0.930999994278 -0.279000014067 -0.082000002265 1526.0
0.933000028133 -0.284999996424 -0.082000002265 1534.0
0.934000015259 -0.291999995708 -0.082000002265 1536.0
0.933000028133 -0.29699999094 -0.082000002265 1549.0
0.927999973297 -0.301999986172 -0.082000002265 1558.0
0.925999999046 -0.307999998331 -0.082000002265 1337.0
0.910000026226 -0.307999998331 -0.0810000002384 356.0
0.889999985695 -0.307000011206 -0.0790000036359 222.0
0.894999980927 -0.314999997616 -0.0799999982119 225.0
0.888000011444 -0.317999988794 -0.0790000036359 227.0
0.884999990463 -0.323000013828 -0.0790000036359 218.0
0.856999993324 -0.317999988794 -0.0769999995828 219.0
0.882000029087 -0.333999991417 -0.0790000036359 226.0
0.875999987125 -0.337999999523 -0.0790000036359 221.0
0.869000017643 -0.340999990702 -0.0780000016093 220.0
0.876999974251 -0.34999999404 -0.0790000036359 228.0
0.874000012875 -0.354999989271 -0.0790000036359 219.0
0.860000014305 -0.354999989271 -0.0780000016093 220.0
0.866999983788 -0.363999992609 -0.0790000036359 231.0
0.878000020981 -0.375 -0.0799999982119 238.0
0.893999993801 -0.388999998569 -0.0810000002384 1111.0
0.896000027657 -0.395999997854 -0.082000002265 1602.0
0.897000014782 -0.402999997139 -0.082000002265 1655.0
0.89099997282 -0.407000005245 -0.0810000002384 1643.0
0.89200001955 -0.41400000453 -0.082000002265 1654.0
0.888000011444 -0.418999999762 -0.082000002265 1659.0
0.885999977589 -0.423999994993 -0.082000002265 1665.0
0.887000024319 -0.430999994278 -0.082000002265 1680.0
0.879999995232 -0.435000002384 -0.0810000002384 1674.0
0.883000016212 -0.442999988794 -0.082000002265 1668.0
0.879000008106 -0.448000013828 -0.082000002265 1677.0
0.879000008106 -0.455000013113 -0.082000002265 1688.0
0.875999987125 -0.460000008345 -0.082000002265 1676.0
0.873000025749 -0.465000003576 -0.082000002265 1586.0
0.860000014305 -0.465000003576 -0.0810000002384 524.0
0.816999971867 -0.448000013828 -0.0769999995828 234.0
0.81099998951 -0.451999992132 -0.0769999995828 219.0
2.16700005531 1.24699997902 -0.231999993324 175.0
2.17700004578 1.23399996758 -0.231999993324 118.0
0.898999989033 0.430999994278 -0.0930000022054 87.0
0.972999989986 0.423999994993 -0.0989999994636 273.0
0.962999999523 0.412999987602 -0.097000002861 328.0
0.966000020504 0.407000005245 -0.097000002861 365.0
0.958000004292 0.397000014782 -0.0960000008345 293.0
0.954999983311 0.388999998569 -0.0960000008345 270.0
0.948000013828 0.379000008106 -0.0949999988079 328.0
0.962999999523 0.379000008106 -0.0960000008345 364.0
0.96899998188 0.375 -0.097000002861 389.0
0.958000004292 0.363999992609 -0.0949999988079 435.0
0.95300000906 0.356000006199 -0.0949999988079 486.0
0.958000004292 0.351000010967 -0.0949999988079 521.0
0.962999999523 0.345999985933 -0.0949999988079 578.0
0.967000007629 0.340999990702 -0.0949999988079 622.0
0.97000002861 0.33599999547 -0.0949999988079 649.0
0.971000015736 0.330000013113 -0.0949999988079 683.0
0.972999989986 0.324000000954 -0.0949999988079 728.0
0.972000002861 0.317000001669 -0.0949999988079 768.0
0.97000002861 0.310000002384 -0.0949999988079 803.0
0.964999973774 0.301999986172 -0.0939999967813 845.0
0.97000002861 0.298000007868 -0.0939999967813 858.0
0.973999977112 0.293000012636 -0.0939999967813 896.0
0.975000023842 0.287000000477 -0.0939999967813 932.0
0.972000002861 0.280000001192 -0.0939999967813 962.0
0.966000020504 0.272000014782 -0.0930000022054 987.0
0.97000002861 0.266999989748 -0.0930000022054 1009.0
0.971000015736 0.261000007391 -0.0930000022054 1041.0
0.975000023842 0.256000012159 -0.0939999967813 1054.0
0.973999977112 0.248999997973 -0.0930000022054 1076.0
0.973999977112 0.244000002742 -0.0930000022054 1109.0
0.972999989986 0.237000003457 -0.0930000022054 1158.0
0.972999989986 0.231000006199 -0.0930000022054 1188.0
0.972000002861 0.22499999404 -0.0930000022054 1207.0
0.975000023842 0.219999998808 -0.0930000022054 1215.0
0.977999985218 0.215000003576 -0.0930000022054 1234.0
0.976000010967 0.208000004292 -0.0930000022054 1289.0
0.972000002861 0.201000005007 -0.0920000001788 1307.0
0.978999972343 0.196999996901 -0.0930000022054 1318.0
0.978999972343 0.190999999642 -0.0930000022054 1329.0
0.976000010967 0.185000002384 -0.0920000001788 1338.0
0.976000010967 0.179000005126 -0.0920000001788 1354.0
0.967999994755 0.172000005841 -0.0909999981523 1379.0
0.977999985218 0.166999995708 -0.0920000001788 1395.0
0.981999993324 0.162000000477 -0.0920000001788 1405.0
0.976000010967 0.156000003219 -0.0920000001788 1451.0
0.981000006199 0.15000000596 -0.0920000001788 1470.0
0.976999998093 0.143999993801 -0.0920000001788 1499.0
0.973999977112 0.137999996543 -0.0909999981523 1547.0
0.976000010967 0.131999999285 -0.0909999981523 1560.0
0.976999998093 0.127000004053 -0.0909999981523 1605.0
0.980000019073 0.120999999344 -0.0909999981523 1619.0
0.98400002718 0.115999996662 -0.0920000001788 1616.0
0.980000019073 0.109999999404 -0.0909999981523 1658.0
0.985000014305 0.104999996722 -0.0920000001788 1645.0
0.980000019073 0.0989999994636 -0.0909999981523 1642.0
0.981000006199 0.0930000022054 -0.0909999981523 1650.0
0.977999985218 0.0869999974966 -0.0909999981523 1673.0
0.981999993324 0.082000002265 -0.0909999981523 1701.0
0.986000001431 0.0759999975562 -0.0909999981523 1704.0
0.981000006199 0.070000000298 -0.0909999981523 1723.0
0.985000014305 0.0649999976158 -0.0909999981523 1748.0
0.981999993324 0.0590000003576 -0.0909999981523 1755.0
0.985000014305 0.0540000014007 -0.0909999981523 1770.0
0.985000014305 0.0480000004172 -0.0909999981523 1729.0
0.98400002718 0.0419999994338 -0.0909999981523 1688.0
0.985000014305 0.0370000004768 -0.0909999981523 1647.0
0.985000014305 0.0309999994934 -0.0909999981523 1634.0
0.986999988556 0.0250000003725 -0.0909999981523 1640.0
0.98299998045 0.019999999553 -0.0909999981523 1602.0
0.98299998045 0.0140000004321 -0.0909999981523 1422.0
1.00899994373 0.00800000037998 -0.0930000022054 418.0
1.0 -0.0599999986589 -0.0920000001788 342.0
1.0039999485 -0.0659999996424 -0.0920000001788 1071.0
1.00499999523 -0.0719999969006 -0.0920000001788 1218.0
1.00800001621 -0.0780000016093 -0.0930000022054 1231.0
1.0039999485 -0.082999996841 -0.0920000001788 1237.0
0.994000017643 -0.0879999995232 -0.0909999981523 1239.0
0.996999979019 -0.0939999967813 -0.0920000001788 1258.0
0.995000004768 -0.10000000149 -0.0920000001788 1255.0
0.995999991894 -0.105999998748 -0.0920000001788 1270.0
0.985000014305 -0.109999999404 -0.0909999981523 1274.0
0.986000001431 -0.115999996662 -0.0909999981523 1298.0
0.990000009537 -0.122000001371 -0.0909999981523 1296.0
0.987999975681 -0.12800000608 -0.0909999981523 1295.0
0.98400002718 -0.133000001311 -0.0909999981523 1301.0
0.981999993324 -0.138999998569 -0.0909999981523 1322.0
0.981000006199 -0.143999993801 -0.0900000035763 1329.0
0.980000019073 -0.15000000596 -0.0900000035763 822.0
0.944999992847 -0.15000000596 -0.0869999974966 198.0
0.929000020027 -0.152999997139 -0.0860000029206 186.0
0.925999999046 -0.158000007272 -0.0860000029206 186.0
0.938000023365 -0.165999993682 -0.0869999974966 184.0
0.922999978065 -0.167999997735 -0.0850000008941 188.0
0.919000029564 -0.172999992967 -0.0850000008941 190.0
0.93900001049 -0.182999998331 -0.0869999974966 189.0
0.920000016689 -0.184000000358 -0.0850000008941 187.0
0.912999987602 -0.187999993563 -0.0850000008941 195.0
0.929000020027 -0.196999996901 -0.0860000029206 192.0
0.920000016689 -0.201000005007 -0.0850000008941 199.0
0.898000001907 -0.202000007033 -0.082999996841 198.0
0.925999999046 -0.21400000155 -0.0860000029206 203.0
0.936999976635 -0.222000002861 -0.0869999974966 234.0
0.950999975204 -0.231000006199 -0.0890000015497 1122.0
0.949000000954 -0.237000003457 -0.0890000015497 1460.0
0.944999992847 -0.240999996662 -0.0879999995232 1483.0
0.944999992847 -0.24699999392 -0.0879999995232 1507.0
0.943000018597 -0.252999991179 -0.0879999995232 1504.0
0.941999971867 -0.25799998641 -0.0879999995232 1505.0
0.944999992847 -0.264999985695 -0.0890000015497 1523.0
0.943000018597 -0.270999997854 -0.0890000015497 1527.0
0.936999976635 -0.27500000596 -0.0879999995232 1531.0
0.933000028133 -0.280000001192 -0.0879999995232 1533.0
0.934000015259 -0.286000013351 -0.0879999995232 1540.0
0.927999973297 -0.289999991655 -0.0879999995232 1547.0
0.931999981403 -0.29699999094 -0.0879999995232 1547.0
0.931999981403 -0.303000003099 -0.0879999995232 1561.0
0.926999986172 -0.307999998331 -0.0879999995232 1304.0
0.916999995708 -0.31099998951 -0.0869999974966 336.0
0.880999982357 -0.303999990225 -0.0839999988675 220.0
0.888000011444 -0.312000006437 -0.0839999988675 218.0
0.867999970913 -0.31099998951 -0.082999996841 229.0
0.870000004768 -0.317999988794 -0.082999996841 226.0
0.869000017643 -0.323000013828 -0.082999996841 225.0
0.882000029087 -0.333999991417 -0.0839999988675 221.0
0.862999975681 -0.333000004292 -0.082999996841 219.0
0.876999974251 -0.344000011683 -0.0839999988675 222.0
0.876999974251 -0.34999999404 -0.0839999988675 219.0
0.882000029087 -0.358999997377 -0.0850000008941 230.0
0.855000019073 -0.352999985218 -0.082999996841 223.0
0.860000014305 -0.361000001431 -0.082999996841 228.0
0.851999998093 -0.363999992609 -0.082999996841 246.0
0.898999989033 -0.391000002623 -0.0869999974966 1166.0
0.89200001955 -0.395000010729 -0.0869999974966 1610.0
0.902999997139 -0.405999988317 -0.0879999995232 1662.0
0.894999980927 -0.409000009298 -0.0879999995232 1666.0
0.889999985695 -0.412999987602 -0.0869999974966 1665.0
0.893000006676 -0.421000003815 -0.0879999995232 1657.0
0.888000011444 -0.425999999046 -0.0869999974966 1672.0
0.882000029087 -0.428999990225 -0.0869999974966 1676.0
0.874000012875 -0.432000011206 -0.0860000029206 1684.0
0.882000029087 -0.442999988794 -0.0869999974966 1661.0
0.880999982357 -0.449000000954 -0.0879999995232 1654.0
0.880999982357 -0.456000000238 -0.0879999995232 1671.0
0.879000008106 -0.462000012398 -0.0879999995232 1667.0
0.870999991894 -0.463999986649 -0.0869999974966 1563.0
0.866999983788 -0.469000011683 -0.0869999974966 501.0
0.841000020504 -0.462000012398 -0.0850000008941 238.0
0.808000028133 -0.449999988079 -0.082000002265 226.0
2.22099995613 1.27900004387 -0.252000004053 250.0
2.22000002861 1.25999999046 -0.250999987125 176.0
2.27600002289 1.27300000191 -0.256999999285 90.0
4.08300018311 1.52400004864 -0.430000007153 68.0
4.23299980164 1.55099999905 -0.444000005722 73.0
4.39699983597 1.58200001717 -0.46099999547 61.0
0.00499999988824 0.00200000009499 -0.0010000000475 61.0
0.0939999967813 0.0320000015199 -0.00999999977648 65.0
0.317999988794 0.108000002801 -0.0329999998212 77.0
0.469999998808 0.156000003219 -0.0489999987185 85.0
0.626999974251 0.204999998212 -0.0649999976158 115.0
0.929000020027 0.29699999094 -0.0960000008345 277.0
0.925000011921 0.289999991655 -0.0960000008345 325.0
0.903999984264 0.277999997139 -0.0930000022054 253.0
0.884999990463 0.266000002623 -0.0909999981523 235.0
0.911000013351 0.268000006676 -0.0939999967813 262.0
0.93900001049 0.270000010729 -0.0960000008345 295.0
0.938000023365 0.263999998569 -0.0960000008345 337.0
0.949999988079 0.261000007391 -0.097000002861 375.0
0.944000005722 0.254000008106 -0.0960000008345 416.0
0.955999970436 0.250999987125 -0.097999997437 460.0
0.967000007629 0.247999995947 -0.097999997437 508.0
0.967000007629 0.241999998689 -0.097999997437 554.0
0.975000023842 0.238000005484 -0.0989999994636 592.0
0.972999989986 0.231000006199 -0.0989999994636 642.0
0.976999998093 0.225999996066 -0.0989999994636 683.0
0.975000023842 0.219999998808 -0.0989999994636 718.0
0.96899998188 0.212999999523 -0.097999997437 749.0
0.978999972343 0.209000006318 -0.0989999994636 790.0
0.973999977112 0.202000007033 -0.097999997437 831.0
0.973999977112 0.195999994874 -0.097999997437 857.0
0.977999985218 0.190999999642 -0.097999997437 886.0
0.980000019073 0.185000002384 -0.097999997437 909.0
0.986000001431 0.180999994278 -0.0989999994636 928.0
0.977999985218 0.172999992967 -0.097999997437 973.0
0.986000001431 0.168999999762 -0.0989999994636 993.0
0.981999993324 0.162000000477 -0.097999997437 1022.0
0.981999993324 0.157000005245 -0.097999997437 1063.0
0.976999998093 0.15000000596 -0.097000002861 1104.0
0.980000019073 0.144999995828 -0.097999997437 1128.0
0.976999998093 0.137999996543 -0.097000002861 1175.0
0.98299998045 0.133000001311 -0.097999997437 1196.0
0.98299998045 0.12800000608 -0.097999997437 1232.0
0.98400002718 0.122000001371 -0.097999997437 1238.0
0.98400002718 0.115999996662 -0.097999997437 1134.0
0.976000010967 0.109999999404 -0.097000002861 1155.0
0.977999985218 0.104000002146 -0.097000002861 1083.0
0.980000019073 0.0989999994636 -0.097000002861 1008.0
0.981000006199 0.0930000022054 -0.097000002861 1098.0
0.981000006199 0.0869999974966 -0.097000002861 1002.0
0.980000019073 0.082000002265 -0.097000002861 1185.0
0.985000014305 0.0759999975562 -0.097000002861 1383.0
0.981999993324 0.070000000298 -0.097000002861 1318.0
0.981999993324 0.0649999976158 -0.097000002861 1428.0
0.98299998045 0.0590000003576 -0.097000002861 1623.0
0.980000019073 0.0529999993742 -0.0960000008345 1721.0
0.98400002718 0.0480000004172 -0.097000002861 1713.0
0.98400002718 0.0419999994338 -0.097000002861 1745.0
0.985000014305 0.0370000004768 -0.097000002861 1711.0
0.981000006199 0.0309999994934 -0.0960000008345 1691.0
0.985000014305 0.0250000003725 -0.097000002861 1762.0
0.985000014305 0.019999999553 -0.097000002861 1805.0
0.98299998045 0.0140000004321 -0.0960000008345 1623.0
1.00199997425 0.00800000037998 -0.097999997437 453.0
0.995999991894 -0.0590000003576 -0.097000002861 374.0
1.00300002098 -0.0659999996424 -0.097999997437 1090.0
1.0039999485 -0.0719999969006 -0.097999997437 1221.0
1.00499999523 -0.0769999995828 -0.097999997437 1220.0
1.00499999523 -0.082999996841 -0.097999997437 1229.0
0.995999991894 -0.0879999995232 -0.097000002861 1236.0
0.995000004768 -0.0939999967813 -0.097000002861 1252.0
0.992999970913 -0.10000000149 -0.097000002861 1264.0
0.995000004768 -0.105999998748 -0.097000002861 1262.0
0.990999996662 -0.111000001431 -0.097000002861 1277.0
0.991999983788 -0.116999998689 -0.097000002861 1286.0
0.987999975681 -0.122000001371 -0.097000002861 1293.0
0.986999988556 -0.12800000608 -0.097000002861 1301.0
0.98400002718 -0.133000001311 -0.0960000008345 1311.0
0.98299998045 -0.138999998569 -0.0960000008345 1322.0
0.976999998093 -0.143999993801 -0.0960000008345 1333.0
0.976999998093 -0.149000003934 -0.0960000008345 799.0
0.936999976635 -0.149000003934 -0.0920000001788 203.0
0.944000005722 -0.156000003219 -0.0930000022054 188.0
0.925999999046 -0.158000007272 -0.0909999981523 186.0
0.931999981403 -0.16400000453 -0.0920000001788 183.0
0.924000024796 -0.168999999762 -0.0909999981523 183.0
0.93599998951 -0.175999999046 -0.0920000001788 186.0
0.930000007153 -0.180999994278 -0.0920000001788 193.0
0.934000015259 -0.187000006437 -0.0920000001788 185.0
0.917999982834 -0.189999997616 -0.0909999981523 187.0
0.913999974728 -0.194000005722 -0.0900000035763 192.0
0.915000021458 -0.20000000298 -0.0900000035763 199.0
0.935000002384 -0.209999993443 -0.0920000001788 197.0
0.899999976158 -0.208000004292 -0.0890000015497 199.0
0.941999971867 -0.223000004888 -0.0930000022054 246.0
0.947000026703 -0.231000006199 -0.0939999967813 1147.0
0.952000021935 -0.237000003457 -0.0939999967813 1469.0
0.947000026703 -0.241999998689 -0.0939999967813 1485.0
0.948000013828 -0.247999995947 -0.0939999967813 1504.0
0.947000026703 -0.254000008106 -0.0939999967813 1498.0
0.938000023365 -0.25799998641 -0.0939999967813 1502.0
0.939999997616 -0.263999998569 -0.0939999967813 1506.0
0.940999984741 -0.270000010729 -0.0939999967813 1526.0
0.931999981403 -0.273999989033 -0.0930000022054 1532.0
0.93599998951 -0.280999988317 -0.0939999967813 1517.0
0.930000007153 -0.284999996424 -0.0930000022054 1528.0
0.933000028133 -0.291999995708 -0.0939999967813 1544.0
0.934000015259 -0.298000007868 -0.0939999967813 1538.0
0.926999986172 -0.301999986172 -0.0930000022054 1550.0
0.925999999046 -0.307999998331 -0.0930000022054 1247.0
0.912999987602 -0.308999985456 -0.0920000001788 332.0
0.897000014782 -0.310000002384 -0.0909999981523 216.0
0.89099997282 -0.31400001049 -0.0900000035763 221.0
0.869000017643 -0.312000006437 -0.0879999995232 226.0
0.880999982357 -0.321999996901 -0.0890000015497 220.0
0.882000029087 -0.32800000906 -0.0900000035763 223.0
0.89200001955 -0.337999999523 -0.0909999981523 218.0
0.85900002718 -0.331000000238 -0.0879999995232 213.0
0.870000004768 -0.342000007629 -0.0890000015497 221.0
0.885999977589 -0.354000002146 -0.0909999981523 223.0
0.864000022411 -0.351000010967 -0.0890000015497 226.0
0.851000010967 -0.351999998093 -0.0869999974966 222.0
0.861000001431 -0.361999988556 -0.0890000015497 225.0
0.875999987125 -0.375 -0.0900000035763 252.0
0.897000014782 -0.389999985695 -0.0930000022054 1205.0
0.893000006676 -0.395000010729 -0.0930000022054 1613.0
0.889999985695 -0.40000000596 -0.0920000001788 1669.0
0.888999998569 -0.405999988317 -0.0920000001788 1652.0
0.89200001955 -0.41400000453 -0.0930000022054 1652.0
0.89200001955 -0.421000003815 -0.0930000022054 1655.0
0.889999985695 -0.426999986172 -0.0930000022054 1652.0
0.883000016212 -0.430000007153 -0.0930000022054 1648.0
0.879999995232 -0.435000002384 -0.0930000022054 1663.0
0.876999974251 -0.439999997616 -0.0920000001788 1662.0
0.876999974251 -0.446999996901 -0.0930000022054 1687.0
0.879999995232 -0.455000013113 -0.0930000022054 1677.0
0.874000012875 -0.458999991417 -0.0930000022054 1663.0
0.874000012875 -0.465999990702 -0.0930000022054 1521.0
0.861000001431 -0.465999990702 -0.0920000001788 466.0
0.832000017166 -0.456999987364 -0.0890000015497 235.0
0.829999983311 -0.462999999523 -0.0890000015497 225.0
2.21499991417 1.27600002289 -0.266000002623 289.0
2.22499990463 1.26300001144 -0.266000002623 206.0
2.57100009918 1.33500003815 -0.301999986172 75.0
3.5150001049 1.45899999142 -0.397000014782 65.0
3.55399990082 1.45000004768 -0.40000000596 63.0
3.80900001526 1.47500002384 -0.425999999046 67.0
3.95399999619 1.5039999485 -0.441000014544 74.0
4.05700016022 1.51499998569 -0.451999992132 65.0
4.02199983597 1.47500002384 -0.446999996901 79.0
4.09700012207 1.47399997711 -0.453999996185 77.0
4.21799993515 1.49000000954 -0.467000007629 70.0
4.26499986649 1.47800004482 -0.470999985933 80.0
4.25099992752 1.44400000572 -0.469000011683 77.0
4.25099992752 1.41600000858 -0.467999994755 76.0
4.29600000381 1.40299999714 -0.472000002861 77.0
4.34899997711 1.39199995995 -0.476999998093 70.0
4.29199981689 1.34599995613 -0.469000011683 70.0
4.29300022125 1.31799995899 -0.469000011683 70.0
4.35799980164 1.30999994278 -0.47499999404 71.0
4.31699991226 1.26999998093 -0.469999998808 73.0
4.37400007248 1.25800001621 -0.47499999404 67.0
4.39900016785 1.23800003529 -0.476999998093 68.0
4.42100000381 1.2159999609 -0.477999985218 67.0
4.38500022888 1.1779999733 -0.474000006914 69.0
4.34700012207 1.14100003242 -0.469000011683 60.0
4.41800022125 1.13199996948 -0.476000010967 68.0
4.45399999619 1.11300003529 -0.479000002146 59.0
4.56799983978 1.11300003529 -0.490999996662 59.0
4.74900007248 1.12800002098 -0.509000003338 55.0
4.84800004959 1.1210000515 -0.518999993801 66.0
0.0659999996424 0.0149999996647 -0.00700000021607 63.0
0.280999988317 0.0619999989867 -0.0299999993294 69.0
0.493999987841 0.105999998748 -0.0529999993742 86.0
0.563000023365 0.116999998689 -0.0599999986589 109.0
0.78100001812 0.157000005245 -0.082999996841 173.0
0.930999994278 0.181999996305 -0.0989999994636 204.0
0.93599998951 0.177000001073 -0.0989999994636 246.0
0.874000012875 0.159999996424 -0.0930000022054 218.0
0.90499997139 0.16099999845 -0.0960000008345 243.0
0.919000029564 0.157000005245 -0.097000002861 265.0
0.93599998951 0.155000001192 -0.0989999994636 300.0
0.949000000954 0.150999993086 -0.10000000149 341.0
0.95300000906 0.145999997854 -0.101000003517 370.0
0.961000025272 0.142000004649 -0.101000003517 408.0
0.967999994755 0.136999994516 -0.101999998093 444.0
0.97000002861 0.131999999285 -0.101999998093 478.0
0.972999989986 0.126000002027 -0.101999998093 516.0
0.97000002861 0.119999997318 -0.101999998093 588.0
0.96899998188 0.115000002086 -0.101999998093 569.0
0.971000015736 0.108999997377 -0.101999998093 593.0
0.976999998093 0.104000002146 -0.101999998093 616.0
0.975000023842 0.097999997437 -0.101999998093 480.0
0.967999994755 0.0920000001788 -0.101000003517 476.0
0.972000002861 0.0869999974966 -0.101999998093 478.0
0.981000006199 0.082000002265 -0.103000000119 575.0
0.978999972343 0.0759999975562 -0.101999998093 771.0
0.98400002718 0.0710000023246 -0.103000000119 762.0
0.985000014305 0.0649999976158 -0.103000000119 861.0
0.986999988556 0.0590000003576 -0.103000000119 919.0
0.98400002718 0.0540000014007 -0.103000000119 933.0
0.994000017643 0.0480000004172 -0.103000000119 972.0
0.990000009537 0.0419999994338 -0.103000000119 1007.0
0.98400002718 0.0370000004768 -0.101999998093 1024.0
0.986999988556 0.0309999994934 -0.103000000119 1026.0
0.989000022411 0.0250000003725 -0.103000000119 1071.0
0.986000001431 0.019999999553 -0.101999998093 1089.0
0.98400002718 0.0140000004321 -0.101999998093 1015.0
0.985000014305 0.00800000037998 -0.101999998093 275.0
1.00699996948 -0.0659999996424 -0.104000002146 1103.0
1.00300002098 -0.0719999969006 -0.104000002146 1221.0
1.00600004196 -0.0780000016093 -0.104000002146 1226.0
0.996999979019 -0.082999996841 -0.103000000119 1224.0
1.0 -0.0890000015497 -0.104000002146 1244.0
0.992999970913 -0.0939999967813 -0.103000000119 1249.0
0.996999979019 -0.10000000149 -0.103000000119 1256.0
0.995999991894 -0.105999998748 -0.103000000119 1262.0
0.990000009537 -0.111000001431 -0.103000000119 1264.0
0.987999975681 -0.115999996662 -0.103000000119 1279.0
0.986000001431 -0.122000001371 -0.101999998093 1278.0
0.985000014305 -0.12800000608 -0.101999998093 1292.0
0.980000019073 -0.133000001311 -0.101999998093 1305.0
0.986999988556 -0.138999998569 -0.103000000119 1326.0
0.978999972343 -0.143999993801 -0.101999998093 1329.0
0.972000002861 -0.149000003934 -0.101000003517 754.0
0.938000023365 -0.149000003934 -0.097999997437 200.0
0.910000026226 -0.15000000596 -0.0949999988079 183.0
0.939999997616 -0.16099999845 -0.097999997437 185.0
0.926999986172 -0.16400000453 -0.097000002861 187.0
0.934000015259 -0.171000003815 -0.097000002861 186.0
0.925999999046 -0.17499999702 -0.097000002861 182.0
0.933000028133 -0.181999996305 -0.097000002861 188.0
0.924000024796 -0.185000002384 -0.097000002861 185.0
0.915000021458 -0.188999995589 -0.0960000008345 193.0
0.92199999094 -0.195999994874 -0.097000002861 194.0
0.921000003815 -0.202000007033 -0.097000002861 195.0
0.919000029564 -0.207000002265 -0.0960000008345 196.0
0.912000000477 -0.21099999547 -0.0960000008345 198.0
0.934000015259 -0.222000002861 -0.097999997437 260.0
0.949999988079 -0.231000006199 -0.10000000149 1185.0
0.947000026703 -0.236000001431 -0.10000000149 1462.0
0.952000021935 -0.244000002742 -0.10000000149 1478.0
0.948000013828 -0.248999997973 -0.10000000149 1495.0
0.949000000954 -0.254999995232 -0.10000000149 1494.0
0.93900001049 -0.25799998641 -0.0989999994636 1500.0
0.941999971867 -0.264999985695 -0.10000000149 1508.0
0.93599998951 -0.268999993801 -0.0989999994636 1510.0
0.936999976635 -0.27500000596 -0.0989999994636 1520.0
0.936999976635 -0.280999988317 -0.0989999994636 1514.0
0.934000015259 -0.286000013351 -0.0989999994636 1528.0
0.930999994278 -0.291000008583 -0.0989999994636 1537.0
0.925999999046 -0.296000003815 -0.0989999994636 1547.0
0.925000011921 -0.301999986172 -0.0989999994636 1542.0
0.930000007153 -0.308999985456 -0.0989999994636 1207.0
0.902000010014 -0.305999994278 -0.097000002861 313.0
0.894999980927 -0.308999985456 -0.0960000008345 223.0
0.875 -0.307999998331 -0.0939999967813 218.0
0.882000029087 -0.317000001669 -0.0949999988079 217.0
0.870999991894 -0.317999988794 -0.0939999967813 221.0
0.873000025749 -0.324999988079 -0.0939999967813 223.0
0.885999977589 -0.33599999547 -0.0960000008345 216.0
0.861999988556 -0.333000004292 -0.0930000022054 220.0
0.866999983788 -0.340999990702 -0.0939999967813 222.0
0.865000009537 -0.345999985933 -0.0939999967813 223.0
0.861999988556 -0.351000010967 -0.0939999967813 227.0
0.852999985218 -0.352999985218 -0.0930000022054 220.0
0.851999998093 -0.358999997377 -0.0930000022054 222.0
0.860000014305 -0.368000000715 -0.0939999967813 260.0
0.894999980927 -0.389999985695 -0.097999997437 1256.0
0.898000001907 -0.398000001907 -0.0989999994636 1614.0
0.894999980927 -0.402999997139 -0.0989999994636 1646.0
0.893999993801 -0.409000009298 -0.0989999994636 1650.0
0.889999985695 -0.412999987602 -0.097999997437 1657.0
0.888999998569 -0.419999986887 -0.0989999994636 1657.0
0.888999998569 -0.425999999046 -0.0989999994636 1684.0
0.883000016212 -0.430000007153 -0.097999997437 1664.0
0.879999995232 -0.43599998951 -0.097999997437 1667.0
0.884999990463 -0.444999992847 -0.0989999994636 1669.0
0.875 -0.446000009775 -0.097999997437 1662.0
0.876999974251 -0.453999996185 -0.0989999994636 1669.0
0.875 -0.460000008345 -0.0989999994636 1663.0
0.870000004768 -0.463999986649 -0.097999997437 1493.0
0.866999983788 -0.469999998808 -0.097999997437 434.0
0.822000026703 -0.451999992132 -0.0930000022054 235.0
0.799000024796 -0.444999992847 -0.0909999981523 226.0
2.21000003815 1.27400004864 -0.280000001192 280.0
2.26099991798 1.2840000391 -0.286000013351 208.0
2.33400011063 1.30599999428 -0.293999999762 118.0
3.39100003242 1.43200004101 -0.405000001192 91.0
3.35899996758 1.39499998093 -0.40000000596 91.0
3.52300000191 1.43799996376 -0.418999999762 85.0
3.93899989128 1.52600002289 -0.465000003576 93.0
3.91599988937 1.49000000954 -0.46099999547 97.0
4.05800008774 1.51600003242 -0.476999998093 74.0
4.03599977493 1.48099994659 -0.474000006914 87.0
4.05200004578 1.45899999142 -0.474000006914 100.0
4.15000009537 1.4659999609 -0.485000014305 78.0
4.25899982452 1.47599995136 -0.497000008821 91.0
4.24900007248 1.44400000572 -0.493999987841 83.0
4.21400022507 1.40499997139 -0.488999992609 88.0
4.257999897 1.39100003242 -0.493000000715 83.0
4.32399988174 1.38399994373 -0.5 69.0
4.27899980545 1.34200000763 -0.493999987841 65.0
4.19799995422 1.28900003433 -0.483999997377 76.0
4.28800010681 1.28900003433 -0.493000000715 75.0
4.29099988937 1.26300001144 -0.493000000715 82.0
4.23600006104 1.21899998188 -0.486000001431 74.0
4.26000022888 1.19900000095 -0.488000005484 73.0
4.28999996185 1.17999994755 -0.490000009537 68.0
4.33099985123 1.16400003433 -0.493999987841 74.0
4.24399995804 1.11399996281 -0.483000010252 73.0
4.36199998856 1.11800003052 -0.495999991894 66.0
4.35400009155 1.08899998665 -0.493999987841 63.0
4.23600006104 1.03299999237 -0.479999989271 72.0
4.22300004959 1.00300002098 -0.477999985218 69.0
4.25 0.98299998045 -0.481000006199 72.0
4.26499986649 0.961000025272 -0.481999993324 77.0
4.31199979782 0.944999992847 -0.486000001431 82.0
4.30999994278 0.917999982834 -0.485000014305 70.0
4.27199983597 0.884000003338 -0.481000006199 72.0
4.3189997673 0.866999983788 -0.485000014305 75.0
4.74100017548 0.865999996662 -0.53100001812 56.0
4.7389998436 0.837000012398 -0.52999997139 58.0
4.74399995804 0.810000002384 -0.52999997139 57.0
4.79400014877 0.790000021458 -0.535000026226 61.0
4.75400018692 0.754999995232 -0.52999997139 58.0
4.85400009155 0.741999983788 -0.540000021458 54.0
4.82700014114 0.708999991417 -0.537000000477 52.0
4.84999990463 0.683000028133 -0.538999974728 51.0
0.0839999988675 0.0120000001043 -0.00899999961257 55.0
0.300000011921 0.0379999987781 -0.0329999998212 56.0
0.194000005722 0.0240000002086 -0.0219999998808 59.0
0.495999991894 0.0560000017285 -0.054999999702 81.0
0.456999987364 0.0489999987185 -0.0509999990463 73.0
0.481999993324 0.0489999987185 -0.0529999993742 77.0
0.630999982357 0.0599999986589 -0.070000000298 91.0
0.73400002718 0.0659999996424 -0.0810000002384 113.0
0.759000003338 0.0640000030398 -0.0839999988675 125.0
0.722999989986 0.0560000017285 -0.0799999982119 110.0
0.782999992371 0.0560000017285 -0.0860000029206 127.0
0.876999974251 0.0579999983311 -0.097000002861 181.0
0.874000012875 0.0529999993742 -0.0960000008345 181.0
0.861000001431 0.0469999983907 -0.0949999988079 156.0
0.878000020981 0.0430000014603 -0.097000002861 170.0
0.870000004768 0.0370000004768 -0.0960000008345 188.0
0.89200001955 0.0329999998212 -0.097999997437 205.0
0.903999984264 0.0280000008643 -0.0989999994636 220.0
0.930999994278 0.0240000002086 -0.101999998093 235.0
0.994000017643 0.019999999553 -0.108999997377 256.0
0.981000006199 0.0140000004321 -0.108000002801 256.0
0.992999970913 0.00800000037998 -0.108999997377 125.0
1.00899994373 -0.0599999986589 -0.109999999404 442.0
1.00300002098 -0.0659999996424 -0.109999999404 1121.0
1.00600004196 -0.0719999969006 -0.109999999404 1231.0
1.0 -0.0769999995828 -0.109999999404 1224.0
1.00199997425 -0.082999996841 -0.109999999404 1230.0
0.998000025749 -0.0890000015497 -0.108999997377 1241.0
0.994000017643 -0.0939999967813 -0.108999997377 1257.0
0.990000009537 -0.0989999994636 -0.108999997377 1263.0
0.995999991894 -0.105999998748 -0.108999997377 1264.0
0.992999970913 -0.111000001431 -0.108999997377 1273.0
0.989000022411 -0.116999998689 -0.108000002801 1288.0
0.985000014305 -0.122000001371 -0.108000002801 1288.0
0.990999996662 -0.12800000608 -0.108999997377 1299.0
0.98400002718 -0.133000001311 -0.108000002801 1301.0
0.986000001431 -0.138999998569 -0.108000002801 1333.0
0.976999998093 -0.143999993801 -0.107000000775 1323.0
0.976999998093 -0.15000000596 -0.107000000775 728.0
0.95300000906 -0.151999995112 -0.104999996722 198.0
0.949999988079 -0.157000005245 -0.104999996722 185.0
0.93900001049 -0.159999996424 -0.103000000119 183.0
0.943000018597 -0.166999995708 -0.104000002146 188.0
0.939999997616 -0.172000005841 -0.104000002146 183.0
0.898000001907 -0.168999999762 -0.0989999994636 184.0
0.90600001812 -0.175999999046 -0.10000000149 183.0
0.922999978065 -0.185000002384 -0.101999998093 188.0
0.927999973297 -0.192000001669 -0.103000000119 184.0
0.92199999094 -0.195999994874 -0.101999998093 198.0
0.931999981403 -0.203999996185 -0.103000000119 196.0
0.930999994278 -0.209999993443 -0.103000000119 195.0
0.92199999094 -0.212999999523 -0.101999998093 200.0
0.92199999094 -0.218999996781 -0.101999998093 277.0
0.944000005722 -0.230000004172 -0.104999996722 1216.0
0.945999979973 -0.236000001431 -0.104999996722 1481.0
0.949999988079 -0.243000000715 -0.105999998748 1477.0
0.944999992847 -0.247999995947 -0.104999996722 1504.0
0.940999984741 -0.252999991179 -0.104999996722 1490.0
0.940999984741 -0.259000003338 -0.104999996722 1515.0
0.940999984741 -0.263999998569 -0.104999996722 1496.0
0.939999997616 -0.270000010729 -0.104999996722 1515.0
0.934000015259 -0.27500000596 -0.104999996722 1511.0
0.938000023365 -0.282000005245 -0.104999996722 1510.0
0.934000015259 -0.287000000477 -0.104999996722 1528.0
0.930999994278 -0.291000008583 -0.104999996722 1545.0
0.929000020027 -0.29699999094 -0.104999996722 1542.0
0.926999986172 -0.301999986172 -0.104999996722 1547.0
0.925000011921 -0.307999998331 -0.104000002146 1165.0
0.896000027657 -0.303999990225 -0.101000003517 296.0
0.887000024319 -0.307000011206 -0.10000000149 216.0
0.89200001955 -0.31400001049 -0.101000003517 213.0
0.894999980927 -0.321000009775 -0.101999998093 216.0
0.875 -0.319999992847 -0.10000000149 213.0
0.893999993801 -0.333000004292 -0.101999998093 222.0
0.875999987125 -0.331999987364 -0.10000000149 221.0
0.861000001431 -0.333000004292 -0.097999997437 222.0
0.878000020981 -0.344999998808 -0.101000003517 218.0
0.866999983788 -0.347000002861 -0.10000000149 219.0
0.865999996662 -0.352999985218 -0.10000000149 228.0
0.878000020981 -0.363999992609 -0.101000003517 224.0
0.837999999523 -0.352999985218 -0.097000002861 233.0
0.89200001955 -0.381999999285 -0.103000000119 284.0
0.894999980927 -0.389999985695 -0.104000002146 1303.0
0.896000027657 -0.397000014782 -0.104000002146 1622.0
0.89099997282 -0.400999993086 -0.104000002146 1659.0
0.89200001955 -0.407999992371 -0.104000002146 1648.0
0.888999998569 -0.412999987602 -0.104000002146 1642.0
0.888000011444 -0.418999999762 -0.104000002146 1668.0
0.888000011444 -0.425999999046 -0.104000002146 1659.0
0.883000016212 -0.430999994278 -0.104000002146 1659.0
0.879999995232 -0.435000002384 -0.104000002146 1656.0
0.879000008106 -0.442000001669 -0.104000002146 1673.0
0.873000025749 -0.446000009775 -0.104000002146 1668.0
0.879000008106 -0.456000000238 -0.104999996722 1679.0
0.876999974251 -0.46099999547 -0.104999996722 1673.0
0.874000012875 -0.467000007629 -0.104999996722 1433.0
0.855000019073 -0.463999986649 -0.103000000119 407.0
0.847999989986 -0.467000007629 -0.101999998093 239.0
0.819999992847 -0.458000004292 -0.0989999994636 227.0
2.20900011063 1.27400004864 -0.294999986887 283.0
2.22600007057 1.26499998569 -0.296000003815 207.0
2.27200007439 1.27199995518 -0.300999999046 109.0
3.38400006294 1.40600001812 -0.425000011921 90.0
3.45600008965 1.41199994087 -0.432999998331 91.0
3.8069999218 1.52900004387 -0.476000010967 68.0
3.88199996948 1.53100001812 -0.483999997377 73.0
3.8789999485 1.50300002098 -0.481999993324 97.0
3.84400010109 1.46300005913 -0.476999998093 121.0
3.95199990273 1.47699999809 -0.488999992609 98.0
4.01900005341 1.47500002384 -0.495999991894 114.0
4.03200006485 1.45200002193 -0.497000008821 124.0
4.14499998093 1.46500003338 -0.509999990463 106.0
4.13999986649 1.43599998951 -0.508000016212 129.0
4.21099996567 1.43200004101 -0.51599997282 113.0
4.15600013733 1.38600003719 -0.508000016212 121.0
4.26599979401 1.39499998093 -0.521000027657 113.0
4.22800016403 1.35399997234 -0.514999985695 99.0
4.19500017166 1.31599998474 -0.509999990463 104.0
4.24599981308 1.30499994755 -0.514999985695 89.0
4.26999998093 1.2840000391 -0.51700001955 82.0
4.23400020599 1.24699997902 -0.512000024319 94.0
4.24800014496 1.22399997711 -0.513000011444 102.0
4.27600002289 1.20399999619 -0.514999985695 105.0
4.20800018311 1.15799999237 -0.505999982357 92.0
4.21799993515 1.13399994373 -0.507000029087 93.0
4.20399999619 1.10399997234 -0.504000008106 91.0
4.22399997711 1.08299994469 -0.505999982357 88.0
4.17500019073 1.04400002956 -0.499000012875 82.0
4.23199987411 1.03199994564 -0.504999995232 79.0
4.28800010681 1.01900005341 -0.510999977589 80.0
4.23099994659 0.980000019073 -0.504000008106 87.0
4.31500005722 0.972000002861 -0.513000011444 92.0
4.25199985504 0.931999981403 -0.504999995232 91.0
4.22800016403 0.901000022888 -0.500999987125 85.0
4.19299983978 0.867999970913 -0.497000008821 85.0
4.242000103 0.851999998093 -0.501999974251 75.0
4.4279999733 0.862999975681 -0.523000001907 62.0
4.6939997673 0.85799998045 -0.552999973297 52.0
4.76999998093 0.842999994755 -0.561999976635 56.0
4.77699995041 0.815999984741 -0.561999976635 60.0
4.71600008011 0.777000010014 -0.554000020027 58.0
4.80499982834 0.763000011444 -0.56400001049 61.0
4.80100011826 0.73400002718 -0.563000023365 58.0
4.84600019455 0.712000012398 -0.568000018597 61.0
4.84499979019 0.683000028133 -0.566999971867 50.0
4.8060002327 0.648999989033 -0.561999976635 58.0
4.76800012589 0.615999996662 -0.556999981403 53.0
4.87599992752 0.601000010967 -0.569000005722 54.0
4.85500001907 0.569999992847 -0.565999984741 53.0
4.85900020599 0.541999995708 -0.565999984741 51.0
4.86000013351 0.513000011444 -0.565999984741 55.0
4.85300016403 0.483999997377 -0.564999997616 56.0
4.91099977493 0.46099999547 -0.570999979973 56.0
4.89099979401 0.430999994278 -0.568000018597 53.0
4.92600011826 0.405000001192 -0.572000026703 52.0
4.92199993134 0.375999987125 -0.570999979973 55.0
4.96000003815 0.34999999404 -0.574999988079 53.0
4.94600009918 0.319999992847 -0.573000013828 50.0
5.00199985504 0.294999986887 -0.579999983311 56.0
4.98699998856 0.264999985695 -0.57800000906 53.0
5.04099988937 0.238999992609 -0.583000004292 54.0
0.0860000029206 0.00499999988824 -0.00999999977648 58.0
4.99300003052 0.179000005126 -0.577000021935 50.0
0.0439999997616 0.00300000002608 -0.00499999988824 49.0
4.96199989319 0.119999997318 -0.573000013828 52.0
0.990999996662 -0.0590000003576 -0.11400000006 336.0
0.999000012875 -0.0659999996424 -0.115000002086 1117.0
1.0039999485 -0.0719999969006 -0.115999996662 1228.0
1.00300002098 -0.0769999995828 -0.115999996662 1224.0
0.996999979019 -0.082999996841 -0.115000002086 1238.0
0.994000017643 -0.0879999995232 -0.115000002086 1245.0
0.999000012875 -0.0949999988079 -0.115000002086 1258.0
0.995000004768 -0.10000000149 -0.115000002086 1247.0
0.995000004768 -0.105999998748 -0.115000002086 1259.0
0.986000001431 -0.111000001431 -0.11400000006 1273.0
0.987999975681 -0.116999998689 -0.11400000006 1295.0
0.990999996662 -0.123000003397 -0.115000002086 1293.0
0.986000001431 -0.12800000608 -0.11400000006 1301.0
0.981000006199 -0.133000001311 -0.112999998033 1301.0
0.98400002718 -0.138999998569 -0.11400000006 1325.0
0.978999972343 -0.143999993801 -0.112999998033 1315.0
0.976000010967 -0.15000000596 -0.112999998033 684.0
0.944999992847 -0.15000000596 -0.108999997377 190.0
0.945999979973 -0.156000003219 -0.109999999404 184.0
0.934000015259 -0.159999996424 -0.108000002801 179.0
0.936999976635 -0.165999993682 -0.108999997377 183.0
0.941999971867 -0.172000005841 -0.108999997377 188.0
0.944999992847 -0.179000005126 -0.109999999404 191.0
0.954999983311 -0.186000004411 -0.111000001431 186.0
