ply
format ascii 1.0
element vertex 979
property float x
property float y
property float z
property float intensity
end_header
3.91100001335 1.42900002003 1.38800001144 120.0
3.90400004387 1.39900004864 1.38300001621 119.0
3.98699998856 1.40100002289 1.40999996662 117.0
3.9240000248 1.35199999809 1.38499999046 118.0
3.97499990463 1.3409999609 1.39999997616 110.0
3.96600008011 1.31099998951 1.39499998093 120.0
3.94199991226 1.27600002289 1.38399994373 114.0
3.94400000572 1.25 1.38300001621 120.0
3.9960000515 1.23899996281 1.39900004864 105.0
3.97900009155 1.20700001717 1.38999998569 110.0
3.98699998856 1.18299996853 1.39100003242 80.0
4.29400014877 -0.528999984264 1.46399998665 70.0
4.29199981689 -0.555000007153 1.46399998665 66.0
4.21500015259 -0.570999979973 1.43900001049 71.0
4.33500003815 -0.614000022411 1.48099994659 71.0
4.36499977112 -0.644999980927 1.49300003052 68.0
4.28999996185 -0.661000013351 1.46800005436 71.0
4.32000017166 -0.691999971867 1.48000001907 68.0
4.25500011444 -0.708000004292 1.45899999142 70.0
4.29199981689 -0.740999996662 1.47300004959 70.0
4.30100011826 -0.768999993801 1.47699999809 76.0
4.31699991226 -0.799000024796 1.48500001431 73.0
4.25199985504 -0.81400001049 1.46399998665 75.0
4.38000011444 -0.865999996662 1.50999999046 76.0
4.367000103 -0.89099997282 1.50699996948 77.0
4.34299993515 -0.913999974728 1.5 73.0
4.3189997673 -0.93599998951 1.49399995804 73.0
4.30999994278 -0.962000012398 1.49199998379 78.0
4.35900020599 -1.00100004673 1.51100003719 82.0
4.35400009155 -1.02799999714 1.51199996471 79.0
4.35900020599 -1.05700004101 1.51600003242 79.0
4.34100008011 -1.08099997044 1.51100003719 77.0
4.36800003052 -1.11600005627 1.52300000191 73.0
4.41099977493 -1.15600001812 1.53999996185 80.0
4.40199995041 -1.18200004101 1.53900003433 65.0
4.37200021744 -1.20299994946 1.53100001812 67.0
4.36299991608 -1.22899997234 1.52999997139 77.0
4.45599985123 -1.28499996662 1.56599998474 74.0
4.35900020599 -1.28699994087 1.5340000391 72.0
4.40999984741 -1.33099997044 1.55499994755 71.0
4.45100021362 -1.37399995327 1.5720000267 73.0
4.45900011063 -1.40600001812 1.57700002193 78.0
4.42999982834 -1.42700004578 1.57000005245 70.0
4.51599979401 -1.48599994183 1.60300004482 75.0
4.4390001297 -1.49100005627 1.57899999619 73.0
4.4439997673 -1.55499994755 1.5870000124 75.0
4.44799995422 -1.61800003052 1.59500002861 79.0
0.0579999983311 -0.0170000009239 0.0170000009239 78.0
0.0869999974966 -0.0309999994934 0.0280000008643 75.0
0.0719999969006 -0.0250000003725 0.0230000000447 76.0
2.37599992752 -1.16400003433 0.885999977589 99.0
2.46199989319 -1.22500002384 0.921000003815 101.0
2.52999997139 -1.34200000763 0.958000004292 115.0
3.09599995613 1.6210000515 1.12999999523 103.0
3.85299992561 1.77300000191 1.37800002098 95.0
3.85899996758 1.7460000515 1.37699997425 125.0
3.87299990654 1.72300004959 1.3789999485 129.0
3.83899998665 1.67900002003 1.36300003529 125.0
3.89899992943 1.67599999905 1.38199996948 121.0
3.8710000515 1.63499999046 1.36899995804 119.0
3.86800003052 1.60500001907 1.36399996281 115.0
3.90799999237 1.59300005436 1.37600004673 114.0
3.89400005341 1.55900001526 1.36800003052 119.0
3.95199990273 1.55400002003 1.38499999046 118.0
3.92600011826 1.51499998569 1.37300002575 112.0
3.99300003052 1.51300001144 1.39400005341 121.0
3.8900001049 1.44599997997 1.35599994659 117.0
3.91599988937 1.4279999733 1.36199998856 122.0
3.9470000267 1.41199994087 1.37000000477 121.0
3.89899992943 1.36699998379 1.35099995136 117.0
3.92700004578 1.35000002384 1.35800004005 115.0
3.94600009918 1.32899999619 1.36300003529 120.0
3.99699997902 1.31900000572 1.37800002098 104.0
3.94099998474 1.27300000191 1.35699999332 120.0
3.97099995613 1.25600004196 1.36500000954 122.0
3.99900007248 1.23800003529 1.37199997902 116.0
3.99300003052 1.20899999142 1.36800003052 106.0
4.00199985504 1.18499994278 1.36899995804 88.0
4.28499984741 -0.764999985695 1.44299995899 69.0
4.33500003815 -0.828999996185 1.46300005913 76.0
4.3860001564 -0.865999996662 1.48199999332 70.0
4.36000013351 -0.888000011444 1.47500002384 74.0
4.3860001564 -0.92199999094 1.48599994183 74.0
4.39799976349 -0.952000021935 1.49199998379 73.0
4.39900016785 -0.980000019073 1.49399995804 75.0
4.32800006866 -0.991999983788 1.47099995613 76.0
4.37900018692 -1.03199994564 1.49100005627 83.0
4.38500022888 -1.06200003624 1.49500000477 74.0
4.34700012207 -1.08099997044 1.48399996758 74.0
4.37099981308 -1.11500000954 1.49399995804 69.0
4.39300012589 -1.14900004864 1.5039999485 69.0
4.39200019836 -1.1779999733 1.50600004196 73.0
4.39200019836 -1.20599997044 1.50800001621 71.0
4.42600011826 -1.24500000477 1.52199995518 75.0
4.43800020218 -1.27799999714 1.52900004387 79.0
4.40500020981 -1.29799997807 1.51999998093 78.0
4.45200014114 -1.3409999609 1.53900003433 69.0
4.42899990082 -1.36399996281 1.53299999237 69.0
4.47700023651 -1.44000005722 1.55499994755 69.0
4.53100013733 -1.48800003529 1.57700002193 76.0
4.492000103 -1.56799995899 1.5720000267 75.0
0.0299999993294 -0.00600000005215 0.00700000021607 80.0
0.0209999997169 -0.00300000002608 0.00400000018999 71.0
2.47199988365 -1.20799994469 0.903999984264 98.0
2.46600008011 -1.22500002384 0.903999984264 136.0
3.09299993515 1.61500000954 1.10599994659 110.0
3.28099989891 1.68700003624 1.16999995708 89.0
3.89899992943 1.78999996185 1.36600005627 96.0
3.83899998665 1.73300004005 1.34200000763 122.0
3.79800009727 1.68599998951 1.32400000095 132.0
3.84699988365 1.67900002003 1.33899998665 119.0
3.87800002098 1.66400003433 1.34599995613 118.0
3.91799998283 1.65199995041 1.35699999332 122.0
3.87700009346 1.60599994659 1.34000003338 121.0
3.93499994278 1.60099995136 1.35699999332 114.0
3.8789999485 1.54999995232 1.33500003815 122.0
3.94400000572 1.54799997807 1.35500001907 119.0
3.88199996948 1.49500000477 1.33099997044 119.0
3.9319999218 1.48699998856 1.34500002861 125.0
3.91700005531 1.45299994946 1.3370000124 115.0
3.91599988937 1.42499995232 1.33500003815 109.0
3.96900010109 1.41700005531 1.35000002384 117.0
4.00699996948 1.40299999714 1.36099994183 115.0
3.96399998665 1.36000001431 1.34399998188 116.0
3.98000001907 1.33800005913 1.34700000286 117.0
3.95000004768 1.30099999905 1.33399999142 111.0
3.94400000572 1.27199995518 1.33000004292 123.0
3.93600010872 1.24300003052 1.3259999752 113.0
3.97300004959 1.22800004482 1.33599996567 111.0
3.95000004768 1.19400000572 1.3259999752 112.0
4.34899997711 -0.967999994755 1.4470000267 70.0
4.25899982452 -0.975000023842 1.41900002956 74.0
4.39099979401 -1.03299999237 1.46500003338 79.0
4.35200023651 -1.05200004578 1.45399999619 80.0
4.40500020981 -1.09300005436 1.47399997711 73.0
4.40799999237 -1.12300002575 1.47699999809 76.0
4.40000009537 -1.14900004864 1.47599995136 70.0
4.44600009918 -1.19000005722 1.49399995804 74.0
4.37200021744 -1.19900000095 1.47099995613 70.0
4.39200019836 -1.23300004005 1.48000001907 69.0
4.39900016785 -1.26499998569 1.48500001431 74.0
4.5689997673 -1.34399998188 1.54499995708 65.0
4.33799982071 -1.30499994755 1.46899998188 71.0
4.4279999733 -1.36199998856 1.50199997425 71.0
4.375 -1.375 1.48699998856 70.0
4.36000013351 -1.39999997616 1.48500001431 69.0
4.47100019455 -1.4659999609 1.52499997616 72.0
4.47900009155 -1.59300005436 1.53999996185 73.0
4.47800016403 -1.62300002575 1.54299998283 69.0
4.40399980545 -1.6590000391 1.52300000191 75.0
2.44899988174 -1.19500005245 0.876999974251 100.0
2.51300001144 -1.2460000515 0.902999997139 148.0
2.47300004959 -1.30599999428 0.898999989033 112.0
2.45900011063 -1.31900000572 0.896000027657 90.0
1.17599999905 -0.688000023365 0.435000002384 88.0
3.08599996567 1.63300001621 1.08399999142 101.0
3.12800002098 1.62999999523 1.09500002861 103.0
3.1740000248 1.6289999485 1.10899996758 83.0
3.54299998283 1.76199996471 1.23099994659 101.0
3.53600001335 1.73000001907 1.22599995136 105.0
3.62400007248 1.74500000477 1.25300002098 90.0
3.80200004578 1.77199995518 1.30799996853 89.0
3.81900000572 1.75 1.31099998951 113.0
3.8789999485 1.74800002575 1.32799994946 121.0
3.85899996758 1.71000003815 1.31799995899 129.0
3.88700008392 1.69299995899 1.32500004768 123.0
3.89299988747 1.66700005531 1.32400000095 122.0
3.86999988556 1.62800002098 1.31299996376 119.0
3.93300008774 1.62600004673 1.33200001717 113.0
3.91899991035 1.5909999609 1.32400000095 114.0
3.88800001144 1.55099999905 1.31099998951 122.0
3.91199994087 1.53199994564 1.31599998474 127.0
3.85599994659 1.48300004005 1.29499995708 116.0
3.97300004959 1.49899995327 1.33099997044 120.0
3.93099999428 1.45599997044 1.31500005722 120.0
3.94000005722 1.43099999428 1.31500005722 118.0
3.90100002289 1.38999998569 1.29999995232 115.0
3.96799993515 1.38600003719 1.32000005245 120.0
3.92499995232 1.34399998188 1.30400002003 116.0
3.9319999218 1.31900000572 1.3029999733 121.0
3.97000002861 1.30499994755 1.31400001049 116.0
3.92499995232 1.26300001144 1.29700005054 115.0
3.89100003242 1.22599995136 1.2840000391 114.0
3.89800000191 1.20200002193 1.2840000391 118.0
3.9279999733 1.18499994278 1.29200005531 106.0
4.40799999237 -1.00699996948 1.43900001049 63.0
4.29899978638 -1.00999999046 1.40499997139 79.0
4.3639998436 -1.0529999733 1.42900002003 77.0
4.39200019836 -1.08800005913 1.44000005722 72.0
4.33699989319 -1.10300004482 1.4240000248 69.0
4.44199991226 -1.15799999237 1.46000003815 70.0
4.46899986267 -1.19400000572 1.47200000286 67.0
4.37599992752 -1.19799995422 1.44299995899 69.0
4.43800020218 -1.24399995804 1.4659999609 72.0
4.37300014496 -1.25499999523 1.4470000267 70.0
4.40700006485 -1.29400002956 1.46000003815 72.0
4.39699983597 -1.32000005245 1.45899999142 66.0
4.4359998703 -1.36199998856 1.47500002384 67.0
4.40600013733 -1.38199996948 1.46700000763 73.0
4.47599983215 -1.43499994278 1.49300003052 72.0
4.50099992752 -1.47300004959 1.5039999485 71.0
4.34600019455 -1.45200002193 1.45500004292 74.0
4.46600008011 -1.52300000191 1.49800002575 78.0
4.48600006104 -1.59200000763 1.51100003719 69.0
0.0469999983907 -0.0120000001043 0.0120000001043 72.0
4.42600011826 -1.66400003433 1.5 74.0
2.54399991035 -1.23899996281 0.893000006676 102.0
2.53299999237 -1.2539999485 0.89200001955 150.0
2.41700005531 -1.29400002956 0.862999975681 85.0
1.11000001431 -0.629000008106 0.40000000596 87.0
1.2159999609 -0.699000000954 0.439999997616 87.0
3.10100007057 1.63800001144 1.06599998474 116.0
3.13899993896 1.63300001621 1.0759999752 103.0
3.5529999733 1.76300001144 1.20899999142 124.0
3.54200005531 1.73000001907 1.20200002193 122.0
3.58599996567 1.72300004959 1.21399998665 90.0
3.71799993515 1.75800001621 1.25600004196 79.0
3.78500008583 1.75999999046 1.27499997616 82.0
3.90799999237 1.78699994087 1.31299996376 115.0
3.86199998856 1.73699998856 1.29499995708 124.0
3.86899995804 1.71099996567 1.29400002956 126.0
3.82699990273 1.66400003433 1.27699995041 116.0
3.80500006676 1.62600004673 1.26699995995 113.0
3.82800006866 1.60800004005 1.27199995518 115.0
3.89199995995 1.60599994659 1.29100000858 113.0
3.8710000515 1.56900000572 1.28100001812 118.0
3.92899990082 1.56400001049 1.29700005054 128.0
3.91400003433 1.52999997139 1.28999996185 121.0
3.89800000191 1.4960000515 1.28199994564 123.0
3.95399999619 1.48899996281 1.29799997807 117.0
3.86800003052 1.42999994755 1.26699995995 114.0
3.95700001717 1.43499994278 1.29400002956 119.0
3.92600011826 1.39600002766 1.28100001812 114.0
3.96799993515 1.38300001621 1.29299998283 120.0
4.01000022888 1.3710000515 1.30400002003 120.0
3.99499988556 1.33800005913 1.29700005054 117.0
3.9849998951 1.30700004101 1.29200005531 118.0
3.9509999752 1.26900005341 1.27799999714 116.0
3.94400000572 1.24000000954 1.27400004864 116.0
3.92000007629 1.20700001717 1.26400005817 116.0
3.96900010109 1.19500005245 1.27799999714 101.0
4.40100002289 -1.0039999485 1.40799999237 72.0
4.39699983597 -1.03100001812 1.40799999237 79.0
4.31300020218 -1.03900003433 1.38300001621 76.0
4.36299991608 -1.07899999619 1.40100002289 72.0
4.38999986649 -1.11399996281 1.41199994087 76.0
4.38700008392 -1.14199995995 1.4129999876 68.0
4.36899995804 -1.16600000858 1.4090000391 74.0
4.41499996185 -1.20700001717 1.42599999905 74.0
4.36100006104 -1.22099995613 1.41100001335 70.0
4.42100000381 -1.26699995995 1.43200004101 70.0
4.39599990845 -1.28900003433 1.42700004578 74.0
4.41300010681 -1.32299995422 1.43499994278 74.0
4.46000003815 -1.36699998379 1.45200002193 69.0
4.33199977875 -1.35699999332 1.4129999876 81.0
4.39300012589 -1.40600001812 1.43599998951 66.0
4.40199995041 -1.43799996376 1.44099998474 70.0
4.39599990845 -1.49699997902 1.44500005245 67.0
2.57100009918 -1.25 0.884000003338 94.0
2.49699997902 -1.23399996758 0.861000001431 137.0
2.49799990654 -1.2539999485 0.864000022411 123.0
1.09200000763 -0.616999983788 0.384999990463 89.0
3.11599993706 1.64300000668 1.0490000248 102.0
3.16599988937 1.64300000668 1.06200003624 95.0
3.61100006104 1.7879999876 1.20299994946 118.0
3.625 1.76699995995 1.20399999619 109.0
3.56200003624 1.70799994469 1.17999994755 79.0
3.85800004005 1.79100000858 1.27199995518 83.0
3.84599995613 1.75600004196 1.26499998569 114.0
3.82299995422 1.71700000763 1.25499999523 124.0
3.86999988556 1.70799994469 1.26699995995 114.0
3.85500001907 1.67299997807 1.25999999046 125.0
3.91100001335 1.66799998283 1.27499997616 125.0
3.83800005913 1.60899996758 1.24800002575 111.0
3.85500001907 1.58800005913 1.25100004673 120.0
3.86999988556 1.56599998474 1.25300002098 116.0
3.95700001717 1.5720000267 1.27900004387 118.0
3.91000008583 1.52499997616 1.26100003719 123.0
3.9509999752 1.51400005817 1.27199995518 116.0
3.87800002098 1.45799994469 1.2460000515 117.0
3.93000006676 1.45000004768 1.25999999046 123.0
3.90100002289 1.41199994087 1.24899995327 115.0
3.94899988174 1.40199995041 1.26199996471 121.0
3.8789999485 1.35000002384 1.23699998856 115.0
3.90599989891 1.33200001717 1.24399995804 114.0
3.9960000515 1.33599996567 1.26999998093 115.0
3.98600006104 1.30499994755 1.26499998569 116.0
3.99699997902 1.28199994564 1.26600003242 122.0
3.90400004387 1.22599995136 1.23500001431 109.0
3.97600007057 1.22200000286 1.25600004196 114.0
4.01700019836 1.20700001717 1.26699995995 106.0
4.36600017548 -1.02199995518 1.36899995804 75.0
4.38800001144 -1.05599999428 1.37800002098 73.0
4.32899999619 -1.06900000572 1.36099994183 74.0
4.36199998856 -1.10599994659 1.37399995327 74.0
4.44799995422 -1.15600001812 1.40299999714 71.0
4.43200016022 -1.18099999428 1.39999997616 68.0
4.40899991989 -1.23199999332 1.39699995518 67.0
4.42999982834 -1.26699995995 1.40600001812 69.0
4.38100004196 -1.28199994564 1.39199995995 65.0
4.39400005341 -1.31500005722 1.39900004864 72.0
4.41699981689 -1.35199999809 1.4090000391 70.0
4.40100002289 -1.37600004673 1.40600001812 70.0
4.41599988937 -1.41100001335 1.4129999876 67.0
4.41599988937 -1.44099998474 1.41600000858 66.0
2.39199995995 -1.0870000124 0.796000003815 90.0
2.52200007439 -1.24399995804 0.851000010967 91.0
2.4279999733 -1.2159999609 0.822000026703 96.0
1.16600000858 -0.638000011444 0.40000000596 87.0
1.12300002575 -0.624000012875 0.386000007391 90.0
3.05100011826 1.60500001907 1.0039999485 103.0
3.17700004578 1.64600002766 1.04299998283 89.0
3.55100011826 1.78299999237 1.15999996662 115.0
3.48300004005 1.72200000286 1.13499999046 125.0
3.56900000572 1.73599994183 1.15999996662 109.0
3.89700007439 1.83500003815 1.26100003719 77.0
3.90499997139 1.80900001526 1.25999999046 95.0
3.81999993324 1.74100005627 1.23000001907 127.0
3.81399989128 1.70899999142 1.22500002384 123.0
3.82299995422 1.68400001526 1.22500002384 122.0
3.875 1.67900002003 1.23899996281 120.0
3.86599993706 1.64600002766 1.23300004005 122.0
3.9319999218 1.64499998093 1.25199997425 128.0
3.89199995995 1.60000002384 1.23599994183 117.0
3.91000008583 1.57899999619 1.23899996281 115.0
3.91700005531 1.55400002003 1.23899996281 128.0
3.95900011063 1.54200005531 1.25 117.0
3.94000005722 1.50600004196 1.24100005627 116.0
3.90499997139 1.46500003338 1.22800004482 123.0
3.98600006104 1.46800005436 1.25100004673 122.0
3.95199990273 1.4279999733 1.23800003529 122.0
3.96300005913 1.40400004387 1.23899996281 111.0
3.94099998474 1.36899995804 1.23000001907 116.0
3.96099996567 1.34899997711 1.23399996758 118.0
3.90400004387 1.3029999733 1.21399998665 117.0
3.98900008202 1.30400002003 1.23899996281 120.0
3.94400000572 1.26300001144 1.22300004959 114.0
3.84500002861 1.20500004292 1.19000005722 115.0
3.92700004578 1.20399999619 1.21399998665 116.0
3.94899988174 1.18499994278 1.21899998188 100.0
4.24300003052 -0.938000023365 1.2990000248 62.0
4.42600011826 -1.00699996948 1.35699999332 73.0
4.382999897 -1.02499997616 1.34500002861 80.0
4.36100006104 -1.04700005054 1.34000003338 82.0
4.41200017929 -1.08800005913 1.35800004005 71.0
4.37400007248 -1.10699999332 1.34800004959 72.0
4.42000007629 -1.14699995518 1.36399996281 73.0
4.38700008392 -1.16700005531 1.35599994659 68.0
4.38999986649 -1.1970000267 1.35899996758 72.0
4.46299982071 -1.2460000515 1.38399994373 71.0
4.3109998703 -1.23099994659 1.33899998665 70.0
4.46999979019 -1.30599999428 1.39100003242 78.0
4.37400007248 -1.30700004101 1.36300003529 65.0
1.02799999714 -0.418000012636 0.32800000906 90.0
1.00800001621 -0.416999995708 0.323000013828 120.0
1.00499999523 -0.423000007868 0.321999996901 145.0
0.929000020027 -0.398000001907 0.298999994993 117.0
0.879999995232 -0.409000009298 0.286000013351 93.0
1.18700003624 -0.629000008106 0.395999997854 86.0
1.18599998951 -0.638000011444 0.397000014782 97.0
1.23199999332 -0.672999978065 0.41400000453 84.0
1.15199995041 -0.648999989033 0.388999998569 86.0
1.17100000381 -0.669000029564 0.397000014782 90.0
3.12199997902 1.63999998569 1.00499999523 110.0
3.18600010872 1.64800000191 1.02400004864 86.0
3.53600001335 1.80099999905 1.13300001621 92.0
3.50200009346 1.75499999523 1.11899995804 122.0
3.52500009537 1.73899996281 1.12399995327 121.0
3.625 1.75999999046 1.15199995041 94.0
3.78099989891 1.77699995041 1.19599997997 78.0
3.83400011063 1.77300000191 1.21000003815 96.0
3.84800004959 1.75 1.2120000124 128.0
3.88899993896 1.73899996281 1.22200000286 121.0
3.86899995804 1.70200002193 1.21300005913 120.0
3.91499996185 1.69299995899 1.22399997711 121.0
3.89899992943 1.65699994564 1.21700000763 121.0
3.8710000515 1.61699998379 1.20500004292 120.0
3.93700003624 1.61500000954 1.22300004959 120.0
3.93499994278 1.58599996567 1.22000002861 116.0
3.89599990845 1.54299998283 1.20500004292 111.0
3.87700009346 1.50699996948 1.1970000267 121.0
3.91799998283 1.49500000477 1.20700001717 125.0
3.9470000267 1.47899997234 1.21399998665 124.0
3.92499995232 1.44299995899 1.20500004292 118.0
3.88599991798 1.40199995041 1.19099998474 123.0
3.94899988174 1.39699995518 1.20799994469 125.0
3.97000002861 1.37699997425 1.2120000124 120.0
3.98300004005 1.35399997234 1.21399998665 114.0
3.99000000954 1.32899999619 1.21399998665 116.0
3.95300006866 1.28999996185 1.2009999752 126.0
3.992000103 1.27600002289 1.21099996567 114.0
3.98300004005 1.2460000515 1.20599997044 109.0
4.0 1.22500002384 1.21000003815 114.0
3.91199994087 1.17200005054 1.18099999428 99.0
4.42399978638 -1.00499999523 1.32700002193 63.0
4.36999988556 -1.01999998093 1.31299996376 69.0
4.35799980164 -1.04499995708 1.31099998951 75.0
4.39900016785 -1.08299994469 1.32500004768 74.0
4.367000103 -1.10399997234 1.31700003147 66.0
4.34999990463 -1.12699997425 1.31400001049 72.0
4.47200012207 -1.18799996376 1.35300004482 75.0
4.375 -1.19099998474 1.32500004768 66.0
4.31199979782 -1.2009999752 1.30799996853 70.0
4.37699985504 -1.24800002575 1.33000004292 68.0
4.44899988174 -1.32799994946 1.35599994659 64.0
0.848999977112 -0.289999991655 0.259999990463 74.0
1.00100004673 -0.349000006914 0.307000011206 89.0
0.981999993324 -0.349000006914 0.301999986172 83.0
0.953999996185 -0.345999985933 0.293999999762 89.0
0.976000010967 -0.361000001431 0.300999999046 97.0
0.949000000954 -0.358000010252 0.293999999762 99.0
0.955999970436 -0.36700001359 0.296000003815 99.0
0.954999983311 -0.372999995947 0.29699999094 104.0
0.981000006199 -0.391000002623 0.305000007153 123.0
0.944000005722 -0.381999999285 0.294999986887 138.0
0.981999993324 -0.405000001192 0.307000011206 286.0
0.964999973774 -0.405000001192 0.303000003099 449.0
0.964999973774 -0.412000000477 0.303000003099 250.0
0.948000013828 -0.412000000477 0.298999994993 154.0
0.949999988079 -0.419999986887 0.300000011921 166.0
0.936999976635 -0.421000003815 0.29699999094 185.0
0.972000002861 -0.444999992847 0.308999985456 176.0
0.948000013828 -0.439999997616 0.301999986172 164.0
0.917999982834 -0.432999998331 0.293000012636 141.0
0.907000005245 -0.435000002384 0.289999991655 109.0
0.95300000906 -0.465000003576 0.305999994278 124.0
1.00600004196 -0.499000012875 0.324000000954 120.0
1.00199997425 -0.513000011444 0.324999988079 87.0
1.0720000267 -0.558000028133 0.349000006914 94.0
1.20599997044 -0.638000011444 0.393999993801 90.0
1.11800003052 -0.600000023842 0.365999996662 82.0
1.13800001144 -0.620000004768 0.374000012875 86.0
1.15499997139 -0.649999976158 0.381999999285 86.0
1.1779999733 -0.67199999094 0.391000002623 85.0
1.21500003338 -0.703999996185 0.405000001192 95.0
3.10899996758 1.62999999523 0.978999972343 107.0
3.50099992752 1.77900004387 1.09700000286 101.0
3.5150001049 1.75899994373 1.09800004959 126.0
3.55999994278 1.75300002098 1.11000001431 120.0
3.61500000954 1.75199997425 1.12399995327 91.0
3.98699998856 1.8710000515 1.23399996758 82.0
3.85800004005 1.78100001812 1.19099998474 102.0
3.91000008583 1.77499997616 1.20399999619 121.0
3.86899995804 1.72699999809 1.18799996376 120.0
3.89899992943 1.7120000124 1.19500005245 122.0
3.94899988174 1.70399999619 1.20700001717 128.0
3.8710000515 1.64199995995 1.18099999428 118.0
3.93300008774 1.63999998569 1.1970000267 128.0
3.91300010681 1.60300004482 1.18900001049 117.0
3.882999897 1.56299996376 1.17700004578 124.0
3.93300008774 1.55400002003 1.19000005722 119.0
3.88400006294 1.50699996948 1.17299997807 119.0
3.93000006676 1.49699997902 1.18400001526 111.0
3.88899993896 1.45399999619 1.16999995708 122.0
3.8710000515 1.42100000381 1.16199994087 115.0
3.94199991226 1.41900002956 1.18099999428 117.0
3.96300005913 1.39900004864 1.18599998951 115.0
3.93000006676 1.36099994183 1.1740000248 119.0
3.99000000954 1.35399997234 1.18900001049 115.0
3.90199995041 1.29700005054 1.16100001335 107.0
3.99099993706 1.29999995232 1.18599998951 123.0
3.96900010109 1.26600003242 1.1779999733 113.0
3.95199990273 1.23399996758 1.16999995708 114.0
3.97600007057 1.21500003338 1.17599999905 118.0
3.93400001526 1.17599999905 1.16199994087 92.0
4.5560002327 -1.1210000515 1.34300005436 61.0
4.10599994659 -1.03600001335 1.21099996567 61.0
1.04799997807 -0.344000011683 0.312999993563 81.0
0.990999996662 -0.331999987364 0.296000003815 97.0
1.00699996948 -0.344000011683 0.301999986172 115.0
1.01900005341 -0.354999989271 0.305999994278 109.0
0.989000022411 -0.351000010967 0.29699999094 122.0
0.987999975681 -0.358000010252 0.298000007868 118.0
1.01100003719 -0.374000012875 0.305000007153 121.0
0.978999972343 -0.368999987841 0.296000003815 132.0
1.00300002098 -0.384999990463 0.303999990225 127.0
0.980000019073 -0.38299998641 0.298000007868 124.0
0.972000002861 -0.386000007391 0.296000003815 127.0
0.971000015736 -0.393000006676 0.296000003815 171.0
0.964999973774 -0.398000001907 0.294999986887 364.0
0.958999991417 -0.402000010014 0.293999999762 1036.0
0.962999999523 -0.411000013351 0.296000003815 484.0
0.950999975204 -0.412999987602 0.293000012636 187.0
0.95300000906 -0.421000003815 0.293999999762 132.0
0.955999970436 -0.428999990225 0.296000003815 138.0
0.926999986172 -0.423000007868 0.287999987602 149.0
0.941999971867 -0.437000006437 0.293000012636 170.0
0.939999997616 -0.442999988794 0.293999999762 159.0
0.939999997616 -0.449999988079 0.293999999762 130.0
0.948000013828 -0.462000012398 0.298000007868 136.0
0.944999992847 -0.467999994755 0.298000007868 147.0
0.941999971867 -0.474000006914 0.298000007868 159.0
0.939999997616 -0.479999989271 0.298000007868 143.0
0.953999996185 -0.495000004768 0.303000003099 128.0
0.978999972343 -0.51599997282 0.312000006437 103.0
1.19599997997 -0.681999981403 0.388000011444 89.0
1.15999996662 -0.671000003815 0.377000004053 142.0
3.117000103 1.63199996948 0.958999991417 108.0
3.46900010109 1.75999999046 1.06200003624 105.0
3.46600008011 1.73099994659 1.05799996853 136.0
3.53699994087 1.73899996281 1.07700002193 112.0
3.68700003624 1.7840000391 1.12000000477 93.0
3.81500005722 1.75800001621 1.15100002289 109.0
3.91599988937 1.77499997616 1.1779999733 132.0
3.88599991798 1.73199999332 1.16700005531 121.0
3.90000009537 1.70899999142 1.16799998283 126.0
3.8900001049 1.67599999905 1.1629999876 118.0
3.90300011635 1.65299999714 1.16400003433 118.0
3.84200000763 1.59899997711 1.14300000668 119.0
3.9279999733 1.60599994659 1.16600000858 123.0
3.9279999733 1.57799994946 1.16400003433 120.0
3.88800001144 1.5340000391 1.14999997616 121.0
3.88400006294 1.50499999523 1.14600002766 118.0
3.89899992943 1.48300004005 1.14900004864 117.0
3.89400005341 1.45399999619 1.14499998093 119.0
3.86800003052 1.41700005531 1.13499999046 123.0
3.95499992371 1.42100000381 1.15799999237 114.0
3.95000004768 1.39199995995 1.15499997139 116.0
3.92899990082 1.35800004005 1.14699995518 115.0
4.00400018692 1.35699999332 1.16700005531 120.0
3.9279999733 1.30400002003 1.14300000668 117.0
3.96700000763 1.28999996185 1.15199995041 121.0
3.95499992371 1.25999999046 1.14699995518 114.0
3.98699998856 1.24300003052 1.15400004387 110.0
3.91799998283 1.19500005245 1.13300001621 113.0
3.94799995422 1.17900002003 1.13999998569 87.0
1.03299999237 -0.331999987364 0.300999999046 81.0
1.00300002098 -0.328999996185 0.293000012636 104.0
1.0340000391 -0.345999985933 0.301999986172 125.0
1.02100002766 -0.347999989986 0.298999994993 136.0
1.0340000391 -0.360000014305 0.303000003099 124.0
1.00100004673 -0.354999989271 0.294999986887 150.0
0.998000025749 -0.361000001431 0.293999999762 155.0
0.97000002861 -0.358000010252 0.286000013351 158.0
1.01499998569 -0.381000012159 0.300000011921 153.0
0.995000004768 -0.381000012159 0.294999986887 146.0
0.978999972343 -0.381999999285 0.291000008583 135.0
0.952000021935 -0.377999991179 0.282999992371 138.0
0.978999972343 -0.395999997854 0.291999995708 160.0
0.966000020504 -0.397000014782 0.28900000453 295.0
0.959999978542 -0.402000010014 0.287999987602 572.0
0.962999999523 -0.409999996424 0.28900000453 456.0
0.966000020504 -0.418999999762 0.291000008583 225.0
0.954999983311 -0.421000003815 0.28900000453 145.0
0.927999973297 -0.416000008583 0.280999988317 139.0
0.940999984741 -0.428999990225 0.286000013351 128.0
0.953999996185 -0.442000001669 0.289999991655 128.0
0.930000007153 -0.437999993563 0.284000009298 127.0
0.953999996185 -0.456000000238 0.291999995708 113.0
0.925999999046 -0.449999988079 0.284000009298 102.0
0.98299998045 -0.486000001431 0.303000003099 105.0
0.962000012398 -0.483000010252 0.29699999094 112.0
0.962999999523 -0.490999996662 0.298000007868 128.0
0.936999976635 -0.485000014305 0.291000008583 161.0
0.953999996185 -0.501999974251 0.29699999094 155.0
0.976000010967 -0.522000014782 0.305000007153 102.0
1.1590000391 -0.638999998569 0.365000009537 85.0
1.23300004005 -0.690999984741 0.389999985695 92.0
1.23399996758 -0.702000021935 0.391999989748 137.0
1.27499997616 -0.736999988556 0.405999988317 264.0
3.01399993896 1.59899997711 0.908999979496 102.0
3.16100001335 1.65100002289 0.949999988079 102.0
3.31299996376 1.70399999619 0.994000017643 83.0
3.49900007248 1.77199995518 1.04700005054 118.0
3.50600004196 1.74800002575 1.04600000381 125.0
3.51200008392 1.72399997711 1.04499995708 117.0
3.58299994469 1.73099994659 1.06400001049 86.0
3.92899990082 1.86699998379 1.16400003433 80.0
3.91400003433 1.83000004292 1.15600001812 80.0
3.83599996567 1.76499998569 1.13100004196 114.0
3.84400010109 1.73899996281 1.12999999523 124.0
3.84400010109 1.71099996567 1.12800002098 124.0
3.85299992561 1.68599998951 1.12800002098 120.0
3.85100007057 1.65600001812 1.125 123.0
3.84999990463 1.62800002098 1.12199997902 122.0
3.89800000191 1.62000000477 1.13300001621 123.0
3.92000007629 1.60000002384 1.13699996471 114.0
3.90100002289 1.56500005722 1.12999999523 121.0
3.88700008392 1.53100001812 1.12300002575 119.0
3.90300011635 1.50999999046 1.12600004673 125.0
3.96199989319 1.5039999485 1.13999998569 115.0
3.98200011253 1.48399996758 1.14400005341 125.0
3.91700005531 1.43299996853 1.12300002575 114.0
3.89800000191 1.39900004864 1.11600005627 121.0
3.91899991035 1.3789999485 1.12000000477 115.0
3.93000006676 1.35599994659 1.1210000515 115.0
3.95700001717 1.33800005913 1.12699997425 121.0
3.9509999752 1.30999994278 1.12300002575 114.0
3.95900011063 1.28499996662 1.12399995327 116.0
3.92199993134 1.24699997902 1.11099994183 121.0
3.93799996376 1.22599995136 1.11399996281 105.0
3.94899988174 1.20299994946 1.11500000954 108.0
3.9470000267 1.17599999905 1.11300003529 86.0
1.01400005817 -0.108999997377 0.277000010014 63.0
1.05999994278 -0.151999995112 0.291000008583 68.0
1.03199994564 -0.153999999166 0.282999992371 76.0
1.05599999428 -0.16400000453 0.289999991655 69.0
1.03100001812 -0.172999992967 0.284000009298 71.0
0.967999994755 -0.186000004411 0.268000006676 58.0
0.980000019073 -0.20000000298 0.270999997854 61.0
1.02199995518 -0.31400001049 0.289999991655 82.0
0.998000025749 -0.312999993563 0.284000009298 90.0
1.02999997139 -0.330000013113 0.293000012636 92.0
1.00699996948 -0.330000013113 0.287000000477 90.0
1.02199995518 -0.340999990702 0.291999995708 108.0
1.03600001335 -0.352999985218 0.29699999094 119.0
1.0 -0.347000002861 0.287000000477 124.0
0.987999975681 -0.34999999404 0.284000009298 145.0
1.01100003719 -0.365000009537 0.291000008583 149.0
1.01199996471 -0.372999995947 0.291999995708 151.0
0.981000006199 -0.368000000715 0.284000009298 176.0
0.995000004768 -0.379999995232 0.287999987602 173.0
1.00899994373 -0.393000006676 0.293000012636 155.0
0.972000002861 -0.384999990463 0.282999992371 155.0
0.97000002861 -0.391000002623 0.282999992371 183.0
0.981000006199 -0.402999997139 0.287000000477 298.0
0.966000020504 -0.404000014067 0.282999992371 680.0
0.967000007629 -0.411000013351 0.284000009298 502.0
0.952000021935 -0.412000000477 0.280000001192 269.0
0.957000017166 -0.421000003815 0.282000005245 166.0
0.954999983311 -0.426999986172 0.282999992371 153.0
0.980000019073 -0.446000009775 0.291000008583 150.0
0.949000000954 -0.43900001049 0.282000005245 146.0
0.96899998188 -0.456000000238 0.28900000453 131.0
0.961000025272 -0.458999991417 0.287000000477 131.0
0.964999973774 -0.469000011683 0.289999991655 130.0
0.919000029564 -0.45300000906 0.275999993086 108.0
0.973999977112 -0.488000005484 0.293999999762 99.0
0.972999989986 -0.495999991894 0.294999986887 94.0
0.941999971867 -0.486999988556 0.286000013351 107.0
0.939999997616 -0.493999987841 0.286000013351 123.0
0.994000017643 -0.53100001812 0.303999990225 110.0
0.867999970913 -0.469999998808 0.264999985695 84.0
1.26199996471 -0.695999979973 0.388999998569 84.0
1.25300002098 -0.700999975204 0.386999994516 131.0
1.23599994183 -0.702000021935 0.38299998641 275.0
1.25600004196 -0.723999977112 0.391000002623 428.0
3.06699991226 1.62399995327 0.902999997139 114.0
3.22399997711 1.68099999428 0.947000026703 103.0
3.48300004005 1.76100003719 1.01800000668 114.0
3.47300004959 1.72899997234 1.01199996471 117.0
3.58200001717 1.75499999523 1.04100000858 116.0
3.75 1.80799996853 1.0870000124 81.0
3.77099990845 1.75999999046 1.08800005913 85.0
3.82699990273 1.75699996948 1.10099995136 128.0
3.8710000515 1.74899995327 1.11199998856 122.0
3.85400009155 1.7120000124 1.10399997234 132.0
3.89199995995 1.70000004768 1.11199998856 129.0
3.85100007057 1.65400004387 1.09800004959 118.0
3.95499992371 1.66900002956 1.125 121.0
3.91400003433 1.62300002575 1.11099994183 120.0
3.89400005341 1.5870000124 1.10300004482 121.0
3.89400005341 1.55900001526 1.10099995136 122.0
3.90400004387 1.53499996662 1.10199999809 127.0
3.92000007629 1.51400005817 1.10399997234 117.0
3.92899990082 1.49000000954 1.10500001907 126.0
3.93000006676 1.4620000124 1.10300004482 115.0
3.9470000267 1.44099998474 1.10500001907 113.0
3.882999897 1.39100003242 1.08500003815 122.0
3.96700000763 1.39400005341 1.10699999332 117.0
3.97499990463 1.36899995804 1.10699999332 116.0
3.97699999809 1.34300005436 1.10599994659 121.0
3.99499988556 1.3220000267 1.10899996758 117.0
3.97099995613 1.28699994087 1.10099995136 112.0
3.96700000763 1.25999999046 1.09800004959 114.0
3.94099998474 1.22500002384 1.08899998665 114.0
3.93899989128 1.19799995422 1.0870000124 111.0
3.99000000954 1.18700003624 1.09899997711 89.0
0.957000017166 -0.101999998093 0.254999995232 88.0
1.0039999485 -0.112999998033 0.268000006676 150.0
1.01900005341 -0.120999999344 0.272000014782 190.0
0.990999996662 -0.123999997973 0.264999985695 115.0
1.01900005341 -0.133000001311 0.273000001907 100.0
0.98299998045 -0.135000005364 0.263000011444 98.0
0.976999998093 -0.140000000596 0.261999994516 97.0
0.976999998093 -0.145999997854 0.261999994516 103.0
1.00600004196 -0.156000003219 0.270000010729 96.0
1.00800001621 -0.162000000477 0.270999997854 97.0
0.998000025749 -0.166999995708 0.268000006676 97.0
0.981999993324 -0.170000001788 0.263999998569 102.0
0.990000009537 -0.178000003099 0.266999989748 94.0
0.985000014305 -0.182999998331 0.266000002623 103.0
1.00600004196 -0.193000003695 0.272000014782 100.0
1.0 -0.197999998927 0.270000010729 102.0
0.973999977112 -0.199000000954 0.263000011444 99.0
0.962000012398 -0.202000007033 0.261000007391 99.0
0.990000009537 -0.21400000155 0.268999993801 103.0
0.973999977112 -0.216999992728 0.263999998569 104.0
0.96899998188 -0.222000002861 0.263000011444 92.0
0.958000004292 -0.22499999404 0.261000007391 95.0
0.910000026226 -0.219999998808 0.247999995947 92.0
0.985000014305 -0.245000004768 0.268999993801 92.0
0.941999971867 -0.239999994636 0.25799998641 87.0
0.930999994278 -0.243000000715 0.254999995232 91.0
0.995000004768 -0.266000002623 0.273000001907 86.0
0.935000002384 -0.256000012159 0.256999999285 82.0
0.912999987602 -0.256000012159 0.250999987125 83.0
0.884000003338 -0.252999991179 0.243000000715 93.0
0.967999994755 -0.284000009298 0.266999989748 83.0
0.98299998045 -0.294999986887 0.272000014782 80.0
0.994000017643 -0.305000007153 0.27500000596 88.0
0.957000017166 -0.300000011921 0.264999985695 97.0
0.950999975204 -0.303999990225 0.263999998569 88.0
0.976999998093 -0.319000005722 0.272000014782 84.0
1.02199995518 -0.340999990702 0.284999996424 93.0
0.996999979019 -0.338999986649 0.279000014067 102.0
0.978999972343 -0.340000003576 0.273999989033 103.0
0.981999993324 -0.347999989986 0.275999993086 119.0
0.990000009537 -0.356999993324 0.279000014067 123.0
0.978999972343 -0.360000014305 0.275999993086 135.0
0.986000001431 -0.368999987841 0.277999997139 153.0
0.977999985218 -0.372999995947 0.277000010014 157.0
0.976999998093 -0.379999995232 0.277000010014 135.0
0.972000002861 -0.384999990463 0.275999993086 144.0
0.962999999523 -0.388000011444 0.273999989033 153.0
0.972999989986 -0.398999989033 0.277999997139 256.0
0.967999994755 -0.404000014067 0.277000010014 676.0
0.962999999523 -0.409000009298 0.275999993086 540.0
0.962000012398 -0.416000008583 0.277000010014 274.0
0.96899998188 -0.425999999046 0.280000001192 168.0
0.949999988079 -0.423999994993 0.273999989033 153.0
0.950999975204 -0.432000011206 0.275999993086 156.0
0.975000023842 -0.449999988079 0.282999992371 152.0
0.952000021935 -0.446999996901 0.277000010014 149.0
0.981000006199 -0.467999994755 0.287000000477 138.0
0.949000000954 -0.460000008345 0.277999997139 141.0
0.976000010967 -0.481000006199 0.287000000477 124.0
0.948000013828 -0.474000006914 0.279000014067 121.0
0.947000026703 -0.488999992609 0.280999988317 95.0
0.981999993324 -0.514999985695 0.291999995708 103.0
0.944000005722 -0.503000020981 0.280999988317 94.0
0.98299998045 -0.532000005245 0.293999999762 87.0
1.22599995136 -0.685000002384 0.370000004768 227.0
1.25199997425 -0.709999978542 0.379000008106 418.0
1.23899996281 -0.712999999523 0.375999987125 526.0
3.10199999809 1.63999998569 0.89099997282 112.0
3.3259999752 1.70500004292 0.950999975204 92.0
3.50500011444 1.76900005341 0.999000012875 118.0
3.55999994278 1.76900005341 1.01199996471 122.0
3.55500006676 1.73899996281 1.00800001621 106.0
3.88400006294 1.84000003338 1.09599995613 76.0
3.8599998951 1.7990000248 1.0870000124 77.0
3.83999991417 1.76100003719 1.07899999619 116.0
3.83599996567 1.73000001907 1.07500004768 124.0
3.85299992561 1.70899999142 1.07700002193 122.0
3.86599993706 1.68599998951 1.07899999619 117.0
3.84699988365 1.64900004864 1.07099997997 123.0
3.89599990845 1.64199995995 1.08200001717 120.0
3.89100003242 1.61099994183 1.07899999619 126.0
3.90400004387 1.58899998665 1.08000004292 118.0
3.94600009918 1.57700002193 1.08899998665 118.0
3.9470000267 1.54999995232 1.0870000124 121.0
3.9319999218 1.51600003242 1.08099997044 119.0
3.85100007057 1.45799994469 1.05700004101 117.0
3.94199991226 1.46500003338 1.08000004292 120.0
3.94400000572 1.43799996376 1.07799994946 120.0
3.95300006866 1.41400003433 1.07899999619 114.0
3.93700003624 1.38100004196 1.0720000267 118.0
3.9849998951 1.3710000515 1.08399999142 115.0
3.93499994278 1.32700002193 1.06799995899 116.0
3.93899989128 1.30099999905 1.06799995899 119.0
3.99000000954 1.29200005531 1.08000004292 116.0
3.9319999218 1.2460000515 1.06200003624 115.0
3.9319999218 1.22000002861 1.06099998951 111.0
3.93400001526 1.19500005245 1.05999994278 109.0
1.02900004387 -0.109999999404 0.268000006676 96.0
1.00899994373 -0.11400000006 0.263000011444 257.0
1.00199997425 -0.119000002742 0.261000007391 340.0
1.01199996471 -0.126000002027 0.263999998569 165.0
0.977999985218 -0.12800000608 0.256000012159 104.0
0.976999998093 -0.134000003338 0.254999995232 102.0
1.02999997139 -0.146999999881 0.270000010729 100.0
1.00999999046 -0.15000000596 0.264999985695 103.0
0.990999996662 -0.152999997139 0.259999990463 100.0
0.999000012875 -0.16099999845 0.261999994516 97.0
0.990000009537 -0.165000006557 0.259999990463 101.0
1.00100004673 -0.172999992967 0.263000011444 102.0
0.967999994755 -0.172999992967 0.254999995232 102.0
0.987999975681 -0.182999998331 0.259999990463 101.0
0.995999991894 -0.190999999642 0.263000011444 103.0
0.981999993324 -0.194000005722 0.259000003338 100.0
0.972000002861 -0.197999998927 0.256999999285 104.0
1.01199996471 -0.212999999523 0.268000006676 102.0
0.995999991894 -0.215000003576 0.263999998569 104.0
0.958000004292 -0.212999999523 0.254000008106 102.0
0.959999978542 -0.219999998808 0.254999995232 102.0
0.962000012398 -0.225999996066 0.256000012159 103.0
0.986000001431 -0.238000005484 0.263000011444 102.0
0.981999993324 -0.243000000715 0.261999994516 100.0
0.995000004768 -0.252999991179 0.266000002623 101.0
0.996999979019 -0.259999990463 0.266999989748 105.0
0.999000012875 -0.266999989748 0.268000006676 106.0
0.981000006199 -0.268000006676 0.263000011444 112.0
0.996999979019 -0.279000014067 0.268000006676 98.0
0.963999986649 -0.275999993086 0.259000003338 103.0
0.930999994278 -0.273000001907 0.250999987125 99.0
0.949999988079 -0.284000009298 0.256000012159 100.0
0.963999986649 -0.294999986887 0.261000007391 99.0
0.958999991417 -0.300000011921 0.259999990463 98.0
0.958999991417 -0.305999994278 0.259999990463 97.0
0.964999973774 -0.314999997616 0.261999994516 98.0
0.97000002861 -0.323000013828 0.263999998569 104.0
0.991999983788 -0.337000012398 0.270999997854 98.0
0.961000025272 -0.333000004292 0.263000011444 99.0
0.967999994755 -0.342000007629 0.264999985695 96.0
0.957000017166 -0.344000011683 0.263000011444 99.0
0.976999998093 -0.358999997377 0.268999993801 101.0
0.952000021935 -0.356000006199 0.261999994516 103.0
0.920000016689 -0.34999999404 0.254000008106 102.0
0.955999970436 -0.370999991894 0.264999985695 100.0
0.975000023842 -0.386000007391 0.270999997854 103.0
0.980000019073 -0.393999993801 0.273000001907 110.0
0.933000028133 -0.381999999285 0.259999990463 119.0
0.97000002861 -0.404000014067 0.270999997854 196.0
0.971000015736 -0.412000000477 0.272000014782 224.0
0.990999996662 -0.428000003099 0.277999997139 165.0
0.989000022411 -0.433999985456 0.277999997139 129.0
0.975000023842 -0.435000002384 0.27500000596 125.0
0.925000011921 -0.418999999762 0.261999994516 123.0
0.954999983311 -0.439999997616 0.270999997854 133.0
0.912000000477 -0.426999986172 0.259000003338 127.0
0.949000000954 -0.451999992132 0.270999997854 127.0
0.975000023842 -0.472000002861 0.279000014067 116.0
0.938000023365 -0.46099999547 0.268999993801 122.0
0.981000006199 -0.490000009537 0.282000005245 113.0
0.922999978065 -0.467999994755 0.266000002623 106.0
0.966000020504 -0.497999995947 0.280000001192 104.0
0.990999996662 -0.527000010014 0.28900000453 90.0
1.08000004292 -0.583999991417 0.316000014544 83.0
1.02199995518 -0.56099998951 0.300000011921 83.0
1.25300002098 -0.699000000954 0.368999987841 247.0
1.25199997425 -0.708999991417 0.370000004768 447.0
1.2460000515 -0.716000020504 0.370000004768 490.0
3.0720000267 1.62199997902 0.861000001431 112.0
3.15899991989 1.64199995995 0.883000016212 89.0
3.39299988747 1.73699998856 0.945999979973 85.0
3.51799988747 1.77300000191 0.977999985218 116.0
3.50200009346 1.73699998856 0.971000015736 122.0
3.65400004387 1.7840000391 1.01100003719 104.0
3.77200007439 1.7840000391 1.03900003433 76.0
3.84500002861 1.78900003433 1.05599999428 93.0
3.85599994659 1.76499998569 1.05700004101 125.0
3.81500005722 1.71800005436 1.04299998283 123.0
3.87299990654 1.71500003338 1.05700004101 122.0
3.867000103 1.68400001526 1.0529999733 121.0
3.84100008011 1.64400005341 1.04299998283 123.0
3.90199995041 1.64199995995 1.05700004101 118.0
3.93400001526 1.62600004673 1.06400001049 117.0
3.8710000515 1.57299995422 1.04499995708 120.0
3.90000009537 1.55700004101 1.04999995232 122.0
3.93700003624 1.54400002956 1.05799996853 124.0
3.96300005913 1.52499997616 1.06299996376 122.0
3.93099999428 1.48599994183 1.0529999733 122.0
3.93400001526 1.45899999142 1.05099999905 121.0
3.93899989128 1.43400001526 1.05099999905 127.0
3.95000004768 1.41100001335 1.05200004578 122.0
3.94799995422 1.38300001621 1.0490000248 118.0
3.94899988174 1.35599994659 1.04799997807 120.0
4.00099992752 1.34700000286 1.05999994278 119.0
3.98200011253 1.31400001049 1.0529999733 112.0
3.96199989319 1.27999997139 1.04600000381 121.0
3.95799994469 1.25300002098 1.04400002956 118.0
3.9279999733 1.21700000763 1.0340000391 118.0
3.88599991798 1.1779999733 1.02100002766 119.0
0.990000009537 -0.105999998748 0.252000004053 107.0
0.998000025749 -0.112000003457 0.254000008106 305.0
1.01199996471 -0.119999997318 0.25799998641 232.0
0.995999991894 -0.123999997973 0.254000008106 193.0
1.01600003242 -0.133000001311 0.259000003338 109.0
0.986000001431 -0.135000005364 0.250999987125 100.0
1.02799999714 -0.146999999881 0.263000011444 97.0
0.972000002861 -0.143999993801 0.247999995947 102.0
0.994000017643 -0.153999999166 0.254000008106 102.0
0.98299998045 -0.158000007272 0.252000004053 98.0
0.987999975681 -0.165000006557 0.252999991179 103.0
1.00800001621 -0.173999994993 0.259000003338 101.0
0.962999999523 -0.172000005841 0.24699999392 101.0
1.02300000191 -0.189999997616 0.263000011444 100.0
0.989000022411 -0.188999995589 0.254000008106 106.0
0.999000012875 -0.196999996901 0.25799998641 101.0
0.996999979019 -0.202999994159 0.256999999285 104.0
0.976999998093 -0.204999998212 0.252000004053 101.0
0.986999988556 -0.212999999523 0.254999995232 99.0
0.972999989986 -0.216000005603 0.252000004053 104.0
0.947000026703 -0.216000005603 0.245000004768 100.0
0.986999988556 -0.231999993324 0.256000012159 102.0
0.986999988556 -0.238000005484 0.256000012159 102.0
0.939999997616 -0.231999993324 0.244000002742 104.0
0.959999978542 -0.244000002742 0.25 102.0
0.976000010967 -0.254000008106 0.254999995232 109.0
0.967999994755 -0.25799998641 0.252999991179 100.0
0.98400002718 -0.268999993801 0.25799998641 109.0
0.955999970436 -0.266999989748 0.250999987125 107.0
0.934000015259 -0.266999989748 0.245000004768 102.0
0.940999984741 -0.27500000596 0.24699999392 106.0
0.98400002718 -0.294999986887 0.259000003338 106.0
1.00100004673 -0.305999994278 0.263999998569 103.0
0.933000028133 -0.291000008583 0.24699999392 103.0
0.949999988079 -0.303000003099 0.252000004053 101.0
0.925000011921 -0.300999999046 0.245000004768 99.0
0.972000002861 -0.323000013828 0.25799998641 95.0
0.931999981403 -0.316000014544 0.247999995947 101.0
0.949000000954 -0.32800000906 0.252999991179 97.0
0.939999997616 -0.331999987364 0.250999987125 97.0
0.944999992847 -0.340000003576 0.252999991179 100.0
0.95300000906 -0.349000006914 0.256000012159 98.0
0.949999988079 -0.354999989271 0.254999995232 102.0
0.967000007629 -0.368000000715 0.261000007391 90.0
0.971000015736 -0.375999987125 0.261999994516 94.0
0.967000007629 -0.381999999285 0.261999994516 93.0
0.994000017643 -0.40000000596 0.270000010729 92.0
0.922999978065 -0.377000004053 0.250999987125 94.0
0.940999984741 -0.391000002623 0.256000012159 91.0
0.953999996185 -0.404000014067 0.261000007391 90.0
0.967000007629 -0.416000008583 0.264999985695 94.0
0.947000026703 -0.414999991655 0.259999990463 88.0
0.961000025272 -0.428000003099 0.264999985695 97.0
0.938000023365 -0.425000011921 0.259000003338 90.0
0.953999996185 -0.43900001049 0.263999998569 91.0
0.954999983311 -0.446999996901 0.264999985695 85.0
0.972000002861 -0.462000012398 0.270999997854 91.0
0.949000000954 -0.458999991417 0.264999985695 92.0
0.945999979973 -0.465000003576 0.264999985695 92.0
0.941999971867 -0.469999998808 0.263999998569 94.0
0.919000029564 -0.465000003576 0.259000003338 97.0
0.935000002384 -0.481000006199 0.263999998569 93.0
0.931999981403 -0.486999988556 0.263999998569 91.0
0.955999970436 -0.508000016212 0.272000014782 83.0
0.972000002861 -0.523999989033 0.277000010014 91.0
1.21899998188 -0.679000020027 0.34999999404 141.0
1.24800002575 -0.705999970436 0.360000014305 287.0
1.25499999523 -0.72000002861 0.363000005484 334.0
3.117000103 1.64300000668 0.851999998093 107.0
3.22600007057 1.6740000248 0.879000008106 88.0
3.58699989319 1.83299994469 0.976000010967 98.0
3.50200009346 1.76199996471 0.949999988079 124.0
3.5 1.73300004005 0.947000026703 120.0
3.63199996948 1.77100002766 0.980000019073 92.0
3.89400005341 1.80900001526 1.04299998283 98.0
3.86400008202 1.76600003242 1.03299999237 125.0
3.84800004959 1.73000001907 1.02600002289 128.0
3.92300009727 1.73399996758 1.04400002956 124.0
3.89400005341 1.69299995899 1.03299999237 128.0
3.92899990082 1.67900002003 1.04100000858 119.0
3.89100003242 1.63499999046 1.02799999714 125.0
3.91499996185 1.61600005627 1.03199994564 121.0
3.85599994659 1.56400001049 1.01499998569 112.0
3.9430000782 1.5720000267 1.03600001335 119.0
3.875 1.51699995995 1.01600003242 118.0
3.89400005341 1.49699997902 1.01900005341 114.0
3.91300010681 1.47699999809 1.02199995518 123.0
3.94899988174 1.46300005913 1.02900004387 124.0
3.9470000267 1.43499994278 1.02699995041 124.0
3.91300010681 1.39499998093 1.01600003242 116.0
3.88199996948 1.35800004005 1.00600004196 123.0
3.90700006485 1.34000003338 1.01100003719 120.0
3.91700005531 1.31700003147 1.01199996471 124.0
3.93700003624 1.29700005054 1.01600003242 131.0
3.99799990654 1.28999996185 1.02999997139 122.0
3.93400001526 1.24300003052 1.01100003719 113.0
3.96499991417 1.22699999809 1.01800000668 111.0
3.95700001717 1.19799995422 1.01400005817 106.0
3.91000008583 1.15799999237 1.00100004673 81.0
0.991999983788 -0.105999998748 0.246000006795 97.0
1.00600004196 -0.112999998033 0.25 345.0
0.998000025749 -0.118000000715 0.247999995947 619.0
1.02400004864 -0.12800000608 0.254000008106 163.0
0.989000022411 -0.128999993205 0.246000006795 101.0
0.986000001431 -0.135000005364 0.245000004768 100.0
0.999000012875 -0.142000004649 0.248999997973 102.0
1.00300002098 -0.149000003934 0.25 106.0
1.0039999485 -0.155000001192 0.25 106.0
0.971000015736 -0.156000003219 0.243000000715 104.0
0.986000001431 -0.16400000453 0.24699999392 104.0
0.986999988556 -0.170000001788 0.24699999392 102.0
0.986999988556 -0.177000001073 0.24699999392 99.0
1.01499998569 -0.187999993563 0.254000008106 106.0
0.986999988556 -0.188999995589 0.247999995947 103.0
1.02499997616 -0.202000007033 0.25799998641 104.0
