ply
format ascii 1.0
element vertex 917
property float x
property float y
property float z
property float intensity
end_header
0.924000024796 -0.497999995947 -0.165000006557 90.0
0.856999993324 -0.469000011683 -0.153999999166 102.0
0.879000008106 -0.488000005484 -0.158000007272 94.0
0.870000004768 -0.490000009537 -0.157000005245 91.0
2.93799996376 1.63300001621 -0.56400001049 81.0
0.952000021935 0.391000002623 -0.172999992967 266.0
0.972999989986 0.379000008106 -0.175999999046 427.0
0.958000004292 0.36700001359 -0.172999992967 501.0
0.972999989986 0.365999996662 -0.17499999702 312.0
0.977999985218 0.361000001431 -0.175999999046 352.0
0.971000015736 0.351999998093 -0.173999994993 400.0
0.97000002861 0.344999998808 -0.172999992967 444.0
0.961000025272 0.335000008345 -0.172000005841 472.0
0.955999970436 0.326999992132 -0.170000001788 521.0
0.962000012398 0.323000013828 -0.171000003815 597.0
0.958000004292 0.314999997616 -0.170000001788 616.0
0.967000007629 0.312000006437 -0.171000003815 659.0
0.981999993324 0.310000002384 -0.173999994993 683.0
0.973999977112 0.300999999046 -0.172000005841 737.0
0.976000010967 0.294999986887 -0.172000005841 783.0
0.971000015736 0.287999987602 -0.171000003815 819.0
0.981000006199 0.284000009298 -0.172000005841 861.0
0.978999972343 0.277000010014 -0.172000005841 929.0
0.990999996662 0.273999989033 -0.172999992967 966.0
0.985000014305 0.266999989748 -0.172000005841 1019.0
0.991999983788 0.261999994516 -0.172999992967 1038.0
0.987999975681 0.254999995232 -0.172000005841 1063.0
0.992999970913 0.25 -0.172999992967 1084.0
0.989000022411 0.243000000715 -0.172000005841 1099.0
0.992999970913 0.238000005484 -0.172000005841 1163.0
0.995000004768 0.231999993324 -0.172000005841 1186.0
0.995000004768 0.225999996066 -0.172000005841 1189.0
0.992999970913 0.218999996781 -0.172000005841 1175.0
0.996999979019 0.21400000155 -0.172000005841 1179.0
1.0 0.209000006318 -0.172000005841 1210.0
1.00100004673 0.202999994159 -0.172000005841 1184.0
0.998000025749 0.195999994874 -0.172000005841 1227.0
1.00499999523 0.190999999642 -0.172999992967 1247.0
1.00300002098 0.185000002384 -0.172000005841 1272.0
1.00199997425 0.179000005126 -0.172000005841 1291.0
1.00100004673 0.172000005841 -0.171000003815 1277.0
1.00699996948 0.166999995708 -0.172000005841 1253.0
1.00999999046 0.162000000477 -0.172999992967 1254.0
1.00899994373 0.156000003219 -0.172000005841 1282.0
1.01100003719 0.15000000596 -0.172999992967 1241.0
1.00800001621 0.143999993801 -0.172000005841 1205.0
1.01600003242 0.138999998569 -0.172999992967 1199.0
1.02100002766 0.133000001311 -0.173999994993 1170.0
1.01900005341 0.127000004053 -0.172999992967 1138.0
1.01699995995 0.120999999344 -0.172999992967 1153.0
1.01999998093 0.115000002086 -0.172999992967 1150.0
1.01999998093 0.108999997377 -0.172999992967 1106.0
1.02400004864 0.103000000119 -0.173999994993 1099.0
1.02300000191 0.097000002861 -0.172999992967 1092.0
1.02499997616 0.0920000001788 -0.173999994993 1078.0
1.02300000191 0.0850000008941 -0.172999992967 1080.0
1.02400004864 0.0799999982119 -0.172999992967 1074.0
1.02600002289 0.0740000009537 -0.173999994993 1047.0
1.03100001812 0.0680000036955 -0.173999994993 1012.0
1.02799999714 0.0619999989867 -0.173999994993 972.0
1.03499996662 0.0560000017285 -0.17499999702 549.0
2.3599998951 -0.0509999990463 -0.398000001907 174.0
2.41100001335 -0.0659999996424 -0.405999988317 124.0
2.32399988174 -0.0769999995828 -0.391000002623 118.0
2.30800008774 -0.0900000035763 -0.388999998569 180.0
1.00300002098 -0.0489999987185 -0.168999999762 83.0
0.981999993324 -0.0540000014007 -0.165000006557 133.0
0.992999970913 -0.0599999986589 -0.166999995708 137.0
0.98400002718 -0.0649999976158 -0.165999993682 134.0
0.958000004292 -0.0689999982715 -0.16099999845 142.0
0.959999978542 -0.0750000029802 -0.162000000477 139.0
0.967999994755 -0.0810000002384 -0.163000002503 141.0
0.980000019073 -0.0879999995232 -0.165000006557 136.0
1.00300002098 -0.0960000008345 -0.168999999762 148.0
0.972999989986 -0.0989999994636 -0.16400000453 141.0
0.958999991417 -0.103000000119 -0.162000000477 143.0
0.976000010967 -0.109999999404 -0.165000006557 139.0
0.959999978542 -0.11400000006 -0.162000000477 143.0
0.950999975204 -0.119000002742 -0.16099999845 144.0
0.958999991417 -0.125 -0.162000000477 142.0
0.958000004292 -0.130999997258 -0.162000000477 149.0
0.949000000954 -0.135000005364 -0.159999996424 153.0
0.949000000954 -0.141000002623 -0.16099999845 146.0
0.950999975204 -0.146999999881 -0.16099999845 149.0
0.964999973774 -0.155000001192 -0.163000002503 147.0
0.944999992847 -0.157000005245 -0.159999996424 148.0
0.963999986649 -0.165999993682 -0.16400000453 156.0
0.934000015259 -0.166999995708 -0.158999994397 154.0
0.972000002861 -0.179000005126 -0.165000006557 152.0
0.980000019073 -0.187000006437 -0.166999995708 150.0
0.955999970436 -0.187999993563 -0.163000002503 150.0
0.948000013828 -0.192000001669 -0.16099999845 148.0
0.976000010967 -0.203999996185 -0.165999993682 140.0
0.967000007629 -0.208000004292 -0.165000006557 152.0
0.93900001049 -0.208000004292 -0.159999996424 148.0
0.949000000954 -0.215000003576 -0.162000000477 150.0
0.920000016689 -0.215000003576 -0.157000005245 149.0
0.952000021935 -0.228000000119 -0.163000002503 151.0
0.938000023365 -0.230000004172 -0.16099999845 152.0
0.948000013828 -0.238999992609 -0.163000002503 139.0
0.93599998951 -0.241999998689 -0.16099999845 142.0
0.945999979973 -0.25 -0.163000002503 155.0
0.954999983311 -0.259000003338 -0.16400000453 145.0
0.949000000954 -0.263000011444 -0.16400000453 142.0
0.930999994278 -0.263999998569 -0.16099999845 138.0
0.930999994278 -0.270000010729 -0.16099999845 142.0
0.939999997616 -0.277999997139 -0.163000002503 141.0
0.934000015259 -0.282999992371 -0.162000000477 128.0
0.964999973774 -0.298999994993 -0.166999995708 135.0
0.944000005722 -0.298000007868 -0.16400000453 141.0
0.930999994278 -0.300000011921 -0.162000000477 139.0
0.933000028133 -0.307000011206 -0.163000002503 131.0
0.896000027657 -0.300999999046 -0.156000003219 134.0
0.921000003815 -0.314999997616 -0.16099999845 123.0
0.938000023365 -0.326999992132 -0.16400000453 131.0
0.912999987602 -0.324999988079 -0.159999996424 122.0
0.926999986172 -0.33599999547 -0.163000002503 125.0
0.958000004292 -0.354000002146 -0.168999999762 124.0
0.935000002384 -0.351999998093 -0.165000006557 121.0
0.938000023365 -0.358999997377 -0.165999993682 121.0
0.90499997139 -0.352999985218 -0.159999996424 119.0
0.912000000477 -0.361999988556 -0.162000000477 125.0
0.925000011921 -0.374000012875 -0.16400000453 117.0
0.925999999046 -0.379999995232 -0.165000006557 116.0
0.89099997282 -0.372999995947 -0.158999994397 117.0
0.911000013351 -0.386999994516 -0.163000002503 112.0
0.92199999094 -0.398999989033 -0.165000006557 113.0
0.940999984741 -0.41400000453 -0.168999999762 110.0
0.90499997139 -0.404000014067 -0.163000002503 116.0
0.920000016689 -0.418000012636 -0.165999993682 114.0
0.950999975204 -0.43900001049 -0.172000005841 100.0
0.97000002861 -0.456000000238 -0.175999999046 104.0
0.925000011921 -0.441000014544 -0.167999997735 105.0
0.924000024796 -0.448000013828 -0.167999997735 109.0
0.910000026226 -0.448000013828 -0.165999993682 103.0
0.89099997282 -0.444999992847 -0.163000002503 98.0
0.948000013828 -0.481000006199 -0.173999994993 100.0
0.929000020027 -0.479000002146 -0.171000003815 98.0
0.884000003338 -0.462999999523 -0.163000002503 95.0
0.910000026226 -0.483999997377 -0.167999997735 98.0
0.870000004768 -0.469000011683 -0.16099999845 92.0
0.925000011921 -0.505999982357 -0.172000005841 105.0
0.939999997616 -0.522000014782 -0.17499999702 92.0
0.883000016212 -0.497000008821 -0.165000006557 98.0
3.06599998474 1.70700001717 -0.60900002718 100.0
3.07899999619 1.68799996376 -0.610000014305 91.0
3.20300006866 1.73000001907 -0.633000016212 86.0
3.1970000267 1.70200002193 -0.629999995232 85.0
3.98699998856 1.36500000954 -0.736000001431 74.0
3.94199991226 1.32400000095 -0.726000010967 70.0
3.98300004005 1.31099998951 -0.73299998045 79.0
3.88899993896 1.2539999485 -0.713999986649 79.0
0.771000027657 0.229000002146 -0.140000000596 71.0
1.01999998093 0.28900000453 -0.185000002384 115.0
1.02300000191 0.284000009298 -0.185000002384 128.0
1.00600004196 0.273000001907 -0.181999996305 162.0
1.03100001812 0.266000002623 -0.186000004411 201.0
1.02100002766 0.250999987125 -0.184000000358 257.0
1.00600004196 0.240999996662 -0.180999994278 290.0
1.01800000668 0.237000003457 -0.182999998331 340.0
1.0 0.226999998093 -0.179000005126 373.0
1.01199996471 0.224000006914 -0.180999994278 398.0
1.00999999046 0.216999992728 -0.180999994278 417.0
1.01300001144 0.21099999547 -0.180999994278 313.0
1.01800000668 0.206000000238 -0.181999996305 319.0
1.01400005817 0.199000000954 -0.180999994278 269.0
1.02900004387 0.195999994874 -0.182999998331 288.0
1.01400005817 0.187000006437 -0.180000007153 310.0
1.00999999046 0.180000007153 -0.179000005126 327.0
1.00899994373 0.173999994993 -0.179000005126 345.0
1.00899994373 0.167999997735 -0.179000005126 364.0
1.01499998569 0.163000002503 -0.180000007153 376.0
1.01600003242 0.157000005245 -0.180000007153 417.0
1.01100003719 0.15000000596 -0.179000005126 438.0
1.00999999046 0.143999993801 -0.178000003099 448.0
1.01300001144 0.137999996543 -0.179000005126 470.0
1.03299999237 0.135000005364 -0.181999996305 471.0
1.01600003242 0.127000004053 -0.179000005126 478.0
1.02999997139 0.122000001371 -0.180999994278 478.0
1.02699995041 0.115999996662 -0.180999994278 483.0
1.01900005341 0.108999997377 -0.179000005126 489.0
1.02199995518 0.103000000119 -0.179000005126 493.0
1.02199995518 0.097000002861 -0.179000005126 508.0
1.03600001335 0.0930000022054 -0.181999996305 519.0
1.03100001812 0.0860000029206 -0.180999994278 521.0
1.02600002289 0.0799999982119 -0.180000007153 524.0
1.03199994564 0.0740000009537 -0.180999994278 533.0
1.03999996185 0.0689999982715 -0.181999996305 516.0
1.03299999237 0.0619999989867 -0.180999994278 484.0
1.04600000381 0.0570000000298 -0.182999998331 250.0
2.49799990654 -0.0399999991059 -0.43599998951 70.0
2.40499997139 -0.0520000010729 -0.418999999762 200.0
2.40300011635 -0.0659999996424 -0.418999999762 139.0
2.33400011063 -0.0780000016093 -0.407000005245 131.0
2.29299998283 -0.0900000035763 -0.40000000596 201.0
2.2990000248 -0.103000000119 -0.400999993086 67.0
0.980000019073 -0.0480000004172 -0.171000003815 87.0
0.972999989986 -0.0529999993742 -0.170000001788 137.0
0.977999985218 -0.0590000003576 -0.171000003815 141.0
0.958999991417 -0.0640000030398 -0.166999995708 138.0
0.981999993324 -0.0710000023246 -0.171000003815 141.0
0.959999978542 -0.0750000029802 -0.166999995708 145.0
0.967000007629 -0.0810000002384 -0.168999999762 139.0
0.953999996185 -0.0860000029206 -0.166999995708 137.0
0.950999975204 -0.0909999981523 -0.165999993682 137.0
0.971000015736 -0.097999997437 -0.168999999762 140.0
0.971000015736 -0.104000002146 -0.170000001788 139.0
0.98299998045 -0.111000001431 -0.172000005841 145.0
0.967000007629 -0.115000002086 -0.168999999762 150.0
0.963999986649 -0.119999997318 -0.168999999762 146.0
0.935000002384 -0.122000001371 -0.16400000453 146.0
0.939999997616 -0.128999993205 -0.165000006557 149.0
0.944999992847 -0.135000005364 -0.165000006557 147.0
0.944999992847 -0.140000000596 -0.165999993682 146.0
0.958999991417 -0.148000001907 -0.167999997735 152.0
0.930999994278 -0.149000003934 -0.163000002503 149.0
0.950999975204 -0.158000007272 -0.166999995708 149.0
0.971000015736 -0.167999997735 -0.171000003815 155.0
0.955999970436 -0.171000003815 -0.167999997735 151.0
0.967999994755 -0.179000005126 -0.170000001788 154.0
0.958999991417 -0.182999998331 -0.168999999762 144.0
0.944000005722 -0.186000004411 -0.165999993682 148.0
0.954999983311 -0.194000005722 -0.167999997735 149.0
0.943000018597 -0.196999996901 -0.165999993682 148.0
0.950999975204 -0.204999998212 -0.167999997735 144.0
0.938000023365 -0.207000002265 -0.165999993682 147.0
0.966000020504 -0.219999998808 -0.171000003815 151.0
0.944999992847 -0.221000000834 -0.166999995708 150.0
0.940999984741 -0.225999996066 -0.166999995708 144.0
0.944000005722 -0.231999993324 -0.167999997735 145.0
0.955999970436 -0.240999996662 -0.170000001788 144.0
0.948000013828 -0.245000004768 -0.168999999762 150.0
0.962999999523 -0.254999995232 -0.171000003815 144.0
0.940999984741 -0.254999995232 -0.167999997735 144.0
0.933000028133 -0.259000003338 -0.166999995708 143.0
0.934000015259 -0.264999985695 -0.166999995708 143.0
0.925999999046 -0.268999993801 -0.165999993682 143.0
0.930999994278 -0.275999993086 -0.166999995708 140.0
0.930999994278 -0.282000005245 -0.166999995708 134.0
0.93900001049 -0.291000008583 -0.168999999762 132.0
0.947000026703 -0.300000011921 -0.171000003815 135.0
0.917999982834 -0.296000003815 -0.165999993682 128.0
0.958000004292 -0.316000014544 -0.172999992967 129.0
0.931999981403 -0.312999993563 -0.168999999762 126.0
0.962999999523 -0.330000013113 -0.173999994993 130.0
0.912000000477 -0.317999988794 -0.165000006557 126.0
0.952000021935 -0.338999986649 -0.172999992967 122.0
0.943000018597 -0.342000007629 -0.172000005841 127.0
0.927999973297 -0.342999994755 -0.168999999762 117.0
0.93900001049 -0.352999985218 -0.171000003815 129.0
0.899999976158 -0.344999998808 -0.165000006557 123.0
0.93900001049 -0.36700001359 -0.172000005841 121.0
0.902999997139 -0.358999997377 -0.165999993682 123.0
0.959999978542 -0.388000011444 -0.177000001073 121.0
0.941999971867 -0.388000011444 -0.173999994993 111.0
0.926999986172 -0.388000011444 -0.171000003815 111.0
0.962000012398 -0.409999996424 -0.178000003099 109.0
0.897000014782 -0.388000011444 -0.166999995708 107.0
0.884999990463 -0.388999998569 -0.165000006557 113.0
0.912000000477 -0.407999992371 -0.170000001788 109.0
0.929000020027 -0.423000007868 -0.172999992967 116.0
0.883000016212 -0.407999992371 -0.165000006557 109.0
0.897000014782 -0.42199999094 -0.167999997735 112.0
0.921000003815 -0.439999997616 -0.172999992967 109.0
0.93599998951 -0.453999996185 -0.177000001073 99.0
0.976999998093 -0.481999993324 -0.185000002384 107.0
0.915000021458 -0.458000004292 -0.173999994993 94.0
0.930000007153 -0.472999989986 -0.177000001073 99.0
0.92199999094 -0.476000010967 -0.175999999046 95.0
0.92199999094 -0.483000010252 -0.175999999046 104.0
0.885999977589 -0.470999985933 -0.170000001788 94.0
0.947000026703 -0.512000024319 -0.181999996305 100.0
0.929000020027 -0.509000003338 -0.179000005126 93.0
0.90600001812 -0.504000008106 -0.17499999702 94.0
0.885999977589 -0.5 -0.172000005841 89.0
3.02300000191 1.68400001526 -0.620999991894 125.0
3.04600000381 1.67200005054 -0.624000012875 113.0
3.89299988747 1.33500003815 -0.742999970913 84.0
3.83699989319 1.28900003433 -0.731000006199 85.0
3.91799998283 1.29100000858 -0.745000004768 89.0
3.93700003624 1.27100002766 -0.746999979019 75.0
2.3710000515 -0.0509999990463 -0.428000003099 175.0
2.38499999046 -0.0659999996424 -0.430000007153 122.0
2.30200004578 -0.0769999995828 -0.414999991655 149.0
2.29800009727 -0.0900000035763 -0.414999991655 214.0
2.29299998283 -0.103000000119 -0.41400000453 88.0
0.954999983311 -0.0469999983907 -0.172000005841 91.0
0.953999996185 -0.0520000010729 -0.172000005841 135.0
0.977999985218 -0.0590000003576 -0.175999999046 138.0
0.976000010967 -0.0649999976158 -0.175999999046 130.0
0.950999975204 -0.0689999982715 -0.171000003815 144.0
0.998000025749 -0.0780000016093 -0.180000007153 145.0
0.985000014305 -0.082999996841 -0.178000003099 141.0
0.976000010967 -0.0879999995232 -0.175999999046 140.0
0.98400002718 -0.0939999967813 -0.178000003099 143.0
0.973999977112 -0.0989999994636 -0.175999999046 140.0
0.975000023842 -0.104999996722 -0.175999999046 149.0
0.966000020504 -0.108999997377 -0.17499999702 146.0
0.953999996185 -0.11400000006 -0.172999992967 141.0
0.954999983311 -0.119000002742 -0.172999992967 142.0
0.972000002861 -0.127000004053 -0.175999999046 145.0
0.97000002861 -0.133000001311 -0.175999999046 149.0
0.980000019073 -0.140000000596 -0.177000001073 143.0
0.943000018597 -0.140000000596 -0.171000003815 147.0
0.962000012398 -0.149000003934 -0.173999994993 145.0
0.98299998045 -0.158000007272 -0.178000003099 143.0
0.939999997616 -0.157000005245 -0.171000003815 146.0
0.962000012398 -0.165999993682 -0.17499999702 149.0
0.947000026703 -0.168999999762 -0.172000005841 147.0
0.972999989986 -0.180000007153 -0.177000001073 151.0
0.955999970436 -0.181999996305 -0.173999994993 160.0
0.953999996185 -0.187999993563 -0.173999994993 152.0
0.940999984741 -0.190999999642 -0.172000005841 148.0
0.936999976635 -0.195999994874 -0.171000003815 147.0
0.964999973774 -0.208000004292 -0.175999999046 145.0
0.962000012398 -0.212999999523 -0.175999999046 152.0
0.964999973774 -0.219999998808 -0.177000001073 149.0
0.934000015259 -0.217999994755 -0.171000003815 142.0
0.93599998951 -0.22499999404 -0.172000005841 145.0
0.927999973297 -0.229000002146 -0.170000001788 145.0
0.943000018597 -0.238000005484 -0.172999992967 150.0
0.910000026226 -0.234999999404 -0.166999995708 146.0
0.941999971867 -0.25 -0.172999992967 144.0
0.955999970436 -0.259999990463 -0.175999999046 145.0
0.967999994755 -0.268999993801 -0.179000005126 145.0
0.927999973297 -0.263999998569 -0.172000005841 145.0
0.949999988079 -0.275999993086 -0.175999999046 138.0
0.975000023842 -0.289999991655 -0.180999994278 137.0
0.915000021458 -0.277999997139 -0.170000001788 138.0
0.925000011921 -0.287000000477 -0.172000005841 138.0
0.925000011921 -0.293000012636 -0.172000005841 138.0
0.954999983311 -0.308999985456 -0.178000003099 137.0
0.913999974728 -0.300999999046 -0.171000003815 139.0
0.958999991417 -0.323000013828 -0.179000005126 122.0
0.945999979973 -0.324999988079 -0.177000001073 127.0
0.910000026226 -0.317999988794 -0.171000003815 119.0
0.92199999094 -0.328999996185 -0.172999992967 117.0
0.924000024796 -0.33599999547 -0.173999994993 117.0
0.963999986649 -0.356999993324 -0.181999996305 122.0
0.924000024796 -0.347999989986 -0.17499999702 121.0
0.950999975204 -0.365000009537 -0.180000007153 120.0
0.888000011444 -0.347000002861 -0.167999997735 119.0
0.926999986172 -0.368999987841 -0.175999999046 122.0
0.894999980927 -0.361999988556 -0.170000001788 116.0
0.930999994278 -0.384000003338 -0.178000003099 121.0
0.921000003815 -0.386000007391 -0.175999999046 112.0
0.902999997139 -0.384999990463 -0.172999992967 115.0
0.938000023365 -0.407000005245 -0.180000007153 109.0
0.957000017166 -0.42199999094 -0.184000000358 104.0
0.93599998951 -0.419999986887 -0.180999994278 107.0
0.911000013351 -0.414999991655 -0.175999999046 107.0
0.944000005722 -0.437000006437 -0.182999998331 110.0
0.934000015259 -0.43900001049 -0.180999994278 115.0
0.85799998045 -0.409999996424 -0.166999995708 105.0
0.862999975681 -0.418999999762 -0.167999997735 98.0
0.902999997139 -0.444999992847 -0.177000001073 100.0
0.893999993801 -0.446999996901 -0.17499999702 94.0
0.926999986172 -0.472000002861 -0.181999996305 102.0
0.93900001049 -0.485000014305 -0.185000002384 96.0
0.925999999046 -0.486000001431 -0.182999998331 96.0
0.901000022888 -0.479999989271 -0.179000005126 93.0
0.933000028133 -0.504999995232 -0.186000004411 99.0
0.931999981403 -0.510999977589 -0.186000004411 87.0
0.924000024796 -0.514999985695 -0.185000002384 96.0
0.930999994278 -0.527000010014 -0.187000006437 96.0
3.01200008392 1.67999994755 -0.638999998569 127.0
3.01099991798 1.65499997139 -0.637000024319 118.0
3.11500000954 1.68599998951 -0.657000005245 101.0
3.36800003052 1.46099996567 -0.683000028133 69.0
3.33599996567 1.375 -0.67199999094 69.0
3.82699990273 1.33899998665 -0.755999982357 82.0
3.85800004005 1.32400000095 -0.760999977589 109.0
3.91199994087 1.31599998474 -0.769999980927 106.0
3.91000008583 1.28900003433 -0.768000006676 112.0
3.90799999237 1.26300001144 -0.76599997282 101.0
3.91899991035 1.24000000954 -0.76700001955 79.0
2.382999897 -0.0520000010729 -0.444000005722 191.0
2.42300009727 -0.0670000016689 -0.451999992132 151.0
2.35500001907 -0.0790000036359 -0.43900001049 153.0
2.3029999733 -0.0900000035763 -0.428999990225 177.0
1.0379999876 -0.0509999990463 -0.193000003695 96.0
0.972000002861 -0.0529999993742 -0.180999994278 135.0
0.990000009537 -0.0599999986589 -0.184000000358 134.0
0.97000002861 -0.0649999976158 -0.180999994278 134.0
0.991999983788 -0.0719999969006 -0.185000002384 137.0
0.976999998093 -0.0759999975562 -0.181999996305 139.0
0.973999977112 -0.082000002265 -0.181999996305 138.0
0.95300000906 -0.0860000029206 -0.178000003099 138.0
0.976999998093 -0.0939999967813 -0.181999996305 135.0
0.967000007629 -0.097999997437 -0.180000007153 136.0
0.971000015736 -0.104000002146 -0.180999994278 129.0
0.972000002861 -0.109999999404 -0.181999996305 134.0
0.992999970913 -0.119000002742 -0.186000004411 141.0
0.981999993324 -0.123000003397 -0.182999998331 149.0
0.97000002861 -0.127000004053 -0.180999994278 143.0
1.0 -0.136999994516 -0.187000006437 143.0
0.967999994755 -0.137999996543 -0.180999994278 140.0
0.957000017166 -0.142000004649 -0.179000005126 142.0
0.963999986649 -0.149000003934 -0.180999994278 144.0
0.955999970436 -0.153999999166 -0.179000005126 144.0
0.95300000906 -0.158999994397 -0.179000005126 142.0
0.957000017166 -0.165999993682 -0.180000007153 147.0
0.944000005722 -0.168999999762 -0.177000001073 148.0
0.97000002861 -0.179000005126 -0.181999996305 154.0
0.947000026703 -0.180999994278 -0.178000003099 150.0
0.945999979973 -0.186000004411 -0.178000003099 152.0
0.967000007629 -0.196999996901 -0.181999996305 143.0
0.964999973774 -0.202000007033 -0.181999996305 139.0
0.96899998188 -0.209000006318 -0.182999998331 146.0
0.967000007629 -0.21400000155 -0.182999998331 154.0
0.940999984741 -0.21400000155 -0.178000003099 149.0
0.93599998951 -0.218999996781 -0.177000001073 149.0
0.944000005722 -0.226999998093 -0.179000005126 139.0
0.949000000954 -0.233999997377 -0.180000007153 141.0
0.916999995708 -0.231999993324 -0.173999994993 141.0
0.933000028133 -0.241999998689 -0.177000001073 141.0
0.935000002384 -0.247999995947 -0.178000003099 143.0
0.929000020027 -0.252000004053 -0.177000001073 143.0
0.935000002384 -0.259999990463 -0.178000003099 148.0
0.925999999046 -0.263000011444 -0.177000001073 143.0
0.934000015259 -0.272000014782 -0.179000005126 140.0
0.952000021935 -0.282999992371 -0.182999998331 136.0
0.925000011921 -0.280999988317 -0.178000003099 134.0
0.963999986649 -0.298999994993 -0.185000002384 132.0
0.93599998951 -0.296000003815 -0.180000007153 127.0
0.936999976635 -0.303000003099 -0.180999994278 132.0
0.953999996185 -0.314999997616 -0.184000000358 126.0
0.931999981403 -0.31400001049 -0.180000007153 128.0
0.925000011921 -0.317999988794 -0.179000005126 129.0
0.952000021935 -0.333000004292 -0.185000002384 131.0
0.939999997616 -0.33599999547 -0.182999998331 121.0
0.912999987602 -0.331999987364 -0.178000003099 122.0
0.931999981403 -0.344999998808 -0.181999996305 117.0
0.975000023842 -0.368000000715 -0.189999997616 119.0
0.916000008583 -0.351999998093 -0.179000005126 119.0
0.940999984741 -0.368000000715 -0.185000002384 122.0
0.926999986172 -0.368999987841 -0.181999996305 116.0
0.920000016689 -0.372999995947 -0.180999994278 115.0
0.907000005245 -0.374000012875 -0.179000005126 122.0
0.908999979496 -0.381000012159 -0.180000007153 111.0
0.90600001812 -0.386000007391 -0.179000005126 117.0
0.916999995708 -0.398000001907 -0.181999996305 108.0
0.916999995708 -0.405000001192 -0.181999996305 114.0
0.893000006676 -0.400999993086 -0.178000003099 112.0
0.957000017166 -0.43599998951 -0.190999999642 108.0
0.955999970436 -0.442999988794 -0.190999999642 105.0
0.911000013351 -0.428999990225 -0.182999998331 94.0
0.907000005245 -0.433999985456 -0.181999996305 102.0
0.908999979496 -0.442000001669 -0.182999998331 107.0
0.884000003338 -0.43599998951 -0.179000005126 99.0
0.919000029564 -0.46099999547 -0.186000004411 100.0
0.893999993801 -0.455000013113 -0.181999996305 97.0
0.876999974251 -0.45300000906 -0.179000005126 96.0
0.908999979496 -0.476999998093 -0.186000004411 96.0
0.874000012875 -0.465999990702 -0.179000005126 92.0
0.885999977589 -0.479000002146 -0.181999996305 85.0
0.935000002384 -0.513999998569 -0.193000003695 100.0
0.912999987602 -0.509000003338 -0.188999995589 90.0
0.871999979019 -0.493000000715 -0.180999994278 89.0
3.01699995995 1.68499994278 -0.661000013351 126.0
3.03600001335 1.66999995708 -0.662999987602 113.0
3.05800008774 1.65799999237 -0.666000008583 117.0
3.3900001049 1.39900004864 -0.704999983311 70.0
3.32100009918 1.34700000286 -0.68900001049 68.0
3.88700008392 1.36099994183 -0.792999982834 102.0
3.8710000515 1.32899999619 -0.787999987602 129.0
3.88000011444 1.30599999428 -0.787999987602 134.0
3.90000009537 1.28699994087 -0.791000008583 136.0
3.882999897 1.25600004196 -0.786000013351 123.0
2.35700011253 -0.0379999987781 -0.453999996185 117.0
2.37700009346 -0.0520000010729 -0.456999987364 237.0
2.3900001049 -0.0659999996424 -0.460000008345 206.0
2.35100007057 -0.0790000036359 -0.451999992132 171.0
2.31399989128 -0.0909999981523 -0.444999992847 180.0
2.36800003052 -0.107000000775 -0.456000000238 92.0
1.0340000391 -0.0509999990463 -0.199000000954 92.0
0.967000007629 -0.0529999993742 -0.186000004411 136.0
0.96899998188 -0.0590000003576 -0.186000004411 138.0
0.963999986649 -0.0640000030398 -0.185000002384 131.0
0.976000010967 -0.0710000023246 -0.187999993563 143.0
0.967999994755 -0.0759999975562 -0.186000004411 138.0
1.0039999485 -0.0850000008941 -0.193000003695 133.0
0.981000006199 -0.0879999995232 -0.188999995589 134.0
0.952000021935 -0.0909999981523 -0.182999998331 135.0
0.948000013828 -0.0960000008345 -0.182999998331 133.0
0.962000012398 -0.104000002146 -0.185000002384 138.0
0.95300000906 -0.108000002801 -0.184000000358 141.0
0.967000007629 -0.115999996662 -0.187000006437 140.0
0.954999983311 -0.119999997318 -0.184000000358 146.0
0.96899998188 -0.127000004053 -0.187000006437 141.0
0.947000026703 -0.129999995232 -0.182999998331 143.0
0.964999973774 -0.137999996543 -0.187000006437 145.0
0.943000018597 -0.141000002623 -0.181999996305 140.0
0.948000013828 -0.146999999881 -0.182999998331 138.0
0.97000002861 -0.156000003219 -0.187999993563 146.0
0.967000007629 -0.162000000477 -0.187000006437 147.0
0.925000011921 -0.159999996424 -0.179000005126 145.0
0.962999999523 -0.172000005841 -0.187000006437 149.0
0.963999986649 -0.179000005126 -0.187000006437 148.0
0.954999983311 -0.182999998331 -0.186000004411 147.0
0.943000018597 -0.186000004411 -0.182999998331 143.0
0.958999991417 -0.194999992847 -0.187000006437 144.0
0.954999983311 -0.20000000298 -0.186000004411 143.0
0.958000004292 -0.207000002265 -0.187000006437 143.0
0.967999994755 -0.215000003576 -0.188999995589 150.0
0.948000013828 -0.216000005603 -0.185000002384 151.0
0.971000015736 -0.228000000119 -0.189999997616 144.0
0.953999996185 -0.229000002146 -0.187000006437 152.0
0.961000025272 -0.237000003457 -0.187999993563 144.0
0.955999970436 -0.241999998689 -0.187000006437 144.0
0.963999986649 -0.25 -0.188999995589 143.0
0.931999981403 -0.24699999392 -0.182999998331 147.0
0.949999988079 -0.25799998641 -0.187000006437 140.0
0.958000004292 -0.266999989748 -0.188999995589 142.0
0.935000002384 -0.266000002623 -0.185000002384 138.0
0.925000011921 -0.268999993801 -0.182999998331 139.0
0.917999982834 -0.273000001907 -0.181999996305 130.0
0.913999974728 -0.277999997139 -0.180999994278 131.0
0.950999975204 -0.294999986887 -0.188999995589 131.0
0.944000005722 -0.298999994993 -0.187000006437 132.0
0.933000028133 -0.301999986172 -0.186000004411 134.0
0.920000016689 -0.303999990225 -0.182999998331 129.0
0.910000026226 -0.307000011206 -0.181999996305 128.0
0.929000020027 -0.319000005722 -0.186000004411 128.0
0.925999999046 -0.324000000954 -0.185000002384 122.0
0.917999982834 -0.32800000906 -0.184000000358 115.0
0.93900001049 -0.342000007629 -0.188999995589 122.0
0.935000002384 -0.347000002861 -0.187999993563 122.0
0.935000002384 -0.352999985218 -0.188999995589 113.0
0.958999991417 -0.368999987841 -0.194000005722 118.0
0.930000007153 -0.363999992609 -0.187999993563 114.0
0.919000029564 -0.365999996662 -0.186000004411 112.0
0.950999975204 -0.386000007391 -0.193000003695 118.0
0.971000015736 -0.400999993086 -0.197999998927 115.0
0.915000021458 -0.384000003338 -0.187000006437 113.0
0.93900001049 -0.400999993086 -0.192000001669 107.0
0.930000007153 -0.404000014067 -0.190999999642 109.0
0.913999974728 -0.404000014067 -0.187999993563 107.0
0.912000000477 -0.409000009298 -0.187999993563 105.0
0.925000011921 -0.42199999094 -0.190999999642 96.0
0.907000005245 -0.421000003815 -0.187999993563 100.0
0.92199999094 -0.435000002384 -0.190999999642 95.0
0.924000024796 -0.442999988794 -0.192000001669 105.0
0.888999998569 -0.432999998331 -0.185000002384 104.0
0.903999984264 -0.446999996901 -0.188999995589 97.0
0.898999989033 -0.451000005007 -0.187999993563 102.0
0.944999992847 -0.481999993324 -0.197999998927 101.0
0.921000003815 -0.476999998093 -0.194000005722 95.0
0.912999987602 -0.479999989271 -0.193000003695 97.0
0.898999989033 -0.479999989271 -0.189999997616 98.0
0.913999974728 -0.495999991894 -0.194000005722 93.0
0.930999994278 -0.512000024319 -0.197999998927 94.0
0.888999998569 -0.495999991894 -0.189999997616 99.0
0.953999996185 -0.541000008583 -0.203999996185 90.0
3.02699995041 1.69200003147 -0.684000015259 127.0
2.99399995804 1.64900004864 -0.674000024796 122.0
3.13199996948 1.69900000095 -0.70300000906 100.0
3.41100001335 1.45799994469 -0.735000014305 67.0
3.36899995804 1.39199995995 -0.722000002861 70.0
3.34899997711 1.33599996567 -0.714999973774 66.0
3.57999992371 1.40299999714 -0.762000024319 69.0
3.8180000782 1.33800005913 -0.802999973297 94.0
3.85700011253 1.3259999752 -0.810000002384 116.0
3.87700009346 1.30599999428 -0.811999976635 122.0
3.8789999485 1.28100001812 -0.81099998951 120.0
3.93099999428 1.27199995518 -0.820999979973 111.0
3.91100001335 1.24000000954 -0.814999997616 78.0
4.03599977493 0.967999994755 -0.824999988079 65.0
4.03800010681 0.917999982834 -0.824000000954 59.0
2.36400008202 -0.0379999987781 -0.469000011683 136.0
2.38700008392 -0.0520000010729 -0.474000006914 248.0
2.34400010109 -0.0649999976158 -0.465000003576 218.0
2.31200003624 -0.0769999995828 -0.458999991417 192.0
2.28999996185 -0.0900000035763 -0.453999996185 171.0
2.28699994087 -0.103000000119 -0.453999996185 89.0
1.01600003242 -0.0500000007451 -0.202000007033 104.0
0.980000019073 -0.0540000014007 -0.194000005722 134.0
0.994000017643 -0.0610000006855 -0.196999996901 135.0
0.976000010967 -0.0649999976158 -0.194000005722 137.0
0.976999998093 -0.0710000023246 -0.194000005722 142.0
0.964999973774 -0.0759999975562 -0.190999999642 135.0
0.957000017166 -0.0810000002384 -0.189999997616 137.0
0.990999996662 -0.0890000015497 -0.196999996901 135.0
0.957000017166 -0.0920000001788 -0.189999997616 137.0
0.962000012398 -0.097999997437 -0.190999999642 139.0
0.973999977112 -0.104999996722 -0.194000005722 135.0
0.976999998093 -0.111000001431 -0.194000005722 142.0
0.963999986649 -0.115000002086 -0.192000001669 137.0
0.941999971867 -0.118000000715 -0.187000006437 132.0
0.990999996662 -0.129999995232 -0.196999996901 141.0
0.959999978542 -0.131999999285 -0.190999999642 135.0
0.98299998045 -0.141000002623 -0.195999994874 140.0
0.96899998188 -0.144999995828 -0.193000003695 139.0
0.957000017166 -0.149000003934 -0.190999999642 141.0
0.954999983311 -0.153999999166 -0.190999999642 138.0
0.962999999523 -0.16099999845 -0.192000001669 142.0
0.967999994755 -0.167999997735 -0.194000005722 140.0
0.945999979973 -0.170000001788 -0.188999995589 148.0
0.967000007629 -0.179000005126 -0.194000005722 142.0
0.944999992847 -0.180999994278 -0.188999995589 136.0
0.973999977112 -0.193000003695 -0.194999992847 147.0
0.957000017166 -0.194999992847 -0.192000001669 141.0
0.953999996185 -0.20000000298 -0.192000001669 141.0
0.976000010967 -0.21099999547 -0.195999994874 143.0
0.954999983311 -0.211999997497 -0.192000001669 144.0
0.959999978542 -0.218999996781 -0.193000003695 141.0
0.949999988079 -0.223000004888 -0.192000001669 142.0
0.943000018597 -0.226999998093 -0.189999997616 143.0
0.938000023365 -0.231999993324 -0.189999997616 144.0
0.961000025272 -0.243000000715 -0.194000005722 137.0
0.945999979973 -0.246000006795 -0.192000001669 134.0
0.93900001049 -0.25 -0.189999997616 138.0
0.95300000906 -0.259999990463 -0.194000005722 135.0
0.929000020027 -0.259000003338 -0.188999995589 133.0
0.947000026703 -0.270000010729 -0.193000003695 137.0
0.935000002384 -0.273000001907 -0.190999999642 130.0
0.927999973297 -0.277000010014 -0.189999997616 136.0
0.958000004292 -0.291999995708 -0.195999994874 134.0
0.931999981403 -0.289999991655 -0.190999999642 130.0
0.925000011921 -0.293999999762 -0.189999997616 131.0
0.929000020027 -0.300999999046 -0.190999999642 125.0
0.930999994278 -0.307999998331 -0.190999999642 129.0
0.907000005245 -0.305999994278 -0.187000006437 124.0
0.941999971867 -0.324000000954 -0.194000005722 124.0
0.913999974728 -0.321000009775 -0.188999995589 127.0
0.910000026226 -0.324999988079 -0.187999993563 120.0
0.929000020027 -0.338999986649 -0.193000003695 123.0
0.930000007153 -0.345999985933 -0.193000003695 124.0
0.940999984741 -0.356000006199 -0.195999994874 119.0
0.931999981403 -0.358999997377 -0.194000005722 122.0
0.925000011921 -0.363000005484 -0.193000003695 109.0
0.915000021458 -0.365000009537 -0.192000001669 114.0
0.925000011921 -0.375999987125 -0.194000005722 117.0
0.899999976158 -0.372000008821 -0.188999995589 115.0
0.907000005245 -0.381000012159 -0.190999999642 116.0
0.934000015259 -0.398999989033 -0.196999996901 110.0
0.908999979496 -0.395000010729 -0.192000001669 107.0
0.919000029564 -0.405999988317 -0.194999992847 106.0
0.888999998569 -0.40000000596 -0.188999995589 104.0
0.920000016689 -0.421000003815 -0.195999994874 104.0
0.888999998569 -0.412999987602 -0.189999997616 107.0
0.916999995708 -0.432999998331 -0.195999994874 95.0
0.925999999046 -0.444000005722 -0.199000000954 100.0
0.962000012398 -0.469000011683 -0.207000002265 105.0
0.975000023842 -0.483000010252 -0.209999993443 92.0
0.908999979496 -0.456999987364 -0.195999994874 105.0
0.934000015259 -0.476999998093 -0.202000007033 95.0
0.925000011921 -0.479999989271 -0.201000005007 98.0
0.944999992847 -0.497999995947 -0.206000000238 89.0
0.878000020981 -0.469000011683 -0.192000001669 94.0
0.885999977589 -0.481000006199 -0.194000005722 91.0
0.887000024319 -0.488000005484 -0.194999992847 105.0
0.879999995232 -0.49200001359 -0.194000005722 97.0
0.903999984264 -0.513000011444 -0.20000000298 93.0
2.9960000515 1.67700004578 -0.698000013828 130.0
3.07999992371 1.69799995422 -0.714999973774 119.0
3.06200003624 1.66400003433 -0.708999991417 103.0
3.34299993515 1.48000001907 -0.745999991894 70.0
3.38400006294 1.4240000248 -0.75 68.0
3.42899990082 1.41799998283 -0.758000016212 69.0
3.38000011444 1.37399995327 -0.745000004768 70.0
3.46399998665 1.35899996758 -0.759999990463 66.0
3.79699993134 1.30599999428 -0.820999979973 71.0
3.96600008011 1.33800005913 -0.856000006199 74.0
3.79699993134 1.25499999523 -0.818000018597 67.0
4.00899982452 1.2990000248 -0.861999988556 66.0
4.0640001297 0.925000011921 -0.853999972343 59.0
3.7990000248 0.841000020504 -0.79699999094 71.0
3.73000001907 0.802999973297 -0.782000005245 67.0
2.39700007439 -0.0379999987781 -0.490000009537 135.0
2.3789999485 -0.0520000010729 -0.486999988556 249.0
2.33699989319 -0.0649999976158 -0.477999985218 220.0
2.30800008774 -0.0769999995828 -0.472000002861 198.0
2.28900003433 -0.0900000035763 -0.467999994755 159.0
2.22699999809 -0.101000003517 -0.455000013113 80.0
1.00899994373 -0.0500000007451 -0.206000000238 106.0
0.962999999523 -0.0529999993742 -0.196999996901 134.0
0.955999970436 -0.0579999983311 -0.194999992847 133.0
0.98400002718 -0.0659999996424 -0.201000005007 139.0
0.95300000906 -0.0689999982715 -0.194999992847 136.0
0.95300000906 -0.0750000029802 -0.194999992847 137.0
0.959999978542 -0.0810000002384 -0.195999994874 131.0
0.954999983311 -0.0860000029206 -0.194999992847 132.0
0.959999978542 -0.0920000001788 -0.196999996901 136.0
0.990000009537 -0.101000003517 -0.202999994159 135.0
0.943000018597 -0.101999998093 -0.193000003695 136.0
0.994000017643 -0.112999998033 -0.203999996185 137.0
0.962999999523 -0.115000002086 -0.196999996901 140.0
0.958000004292 -0.119999997318 -0.195999994874 140.0
0.941999971867 -0.123999997973 -0.193000003695 138.0
0.959999978542 -0.131999999285 -0.196999996901 133.0
0.962000012398 -0.137999996543 -0.197999998927 138.0
0.962999999523 -0.143999993801 -0.197999998927 137.0
0.944999992847 -0.146999999881 -0.194000005722 139.0
0.966000020504 -0.156000003219 -0.199000000954 139.0
0.962000012398 -0.16099999845 -0.197999998927 140.0
0.963999986649 -0.166999995708 -0.199000000954 142.0
0.962000012398 -0.172999992967 -0.197999998927 141.0
0.943000018597 -0.17499999702 -0.194999992847 146.0
0.953999996185 -0.182999998331 -0.196999996901 147.0
0.948000013828 -0.187999993563 -0.195999994874 148.0
0.938000023365 -0.190999999642 -0.194000005722 140.0
0.949999988079 -0.20000000298 -0.196999996901 142.0
0.961000025272 -0.208000004292 -0.199000000954 141.0
0.93599998951 -0.208000004292 -0.194000005722 141.0
0.961000025272 -0.219999998808 -0.199000000954 140.0
0.948000013828 -0.223000004888 -0.196999996901 139.0
0.954999983311 -0.230000004172 -0.199000000954 140.0
0.935000002384 -0.231000006199 -0.194999992847 145.0
0.945999979973 -0.239999994636 -0.196999996901 137.0
0.954999983311 -0.247999995947 -0.199000000954 137.0
0.958000004292 -0.254999995232 -0.20000000298 140.0
0.95300000906 -0.259999990463 -0.199000000954 132.0
0.939999997616 -0.261999994516 -0.196999996901 133.0
0.962000012398 -0.27500000596 -0.202000007033 130.0
0.927999973297 -0.270999997854 -0.194999992847 132.0
0.913999974728 -0.272000014782 -0.192000001669 135.0
0.940999984741 -0.287000000477 -0.197999998927 129.0
0.927999973297 -0.28900000453 -0.195999994874 127.0
0.947000026703 -0.300999999046 -0.20000000298 127.0
0.947000026703 -0.307000011206 -0.20000000298 129.0
0.941999971867 -0.312000006437 -0.20000000298 122.0
0.954999983311 -0.323000013828 -0.202999994159 128.0
0.938000023365 -0.323000013828 -0.20000000298 130.0
0.916999995708 -0.321999996901 -0.194999992847 129.0
0.940999984741 -0.337000012398 -0.201000005007 118.0
0.919000029564 -0.335000008345 -0.196999996901 120.0
0.927999973297 -0.344999998808 -0.199000000954 115.0
0.934000015259 -0.354000002146 -0.20000000298 126.0
0.90499997139 -0.349000006914 -0.194000005722 116.0
0.930000007153 -0.365000009537 -0.20000000298 117.0
0.936999976635 -0.374000012875 -0.202000007033 120.0
0.924000024796 -0.375999987125 -0.20000000298 118.0
0.916999995708 -0.379999995232 -0.199000000954 113.0
0.930000007153 -0.391999989748 -0.202000007033 111.0
0.931999981403 -0.398999989033 -0.202999994159 107.0
0.925999999046 -0.404000014067 -0.202000007033 111.0
0.893000006676 -0.395000010729 -0.194999992847 107.0
0.889999985695 -0.400999993086 -0.194999992847 102.0
0.90600001812 -0.414999991655 -0.199000000954 102.0
0.933000028133 -0.433999985456 -0.204999998212 103.0
0.898999989033 -0.425000011921 -0.197999998927 104.0
0.916000008583 -0.439999997616 -0.202000007033 95.0
0.949000000954 -0.462999999523 -0.209999993443 99.0
0.930999994278 -0.462000012398 -0.207000002265 95.0
0.944000005722 -0.47499999404 -0.209999993443 100.0
0.915000021458 -0.467999994755 -0.203999996185 102.0
0.898999989033 -0.467000007629 -0.201000005007 94.0
0.913999974728 -0.481999993324 -0.204999998212 91.0
0.893000006676 -0.477999985218 -0.201000005007 92.0
0.870000004768 -0.472999989986 -0.196999996901 96.0
0.917999982834 -0.505999982357 -0.208000004292 95.0
0.867999970913 -0.486000001431 -0.196999996901 89.0
0.907999992371 -0.51599997282 -0.207000002265 94.0
3.03500008583 1.7009999752 -0.727999985218 115.0
3.02900004387 1.67200005054 -0.723999977112 124.0
3.08299994469 1.67700004578 -0.73400002718 110.0
3.69799995422 0.865999996662 -0.800999999046 64.0
3.71600008011 0.824000000954 -0.802999973297 63.0
3.72199988365 0.801999986172 -0.802999973297 69.0
3.7009999752 0.773999989033 -0.797999978065 56.0
3.73699998856 0.759000003338 -0.805000007153 60.0
2.40000009537 -0.0390000008047 -0.504999995232 147.0
2.38100004196 -0.0520000010729 -0.500999987125 248.0
2.35500001907 -0.0649999976158 -0.495999991894 221.0
2.3029999733 -0.0769999995828 -0.485000014305 197.0
2.30599999428 -0.0909999981523 -0.485000014305 157.0
2.20600008965 -0.10000000149 -0.465000003576 76.0
0.995999991894 -0.0489999987185 -0.209000006318 103.0
0.971000015736 -0.0540000014007 -0.203999996185 139.0
0.978999972343 -0.0599999986589 -0.206000000238 132.0
0.972999989986 -0.0649999976158 -0.204999998212 137.0
0.959999978542 -0.070000000298 -0.202000007033 140.0
0.980000019073 -0.0769999995828 -0.206000000238 139.0
0.972999989986 -0.082000002265 -0.204999998212 138.0
0.98400002718 -0.0890000015497 -0.207000002265 136.0
0.980000019073 -0.0939999967813 -0.207000002265 133.0
0.981999993324 -0.10000000149 -0.207000002265 134.0
0.959999978542 -0.104000002146 -0.202000007033 136.0
0.999000012875 -0.11400000006 -0.21099999547 140.0
0.962999999523 -0.115000002086 -0.202999994159 143.0
0.954999983311 -0.119999997318 -0.202000007033 147.0
0.976999998093 -0.128999993205 -0.206000000238 140.0
0.971000015736 -0.134000003338 -0.204999998212 127.0
0.933000028133 -0.134000003338 -0.196999996901 141.0
0.962000012398 -0.143999993801 -0.203999996185 143.0
0.97000002861 -0.150999993086 -0.204999998212 141.0
0.954999983311 -0.153999999166 -0.202000007033 146.0
0.966000020504 -0.162000000477 -0.204999998212 143.0
0.953999996185 -0.165999993682 -0.202000007033 147.0
0.943000018597 -0.170000001788 -0.20000000298 148.0
0.957000017166 -0.178000003099 -0.202999994159 142.0
0.964999973774 -0.185000002384 -0.204999998212 150.0
0.953999996185 -0.188999995589 -0.202999994159 137.0
0.959999978542 -0.195999994874 -0.203999996185 144.0
0.981000006199 -0.207000002265 -0.209000006318 146.0
0.917999982834 -0.199000000954 -0.195999994874 142.0
0.954999983311 -0.212999999523 -0.203999996185 135.0
0.949999988079 -0.216999992728 -0.202999994159 138.0
0.920000016689 -0.216000005603 -0.196999996901 141.0
0.93900001049 -0.226999998093 -0.201000005007 141.0
0.958999991417 -0.238000005484 -0.206000000238 143.0
0.945999979973 -0.239999994636 -0.202999994159 141.0
0.940999984741 -0.245000004768 -0.202000007033 137.0
0.943000018597 -0.252000004053 -0.202999994159 134.0
0.930999994278 -0.254000008106 -0.201000005007 133.0
0.945999979973 -0.263999998569 -0.203999996185 139.0
0.938000023365 -0.268000006676 -0.202999994159 140.0
0.926999986172 -0.270999997854 -0.201000005007 141.0
0.953999996185 -0.284999996424 -0.207000002265 133.0
0.953999996185 -0.291000008583 -0.207000002265 124.0
0.910000026226 -0.282999992371 -0.197999998927 126.0
0.962000012398 -0.305999994278 -0.209000006318 134.0
0.921000003815 -0.298999994993 -0.201000005007 127.0
0.976000010967 -0.324000000954 -0.212999999523 124.0
0.925999999046 -0.312999993563 -0.202999994159 120.0
0.972000002861 -0.335000008345 -0.212999999523 125.0
0.947000026703 -0.333000004292 -0.208000004292 123.0
0.929000020027 -0.333000004292 -0.203999996185 119.0
0.934000015259 -0.340999990702 -0.206000000238 126.0
0.931999981403 -0.347000002861 -0.206000000238 121.0
0.948000013828 -0.360000014305 -0.209999993443 116.0
0.930999994278 -0.358999997377 -0.206000000238 122.0
0.915000021458 -0.360000014305 -0.202999994159 112.0
0.931999981403 -0.372999995947 -0.207000002265 113.0
0.883000016212 -0.358999997377 -0.196999996901 114.0
0.93599998951 -0.388000011444 -0.209000006318 112.0
0.925000011921 -0.389999985695 -0.207000002265 105.0
0.948000013828 -0.407000005245 -0.211999997497 110.0
0.939999997616 -0.409999996424 -0.21099999547 106.0
0.958999991417 -0.425000011921 -0.216000005603 101.0
0.916000008583 -0.412999987602 -0.207000002265 105.0
0.935000002384 -0.428999990225 -0.21099999547 104.0
0.916000008583 -0.426999986172 -0.208000004292 104.0
0.935000002384 -0.442000001669 -0.211999997497 105.0
0.908999979496 -0.437000006437 -0.207000002265 97.0
0.870000004768 -0.425000011921 -0.199000000954 101.0
0.870999991894 -0.432000011206 -0.199000000954 96.0
0.897000014782 -0.451999992132 -0.206000000238 99.0
0.944000005722 -0.483000010252 -0.216999992728 101.0
0.912999987602 -0.47499999404 -0.21099999547 92.0
0.921000003815 -0.486000001431 -0.212999999523 98.0
0.916000008583 -0.490999996662 -0.212999999523 98.0
0.888000011444 -0.483000010252 -0.207000002265 91.0
0.919000029564 -0.507000029087 -0.21400000155 87.0
0.920000016689 -0.51599997282 -0.215000003576 98.0
0.884000003338 -0.503000020981 -0.207000002265 98.0
3.04200005531 1.70700001717 -0.75 149.0
3.02900004387 1.67499995232 -0.745000004768 128.0
3.12199997902 1.70000004768 -0.764999985695 110.0
3.69799995422 0.866999983788 -0.824000000954 62.0
3.72000002861 0.848999977112 -0.82800000906 58.0
3.68099999428 0.816999971867 -0.818000018597 60.0
3.6970000267 0.79699999094 -0.820999979973 62.0
3.68600010872 0.772000014782 -0.818000018597 57.0
3.66300010681 0.745000004768 -0.81099998951 60.0
2.38499999046 -0.0379999987781 -0.51700001955 146.0
2.38800001144 -0.0520000010729 -0.51700001955 249.0
2.34200000763 -0.0649999976158 -0.507000029087 222.0
2.31599998474 -0.0780000016093 -0.501999974251 199.0
2.30599999428 -0.0909999981523 -0.5 159.0
2.3069999218 -0.104999996722 -0.5 74.0
1.0039999485 -0.0500000007451 -0.216999992728 106.0
0.981000006199 -0.0540000014007 -0.211999997497 131.0
0.964999973774 -0.0590000003576 -0.209000006318 134.0
0.981000006199 -0.0659999996424 -0.211999997497 133.0
0.947000026703 -0.0689999982715 -0.204999998212 134.0
0.96899998188 -0.0759999975562 -0.209999993443 133.0
0.962000012398 -0.0810000002384 -0.208000004292 137.0
0.962999999523 -0.0869999974966 -0.209000006318 132.0
0.959999978542 -0.0930000022054 -0.208000004292 135.0
0.97000002861 -0.0989999994636 -0.209999993443 132.0
0.957000017166 -0.104000002146 -0.208000004292 130.0
0.972000002861 -0.111000001431 -0.21099999547 138.0
0.962999999523 -0.115999996662 -0.209000006318 139.0
0.961000025272 -0.120999999344 -0.209000006318 137.0
0.971000015736 -0.12800000608 -0.21099999547 138.0
0.97000002861 -0.134000003338 -0.21099999547 135.0
0.971000015736 -0.140000000596 -0.21099999547 142.0
0.972999989986 -0.145999997854 -0.211999997497 136.0
0.939999997616 -0.145999997854 -0.204999998212 139.0
0.943000018597 -0.152999997139 -0.206000000238 143.0
0.976000010967 -0.16400000453 -0.212999999523 141.0
0.966000020504 -0.167999997735 -0.21099999547 144.0
0.961000025272 -0.172999992967 -0.209999993443 144.0
0.973999977112 -0.180999994278 -0.212999999523 135.0
0.975000023842 -0.187000006437 -0.212999999523 142.0
0.976999998093 -0.194000005722 -0.21400000155 148.0
0.947000026703 -0.194000005722 -0.208000004292 133.0
0.953999996185 -0.201000005007 -0.209000006318 133.0
0.926999986172 -0.201000005007 -0.203999996185 141.0
0.961000025272 -0.21400000155 -0.21099999547 148.0
0.922999978065 -0.21099999547 -0.202999994159 140.0
0.944999992847 -0.223000004888 -0.208000004292 138.0
0.944000005722 -0.228000000119 -0.208000004292 141.0
0.931999981403 -0.231000006199 -0.206000000238 137.0
0.955999970436 -0.243000000715 -0.21099999547 138.0
0.929000020027 -0.241999998689 -0.206000000238 144.0
0.921000003815 -0.246000006795 -0.203999996185 140.0
0.949000000954 -0.259000003338 -0.209999993443 132.0
0.935000002384 -0.261999994516 -0.208000004292 141.0
0.966000020504 -0.277000010014 -0.215000003576 135.0
0.935000002384 -0.273999989033 -0.208000004292 132.0
0.941999971867 -0.282000005245 -0.209999993443 132.0
0.916999995708 -0.280000001192 -0.204999998212 127.0
0.949999988079 -0.29699999094 -0.211999997497 128.0
0.912000000477 -0.291000008583 -0.203999996185 126.0
0.925000011921 -0.300999999046 -0.207000002265 124.0
0.952000021935 -0.316000014544 -0.21400000155 125.0
0.917999982834 -0.31099998951 -0.206000000238 131.0
0.967000007629 -0.333999991417 -0.217999994755 121.0
0.924000024796 -0.324999988079 -0.209000006318 123.0
0.944999992847 -0.338999986649 -0.21400000155 122.0
0.912000000477 -0.333999991417 -0.207000002265 123.0
0.964999973774 -0.360000014305 -0.218999996781 123.0
0.924000024796 -0.351000010967 -0.209999993443 117.0
0.938000023365 -0.363000005484 -0.21400000155 113.0
