ply
format ascii 1.0
element vertex 917
property float x
property float y
property float z
property float intensity
end_header
0.980000019073 -0.300000011921 -0.218999996781 119.0
0.931999981403 -0.291000008583 -0.208000004292 125.0
0.981999993324 -0.312999993563 -0.219999998808 126.0
0.92199999094 -0.300000011921 -0.207000002265 125.0
0.957000017166 -0.317999988794 -0.215000003576 123.0
0.986999988556 -0.335000008345 -0.222000002861 125.0
0.949999988079 -0.32800000906 -0.21400000155 119.0
0.921000003815 -0.324000000954 -0.208000004292 113.0
0.940999984741 -0.337999999523 -0.212999999523 115.0
0.940999984741 -0.344000011683 -0.212999999523 114.0
0.927999973297 -0.345999985933 -0.21099999547 114.0
0.934000015259 -0.354000002146 -0.211999997497 104.0
0.898000001907 -0.347000002861 -0.204999998212 111.0
0.925000011921 -0.363999992609 -0.21099999547 113.0
0.917999982834 -0.368000000715 -0.209999993443 110.0
0.945999979973 -0.386000007391 -0.216999992728 108.0
0.90600001812 -0.375999987125 -0.208000004292 105.0
0.913999974728 -0.386000007391 -0.209999993443 102.0
0.947000026703 -0.407000005245 -0.217999994755 104.0
0.934000015259 -0.407999992371 -0.216000005603 101.0
0.867999970913 -0.384999990463 -0.201000005007 106.0
0.953999996185 -0.430999994278 -0.222000002861 99.0
0.943000018597 -0.432999998331 -0.219999998808 108.0
0.927999973297 -0.432999998331 -0.216999992728 104.0
0.898999989033 -0.425999999046 -0.209999993443 104.0
0.880999982357 -0.423999994993 -0.207000002265 97.0
0.862999975681 -0.42199999094 -0.202999994159 94.0
0.916999995708 -0.456000000238 -0.216000005603 101.0
0.887000024319 -0.448000013828 -0.209999993443 88.0
0.878000020981 -0.449999988079 -0.208000004292 94.0
0.879000008106 -0.456999987364 -0.209000006318 88.0
0.90600001812 -0.479000002146 -0.216000005603 92.0
0.921000003815 -0.493999987841 -0.219999998808 90.0
0.916000008583 -0.499000012875 -0.218999996781 87.0
0.90600001812 -0.500999987125 -0.217999994755 95.0
0.865999996662 -0.486000001431 -0.209000006318 88.0
0.884999990463 -0.504000008106 -0.21400000155 97.0
3.01699995995 1.64499998093 -0.759999990463 90.0
3.02800011635 1.62600004673 -0.760999977589 137.0
3.08899998665 1.63399994373 -0.773999989033 122.0
3.20600008965 1.67100000381 -0.800999999046 78.0
3.43099999428 1.44900000095 -0.82800000906 74.0
3.68799996376 0.819000005722 -0.842999994755 57.0
3.72399997711 0.804000020027 -0.850000023842 59.0
3.73200011253 0.782000005245 -0.851000010967 61.0
3.66199994087 0.745000004768 -0.833999991417 70.0
3.68499994278 0.726999998093 -0.837999999523 59.0
3.77600002289 0.722000002861 -0.85799998045 59.0
2.44899988174 -0.082999996841 -0.546000003815 100.0
2.38800001144 -0.0949999988079 -0.532000005245 225.0
2.38499999046 -0.108000002801 -0.53100001812 241.0
2.32699990273 -0.119000002742 -0.518999993801 215.0
2.30100011826 -0.131999999285 -0.513000011444 192.0
2.31599998474 -0.145999997854 -0.51599997282 149.0
2.28999996185 -0.197999998927 -0.510999977589 174.0
2.23099994659 -0.206000000238 -0.497999995947 164.0
1.12300002575 -0.108999997377 -0.250999987125 104.0
0.986000001431 -0.101000003517 -0.219999998808 138.0
0.953999996185 -0.103000000119 -0.212999999523 138.0
0.959999978542 -0.109999999404 -0.21400000155 132.0
0.985000014305 -0.119000002742 -0.219999998808 132.0
0.977999985218 -0.123000003397 -0.217999994755 138.0
0.963999986649 -0.127000004053 -0.215000003576 135.0
0.989000022411 -0.136999994516 -0.221000000834 129.0
0.958999991417 -0.137999996543 -0.215000003576 135.0
0.98400002718 -0.148000001907 -0.219999998808 135.0
0.957000017166 -0.149000003934 -0.21400000155 134.0
0.95300000906 -0.153999999166 -0.21400000155 136.0
0.952000021935 -0.159999996424 -0.21400000155 138.0
0.96899998188 -0.168999999762 -0.216999992728 137.0
0.940999984741 -0.170000001788 -0.21099999547 138.0
0.975000023842 -0.181999996305 -0.218999996781 140.0
0.93599998951 -0.180000007153 -0.21099999547 126.0
0.962000012398 -0.190999999642 -0.216999992728 139.0
0.964999973774 -0.197999998927 -0.217999994755 137.0
0.963999986649 -0.202999994159 -0.217999994755 130.0
0.95300000906 -0.207000002265 -0.215000003576 133.0
0.976000010967 -0.217999994755 -0.221000000834 138.0
0.958999991417 -0.219999998808 -0.216999992728 132.0
0.959999978542 -0.225999996066 -0.217999994755 131.0
0.973999977112 -0.236000001431 -0.221000000834 134.0
0.961000025272 -0.238999992609 -0.217999994755 131.0
0.976999998093 -0.248999997973 -0.222000002861 127.0
0.935000002384 -0.244000002742 -0.212999999523 133.0
0.950999975204 -0.254000008106 -0.216999992728 129.0
0.931999981403 -0.254999995232 -0.212999999523 130.0
0.940999984741 -0.263999998569 -0.215000003576 134.0
0.945999979973 -0.270999997854 -0.216000005603 133.0
0.916999995708 -0.268999993801 -0.209999993443 127.0
0.938000023365 -0.280999988317 -0.215000003576 120.0
0.938000023365 -0.287000000477 -0.215000003576 123.0
0.981000006199 -0.307000011206 -0.225999996066 127.0
0.963999986649 -0.307999998331 -0.222000002861 126.0
0.952000021935 -0.310000002384 -0.219999998808 122.0
0.924000024796 -0.307000011206 -0.212999999523 127.0
0.981999993324 -0.333000004292 -0.226999998093 124.0
0.939999997616 -0.324999988079 -0.217999994755 120.0
0.949000000954 -0.335000008345 -0.219999998808 109.0
0.930999994278 -0.335000008345 -0.216999992728 111.0
0.926999986172 -0.340000003576 -0.216000005603 106.0
0.952000021935 -0.354999989271 -0.222000002861 112.0
0.916000008583 -0.347999989986 -0.21400000155 111.0
0.949999988079 -0.368000000715 -0.223000004888 108.0
0.961000025272 -0.379000008106 -0.225999996066 109.0
0.941999971867 -0.377999991179 -0.222000002861 106.0
0.944999992847 -0.386000007391 -0.223000004888 109.0
0.90600001812 -0.375999987125 -0.21400000155 110.0
0.949000000954 -0.400999993086 -0.22499999404 107.0
0.897000014782 -0.384999990463 -0.212999999523 108.0
0.97000002861 -0.423999994993 -0.231000006199 99.0
0.933000028133 -0.414999991655 -0.222000002861 105.0
0.926999986172 -0.418999999762 -0.221000000834 96.0
0.89099997282 -0.409000009298 -0.212999999523 97.0
0.917999982834 -0.428999990225 -0.219999998808 95.0
0.93900001049 -0.446000009775 -0.225999996066 98.0
0.952000021935 -0.458999991417 -0.230000004172 95.0
0.97000002861 -0.476000010967 -0.234999999404 95.0
0.915000021458 -0.455000013113 -0.222000002861 95.0
0.915000021458 -0.462999999523 -0.222000002861 102.0
0.935000002384 -0.479999989271 -0.228000000119 89.0
0.935000002384 -0.488000005484 -0.228000000119 90.0
0.944000005722 -0.5 -0.231000006199 93.0
0.878000020981 -0.472000002861 -0.216000005603 90.0
0.888999998569 -0.485000014305 -0.218999996781 86.0
0.893999993801 -0.495000004768 -0.221000000834 89.0
0.929000020027 -0.522000014782 -0.230000004172 93.0
0.884000003338 -0.504000008106 -0.219999998808 96.0
3.01399993896 1.64600002766 -0.78100001812 92.0
3.04399991035 1.63699996471 -0.786000013351 146.0
3.09800004959 1.64100003242 -0.79699999094 112.0
2.39100003242 -0.0949999988079 -0.54699999094 231.0
2.37800002098 -0.108000002801 -0.544000029564 246.0
2.34699988365 -0.120999999344 -0.537000000477 215.0
2.32899999619 -0.133000001311 -0.532999992371 193.0
2.33500003815 -0.148000001907 -0.535000026226 149.0
2.35899996758 -0.163000002503 -0.540000021458 69.0
2.28900003433 -0.199000000954 -0.524999976158 180.0
2.2460000515 -0.208000004292 -0.514999985695 162.0
1.12699997425 -0.109999999404 -0.25799998641 107.0
1.00199997425 -0.103000000119 -0.230000004172 133.0
0.976000010967 -0.105999998748 -0.224000006914 135.0
0.955999970436 -0.108999997377 -0.218999996781 131.0
0.975000023842 -0.116999998689 -0.224000006914 127.0
0.976000010967 -0.123000003397 -0.224000006914 130.0
0.980000019073 -0.129999995232 -0.22499999404 136.0
0.96899998188 -0.134000003338 -0.223000004888 132.0
0.959999978542 -0.137999996543 -0.221000000834 136.0
0.981000006199 -0.146999999881 -0.225999996066 131.0
0.958999991417 -0.15000000596 -0.221000000834 136.0
0.986999988556 -0.159999996424 -0.226999998093 135.0
0.943000018597 -0.158999994397 -0.216999992728 133.0
0.952000021935 -0.165999993682 -0.219999998808 139.0
0.947000026703 -0.171000003815 -0.218999996781 139.0
0.971000015736 -0.180999994278 -0.224000006914 141.0
0.962000012398 -0.185000002384 -0.222000002861 134.0
0.967999994755 -0.193000003695 -0.224000006914 135.0
0.957000017166 -0.195999994874 -0.222000002861 136.0
0.967999994755 -0.204999998212 -0.224000006914 137.0
0.954999983311 -0.208000004292 -0.222000002861 132.0
0.972000002861 -0.216999992728 -0.225999996066 125.0
0.945999979973 -0.216999992728 -0.219999998808 130.0
0.964999973774 -0.228000000119 -0.22499999404 129.0
0.954999983311 -0.231000006199 -0.223000004888 131.0
0.971000015736 -0.240999996662 -0.225999996066 130.0
0.961000025272 -0.245000004768 -0.224000006914 124.0
0.962999999523 -0.252000004053 -0.22499999404 131.0
0.922999978065 -0.24699999392 -0.216000005603 129.0
0.945999979973 -0.259000003338 -0.222000002861 125.0
0.924000024796 -0.259000003338 -0.216999992728 124.0
0.903999984264 -0.259000003338 -0.212999999523 125.0
0.927999973297 -0.272000014782 -0.217999994755 129.0
0.944999992847 -0.282999992371 -0.223000004888 128.0
0.929000020027 -0.284999996424 -0.218999996781 122.0
0.924000024796 -0.28900000453 -0.217999994755 125.0
0.948000013828 -0.303000003099 -0.224000006914 122.0
0.943000018597 -0.307999998331 -0.223000004888 125.0
0.962999999523 -0.321000009775 -0.229000002146 112.0
0.913999974728 -0.310000002384 -0.216999992728 121.0
0.921000003815 -0.319000005722 -0.218999996781 114.0
0.945999979973 -0.333999991417 -0.225999996066 113.0
0.958000004292 -0.344999998808 -0.229000002146 107.0
0.921000003815 -0.337999999523 -0.221000000834 113.0
0.930999994278 -0.347999989986 -0.223000004888 110.0
0.949000000954 -0.361000001431 -0.228000000119 104.0
0.912000000477 -0.354000002146 -0.219999998808 103.0
0.967999994755 -0.381999999285 -0.233999997377 109.0
0.912999987602 -0.36700001359 -0.221000000834 101.0
0.948000013828 -0.388000011444 -0.230000004172 108.0
0.948000013828 -0.395000010729 -0.230000004172 105.0
0.910000026226 -0.384999990463 -0.222000002861 105.0
0.916000008583 -0.393999993801 -0.223000004888 100.0
0.898000001907 -0.393000006676 -0.218999996781 101.0
0.92199999094 -0.409999996424 -0.225999996066 104.0
0.908999979496 -0.411000013351 -0.223000004888 100.0
0.927999973297 -0.426999986172 -0.228000000119 99.0
0.941999971867 -0.441000014544 -0.231999993324 98.0
0.915000021458 -0.435000002384 -0.225999996066 99.0
0.888999998569 -0.428999990225 -0.219999998808 97.0
0.925999999046 -0.453999996185 -0.230000004172 99.0
0.916000008583 -0.456999987364 -0.228000000119 94.0
0.926999986172 -0.469000011683 -0.231999993324 96.0
0.929000020027 -0.477999985218 -0.232999995351 94.0
0.893999993801 -0.467000007629 -0.22499999404 93.0
0.911000013351 -0.483000010252 -0.229000002146 83.0
0.957000017166 -0.514999985695 -0.241999998689 95.0
0.898000001907 -0.490999996662 -0.228000000119 83.0
0.941999971867 -0.522000014782 -0.238999992609 85.0
0.940999984741 -0.52999997139 -0.239999994636 84.0
0.911000013351 -0.521000027657 -0.232999995351 93.0
3.03500008583 1.63499999046 -0.805000007153 141.0
3.09899997711 1.64400005341 -0.819000005722 111.0
3.15100002289 1.64600002766 -0.829999983311 90.0
2.43300008774 -0.082999996841 -0.572000026703 107.0
2.39199995995 -0.0949999988079 -0.561999976635 232.0
2.39800000191 -0.108999997377 -0.56400001049 240.0
2.32399988174 -0.119999997318 -0.546000003815 213.0
2.3220000267 -0.133000001311 -0.546000003815 194.0
2.30999994278 -0.145999997854 -0.542999982834 145.0
2.29500007629 -0.199000000954 -0.540000021458 193.0
2.2349998951 -0.207000002265 -0.526000022888 160.0
1.06500005722 -0.103000000119 -0.250999987125 105.0
0.981000006199 -0.101000003517 -0.231000006199 132.0
0.976000010967 -0.105999998748 -0.230000004172 132.0
0.949999988079 -0.108999997377 -0.224000006914 129.0
0.959999978542 -0.115999996662 -0.225999996066 126.0
0.963999986649 -0.122000001371 -0.226999998093 131.0
0.966000020504 -0.12800000608 -0.228000000119 129.0
0.958000004292 -0.133000001311 -0.225999996066 135.0
0.98299998045 -0.142000004649 -0.231999993324 130.0
0.967000007629 -0.145999997854 -0.228000000119 122.0
0.949000000954 -0.148000001907 -0.224000006914 134.0
0.949999988079 -0.153999999166 -0.22499999404 137.0
0.992999970913 -0.167999997735 -0.234999999404 132.0
0.925999999046 -0.162000000477 -0.218999996781 136.0
0.952000021935 -0.172000005841 -0.225999996066 132.0
0.967999994755 -0.180999994278 -0.230000004172 134.0
0.96899998188 -0.187000006437 -0.230000004172 130.0
0.957000017166 -0.190999999642 -0.226999998093 127.0
0.961000025272 -0.196999996901 -0.229000002146 128.0
0.962000012398 -0.202999994159 -0.229000002146 129.0
0.934000015259 -0.202999994159 -0.223000004888 138.0
0.976000010967 -0.218999996781 -0.232999995351 133.0
0.957000017166 -0.219999998808 -0.229000002146 131.0
0.933000028133 -0.219999998808 -0.223000004888 132.0
0.972000002861 -0.236000001431 -0.232999995351 132.0
0.989000022411 -0.246000006795 -0.237000003457 122.0
0.961000025272 -0.245000004768 -0.231000006199 126.0
0.958000004292 -0.250999987125 -0.230000004172 124.0
0.964999973774 -0.259000003338 -0.231999993324 125.0
0.925999999046 -0.254000008106 -0.223000004888 123.0
0.95300000906 -0.268000006676 -0.230000004172 124.0
0.955999970436 -0.27500000596 -0.231000006199 125.0
0.940999984741 -0.277000010014 -0.226999998093 123.0
0.95300000906 -0.286000013351 -0.231000006199 124.0
0.939999997616 -0.28900000453 -0.228000000119 120.0
0.92199999094 -0.28900000453 -0.224000006914 117.0
0.936999976635 -0.300000011921 -0.228000000119 127.0
0.955999970436 -0.312000006437 -0.232999995351 125.0
0.925999999046 -0.308999985456 -0.225999996066 121.0
0.972000002861 -0.331000000238 -0.238000005484 117.0
0.943000018597 -0.326999992132 -0.231000006199 111.0
0.933000028133 -0.330000013113 -0.229000002146 114.0
0.935000002384 -0.337000012398 -0.230000004172 116.0
0.925000011921 -0.340000003576 -0.226999998093 112.0
0.912000000477 -0.340999990702 -0.22499999404 104.0
0.925000011921 -0.352999985218 -0.228000000119 110.0
0.934000015259 -0.363000005484 -0.231000006199 115.0
0.934000015259 -0.368999987841 -0.231999993324 103.0
0.953999996185 -0.384000003338 -0.237000003457 108.0
0.948000013828 -0.388000011444 -0.236000001431 110.0
0.931999981403 -0.388000011444 -0.231999993324 104.0
0.952000021935 -0.404000014067 -0.238000005484 110.0
0.922999978065 -0.398000001907 -0.231000006199 100.0
0.933000028133 -0.409000009298 -0.233999997377 98.0
0.925000011921 -0.412999987602 -0.232999995351 107.0
0.954999983311 -0.432999998331 -0.240999996662 102.0
0.940999984741 -0.433999985456 -0.238000005484 100.0
0.903999984264 -0.423000007868 -0.229000002146 99.0
0.874000012875 -0.416000008583 -0.222000002861 93.0
0.926999986172 -0.448000013828 -0.236000001431 96.0
0.927999973297 -0.456000000238 -0.237000003457 94.0
0.911000013351 -0.455000013113 -0.232999995351 98.0
0.912999987602 -0.462999999523 -0.233999997377 98.0
0.865999996662 -0.446000009775 -0.223000004888 91.0
0.922999978065 -0.481999993324 -0.238000005484 95.0
0.93599998951 -0.497000008821 -0.241999998689 92.0
0.921000003815 -0.497000008821 -0.238999992609 88.0
0.936999976635 -0.513000011444 -0.244000002742 88.0
0.911000013351 -0.505999982357 -0.238000005484 83.0
0.908999979496 -0.513000011444 -0.238000005484 83.0
0.846000015736 -0.483999997377 -0.222000002861 86.0
3.02699995041 1.63300001621 -0.824000000954 125.0
3.04099988937 1.61500000954 -0.824999988079 102.0
3.04800009727 1.59399998188 -0.824000000954 78.0
2.3710000515 -0.0799999982119 -0.572000026703 112.0
2.37599992752 -0.0949999988079 -0.573000013828 229.0
2.3710000515 -0.108000002801 -0.572000026703 240.0
2.33800005913 -0.120999999344 -0.56400001049 207.0
2.30800008774 -0.133000001311 -0.556999981403 189.0
2.32699990273 -0.148000001907 -0.561999976635 152.0
2.26900005341 -0.184000000358 -0.547999978065 58.0
2.28099989891 -0.197999998927 -0.550999999046 208.0
2.22300004959 -0.207000002265 -0.537000000477 156.0
1.08099997044 -0.104999996722 -0.261000007391 111.0
0.976999998093 -0.101000003517 -0.236000001431 125.0
0.964999973774 -0.104999996722 -0.232999995351 125.0
0.959999978542 -0.109999999404 -0.231999993324 136.0
0.987999975681 -0.119000002742 -0.238999992609 135.0
0.973999977112 -0.123999997973 -0.236000001431 129.0
0.964999973774 -0.12800000608 -0.233999997377 134.0
0.963999986649 -0.134000003338 -0.232999995351 133.0
0.950999975204 -0.137999996543 -0.230000004172 127.0
0.944999992847 -0.142000004649 -0.229000002146 130.0
0.961000025272 -0.150999993086 -0.232999995351 137.0
0.986000001431 -0.16099999845 -0.238999992609 134.0
0.954999983311 -0.16099999845 -0.231999993324 131.0
0.936999976635 -0.16400000453 -0.228000000119 136.0
0.966000020504 -0.17499999702 -0.234999999404 129.0
0.986000001431 -0.185000002384 -0.239999994636 136.0
0.975000023842 -0.187999993563 -0.238000005484 128.0
0.943000018597 -0.187999993563 -0.230000004172 130.0
0.972000002861 -0.20000000298 -0.237000003457 135.0
0.96899998188 -0.204999998212 -0.237000003457 133.0
0.941999971867 -0.204999998212 -0.231000006199 131.0
0.972999989986 -0.217999994755 -0.238000005484 129.0
0.976000010967 -0.22499999404 -0.238999992609 125.0
0.987999975681 -0.233999997377 -0.241999998689 129.0
0.962000012398 -0.233999997377 -0.236000001431 129.0
0.940999984741 -0.234999999404 -0.231000006199 127.0
0.939999997616 -0.239999994636 -0.231999993324 127.0
0.90600001812 -0.237000003457 -0.223000004888 122.0
0.966000020504 -0.259000003338 -0.238999992609 137.0
0.981999993324 -0.270000010729 -0.243000000715 126.0
0.958999991417 -0.270000010729 -0.237000003457 121.0
0.962000012398 -0.277000010014 -0.238000005484 123.0
0.958999991417 -0.282000005245 -0.238000005484 121.0
0.949000000954 -0.284999996424 -0.236000001431 120.0
0.943000018597 -0.289999991655 -0.234999999404 121.0
0.930000007153 -0.291999995708 -0.231999993324 120.0
0.994000017643 -0.319000005722 -0.247999995947 120.0
0.985000014305 -0.321999996901 -0.246000006795 120.0
0.940999984741 -0.31400001049 -0.236000001431 118.0
0.924000024796 -0.314999997616 -0.231999993324 118.0
0.953999996185 -0.331000000238 -0.239999994636 116.0
0.93900001049 -0.331999987364 -0.236000001431 117.0
0.930999994278 -0.33599999547 -0.234999999404 103.0
0.902000010014 -0.331999987364 -0.228000000119 111.0
0.958999991417 -0.360000014305 -0.243000000715 106.0
0.940999984741 -0.358999997377 -0.238999992609 101.0
0.934000015259 -0.363000005484 -0.237000003457 104.0
0.944999992847 -0.374000012875 -0.240999996662 107.0
0.902999997139 -0.363999992609 -0.230000004172 101.0
0.934000015259 -0.38299998641 -0.238999992609 107.0
0.933000028133 -0.388999998569 -0.238999992609 101.0
0.947000026703 -0.402000010014 -0.243000000715 109.0
0.927999973297 -0.400999993086 -0.238999992609 108.0
0.945999979973 -0.416000008583 -0.244000002742 102.0
0.944000005722 -0.42199999094 -0.244000002742 97.0
0.930000007153 -0.42199999094 -0.240999996662 105.0
0.940999984741 -0.433999985456 -0.244000002742 102.0
0.916000008583 -0.428999990225 -0.238000005484 96.0
0.897000014782 -0.428000003099 -0.233999997377 95.0
0.902999997139 -0.437000006437 -0.236000001431 95.0
0.907000005245 -0.446999996901 -0.238000005484 90.0
0.944000005722 -0.472000002861 -0.247999995947 91.0
0.874000012875 -0.444000005722 -0.230000004172 86.0
0.927999973297 -0.477999985218 -0.245000004768 89.0
0.92199999094 -0.483000010252 -0.244000002742 91.0
0.922999978065 -0.490999996662 -0.245000004768 83.0
0.90600001812 -0.488999992609 -0.240999996662 89.0
0.922999978065 -0.505999982357 -0.24699999392 86.0
0.898999989033 -0.5 -0.240999996662 88.0
0.893000006676 -0.504000008106 -0.239999994636 93.0
0.879000008106 -0.504000008106 -0.237000003457 86.0
3.08299994469 1.66499996185 -0.860000014305 90.0
3.10199999809 1.64999997616 -0.862999975681 104.0
2.38599991798 -0.0949999988079 -0.589999973774 242.0
2.37700009346 -0.108999997377 -0.587999999523 244.0
2.33200001717 -0.120999999344 -0.577000021935 216.0
2.32100009918 -0.134000003338 -0.574000000954 188.0
2.31500005722 -0.146999999881 -0.573000013828 148.0
2.27200007439 -0.197999998927 -0.563000023365 222.0
2.18300008774 -0.202999994159 -0.541000008583 162.0
1.0379999876 -0.101000003517 -0.256999999285 109.0
0.966000020504 -0.10000000149 -0.238999992609 126.0
0.961000025272 -0.104999996722 -0.238000005484 126.0
0.958999991417 -0.109999999404 -0.238000005484 121.0
0.954999983311 -0.115000002086 -0.237000003457 131.0
0.985000014305 -0.125 -0.244000002742 132.0
0.963999986649 -0.12800000608 -0.238999992609 136.0
0.971000015736 -0.135000005364 -0.240999996662 135.0
0.967999994755 -0.140000000596 -0.240999996662 131.0
0.950999975204 -0.143000006676 -0.236000001431 130.0
0.93599998951 -0.146999999881 -0.232999995351 128.0
0.966000020504 -0.157000005245 -0.239999994636 127.0
0.953999996185 -0.16099999845 -0.238000005484 132.0
0.981999993324 -0.172000005841 -0.245000004768 136.0
0.93900001049 -0.170000001788 -0.233999997377 136.0
0.966000020504 -0.180999994278 -0.240999996662 131.0
0.955999970436 -0.185000002384 -0.238999992609 129.0
0.947000026703 -0.188999995589 -0.237000003457 133.0
0.944000005722 -0.194000005722 -0.236000001431 137.0
0.949000000954 -0.201000005007 -0.238000005484 130.0
0.955999970436 -0.209000006318 -0.239999994636 135.0
0.953999996185 -0.21400000155 -0.239999994636 125.0
0.930000007153 -0.21400000155 -0.233999997377 129.0
0.953999996185 -0.225999996066 -0.239999994636 132.0
0.967999994755 -0.236000001431 -0.244000002742 126.0
0.971000015736 -0.243000000715 -0.245000004768 126.0
0.955999970436 -0.245000004768 -0.240999996662 121.0
0.97000002861 -0.254999995232 -0.245000004768 126.0
0.949999988079 -0.254999995232 -0.239999994636 124.0
0.963999986649 -0.264999985695 -0.244000002742 127.0
0.943000018597 -0.266000002623 -0.238999992609 122.0
0.95300000906 -0.27500000596 -0.241999998689 121.0
0.96899998188 -0.286000013351 -0.24699999392 122.0
0.949999988079 -0.286000013351 -0.241999998689 116.0
0.929000020027 -0.286000013351 -0.237000003457 116.0
0.907000005245 -0.284999996424 -0.231999993324 120.0
0.933000028133 -0.298999994993 -0.238999992609 115.0
0.936999976635 -0.307000011206 -0.239999994636 119.0
0.925000011921 -0.308999985456 -0.238000005484 116.0
0.933000028133 -0.317999988794 -0.239999994636 116.0
0.944000005722 -0.32800000906 -0.243000000715 111.0
0.917999982834 -0.326000005007 -0.237000003457 109.0
0.943000018597 -0.340999990702 -0.244000002742 107.0
0.930000007153 -0.342999994755 -0.240999996662 109.0
0.90600001812 -0.340000003576 -0.234999999404 105.0
0.913999974728 -0.349000006914 -0.238000005484 109.0
0.920000016689 -0.358000010252 -0.239999994636 108.0
0.949999988079 -0.377000004053 -0.247999995947 102.0
0.936999976635 -0.377999991179 -0.245000004768 110.0
0.907000005245 -0.372000008821 -0.238000005484 105.0
0.925000011921 -0.386000007391 -0.243000000715 103.0
0.92199999094 -0.391999989748 -0.243000000715 107.0
0.924000024796 -0.40000000596 -0.244000002742 100.0
0.935000002384 -0.411000013351 -0.24699999392 103.0
0.908999979496 -0.405999988317 -0.240999996662 102.0
0.889999985695 -0.404000014067 -0.236000001431 100.0
0.875 -0.404000014067 -0.232999995351 98.0
0.947000026703 -0.444999992847 -0.252999991179 91.0
0.944000005722 -0.451000005007 -0.252999991179 97.0
0.948000013828 -0.460000008345 -0.254000008106 98.0
0.944000005722 -0.465000003576 -0.254000008106 98.0
0.910000026226 -0.456000000238 -0.245000004768 91.0
0.90600001812 -0.46099999547 -0.245000004768 89.0
0.894999980927 -0.462000012398 -0.243000000715 90.0
0.855000019073 -0.448000013828 -0.231999993324 85.0
0.90600001812 -0.481999993324 -0.24699999392 90.0
0.939999997616 -0.508000016212 -0.256999999285 96.0
0.887000024319 -0.486000001431 -0.243000000715 86.0
0.855000019073 -0.476000010967 -0.234999999404 85.0
0.913999974728 -0.51700001955 -0.252000004053 97.0
1.00100004673 -0.574999988079 -0.277000010014 92.0
2.38100004196 -0.0949999988079 -0.603999972343 245.0
2.37599992752 -0.108999997377 -0.602999985218 245.0
2.33599996567 -0.120999999344 -0.592999994755 217.0
2.31900000572 -0.134000003338 -0.587999999523 199.0
2.29600000381 -0.145999997854 -0.583000004292 151.0
2.25099992752 -0.182999998331 -0.572000026703 74.0
2.26799988747 -0.197999998927 -0.575999975204 220.0
2.20799994469 -0.206000000238 -0.56099998951 157.0
1.04100000858 -0.101000003517 -0.263999998569 109.0
0.973999977112 -0.101000003517 -0.24699999392 125.0
0.985000014305 -0.108000002801 -0.25 123.0
0.958000004292 -0.109999999404 -0.243000000715 133.0
0.973999977112 -0.118000000715 -0.247999995947 129.0
0.981000006199 -0.125 -0.25 134.0
0.977999985218 -0.129999995232 -0.248999997973 128.0
0.958000004292 -0.133000001311 -0.244000002742 130.0
0.93900001049 -0.136000007391 -0.238999992609 126.0
0.976000010967 -0.148000001907 -0.248999997973 131.0
0.955999970436 -0.15000000596 -0.244000002742 131.0
0.950999975204 -0.155000001192 -0.243000000715 131.0
0.958999991417 -0.162000000477 -0.245000004768 132.0
0.947000026703 -0.165999993682 -0.241999998689 130.0
0.959999978542 -0.173999994993 -0.246000006795 132.0
0.958000004292 -0.180000007153 -0.245000004768 130.0
0.958999991417 -0.186000004411 -0.246000006795 131.0
0.916000008583 -0.182999998331 -0.234999999404 126.0
0.95300000906 -0.195999994874 -0.245000004768 128.0
0.958000004292 -0.202999994159 -0.246000006795 129.0
0.95300000906 -0.208000004292 -0.245000004768 123.0
0.972999989986 -0.218999996781 -0.250999987125 133.0
0.936999976635 -0.216000005603 -0.241999998689 134.0
0.95300000906 -0.225999996066 -0.246000006795 129.0
0.961000025272 -0.233999997377 -0.247999995947 120.0
0.93599998951 -0.233999997377 -0.241999998689 127.0
0.957000017166 -0.245000004768 -0.247999995947 119.0
0.949000000954 -0.248999997973 -0.246000006795 123.0
0.96899998188 -0.261000007391 -0.252000004053 123.0
0.961000025272 -0.264999985695 -0.25 128.0
0.949999988079 -0.268000006676 -0.24699999392 120.0
0.929000020027 -0.268000006676 -0.241999998689 122.0
0.950999975204 -0.280000001192 -0.247999995947 123.0
0.975000023842 -0.293999999762 -0.254999995232 126.0
0.940999984741 -0.289999991655 -0.246000006795 120.0
0.941999971867 -0.296000003815 -0.24699999392 116.0
0.934000015259 -0.300000011921 -0.245000004768 115.0
0.978999972343 -0.321000009775 -0.256999999285 114.0
0.948000013828 -0.317999988794 -0.25 110.0
0.944999992847 -0.323000013828 -0.248999997973 123.0
0.975000023842 -0.340000003576 -0.25799998641 119.0
0.92199999094 -0.326999992132 -0.244000002742 114.0
0.938000023365 -0.340000003576 -0.248999997973 109.0
0.977999985218 -0.361000001431 -0.259999990463 108.0
0.924000024796 -0.347000002861 -0.246000006795 111.0
0.883000016212 -0.337999999523 -0.234999999404 105.0
0.912000000477 -0.354999989271 -0.244000002742 102.0
0.938000023365 -0.372000008821 -0.250999987125 108.0
0.93599998951 -0.377999991179 -0.250999987125 106.0
0.953999996185 -0.393000006676 -0.256999999285 103.0
0.934000015259 -0.391000002623 -0.252000004053 102.0
0.926999986172 -0.395000010729 -0.25 99.0
0.908999979496 -0.393999993801 -0.246000006795 105.0
0.949999988079 -0.418999999762 -0.25799998641 96.0
0.971000015736 -0.435000002384 -0.263999998569 102.0
0.948000013828 -0.432000011206 -0.25799998641 94.0
0.887000024319 -0.409999996424 -0.241999998689 93.0
0.907000005245 -0.426999986172 -0.247999995947 93.0
0.85799998045 -0.409999996424 -0.234999999404 99.0
0.913999974728 -0.444000005722 -0.250999987125 94.0
0.938000023365 -0.462999999523 -0.259000003338 94.0
0.925000011921 -0.463999986649 -0.256000012159 93.0
0.908999979496 -0.462999999523 -0.252000004053 90.0
0.915000021458 -0.474000006914 -0.254999995232 89.0
0.912999987602 -0.479999989271 -0.254999995232 86.0
0.925999999046 -0.493999987841 -0.259000003338 90.0
0.912999987602 -0.495000004768 -0.256000012159 93.0
0.925999999046 -0.509000003338 -0.261000007391 86.0
0.869000017643 -0.485000014305 -0.245000004768 95.0
0.908999979496 -0.514999985695 -0.256999999285 88.0
2.40300011635 -0.082000002265 -0.624000012875 149.0
2.38899993896 -0.0960000008345 -0.620999991894 269.0
2.3789999485 -0.108999997377 -0.617999970913 256.0
2.33999991417 -0.120999999344 -0.60799998045 217.0
2.30999994278 -0.133000001311 -0.600000023842 200.0
2.33899998665 -0.149000003934 -0.60799998045 148.0
2.25999999046 -0.157000005245 -0.587999999523 61.0
2.27999997139 -0.199000000954 -0.592999994755 236.0
2.18300008774 -0.203999996185 -0.568000018597 154.0
1.06400001049 -0.104000002146 -0.277000010014 109.0
0.976999998093 -0.101000003517 -0.254000008106 126.0
0.962999999523 -0.104999996722 -0.25 117.0
0.948000013828 -0.108999997377 -0.24699999392 123.0
0.955999970436 -0.115999996662 -0.248999997973 125.0
0.963999986649 -0.123000003397 -0.250999987125 124.0
0.976000010967 -0.129999995232 -0.254999995232 127.0
0.967999994755 -0.135000005364 -0.252000004053 121.0
0.944000005722 -0.136999994516 -0.246000006795 127.0
0.971000015736 -0.146999999881 -0.254000008106 127.0
0.972999989986 -0.152999997139 -0.254000008106 132.0
0.959999978542 -0.157000005245 -0.250999987125 129.0
0.953999996185 -0.162000000477 -0.25 133.0
0.962999999523 -0.168999999762 -0.252000004053 131.0
0.941999971867 -0.171000003815 -0.24699999392 136.0
0.962000012398 -0.180999994278 -0.252000004053 135.0
0.944000005722 -0.182999998331 -0.247999995947 132.0
0.967000007629 -0.194000005722 -0.254000008106 133.0
0.954999983311 -0.196999996901 -0.250999987125 129.0
0.958999991417 -0.203999996185 -0.252000004053 126.0
0.954999983311 -0.209000006318 -0.252000004053 131.0
0.98299998045 -0.221000000834 -0.259000003338 129.0
0.962000012398 -0.223000004888 -0.254000008106 127.0
0.995999991894 -0.237000003457 -0.263000011444 126.0
0.922999978065 -0.22499999404 -0.244000002742 131.0
0.95300000906 -0.238999992609 -0.252999991179 124.0
0.957000017166 -0.246000006795 -0.254000008106 122.0
0.975000023842 -0.256999999285 -0.259000003338 123.0
0.93599998951 -0.252000004053 -0.248999997973 123.0
0.958999991417 -0.264999985695 -0.254999995232 125.0
0.975000023842 -0.27500000596 -0.259999990463 126.0
0.933000028133 -0.268999993801 -0.248999997973 120.0
0.935000002384 -0.275999993086 -0.25 121.0
0.953999996185 -0.287999987602 -0.254999995232 119.0
0.940999984741 -0.289999991655 -0.252000004053 122.0
0.954999983311 -0.300999999046 -0.256999999285 118.0
0.949999988079 -0.305999994278 -0.256000012159 117.0
0.934000015259 -0.307000011206 -0.252000004053 126.0
0.940999984741 -0.316000014544 -0.254000008106 118.0
0.927999973297 -0.317000001669 -0.250999987125 109.0
0.957000017166 -0.333999991417 -0.259000003338 110.0
0.920000016689 -0.326999992132 -0.25 115.0
0.916999995708 -0.331999987364 -0.248999997973 109.0
0.917999982834 -0.338999986649 -0.25 112.0
0.93599998951 -0.351999998093 -0.254999995232 102.0
0.908999979496 -0.347999989986 -0.247999995947 99.0
0.907999992371 -0.354000002146 -0.248999997973 100.0
0.943000018597 -0.375 -0.259000003338 103.0
0.934000015259 -0.377999991179 -0.256999999285 104.0
0.925000011921 -0.381000012159 -0.254999995232 106.0
0.943000018597 -0.395000010729 -0.259999990463 103.0
0.945999979973 -0.404000014067 -0.261999994516 107.0
0.907999992371 -0.393999993801 -0.252000004053 106.0
0.933000028133 -0.412000000477 -0.259000003338 101.0
0.903999984264 -0.405000001192 -0.252000004053 100.0
0.922999978065 -0.421000003815 -0.25799998641 98.0
0.927999973297 -0.430000007153 -0.259999990463 102.0
0.929000020027 -0.437999993563 -0.261000007391 92.0
0.865000009537 -0.41400000453 -0.243000000715 92.0
0.865000009537 -0.421000003815 -0.244000002742 102.0
0.89200001955 -0.441000014544 -0.252000004053 91.0
0.927999973297 -0.465999990702 -0.263000011444 98.0
0.912000000477 -0.465000003576 -0.259000003338 84.0
0.894999980927 -0.463999986649 -0.254999995232 93.0
0.95300000906 -0.501999974251 -0.272000014782 85.0
0.93900001049 -0.501999974251 -0.268999993801 85.0
0.883000016212 -0.479000002146 -0.254000008106 91.0
0.89099997282 -0.490000009537 -0.256999999285 88.0
0.964999973774 -0.540000021458 -0.279000014067 81.0
0.907999992371 -0.514999985695 -0.263000011444 87.0
0.907000005245 -0.523000001907 -0.263999998569 86.0
2.38899993896 -0.082000002265 -0.635999977589 164.0
2.38199996948 -0.0960000008345 -0.634000003338 290.0
2.37700009346 -0.108999997377 -0.633000016212 273.0
2.33200001717 -0.120999999344 -0.620999991894 226.0
2.30999994278 -0.134000003338 -0.615000009537 204.0
2.33400011063 -0.149000003934 -0.620999991894 153.0
2.36599993706 -0.165000006557 -0.629999995232 56.0
2.29099988937 -0.187000006437 -0.611000001431 93.0
2.28699994087 -0.20000000298 -0.60900002718 239.0
2.14400005341 -0.20000000298 -0.572000026703 143.0
1.02999997139 -0.101000003517 -0.273999989033 116.0
0.95300000906 -0.0989999994636 -0.254000008106 130.0
0.962999999523 -0.104999996722 -0.256999999285 122.0
0.950999975204 -0.109999999404 -0.254000008106 118.0
0.955999970436 -0.115999996662 -0.254999995232 120.0
0.989000022411 -0.126000002027 -0.263999998569 123.0
0.955999970436 -0.12800000608 -0.254999995232 123.0
0.977999985218 -0.136999994516 -0.261000007391 127.0
0.952000021935 -0.138999998569 -0.254000008106 127.0
0.939999997616 -0.142000004649 -0.250999987125 128.0
0.967999994755 -0.152999997139 -0.259000003338 123.0
0.96899998188 -0.158999994397 -0.259999990463 138.0
0.985000014305 -0.166999995708 -0.263999998569 129.0
0.952000021935 -0.166999995708 -0.254999995232 134.0
0.995000004768 -0.180999994278 -0.266999989748 132.0
0.958000004292 -0.180000007153 -0.256999999285 128.0
0.961000025272 -0.187000006437 -0.259000003338 127.0
0.967000007629 -0.194000005722 -0.259999990463 129.0
0.95300000906 -0.196999996901 -0.256999999285 124.0
0.949000000954 -0.202000007033 -0.256000012159 128.0
0.954999983311 -0.209000006318 -0.25799998641 124.0
0.964999973774 -0.217999994755 -0.261000007391 126.0
0.938000023365 -0.216999992728 -0.254000008106 130.0
0.930999994278 -0.221000000834 -0.252000004053 126.0
0.966000020504 -0.236000001431 -0.261999994516 131.0
0.930999994278 -0.232999995351 -0.252999991179 125.0
0.958000004292 -0.246000006795 -0.259999990463 125.0
0.952000021935 -0.250999987125 -0.259000003338 123.0
0.944000005722 -0.254999995232 -0.256999999285 122.0
0.955999970436 -0.263999998569 -0.261000007391 128.0
0.944000005722 -0.266999989748 -0.25799998641 123.0
0.958000004292 -0.277000010014 -0.261999994516 118.0
0.96899998188 -0.287000000477 -0.266000002623 122.0
0.934000015259 -0.282999992371 -0.256000012159 123.0
0.948000013828 -0.293000012636 -0.261000007391 116.0
0.949999988079 -0.300000011921 -0.261000007391 116.0
0.972000002861 -0.31400001049 -0.268000006676 116.0
0.90600001812 -0.298000007868 -0.25 110.0
0.938000023365 -0.314999997616 -0.259000003338 111.0
0.935000002384 -0.319999992847 -0.259000003338 122.0
0.940999984741 -0.328999996185 -0.261000007391 114.0
0.915000021458 -0.326000005007 -0.254000008106 104.0
0.944000005722 -0.342999994755 -0.263000011444 106.0
0.934000015259 -0.345999985933 -0.261000007391 110.0
0.930000007153 -0.351000010967 -0.259999990463 111.0
0.930000007153 -0.356999993324 -0.259999990463 105.0
0.936999976635 -0.36700001359 -0.263000011444 108.0
0.940999984741 -0.375 -0.263999998569 101.0
0.934000015259 -0.379000008106 -0.263000011444 109.0
0.920000016689 -0.379000008106 -0.259999990463 102.0
0.930999994278 -0.391000002623 -0.263000011444 100.0
0.908999979496 -0.388000011444 -0.25799998641 108.0
0.952000021935 -0.41400000453 -0.270000010729 100.0
0.939999997616 -0.414999991655 -0.268000006676 100.0
0.880999982357 -0.395999997854 -0.250999987125 93.0
0.947000026703 -0.432999998331 -0.270999997854 94.0
0.958999991417 -0.446000009775 -0.27500000596 96.0
0.919000029564 -0.433999985456 -0.263999998569 91.0
0.916000008583 -0.43900001049 -0.263999998569 95.0
0.884999990463 -0.430999994278 -0.256000012159 87.0
0.941999971867 -0.467000007629 -0.273000001907 91.0
0.913999974728 -0.460000008345 -0.264999985695 86.0
0.924000024796 -0.472000002861 -0.268999993801 91.0
0.950999975204 -0.493999987841 -0.277999997139 89.0
0.888999998569 -0.469000011683 -0.261000007391 88.0
0.902000010014 -0.483000010252 -0.264999985695 89.0
0.903999984264 -0.490999996662 -0.266000002623 89.0
0.862999975681 -0.476000010967 -0.254999995232 89.0
0.847999989986 -0.474000006914 -0.250999987125 84.0
0.920000016689 -0.523000001907 -0.273999989033 83.0
0.864000022411 -0.497999995947 -0.256999999285 91.0
2.42300009727 -0.082999996841 -0.660000026226 133.0
2.37400007248 -0.0960000008345 -0.647000014782 303.0
2.36199998856 -0.108999997377 -0.643000006676 275.0
2.31200003624 -0.119999997318 -0.629999995232 228.0
2.31500005722 -0.134000003338 -0.630999982357 203.0
2.32299995422 -0.148000001907 -0.633000016212 148.0
2.36199998856 -0.193000003695 -0.643999993801 100.0
2.28200006485 -0.20000000298 -0.623000025749 243.0
2.12800002098 -0.199000000954 -0.580999970436 148.0
1.03999996185 -0.101999998093 -0.284000009298 117.0
0.976000010967 -0.101000003517 -0.266000002623 127.0
0.966000020504 -0.105999998748 -0.263000011444 120.0
0.964999973774 -0.112000003457 -0.263000011444 122.0
0.944999992847 -0.115000002086 -0.25799998641 124.0
0.994000017643 -0.127000004053 -0.272000014782 121.0
0.95300000906 -0.127000004053 -0.261000007391 126.0
0.980000019073 -0.136999994516 -0.268000006676 120.0
0.976000010967 -0.142000004649 -0.266999989748 124.0
0.949000000954 -0.143999993801 -0.259999990463 124.0
0.973999977112 -0.153999999166 -0.266999989748 129.0
0.953999996185 -0.156000003219 -0.261999994516 127.0
0.958999991417 -0.163000002503 -0.263000011444 130.0
0.971000015736 -0.171000003815 -0.266999989748 128.0
0.954999983311 -0.173999994993 -0.263000011444 132.0
0.966000020504 -0.181999996305 -0.266000002623 131.0
0.999000012875 -0.194999992847 -0.27500000596 122.0
0.943000018597 -0.188999995589 -0.259999990463 126.0
0.944999992847 -0.195999994874 -0.261000007391 125.0
0.940999984741 -0.201000005007 -0.259999990463 124.0
0.967000007629 -0.211999997497 -0.266999989748 120.0
0.939999997616 -0.211999997497 -0.259999990463 127.0
0.925000011921 -0.215000003576 -0.256000012159 123.0
0.97000002861 -0.231000006199 -0.268999993801 123.0
0.934000015259 -0.229000002146 -0.259000003338 126.0
0.981999993324 -0.24699999392 -0.273000001907 122.0
0.925999999046 -0.238000005484 -0.25799998641 120.0
0.977999985218 -0.25799998641 -0.273000001907 125.0
0.976000010967 -0.263999998569 -0.272000014782 126.0
0.947000026703 -0.261999994516 -0.263999998569 121.0
0.976999998093 -0.277000010014 -0.273000001907 114.0
0.929000020027 -0.268999993801 -0.259999990463 120.0
0.95300000906 -0.282999992371 -0.266999989748 122.0
0.96899998188 -0.293999999762 -0.272000014782 119.0
0.950999975204 -0.293999999762 -0.268000006676 117.0
0.958999991417 -0.303000003099 -0.270000010729 111.0
0.92199999094 -0.298000007868 -0.259999990463 121.0
0.925000011921 -0.305000007153 -0.261999994516 121.0
0.948000013828 -0.319000005722 -0.268000006676 123.0
0.908999979496 -0.312000006437 -0.25799998641 116.0
0.931999981403 -0.326000005007 -0.264999985695 113.0
0.954999983311 -0.340999990702 -0.272000014782 113.0
0.952000021935 -0.345999985933 -0.270999997854 125.0
0.957000017166 -0.354999989271 -0.273000001907 108.0
0.945999979973 -0.356999993324 -0.270999997854 110.0
0.924000024796 -0.354999989271 -0.264999985695 109.0
0.916000008583 -0.358999997377 -0.263000011444 108.0
0.921000003815 -0.368000000715 -0.264999985695 96.0
0.957000017166 -0.388999998569 -0.275999993086 100.0
0.920000016689 -0.379999995232 -0.266000002623 97.0
0.896000027657 -0.377000004053 -0.259999990463 94.0
0.925000011921 -0.395999997854 -0.268999993801 100.0
0.940999984741 -0.409999996424 -0.273999989033 100.0
0.994000017643 -0.439999997616 -0.289999991655 98.0
0.907000005245 -0.407999992371 -0.264999985695 97.0
0.907000005245 -0.414999991655 -0.266000002623 92.0
0.910000026226 -0.423000007868 -0.266999989748 86.0
0.871999979019 -0.412000000477 -0.256999999285 91.0
0.885999977589 -0.425000011921 -0.261000007391 90.0
0.944999992847 -0.46099999547 -0.280000001192 93.0
0.915000021458 -0.453999996185 -0.272000014782 89.0
0.958999991417 -0.483999997377 -0.284999996424 92.0
0.874000012875 -0.446999996901 -0.261000007391 90.0
0.931999981403 -0.485000014305 -0.279000014067 94.0
0.939999997616 -0.495999991894 -0.282000005245 90.0
0.908999979496 -0.486999988556 -0.273000001907 91.0
0.981000006199 -0.533999979496 -0.296000003815 86.0
0.907999992371 -0.501999974251 -0.27500000596 91.0
0.85799998045 -0.481000006199 -0.259999990463 89.0
0.898999989033 -0.512000024319 -0.273000001907 91.0
0.842999994755 -0.486999988556 -0.256999999285 87.0
2.3789999485 -0.082000002265 -0.662999987602 104.0
2.38599991798 -0.0960000008345 -0.665000021458 210.0
2.35400009155 -0.108999997377 -0.65600001812 219.0
2.30999994278 -0.119999997318 -0.643999993801 235.0
2.32699990273 -0.135000005364 -0.648999989033 205.0
2.31500005722 -0.148000001907 -0.646000027657 151.0
2.34299993515 -0.16400000453 -0.653999984264 60.0
2.30900001526 -0.188999995589 -0.643999993801 121.0
2.28200006485 -0.201000005007 -0.637000024319 245.0
2.1210000515 -0.199000000954 -0.592000007629 140.0
1.00999999046 -0.0989999994636 -0.282000005245 118.0
0.938000023365 -0.097000002861 -0.261999994516 119.0
0.966000020504 -0.105999998748 -0.270000010729 120.0
0.957000017166 -0.111000001431 -0.266999989748 127.0
0.967000007629 -0.118000000715 -0.270000010729 125.0
0.958999991417 -0.123000003397 -0.268000006676 124.0
0.990000009537 -0.133000001311 -0.277000010014 122.0
0.964999973774 -0.135000005364 -0.270000010729 125.0
0.953999996185 -0.138999998569 -0.266999989748 128.0
0.973999977112 -0.148000001907 -0.273000001907 129.0
0.952000021935 -0.150999993086 -0.266999989748 127.0
0.959999978542 -0.158000007272 -0.268999993801 126.0
0.953999996185 -0.163000002503 -0.268000006676 132.0
0.967999994755 -0.171000003815 -0.272000014782 127.0
0.948000013828 -0.172999992967 -0.266999989748 127.0
0.952000021935 -0.180000007153 -0.268000006676 126.0
0.952000021935 -0.186000004411 -0.268000006676 130.0
0.963999986649 -0.194000005722 -0.272000014782 125.0
0.972999989986 -0.202000007033 -0.27500000596 125.0
0.944999992847 -0.202000007033 -0.266999989748 126.0
0.944999992847 -0.208000004292 -0.266999989748 123.0
0.943000018597 -0.212999999523 -0.266999989748 121.0
0.943000018597 -0.218999996781 -0.266999989748 121.0
0.952000021935 -0.226999998093 -0.270000010729 121.0
0.930999994278 -0.228000000119 -0.263999998569 119.0
0.976000010967 -0.246000006795 -0.277999997139 123.0
0.930000007153 -0.239999994636 -0.264999985695 120.0
0.939999997616 -0.247999995947 -0.268000006676 123.0
0.961000025272 -0.259999990463 -0.273999989033 119.0
0.911000013351 -0.252000004053 -0.259999990463 119.0
0.976999998093 -0.277000010014 -0.280000001192 117.0
0.958000004292 -0.277999997139 -0.27500000596 119.0
0.935000002384 -0.277999997139 -0.268000006676 123.0
0.959999978542 -0.291999995708 -0.275999993086 121.0
0.949000000954 -0.293999999762 -0.273000001907 124.0
0.925999999046 -0.293000012636 -0.266999989748 126.0
0.924000024796 -0.298999994993 -0.266999989748 116.0
0.950999975204 -0.31400001049 -0.27500000596 124.0
0.93900001049 -0.316000014544 -0.272000014782 117.0
0.943000018597 -0.324000000954 -0.273999989033 123.0
0.915000021458 -0.321000009775 -0.266000002623 116.0
0.958000004292 -0.342999994755 -0.279000014067 125.0
0.919000029564 -0.335000008345 -0.268000006676 123.0
0.949000000954 -0.352999985218 -0.277000010014 116.0
0.917999982834 -0.347000002861 -0.268999993801 111.0
0.910000026226 -0.351000010967 -0.266999989748 100.0
0.944000005722 -0.370999991894 -0.277999997139 111.0
0.950999975204 -0.379999995232 -0.280000001192 103.0
0.938000023365 -0.381999999285 -0.277000010014 107.0
0.939999997616 -0.388999998569 -0.277999997139 100.0
0.959999978542 -0.405000001192 -0.284999996424 106.0
0.889999985695 -0.381000012159 -0.264999985695 99.0
0.901000022888 -0.393000006676 -0.268000006676 99.0
0.916999995708 -0.407000005245 -0.273999989033 97.0
0.949000000954 -0.428000003099 -0.284000009298 94.0
0.919000029564 -0.421000003815 -0.27500000596 95.0
0.938000023365 -0.437000006437 -0.282000005245 100.0
0.880999982357 -0.416999995708 -0.264999985695 90.0
0.911000013351 -0.43900001049 -0.27500000596 85.0
0.916000008583 -0.448000013828 -0.277000010014 90.0
0.933000028133 -0.463999986649 -0.282999992371 92.0
0.884000003338 -0.446000009775 -0.268999993801 89.0
0.90499997139 -0.463999986649 -0.275999993086 88.0
0.925000011921 -0.481999993324 -0.282999992371 96.0
0.833999991417 -0.439999997616 -0.256000012159 97.0
0.875 -0.469999998808 -0.268999993801 88.0
0.911000013351 -0.497000008821 -0.280999988317 85.0
0.85900002718 -0.47499999404 -0.266000002623 84.0
0.931999981403 -0.523999989033 -0.289999991655 84.0
0.870999991894 -0.497000008821 -0.270999997854 91.0
0.92199999094 -0.533999979496 -0.287999987602 86.0
2.36999988556 -0.082000002265 -0.675999999046 83.0
2.42499995232 -0.097999997437 -0.690999984741 122.0
2.35700011253 -0.108999997377 -0.67199999094 142.0
2.32399988174 -0.120999999344 -0.662999987602 209.0
2.3069999218 -0.134000003338 -0.657999992371 189.0
2.33500003815 -0.15000000596 -0.666000008583 121.0
2.40300011635 -0.168999999762 -0.68599998951 57.0
2.30900001526 -0.188999995589 -0.658999979496 142.0
2.26999998093 -0.20000000298 -0.648000001907 248.0
2.11100006104 -0.197999998927 -0.602999985218 130.0
1.01800000668 -0.10000000149 -0.291000008583 110.0
0.964999973774 -0.10000000149 -0.27500000596 115.0
0.964999973774 -0.105999998748 -0.27500000596 117.0
0.959999978542 -0.111000001431 -0.273999989033 123.0
0.949000000954 -0.115999996662 -0.270999997854 125.0
0.964999973774 -0.123999997973 -0.275999993086 128.0
0.964999973774 -0.129999995232 -0.275999993086 127.0
0.950999975204 -0.133000001311 -0.272000014782 124.0
0.941999971867 -0.137999996543 -0.270000010729 123.0
0.943000018597 -0.143999993801 -0.270000010729 122.0
0.98400002718 -0.156000003219 -0.282000005245 120.0
0.930000007153 -0.152999997139 -0.266999989748 129.0
0.971000015736 -0.165999993682 -0.279000014067 122.0
0.966000020504 -0.171000003815 -0.277999997139 125.0
0.972999989986 -0.178000003099 -0.280000001192 117.0
0.967999994755 -0.182999998331 -0.279000014067 115.0
0.980000019073 -0.192000001669 -0.282000005245 128.0
0.950999975204 -0.192000001669 -0.273999989033 125.0
0.935000002384 -0.194000005722 -0.270000010729 128.0
0.954999983311 -0.203999996185 -0.275999993086 125.0
0.977999985218 -0.216000005603 -0.282999992371 123.0
0.943000018597 -0.212999999523 -0.273000001907 122.0
0.963999986649 -0.22499999404 -0.279000014067 121.0
0.949000000954 -0.226999998093 -0.27500000596 121.0
0.961000025272 -0.236000001431 -0.279000014067 124.0
0.913999974728 -0.230000004172 -0.266000002623 111.0
0.954999983311 -0.24699999392 -0.277999997139 117.0
0.962999999523 -0.254999995232 -0.280999988317 126.0
0.944999992847 -0.256000012159 -0.275999993086 126.0
0.941999971867 -0.261999994516 -0.275999993086 118.0
0.955999970436 -0.272000014782 -0.280000001192 120.0
0.948000013828 -0.275999993086 -0.277999997139 121.0
0.981000006199 -0.291999995708 -0.287999987602 119.0
0.938000023365 -0.284999996424 -0.275999993086 122.0
0.929000020027 -0.287999987602 -0.273000001907 121.0
0.925000011921 -0.293999999762 -0.273000001907 112.0
0.957000017166 -0.310000002384 -0.282999992371 119.0
0.934000015259 -0.308999985456 -0.275999993086 121.0
0.949000000954 -0.321000009775 -0.280999988317 117.0
0.958999991417 -0.330000013113 -0.284999996424 120.0
0.961000025272 -0.337999999523 -0.286000013351 121.0
0.947000026703 -0.338999986649 -0.282000005245 112.0
0.98299998045 -0.358999997377 -0.293000012636 109.0
0.947000026703 -0.351999998093 -0.282999992371 120.0
0.980000019073 -0.372000008821 -0.293999999762 105.0
0.913999974728 -0.352999985218 -0.273999989033 101.0
0.958000004292 -0.377000004053 -0.287999987602 103.0
0.898000001907 -0.358999997377 -0.270999997854 101.0
0.93599998951 -0.381000012159 -0.282999992371 98.0
0.944999992847 -0.391999989748 -0.286000013351 95.0
0.936999976635 -0.395000010729 -0.284000009298 102.0
0.931999981403 -0.40000000596 -0.282999992371 95.0
0.921000003815 -0.402000010014 -0.280999988317 95.0
