ply
format ascii 1.0
element vertex 914
property float x
property float y
property float z
property float intensity
end_header
4.74700021744 0.898000001907 -0.702000021935 63.0
4.72700023651 0.865999996662 -0.698000013828 89.0
4.62300014496 0.819000005722 -0.681999981403 87.0
4.63999986649 0.794000029564 -0.684000015259 92.0
4.65999984741 0.769999980927 -0.68599998951 81.0
4.67700004578 0.744000017643 -0.688000023365 77.0
4.70499992371 0.721000015736 -0.691999971867 77.0
4.70900011063 0.693000018597 -0.690999984741 78.0
4.75600004196 0.67199999094 -0.698000013828 78.0
4.72800016403 0.639999985695 -0.693000018597 69.0
4.71700000763 0.610000014305 -0.690999984741 67.0
4.73799991608 0.584999978542 -0.693000018597 71.0
4.77199983597 0.56099998951 -0.698000013828 72.0
4.8220000267 0.538999974728 -0.704999983311 66.0
4.82000017166 0.509999990463 -0.703999996185 65.0
4.80700016022 0.479999989271 -0.700999975204 67.0
4.76399993896 0.448000013828 -0.694999992847 67.0
4.8140001297 0.425000011921 -0.702000021935 73.0
4.82499980927 0.397000014782 -0.70300000906 77.0
4.86499977112 0.372000008821 -0.708000004292 69.0
4.8189997673 0.340999990702 -0.700999975204 71.0
4.88999986649 0.317000001669 -0.711000025272 71.0
4.84999990463 0.286000013351 -0.704999983311 74.0
4.89200019836 0.259999990463 -0.711000025272 74.0
4.89099979401 0.231999993324 -0.709999978542 72.0
4.93200016022 0.204999998212 -0.716000020504 70.0
4.90799999237 0.175999999046 -0.712000012398 78.0
4.92899990082 0.148000001907 -0.714999973774 68.0
0.989000022411 -0.0540000014007 -0.143000006676 116.0
1.0 -0.0599999986589 -0.144999995828 903.0
1.00499999523 -0.0659999996424 -0.144999995828 638.0
0.971000015736 -0.070000000298 -0.141000002623 168.0
0.962000012398 -0.0750000029802 -0.138999998569 165.0
0.955999970436 -0.0799999982119 -0.137999996543 165.0
0.936999976635 -0.082999996841 -0.136000007391 166.0
0.963999986649 -0.0920000001788 -0.140000000596 172.0
0.989000022411 -0.10000000149 -0.143000006676 181.0
0.987999975681 -0.105999998748 -0.143000006676 188.0
0.972999989986 -0.109999999404 -0.141000002623 201.0
0.967000007629 -0.11400000006 -0.140000000596 218.0
0.96899998188 -0.119999997318 -0.141000002623 232.0
0.975000023842 -0.127000004053 -0.141000002623 252.0
0.981999993324 -0.134000003338 -0.143000006676 279.0
0.962999999523 -0.136999994516 -0.140000000596 304.0
0.964999973774 -0.143000006676 -0.140000000596 542.0
0.972000002861 -0.15000000596 -0.141000002623 1076.0
0.973999977112 -0.156000003219 -0.142000004649 1103.0
0.96899998188 -0.16099999845 -0.141000002623 1080.0
0.96899998188 -0.166999995708 -0.141000002623 1040.0
0.958999991417 -0.170000001788 -0.140000000596 1008.0
0.963999986649 -0.177000001073 -0.141000002623 969.0
0.963999986649 -0.182999998331 -0.141000002623 928.0
0.958000004292 -0.187999993563 -0.140000000596 897.0
0.962999999523 -0.194000005722 -0.141000002623 852.0
0.953999996185 -0.197999998927 -0.140000000596 825.0
0.955999970436 -0.204999998212 -0.140000000596 795.0
0.948000013828 -0.209000006318 -0.138999998569 753.0
0.952000021935 -0.215000003576 -0.140000000596 722.0
0.949999988079 -0.221000000834 -0.140000000596 677.0
0.939999997616 -0.224000006914 -0.137999996543 856.0
0.943000018597 -0.231000006199 -0.138999998569 995.0
0.944000005722 -0.237000003457 -0.138999998569 1041.0
0.950999975204 -0.245000004768 -0.140000000596 1086.0
0.939999997616 -0.247999995947 -0.138999998569 1110.0
0.939999997616 -0.254000008106 -0.138999998569 1145.0
0.939999997616 -0.259999990463 -0.138999998569 1179.0
0.936999976635 -0.264999985695 -0.138999998569 1213.0
0.930999994278 -0.268999993801 -0.137999996543 1243.0
0.940999984741 -0.277999997139 -0.140000000596 1287.0
0.930999994278 -0.280999988317 -0.137999996543 1304.0
0.930999994278 -0.287000000477 -0.138999998569 1337.0
0.931999981403 -0.293000012636 -0.138999998569 1357.0
0.929000020027 -0.298000007868 -0.138999998569 1387.0
0.927999973297 -0.303999990225 -0.138999998569 1242.0
0.922999978065 -0.307999998331 -0.137999996543 424.0
0.911000013351 -0.310000002384 -0.136999994516 320.0
0.902000010014 -0.31400001049 -0.136000007391 313.0
0.910000026226 -0.321999996901 -0.136999994516 309.0
0.896000027657 -0.323000013828 -0.135000005364 311.0
0.876999974251 -0.323000013828 -0.131999999285 304.0
0.889999985695 -0.333000004292 -0.135000005364 295.0
0.896000027657 -0.342000007629 -0.136000007391 301.0
0.89200001955 -0.345999985933 -0.135000005364 301.0
0.893999993801 -0.352999985218 -0.136000007391 298.0
0.879000008106 -0.352999985218 -0.134000003338 296.0
0.878000020981 -0.358999997377 -0.134000003338 284.0
0.885999977589 -0.368999987841 -0.135000005364 285.0
0.883000016212 -0.374000012875 -0.135000005364 298.0
0.889999985695 -0.38299998641 -0.136999994516 1082.0
0.893000006676 -0.391000002623 -0.136999994516 1514.0
0.898000001907 -0.40000000596 -0.138999998569 1549.0
0.896000027657 -0.405000001192 -0.137999996543 1552.0
0.893999993801 -0.411000013351 -0.137999996543 1556.0
0.893000006676 -0.416999995708 -0.138999998569 1553.0
0.889999985695 -0.42199999094 -0.137999996543 1559.0
0.882000029087 -0.425999999046 -0.137999996543 1565.0
0.883000016212 -0.432000011206 -0.137999996543 1573.0
0.884999990463 -0.441000014544 -0.138999998569 1578.0
0.882000029087 -0.446000009775 -0.138999998569 1564.0
0.884000003338 -0.453999996185 -0.138999998569 1575.0
0.876999974251 -0.456999987364 -0.138999998569 1567.0
0.878000020981 -0.463999986649 -0.138999998569 1472.0
0.879999995232 -0.472000002861 -0.140000000596 542.0
0.847000002861 -0.46099999547 -0.135000005364 288.0
0.846000015736 -0.467999994755 -0.135000005364 297.0
0.833000004292 -0.467000007629 -0.133000001311 287.0
0.995000004768 0.575999975204 -0.172000005841 602.0
0.980000019073 0.559000015259 -0.168999999762 564.0
0.971000015736 0.546000003815 -0.166999995708 511.0
0.967000007629 0.536000013351 -0.165999993682 467.0
0.972000002861 0.53100001812 -0.165999993682 406.0
0.961000025272 0.51700001955 -0.16400000453 345.0
0.976999998093 0.51700001955 -0.165999993682 306.0
0.990999996662 0.51700001955 -0.167999997735 249.0
0.966000020504 0.488999992609 -0.163000002503 312.0
3.99699997902 1.52699995041 -0.646000027657 66.0
4.14499998093 1.52699995041 -0.666999995708 77.0
4.14699983597 1.49899995327 -0.666000008583 81.0
3.79699993134 1.00100004673 -0.59399998188 56.0
4.26499986649 0.963999986649 -0.661000013351 77.0
4.20399999619 0.924000024796 -0.651000022888 103.0
4.19999980927 0.898000001907 -0.648999989033 106.0
4.1939997673 0.870999991894 -0.648000001907 110.0
4.27899980545 0.861999988556 -0.660000026226 83.0
4.64599990845 0.879999995232 -0.714999973774 57.0
4.69000005722 0.860000014305 -0.721000015736 77.0
4.60599994659 0.815999984741 -0.707000017166 82.0
4.64900016785 0.796000003815 -0.712999999523 77.0
4.71000003815 0.777999997139 -0.722000002861 75.0
4.69000005722 0.746999979019 -0.717999994755 71.0
4.73600006104 0.726000010967 -0.723999977112 71.0
4.72900009155 0.697000026703 -0.722999989986 71.0
4.76999998093 0.674000024796 -0.727999985218 79.0
4.75199985504 0.643000006676 -0.725000023842 70.0
4.75 0.615000009537 -0.723999977112 66.0
4.72800016403 0.583999991417 -0.72000002861 68.0
4.80100011826 0.564999997616 -0.731000006199 69.0
4.73500013351 0.528999984264 -0.72000002861 62.0
4.83099985123 0.510999977589 -0.73400002718 66.0
4.82899999619 0.483000010252 -0.73299998045 66.0
4.8189997673 0.453999996185 -0.731000006199 66.0
4.83799982071 0.426999986172 -0.73400002718 67.0
4.79899978638 0.395000010729 -0.726999998093 67.0
4.8639998436 0.372000008821 -0.736999988556 76.0
4.85799980164 0.342999994755 -0.736000001431 72.0
4.91099977493 0.319000005722 -0.742999970913 72.0
4.84100008011 0.286000013351 -0.731999993324 75.0
4.84600019455 0.25799998641 -0.73299998045 77.0
4.91499996185 0.232999995351 -0.742999970913 67.0
4.90399980545 0.203999996185 -0.740999996662 67.0
4.875 0.173999994993 -0.736000001431 73.0
4.93400001526 0.148000001907 -0.745000004768 71.0
4.98299980164 0.119999997318 -0.751999974251 52.0
0.995000004768 -0.0599999986589 -0.15000000596 911.0
1.00100004673 -0.0659999996424 -0.150999993086 605.0
0.962000012398 -0.0689999982715 -0.144999995828 164.0
0.943000018597 -0.0729999989271 -0.142000004649 156.0
0.962999999523 -0.0799999982119 -0.144999995828 162.0
0.964999973774 -0.0860000029206 -0.144999995828 159.0
0.950999975204 -0.0900000035763 -0.143000006676 163.0
0.97000002861 -0.097999997437 -0.145999997854 165.0
0.952000021935 -0.101999998093 -0.143999993801 164.0
0.948000013828 -0.107000000775 -0.143000006676 162.0
0.940999984741 -0.111000001431 -0.142000004649 165.0
0.975000023842 -0.120999999344 -0.146999999881 171.0
0.926999986172 -0.120999999344 -0.140000000596 171.0
0.930999994278 -0.127000004053 -0.141000002623 172.0
0.934000015259 -0.133000001311 -0.141000002623 179.0
0.963999986649 -0.143000006676 -0.145999997854 510.0
0.972000002861 -0.15000000596 -0.146999999881 1271.0
0.972999989986 -0.156000003219 -0.146999999881 1344.0
0.975000023842 -0.162000000477 -0.148000001907 1358.0
0.973999977112 -0.166999995708 -0.148000001907 1363.0
0.966000020504 -0.172000005841 -0.146999999881 1362.0
0.963999986649 -0.177000001073 -0.145999997854 1366.0
0.962000012398 -0.182999998331 -0.145999997854 1381.0
0.966000020504 -0.188999995589 -0.146999999881 1392.0
0.959999978542 -0.194000005722 -0.145999997854 1391.0
0.961000025272 -0.20000000298 -0.145999997854 1405.0
0.961000025272 -0.206000000238 -0.145999997854 1397.0
0.952000021935 -0.209999993443 -0.144999995828 1408.0
0.95300000906 -0.216000005603 -0.145999997854 1412.0
0.950999975204 -0.221000000834 -0.144999995828 1390.0
0.955999970436 -0.228000000119 -0.145999997854 600.0
0.949999988079 -0.232999995351 -0.144999995828 233.0
0.931999981403 -0.233999997377 -0.143000006676 240.0
0.930999994278 -0.239999994636 -0.143000006676 244.0
0.925000011921 -0.244000002742 -0.142000004649 259.0
0.925999999046 -0.25 -0.142000004649 267.0
0.925999999046 -0.256000012159 -0.143000006676 281.0
0.919000029564 -0.259999990463 -0.142000004649 294.0
0.933000028133 -0.270000010729 -0.143999993801 307.0
0.917999982834 -0.270999997854 -0.142000004649 317.0
0.913999974728 -0.275999993086 -0.141000002623 331.0
0.925999999046 -0.286000013351 -0.143999993801 351.0
0.930999994278 -0.293000012636 -0.144999995828 377.0
0.916999995708 -0.294999986887 -0.143000006676 397.0
0.92199999094 -0.301999986172 -0.143999993801 530.0
0.925000011921 -0.310000002384 -0.143999993801 1168.0
0.916999995708 -0.312999993563 -0.143000006676 1253.0
0.916000008583 -0.319000005722 -0.143000006676 1215.0
0.916999995708 -0.324999988079 -0.143999993801 1181.0
0.912000000477 -0.330000013113 -0.143000006676 1165.0
0.910000026226 -0.335000008345 -0.143000006676 1147.0
0.90600001812 -0.340000003576 -0.143000006676 1107.0
0.907999992371 -0.347000002861 -0.143000006676 1103.0
0.908999979496 -0.354000002146 -0.143999993801 1086.0
0.902999997139 -0.356999993324 -0.143000006676 1067.0
0.90600001812 -0.365000009537 -0.143999993801 1045.0
0.894999980927 -0.36700001359 -0.142000004649 1015.0
0.898000001907 -0.374000012875 -0.143000006676 1002.0
0.894999980927 -0.379000008106 -0.143000006676 983.0
0.893000006676 -0.384999990463 -0.143000006676 890.0
0.893999993801 -0.391999989748 -0.143000006676 827.0
0.887000024319 -0.395000010729 -0.143000006676 843.0
0.889999985695 -0.402999997139 -0.143000006676 870.0
0.888000011444 -0.409000009298 -0.143000006676 874.0
0.879999995232 -0.412000000477 -0.142000004649 884.0
0.884000003338 -0.419999986887 -0.143000006676 904.0
0.882000029087 -0.425999999046 -0.143000006676 911.0
0.875 -0.428999990225 -0.142000004649 918.0
0.876999974251 -0.437000006437 -0.143000006676 931.0
0.864000022411 -0.437000006437 -0.142000004649 920.0
0.874000012875 -0.449000000954 -0.143000006676 933.0
0.865999996662 -0.451000005007 -0.142000004649 954.0
0.879000008106 -0.465000003576 -0.144999995828 901.0
0.866999983788 -0.465999990702 -0.143000006676 860.0
0.871999979019 -0.476000010967 -0.144999995828 882.0
0.861000001431 -0.476999998093 -0.143000006676 881.0
0.870999991894 -0.490000009537 -0.144999995828 874.0
0.954999983311 0.552999973297 -0.172000005841 884.0
0.959999978542 0.547999978065 -0.172000005841 920.0
0.958000004292 0.538999974728 -0.171000003815 918.0
0.95300000906 0.527999997139 -0.170000001788 918.0
0.963999986649 0.527000010014 -0.171000003815 908.0
0.964999973774 0.518999993801 -0.171000003815 902.0
0.955999970436 0.507000029087 -0.168999999762 873.0
0.959999978542 0.500999987125 -0.168999999762 861.0
0.962000012398 0.495000004768 -0.168999999762 822.0
0.97000002861 0.490999996662 -0.170000001788 811.0
0.961000025272 0.479000002146 -0.167999997735 779.0
0.96899998188 0.476000010967 -0.168999999762 729.0
0.964999973774 0.465999990702 -0.167999997735 701.0
0.971000015736 0.462000012398 -0.167999997735 652.0
0.967999994755 0.45300000906 -0.166999995708 602.0
0.97000002861 0.446999996901 -0.166999995708 550.0
0.972999989986 0.441000014544 -0.166999995708 500.0
0.962000012398 0.428999990225 -0.165000006557 449.0
0.972000002861 0.425999999046 -0.165999993682 382.0
0.957000017166 0.412999987602 -0.163000002503 337.0
0.976000010967 0.41400000453 -0.165999993682 346.0
0.962999999523 0.402000010014 -0.163000002503 408.0
0.953999996185 0.391000002623 -0.16099999845 340.0
0.96899998188 0.384000003338 -0.163000002503 260.0
0.841000020504 0.321000009775 -0.141000002623 156.0
0.833000004292 0.312999993563 -0.138999998569 114.0
0.559000015259 0.206000000238 -0.0930000022054 83.0
0.479999989271 0.173999994993 -0.0799999982119 65.0
4.41099977493 0.998000025749 -0.709999978542 72.0
4.26300001144 0.938000023365 -0.68599998951 80.0
4.26900005341 0.912999987602 -0.68599998951 80.0
4.3140001297 0.896000027657 -0.691999971867 81.0
4.37699985504 0.883000016212 -0.702000021935 62.0
4.73699998856 0.869000017643 -0.757000029087 59.0
4.71999979019 0.837000012398 -0.753000020981 60.0
4.70900011063 0.806999981403 -0.750999987125 59.0
4.71000003815 0.778999984264 -0.75 53.0
4.79199981689 0.763000011444 -0.762000024319 59.0
4.80100011826 0.736000001431 -0.763000011444 61.0
4.74499988556 0.699000000954 -0.754000008106 58.0
4.87099981308 0.68900001049 -0.773000001907 59.0
4.80800008774 0.651000022888 -0.762000024319 58.0
4.81300020218 0.623000025749 -0.762000024319 53.0
4.80900001526 0.59399998188 -0.760999977589 54.0
4.88000011444 0.574000000954 -0.772000014782 57.0
4.84499979019 0.541999995708 -0.76599997282 57.0
4.93300008774 0.522000014782 -0.778999984264 59.0
4.80900001526 0.481000006199 -0.759000003338 53.0
4.90700006485 0.462000012398 -0.773999989033 55.0
4.87799978256 0.430999994278 -0.768999993801 56.0
4.85200023651 0.40000000596 -0.763999998569 60.0
4.88399982452 0.374000012875 -0.768999993801 64.0
4.86600017548 0.344000011683 -0.76599997282 58.0
4.90199995041 0.317999988794 -0.771000027657 59.0
4.9470000267 0.291999995708 -0.777999997139 60.0
4.89099979401 0.259999990463 -0.768000006676 66.0
4.96199989319 0.234999999404 -0.778999984264 66.0
4.9279999733 0.204999998212 -0.773999989033 59.0
4.90100002289 0.146999999881 -0.768999993801 62.0
0.981000006199 -0.0540000014007 -0.153999999166 158.0
0.996999979019 -0.0599999986589 -0.156000003219 940.0
1.01199996471 -0.0670000016689 -0.158000007272 573.0
0.959999978542 -0.0689999982715 -0.15000000596 161.0
0.944999992847 -0.0729999989271 -0.148000001907 154.0
0.961000025272 -0.0799999982119 -0.15000000596 161.0
0.944999992847 -0.0839999988675 -0.148000001907 159.0
0.93900001049 -0.0890000015497 -0.146999999881 162.0
0.954999983311 -0.097000002861 -0.15000000596 157.0
0.963999986649 -0.103000000119 -0.150999993086 161.0
0.947000026703 -0.107000000775 -0.148000001907 168.0
0.945999979973 -0.112000003457 -0.148000001907 167.0
0.930999994278 -0.115999996662 -0.145999997854 169.0
0.925000011921 -0.120999999344 -0.144999995828 174.0
0.953999996185 -0.129999995232 -0.15000000596 172.0
0.955999970436 -0.136000007391 -0.15000000596 168.0
0.962000012398 -0.143000006676 -0.150999993086 552.0
0.972999989986 -0.15000000596 -0.152999997139 1290.0
0.975000023842 -0.156000003219 -0.153999999166 1348.0
0.973999977112 -0.162000000477 -0.152999997139 1370.0
0.972000002861 -0.166999995708 -0.152999997139 1365.0
0.966000020504 -0.172000005841 -0.151999995112 1374.0
0.97000002861 -0.179000005126 -0.152999997139 1383.0
0.967999994755 -0.184000000358 -0.152999997139 1387.0
0.958999991417 -0.187999993563 -0.151999995112 1401.0
0.962999999523 -0.194999992847 -0.151999995112 1398.0
0.959999978542 -0.20000000298 -0.151999995112 1408.0
0.954999983311 -0.204999998212 -0.150999993086 1425.0
0.961000025272 -0.211999997497 -0.151999995112 1419.0
0.958999991417 -0.217999994755 -0.151999995112 1423.0
0.950999975204 -0.222000002861 -0.150999993086 1405.0
0.959999978542 -0.230000004172 -0.152999997139 551.0
0.922999978065 -0.225999996066 -0.146999999881 211.0
0.916999995708 -0.231000006199 -0.145999997854 201.0
0.907000005245 -0.233999997377 -0.144999995828 202.0
0.913999974728 -0.240999996662 -0.145999997854 205.0
0.908999979496 -0.246000006795 -0.144999995828 201.0
0.90600001812 -0.250999987125 -0.144999995828 205.0
0.90499997139 -0.256000012159 -0.144999995828 200.0
0.899999976158 -0.259999990463 -0.143999993801 199.0
0.903999984264 -0.266999989748 -0.144999995828 211.0
0.882000029087 -0.266000002623 -0.142000004649 209.0
0.917999982834 -0.282999992371 -0.148000001907 207.0
0.902999997139 -0.284999996424 -0.145999997854 214.0
0.884000003338 -0.284000009298 -0.143000006676 209.0
0.911000013351 -0.298999994993 -0.146999999881 449.0
0.922999978065 -0.308999985456 -0.15000000596 1412.0
0.926999986172 -0.317000001669 -0.15000000596 1542.0
0.924000024796 -0.321999996901 -0.15000000596 1546.0
0.920000016689 -0.326999992132 -0.15000000596 1542.0
0.917999982834 -0.331999987364 -0.15000000596 1549.0
0.915000021458 -0.337000012398 -0.15000000596 1566.0
0.910000026226 -0.340999990702 -0.149000003934 1567.0
0.912000000477 -0.349000006914 -0.15000000596 1574.0
0.907000005245 -0.352999985218 -0.149000003934 1574.0
0.90600001812 -0.358999997377 -0.149000003934 1573.0
0.90600001812 -0.365000009537 -0.15000000596 1571.0
0.898999989033 -0.368000000715 -0.149000003934 1570.0
0.901000022888 -0.375999987125 -0.149000003934 1589.0
0.898000001907 -0.381000012159 -0.149000003934 1531.0
0.911000013351 -0.393000006676 -0.151999995112 591.0
0.873000025749 -0.38299998641 -0.145999997854 251.0
0.885999977589 -0.395000010729 -0.148000001907 235.0
0.870000004768 -0.393999993801 -0.145999997854 244.0
0.864000022411 -0.398000001907 -0.144999995828 248.0
0.85799998045 -0.400999993086 -0.143999993801 252.0
0.861999988556 -0.409999996424 -0.144999995828 248.0
0.870999991894 -0.421000003815 -0.146999999881 254.0
0.848999977112 -0.416999995708 -0.143999993801 264.0
0.867999970913 -0.432999998331 -0.146999999881 269.0
0.853999972343 -0.432000011206 -0.144999995828 264.0
0.84399998188 -0.433999985456 -0.143999993801 270.0
0.85799998045 -0.448000013828 -0.146999999881 272.0
0.862999975681 -0.456999987364 -0.148000001907 438.0
0.867999970913 -0.467000007629 -0.149000003934 1376.0
0.867999970913 -0.474000006914 -0.15000000596 1575.0
0.869000017643 -0.481999993324 -0.15000000596 1574.0
0.865999996662 -0.486999988556 -0.15000000596 1570.0
0.986999988556 0.572000026703 -0.184000000358 548.0
0.958000004292 0.54699999094 -0.178000003099 616.0
0.966000020504 0.544000029564 -0.179000005126 686.0
0.950999975204 0.527999997139 -0.175999999046 711.0
0.949000000954 0.518999993801 -0.17499999702 777.0
0.957000017166 0.514999985695 -0.175999999046 823.0
0.958999991417 0.509000003338 -0.175999999046 849.0
0.959999978542 0.501999974251 -0.17499999702 887.0
0.958999991417 0.493999987841 -0.17499999702 920.0
0.961000025272 0.486999988556 -0.173999994993 947.0
0.952000021935 0.47499999404 -0.172999992967 975.0
0.962999999523 0.472999989986 -0.173999994993 971.0
0.955999970436 0.462000012398 -0.172000005841 1002.0
0.957000017166 0.456000000238 -0.172000005841 1013.0
0.97000002861 0.455000013113 -0.173999994993 1012.0
0.967000007629 0.446000009775 -0.172999992967 1024.0
0.961000025272 0.43599998951 -0.171000003815 1020.0
0.971000015736 0.433999985456 -0.172999992967 1016.0
0.961000025272 0.42199999094 -0.170000001788 981.0
0.967999994755 0.418000012636 -0.171000003815 965.0
0.963999986649 0.409999996424 -0.170000001788 971.0
0.964999973774 0.402999997139 -0.170000001788 939.0
0.966000020504 0.395999997854 -0.170000001788 918.0
0.962999999523 0.388000011444 -0.168999999762 891.0
0.959999978542 0.381000012159 -0.167999997735 864.0
0.96899998188 0.377000004053 -0.168999999762 837.0
0.972999989986 0.372000008821 -0.168999999762 782.0
0.971000015736 0.365000009537 -0.168999999762 737.0
0.962000012398 0.354999989271 -0.166999995708 689.0
0.962000012398 0.347999989986 -0.165999993682 634.0
0.967000007629 0.342999994755 -0.166999995708 585.0
0.963999986649 0.33599999547 -0.165999993682 526.0
0.971000015736 0.331999987364 -0.166999995708 490.0
0.963999986649 0.323000013828 -0.165000006557 437.0
0.963999986649 0.317000001669 -0.165000006557 391.0
0.958999991417 0.308999985456 -0.16400000453 346.0
0.953999996185 0.300999999046 -0.163000002503 306.0
0.975000023842 0.300999999046 -0.165999993682 434.0
0.954999983311 0.28900000453 -0.162000000477 400.0
0.952000021935 0.275999993086 -0.16099999845 283.0
0.70300000906 0.177000001073 -0.118000000715 74.0
4.35900020599 0.986999988556 -0.728999972343 68.0
4.32600021362 0.952000021935 -0.722000002861 73.0
4.34800004959 0.930999994278 -0.725000023842 70.0
4.32700014114 0.899999976158 -0.721000015736 71.0
4.42999982834 0.893999993801 -0.736999988556 67.0
4.73699998856 0.869000017643 -0.785000026226 53.0
4.78000020981 0.847999989986 -0.791999995708 56.0
4.71899986267 0.809000015259 -0.78100001812 54.0
4.79199981689 0.792999982834 -0.791999995708 53.0
0.0570000000298 0.00899999961257 -0.00899999961257 52.0
0.0309999994934 0.00300000002608 -0.00499999988824 52.0
0.972000002861 -0.0529999993742 -0.158000007272 177.0
0.998000025749 -0.0599999986589 -0.162000000477 953.0
1.00800001621 -0.0670000016689 -0.16400000453 550.0
0.961000025272 -0.0689999982715 -0.156000003219 161.0
0.952000021935 -0.0740000009537 -0.155000001192 161.0
0.948000013828 -0.0790000036359 -0.153999999166 156.0
0.957000017166 -0.0860000029206 -0.156000003219 160.0
0.920000016689 -0.0879999995232 -0.15000000596 162.0
0.954999983311 -0.097000002861 -0.155000001192 157.0
0.964999973774 -0.103000000119 -0.157000005245 158.0
0.947000026703 -0.107000000775 -0.153999999166 168.0
0.955999970436 -0.112999998033 -0.156000003219 165.0
0.924000024796 -0.115000002086 -0.150999993086 164.0
0.944000005722 -0.123000003397 -0.153999999166 170.0
0.935000002384 -0.127000004053 -0.151999995112 166.0
0.949000000954 -0.135000005364 -0.155000001192 181.0
0.966000020504 -0.143000006676 -0.158000007272 589.0
0.975000023842 -0.150999993086 -0.158999994397 1285.0
0.976000010967 -0.157000005245 -0.159999996424 1343.0
0.975000023842 -0.162000000477 -0.158999994397 1362.0
0.97000002861 -0.166999995708 -0.158999994397 1358.0
0.975000023842 -0.173999994993 -0.159999996424 1381.0
0.964999973774 -0.178000003099 -0.158000007272 1384.0
0.962999999523 -0.182999998331 -0.158000007272 1379.0
0.967999994755 -0.189999997616 -0.158999994397 1401.0
0.958000004292 -0.194000005722 -0.157000005245 1402.0
0.959999978542 -0.20000000298 -0.158000007272 1401.0
0.962000012398 -0.207000002265 -0.158000007272 1425.0
0.958999991417 -0.211999997497 -0.158000007272 1417.0
0.954999983311 -0.216999992728 -0.157000005245 1436.0
0.952000021935 -0.222000002861 -0.157000005245 1405.0
0.955999970436 -0.229000002146 -0.158000007272 498.0
0.915000021458 -0.22499999404 -0.150999993086 204.0
0.908999979496 -0.229000002146 -0.15000000596 197.0
0.907000005245 -0.233999997377 -0.15000000596 198.0
0.90600001812 -0.238999992609 -0.15000000596 196.0
0.908999979496 -0.246000006795 -0.150999993086 200.0
0.89099997282 -0.24699999392 -0.148000001907 201.0
0.889999985695 -0.252000004053 -0.148000001907 205.0
0.902000010014 -0.261000007391 -0.15000000596 205.0
0.907000005245 -0.268999993801 -0.150999993086 206.0
0.880999982357 -0.266000002623 -0.146999999881 199.0
0.898999989033 -0.277999997139 -0.15000000596 203.0
0.897000014782 -0.282999992371 -0.15000000596 210.0
0.870000004768 -0.280000001192 -0.145999997854 206.0
0.90499997139 -0.29699999094 -0.151999995112 499.0
0.925000011921 -0.310000002384 -0.156000003219 1439.0
0.924000024796 -0.316000014544 -0.156000003219 1543.0
0.916999995708 -0.319999992847 -0.155000001192 1559.0
0.916999995708 -0.326000005007 -0.155000001192 1547.0
0.913999974728 -0.331000000238 -0.155000001192 1541.0
0.912999987602 -0.337000012398 -0.155000001192 1575.0
0.912999987602 -0.342999994755 -0.155000001192 1575.0
0.913999974728 -0.34999999404 -0.156000003219 1581.0
0.90499997139 -0.351999998093 -0.153999999166 1566.0
0.903999984264 -0.358000010252 -0.155000001192 1580.0
0.903999984264 -0.365000009537 -0.155000001192 1600.0
0.90600001812 -0.372000008821 -0.156000003219 1591.0
0.902999997139 -0.377000004053 -0.155000001192 1595.0
0.902999997139 -0.384000003338 -0.156000003219 1532.0
0.898999989033 -0.388000011444 -0.155000001192 521.0
0.856000006199 -0.375999987125 -0.148000001907 223.0
0.841000020504 -0.375 -0.145999997854 213.0
0.842999994755 -0.38299998641 -0.146999999881 220.0
0.864000022411 -0.398000001907 -0.15000000596 219.0
0.880999982357 -0.412999987602 -0.153999999166 207.0
0.847000002861 -0.402999997139 -0.148000001907 222.0
0.84399998188 -0.407999992371 -0.148000001907 209.0
0.832000017166 -0.407999992371 -0.145999997854 222.0
0.837999999523 -0.418000012636 -0.148000001907 225.0
0.841000020504 -0.425999999046 -0.149000003934 225.0
0.832000017166 -0.428000003099 -0.148000001907 223.0
0.852999985218 -0.446000009775 -0.151999995112 223.0
0.848999977112 -0.449999988079 -0.150999993086 471.0
0.861999988556 -0.463999986649 -0.153999999166 1462.0
0.867999970913 -0.474000006914 -0.155000001192 1636.0
0.867999970913 -0.481000006199 -0.156000003219 1645.0
0.865999996662 -0.488000005484 -0.156000003219 1636.0
1.93400001526 1.12300002575 -0.375 133.0
1.57299995422 0.899999976158 -0.303999990225 120.0
1.05200004578 0.592999994755 -0.202000007033 190.0
0.98299998045 0.537999987602 -0.187999993563 303.0
0.947000026703 0.510999977589 -0.180000007153 281.0
0.972999989986 0.51700001955 -0.185000002384 284.0
0.978999972343 0.512000024319 -0.185000002384 336.0
0.962000012398 0.495000004768 -0.181999996305 397.0
0.961000025272 0.486999988556 -0.180999994278 458.0
0.962999999523 0.481000006199 -0.180999994278 522.0
0.966000020504 0.47499999404 -0.180999994278 576.0
0.957000017166 0.462999999523 -0.179000005126 640.0
0.954999983311 0.455000013113 -0.178000003099 694.0
0.953999996185 0.446999996901 -0.177000001073 749.0
0.952000021935 0.43900001049 -0.175999999046 786.0
0.963999986649 0.437999993563 -0.178000003099 846.0
0.958000004292 0.428000003099 -0.177000001073 909.0
0.962999999523 0.423000007868 -0.177000001073 924.0
0.954999983311 0.412999987602 -0.17499999702 959.0
0.964999973774 0.409999996424 -0.175999999046 983.0
0.964999973774 0.402999997139 -0.175999999046 1019.0
0.971000015736 0.398999989033 -0.177000001073 1058.0
0.966000020504 0.389999985695 -0.17499999702 1065.0
0.963999986649 0.381999999285 -0.17499999702 1078.0
0.963999986649 0.375999987125 -0.173999994993 1099.0
0.966000020504 0.370000004768 -0.173999994993 1100.0
0.962999999523 0.361999988556 -0.172999992967 1121.0
0.97000002861 0.358000010252 -0.173999994993 1111.0
0.966000020504 0.34999999404 -0.172999992967 1128.0
0.96899998188 0.344000011683 -0.172999992967 1105.0
0.96899998188 0.337999999523 -0.172999992967 1110.0
0.967000007629 0.331000000238 -0.172000005841 1103.0
0.967999994755 0.324999988079 -0.172000005841 1096.0
0.97000002861 0.319000005722 -0.172000005841 1088.0
0.967000007629 0.312000006437 -0.171000003815 1088.0
0.967999994755 0.305000007153 -0.171000003815 1071.0
0.972999989986 0.300999999046 -0.172000005841 1051.0
0.975000023842 0.294999986887 -0.172000005841 1027.0
0.964999973774 0.286000013351 -0.170000001788 986.0
0.96899998188 0.280999988317 -0.170000001788 961.0
0.977999985218 0.277000010014 -0.172000005841 933.0
0.976000010967 0.270000010729 -0.171000003815 886.0
0.97000002861 0.263000011444 -0.170000001788 842.0
0.976999998093 0.25799998641 -0.171000003815 807.0
0.975000023842 0.252000004053 -0.170000001788 770.0
0.96899998188 0.244000002742 -0.168999999762 714.0
0.981000006199 0.240999996662 -0.170000001788 677.0
0.975000023842 0.232999995351 -0.168999999762 619.0
0.967000007629 0.225999996066 -0.167999997735 577.0
0.967000007629 0.218999996781 -0.166999995708 517.0
0.958000004292 0.21099999547 -0.165000006557 475.0
0.947000026703 0.202999994159 -0.163000002503 421.0
0.944000005722 0.196999996901 -0.163000002503 385.0
0.950999975204 0.192000001669 -0.16400000453 342.0
0.955999970436 0.187999993563 -0.16400000453 328.0
0.96899998188 0.184000000358 -0.166999995708 293.0
0.927999973297 0.171000003815 -0.158999994397 252.0
0.898000001907 0.159999996424 -0.153999999166 227.0
0.921000003815 0.158999994397 -0.158000007272 251.0
0.986000001431 0.16400000453 -0.168999999762 311.0
0.972000002861 0.156000003219 -0.165999993682 277.0
0.945999979973 0.145999997854 -0.162000000477 241.0
0.944999992847 0.128999993205 -0.16099999845 207.0
0.954999983311 0.125 -0.163000002503 161.0
0.912000000477 0.11400000006 -0.155000001192 95.0
0.925000011921 0.109999999404 -0.157000005245 76.0
0.869000017643 0.097999997437 -0.148000001907 77.0
0.899999976158 0.0960000008345 -0.152999997139 64.0
0.81099998951 0.0769999995828 -0.136999994516 55.0
0.0810000002384 0.00499999988824 -0.0130000002682 51.0
0.961000025272 -0.0520000010729 -0.162000000477 201.0
0.995999991894 -0.0599999986589 -0.167999997735 981.0
0.999000012875 -0.0659999996424 -0.167999997735 519.0
0.972999989986 -0.070000000298 -0.16400000453 161.0
0.959999978542 -0.0750000029802 -0.162000000477 154.0
0.958000004292 -0.0799999982119 -0.16099999845 154.0
0.93900001049 -0.0839999988675 -0.158000007272 161.0
0.943000018597 -0.0900000035763 -0.158999994397 161.0
0.963999986649 -0.097999997437 -0.163000002503 152.0
0.945999979973 -0.101000003517 -0.159999996424 160.0
0.933000028133 -0.104999996722 -0.157000005245 150.0
0.958999991417 -0.11400000006 -0.162000000477 167.0
0.954999983311 -0.119000002742 -0.16099999845 165.0
0.921000003815 -0.119999997318 -0.156000003219 171.0
0.935000002384 -0.12800000608 -0.158000007272 170.0
0.949999988079 -0.135000005364 -0.16099999845 180.0
0.967000007629 -0.143999993801 -0.16400000453 623.0
0.972999989986 -0.15000000596 -0.165000006557 1301.0
0.967000007629 -0.155000001192 -0.16400000453 1344.0
0.971000015736 -0.162000000477 -0.165000006557 1372.0
0.971000015736 -0.166999995708 -0.165000006557 1362.0
0.964999973774 -0.172000005841 -0.16400000453 1376.0
0.96899998188 -0.179000005126 -0.165000006557 1384.0
0.966000020504 -0.184000000358 -0.16400000453 1393.0
0.963999986649 -0.189999997616 -0.16400000453 1393.0
0.966000020504 -0.195999994874 -0.16400000453 1403.0
0.961000025272 -0.201000005007 -0.16400000453 1412.0
0.962000012398 -0.207000002265 -0.16400000453 1424.0
0.962000012398 -0.212999999523 -0.16400000453 1422.0
0.954999983311 -0.216999992728 -0.163000002503 1427.0
0.95300000906 -0.222000002861 -0.163000002503 1371.0
0.948000013828 -0.226999998093 -0.162000000477 465.0
0.902000010014 -0.221000000834 -0.155000001192 195.0
0.912000000477 -0.230000004172 -0.156000003219 194.0
0.903999984264 -0.232999995351 -0.155000001192 191.0
0.893999993801 -0.236000001431 -0.153999999166 189.0
0.908999979496 -0.246000006795 -0.156000003219 197.0
0.89099997282 -0.24699999392 -0.153999999166 195.0
0.885999977589 -0.250999987125 -0.152999997139 195.0
0.921000003815 -0.266999989748 -0.158999994397 202.0
0.902000010014 -0.266999989748 -0.156000003219 202.0
0.898000001907 -0.272000014782 -0.156000003219 199.0
0.898000001907 -0.277999997139 -0.156000003219 200.0
0.907999992371 -0.287000000477 -0.158000007272 212.0
0.896000027657 -0.28900000453 -0.156000003219 210.0
0.907000005245 -0.298000007868 -0.158000007272 564.0
0.925999999046 -0.31099998951 -0.162000000477 1455.0
0.919000029564 -0.314999997616 -0.16099999845 1544.0
0.922999978065 -0.321999996901 -0.162000000477 1546.0
0.916000008583 -0.326000005007 -0.16099999845 1547.0
0.913999974728 -0.331000000238 -0.16099999845 1550.0
0.913999974728 -0.337000012398 -0.16099999845 1573.0
0.912000000477 -0.342999994755 -0.16099999845 1567.0
0.913999974728 -0.34999999404 -0.16099999845 1575.0
0.907999992371 -0.354000002146 -0.16099999845 1579.0
0.907999992371 -0.360000014305 -0.16099999845 1575.0
0.90499997139 -0.365999996662 -0.16099999845 1586.0
0.90600001812 -0.372000008821 -0.16099999845 1596.0
0.902999997139 -0.377000004053 -0.16099999845 1593.0
0.899999976158 -0.38299998641 -0.16099999845 1490.0
0.907000005245 -0.391999989748 -0.163000002503 462.0
0.865999996662 -0.381000012159 -0.155000001192 218.0
0.839999973774 -0.375 -0.150999993086 220.0
0.836000025272 -0.379999995232 -0.150999993086 216.0
0.847999989986 -0.391000002623 -0.152999997139 210.0
0.837999999523 -0.393000006676 -0.151999995112 218.0
0.856000006199 -0.407999992371 -0.155000001192 217.0
0.833000004292 -0.402999997139 -0.151999995112 216.0
0.832000017166 -0.409000009298 -0.151999995112 216.0
0.851000010967 -0.425000011921 -0.156000003219 222.0
0.838999986649 -0.425999999046 -0.153999999166 219.0
0.824000000954 -0.423999994993 -0.151999995112 218.0
0.820999979973 -0.428999990225 -0.150999993086 211.0
0.861999988556 -0.458000004292 -0.158999994397 533.0
0.864000022411 -0.465999990702 -0.159999996424 1511.0
0.874000012875 -0.477999985218 -0.163000002503 1640.0
0.867999970913 -0.481999993324 -0.162000000477 1647.0
0.870000004768 -0.490000009537 -0.163000002503 1631.0
2.21399998665 1.28699994087 -0.444000005722 182.0
2.16300010681 1.23899996281 -0.432999998331 136.0
0.930000007153 0.451000005007 -0.180000007153 111.0
0.948000013828 0.437999993563 -0.181999996305 246.0
0.962999999523 0.437999993563 -0.184000000358 311.0
0.944000005722 0.42199999094 -0.180000007153 385.0
0.952000021935 0.418999999762 -0.180999994278 275.0
0.957000017166 0.41400000453 -0.181999996305 316.0
0.963999986649 0.409999996424 -0.181999996305 369.0
0.973999977112 0.407999992371 -0.184000000358 435.0
0.953999996185 0.391999989748 -0.180000007153 487.0
0.949999988079 0.384000003338 -0.179000005126 557.0
0.959999978542 0.381000012159 -0.180000007153 617.0
0.958999991417 0.374000012875 -0.179000005126 684.0
0.962999999523 0.368999987841 -0.180000007153 734.0
0.958999991417 0.361000001431 -0.179000005126 790.0
0.959999978542 0.354999989271 -0.178000003099 847.0
0.967000007629 0.351000010967 -0.179000005126 903.0
0.961000025272 0.342000007629 -0.178000003099 928.0
0.97000002861 0.338999986649 -0.179000005126 987.0
0.963999986649 0.330000013113 -0.178000003099 1013.0
0.962999999523 0.323000013828 -0.177000001073 1053.0
0.971000015736 0.319999992847 -0.178000003099 1064.0
0.972000002861 0.31400001049 -0.178000003099 1092.0
0.967999994755 0.305999994278 -0.177000001073 1142.0
0.962999999523 0.298000007868 -0.175999999046 1166.0
0.973999977112 0.294999986887 -0.178000003099 1174.0
0.972000002861 0.287999987602 -0.177000001073 1190.0
0.97000002861 0.280999988317 -0.175999999046 1204.0
0.975000023842 0.275999993086 -0.177000001073 1209.0
0.976000010967 0.270999997854 -0.177000001073 1229.0
0.976999998093 0.264999985695 -0.177000001073 1236.0
0.967999994755 0.256000012159 -0.17499999702 1221.0
0.973999977112 0.252000004053 -0.175999999046 1225.0
0.971000015736 0.245000004768 -0.17499999702 1235.0
0.975000023842 0.239999994636 -0.17499999702 1229.0
0.972999989986 0.232999995351 -0.17499999702 1219.0
0.972999989986 0.226999998093 -0.173999994993 1202.0
0.976999998093 0.222000002861 -0.17499999702 1205.0
0.96899998188 0.21400000155 -0.172999992967 1187.0
0.976000010967 0.209999993443 -0.173999994993 1166.0
0.976999998093 0.203999996185 -0.173999994993 1161.0
0.971000015736 0.196999996901 -0.172999992967 1144.0
0.980000019073 0.193000003695 -0.17499999702 1114.0
0.98299998045 0.187000006437 -0.17499999702 1076.0
0.976999998093 0.180000007153 -0.173999994993 1058.0
0.981000006199 0.17499999702 -0.173999994993 1028.0
0.981999993324 0.168999999762 -0.173999994993 1002.0
0.981000006199 0.163000002503 -0.173999994993 986.0
0.98400002718 0.158000007272 -0.173999994993 964.0
0.980000019073 0.150999993086 -0.172999992967 1023.0
0.975000023842 0.144999995828 -0.172000005841 1022.0
0.980000019073 0.140000000596 -0.172999992967 1036.0
0.977999985218 0.134000003338 -0.172999992967 994.0
0.981999993324 0.12800000608 -0.172999992967 886.0
0.98299998045 0.123000003397 -0.172999992967 773.0
0.976000010967 0.115999996662 -0.172000005841 759.0
0.980000019073 0.111000001431 -0.172000005841 761.0
0.978999972343 0.104999996722 -0.172000005841 754.0
0.976000010967 0.0989999994636 -0.171000003815 693.0
0.976000010967 0.0930000022054 -0.171000003815 745.0
0.981000006199 0.0879999995232 -0.172000005841 685.0
0.978999972343 0.082000002265 -0.172000005841 637.0
0.989000022411 0.0769999995828 -0.172999992967 588.0
0.987999975681 0.0710000023246 -0.172999992967 556.0
0.981000006199 0.0649999976158 -0.172000005841 532.0
0.976999998093 0.0590000003576 -0.171000003815 500.0
0.980000019073 0.0529999993742 -0.171000003815 466.0
0.98400002718 0.0480000004172 -0.172000005841 445.0
0.972000002861 0.0419999994338 -0.170000001788 435.0
0.953999996185 0.035000000149 -0.166999995708 417.0
0.976000010967 0.0299999993294 -0.170000001788 383.0
0.986000001431 0.0250000003725 -0.172000005841 289.0
1.00300002098 -0.0610000006855 -0.17499999702 986.0
1.00600004196 -0.0670000016689 -0.17499999702 483.0
0.966000020504 -0.070000000298 -0.167999997735 160.0
0.959999978542 -0.0750000029802 -0.166999995708 151.0
0.943000018597 -0.0790000036359 -0.165000006557 156.0
0.945999979973 -0.0850000008941 -0.165000006557 159.0
0.945999979973 -0.0900000035763 -0.165000006557 155.0
0.936999976635 -0.0949999988079 -0.16400000453 161.0
0.935000002384 -0.10000000149 -0.163000002503 158.0
0.948000013828 -0.107000000775 -0.165999993682 168.0
0.935000002384 -0.111000001431 -0.163000002503 166.0
0.949999988079 -0.119000002742 -0.165999993682 162.0
0.949999988079 -0.123999997973 -0.165999993682 175.0
0.934000015259 -0.12800000608 -0.163000002503 167.0
0.927999973297 -0.131999999285 -0.162000000477 181.0
0.963999986649 -0.143000006676 -0.168999999762 674.0
0.976000010967 -0.150999993086 -0.171000003815 1305.0
0.971000015736 -0.156000003219 -0.170000001788 1344.0
0.976000010967 -0.163000002503 -0.171000003815 1355.0
0.967999994755 -0.166999995708 -0.170000001788 1363.0
0.96899998188 -0.172999992967 -0.170000001788 1376.0
0.96899998188 -0.179000005126 -0.170000001788 1375.0
0.964999973774 -0.184000000358 -0.170000001788 1382.0
0.962000012398 -0.188999995589 -0.170000001788 1395.0
0.963999986649 -0.195999994874 -0.170000001788 1402.0
0.959999978542 -0.201000005007 -0.168999999762 1402.0
0.958999991417 -0.206000000238 -0.168999999762 1424.0
0.957000017166 -0.211999997497 -0.168999999762 1431.0
0.954999983311 -0.216999992728 -0.168999999762 1419.0
0.957000017166 -0.224000006914 -0.170000001788 1339.0
0.945999979973 -0.226999998093 -0.167999997735 424.0
0.925000011921 -0.228000000119 -0.16400000453 196.0
0.913999974728 -0.230000004172 -0.162000000477 192.0
0.89099997282 -0.230000004172 -0.158000007272 194.0
0.899999976158 -0.238000005484 -0.159999996424 198.0
0.879000008106 -0.238000005484 -0.157000005245 196.0
0.89200001955 -0.24699999392 -0.158999994397 202.0
0.882000029087 -0.25 -0.158000007272 196.0
0.896000027657 -0.259999990463 -0.159999996424 201.0
0.884000003338 -0.261999994516 -0.158000007272 193.0
0.89099997282 -0.270000010729 -0.159999996424 197.0
0.902999997139 -0.279000014067 -0.162000000477 207.0
0.902000010014 -0.284999996424 -0.162000000477 204.0
0.897000014782 -0.28900000453 -0.162000000477 207.0
0.911000013351 -0.300000011921 -0.16400000453 628.0
0.921000003815 -0.310000002384 -0.166999995708 1456.0
0.919000029564 -0.314999997616 -0.165999993682 1541.0
0.916000008583 -0.319999992847 -0.165999993682 1547.0
0.92199999094 -0.32800000906 -0.166999995708 1554.0
0.913999974728 -0.331999987364 -0.165999993682 1556.0
0.916999995708 -0.338999986649 -0.166999995708 1561.0
0.907999992371 -0.342000007629 -0.165999993682 1569.0
0.911000013351 -0.349000006914 -0.166999995708 1570.0
0.907999992371 -0.354000002146 -0.165999993682 1572.0
0.907999992371 -0.361000001431 -0.166999995708 1587.0
0.902999997139 -0.365000009537 -0.165999993682 1587.0
0.902999997139 -0.372000008821 -0.166999995708 1587.0
0.899999976158 -0.377000004053 -0.165999993682 1595.0
0.899999976158 -0.38299998641 -0.166999995708 1435.0
0.899999976158 -0.389999985695 -0.166999995708 418.0
0.866999983788 -0.381000012159 -0.16099999845 225.0
0.851000010967 -0.379999995232 -0.158999994397 218.0
0.85900002718 -0.389999985695 -0.159999996424 214.0
0.828999996185 -0.38299998641 -0.155000001192 216.0
0.838999986649 -0.393999993801 -0.157000005245 212.0
0.834999978542 -0.398000001907 -0.157000005245 218.0
0.85900002718 -0.416000008583 -0.162000000477 211.0
0.853999972343 -0.419999986887 -0.16099999845 218.0
0.851999998093 -0.425999999046 -0.162000000477 213.0
0.84399998188 -0.428999990225 -0.159999996424 206.0
0.838999986649 -0.432000011206 -0.159999996424 211.0
0.825999975204 -0.432000011206 -0.158000007272 223.0
0.861999988556 -0.458000004292 -0.165000006557 605.0
0.870000004768 -0.469999998808 -0.166999995708 1510.0
0.869000017643 -0.476000010967 -0.166999995708 1640.0
0.870000004768 -0.483999997377 -0.167999997735 1645.0
0.866999983788 -0.488999992609 -0.167999997735 1636.0
2.18700003624 1.27300000191 -0.453999996185 263.0
2.23600006104 1.28299999237 -0.462999999523 202.0
2.21499991417 1.25199997425 -0.456999987364 115.0
3.39700007439 1.42299997807 -0.663999974728 71.0
0.804000020027 0.31400001049 -0.155000001192 101.0
0.875 0.33599999547 -0.168999999762 126.0
0.908999979496 0.342000007629 -0.17499999702 169.0
0.903999984264 0.333999991417 -0.173999994993 233.0
0.949000000954 0.344000011683 -0.181999996305 283.0
0.955999970436 0.340999990702 -0.182999998331 343.0
0.95300000906 0.333000004292 -0.181999996305 408.0
0.93599998951 0.321000009775 -0.178000003099 268.0
0.959999978542 0.323000013828 -0.182999998331 321.0
0.957000017166 0.314999997616 -0.181999996305 366.0
0.963999986649 0.31099998951 -0.182999998331 424.0
0.962999999523 0.305000007153 -0.181999996305 483.0
0.964999973774 0.298999994993 -0.181999996305 548.0
0.958000004292 0.289999991655 -0.180999994278 592.0
0.963999986649 0.286000013351 -0.180999994278 644.0
0.97000002861 0.282000005245 -0.181999996305 685.0
0.962999999523 0.273000001907 -0.180999994278 754.0
0.973999977112 0.270000010729 -0.181999996305 804.0
0.966000020504 0.261999994516 -0.180999994278 853.0
0.972000002861 0.256999999285 -0.181999996305 898.0
0.96899998188 0.250999987125 -0.180999994278 950.0
0.971000015736 0.245000004768 -0.180999994278 982.0
0.976000010967 0.239999994636 -0.181999996305 1032.0
0.967999994755 0.231999993324 -0.180000007153 1054.0
0.975000023842 0.228000000119 -0.180999994278 1081.0
0.972000002861 0.221000000834 -0.180000007153 1099.0
0.96899998188 0.21400000155 -0.179000005126 1108.0
0.97000002861 0.209000006318 -0.179000005126 1148.0
0.971000015736 0.202999994159 -0.179000005126 1172.0
0.976999998093 0.197999998927 -0.180000007153 1184.0
0.973999977112 0.192000001669 -0.179000005126 1176.0
0.977999985218 0.186000004411 -0.180000007153 1199.0
0.978999972343 0.180999994278 -0.180000007153 1214.0
0.975000023842 0.173999994993 -0.179000005126 1195.0
0.978999972343 0.168999999762 -0.180000007153 1212.0
0.976999998093 0.163000002503 -0.179000005126 1219.0
0.977999985218 0.157000005245 -0.179000005126 1238.0
0.976000010967 0.150999993086 -0.178000003099 1254.0
0.975000023842 0.144999995828 -0.178000003099 1274.0
0.976000010967 0.138999998569 -0.178000003099 1297.0
0.976999998093 0.134000003338 -0.178000003099 1373.0
0.978999972343 0.12800000608 -0.178000003099 1343.0
0.976000010967 0.122000001371 -0.178000003099 1308.0
0.981000006199 0.116999998689 -0.178000003099 1342.0
0.973999977112 0.109999999404 -0.177000001073 1409.0
0.978999972343 0.104999996722 -0.178000003099 1396.0
0.978999972343 0.0989999994636 -0.178000003099 1340.0
0.976000010967 0.0930000022054 -0.177000001073 1404.0
0.985000014305 0.0879999995232 -0.179000005126 1443.0
0.981000006199 0.082000002265 -0.178000003099 1446.0
0.977999985218 0.0759999975562 -0.177000001073 1439.0
0.978999972343 0.070000000298 -0.177000001073 1445.0
0.976999998093 0.0649999976158 -0.177000001073 1412.0
0.977999985218 0.0590000003576 -0.177000001073 1385.0
0.986999988556 0.0540000014007 -0.178000003099 1365.0
0.980000019073 0.0480000004172 -0.177000001073 1420.0
0.980000019073 0.0419999994338 -0.177000001073 1419.0
0.980000019073 0.0359999984503 -0.177000001073 1386.0
0.986999988556 0.0309999994934 -0.178000003099 1275.0
0.985000014305 0.0250000003725 -0.178000003099 971.0
0.995000004768 -0.0599999986589 -0.179000005126 1014.0
1.00499999523 -0.0670000016689 -0.180999994278 451.0
0.943000018597 -0.0680000036955 -0.170000001788 156.0
0.962000012398 -0.0750000029802 -0.173999994993 152.0
0.949999988079 -0.0799999982119 -0.171000003815 154.0
0.940999984741 -0.0839999988675 -0.170000001788 159.0
0.948000013828 -0.0909999981523 -0.171000003815 161.0
0.958000004292 -0.097000002861 -0.172999992967 162.0
0.949999988079 -0.101999998093 -0.172000005841 159.0
0.941999971867 -0.107000000775 -0.170000001788 164.0
0.949000000954 -0.112999998033 -0.171000003815 160.0
0.947000026703 -0.118000000715 -0.171000003815 160.0
0.93599998951 -0.122000001371 -0.168999999762 167.0
0.952000021935 -0.129999995232 -0.172000005841 174.0
0.940999984741 -0.134000003338 -0.170000001788 175.0
0.967999994755 -0.143999993801 -0.17499999702 726.0
0.972999989986 -0.150999993086 -0.175999999046 1299.0
0.96899998188 -0.156000003219 -0.175999999046 1339.0
0.972000002861 -0.162000000477 -0.177000001073 1364.0
0.966000020504 -0.166999995708 -0.175999999046 1374.0
0.966000020504 -0.172999992967 -0.175999999046 1380.0
0.967000007629 -0.179000005126 -0.175999999046 1381.0
0.962999999523 -0.184000000358 -0.17499999702 1392.0
0.961000025272 -0.188999995589 -0.17499999702 1390.0
0.962000012398 -0.194999992847 -0.17499999702 1388.0
0.958999991417 -0.201000005007 -0.17499999702 1406.0
0.962000012398 -0.207000002265 -0.175999999046 1430.0
0.961000025272 -0.212999999523 -0.175999999046 1414.0
0.949999988079 -0.216000005603 -0.173999994993 1420.0
0.953999996185 -0.223000004888 -0.17499999702 1317.0
0.945999979973 -0.226999998093 -0.173999994993 391.0
0.898999989033 -0.221000000834 -0.165000006557 201.0
0.888999998569 -0.224000006914 -0.163000002503 195.0
0.888000011444 -0.229000002146 -0.163000002503 203.0
0.898999989033 -0.238000005484 -0.165999993682 195.0
0.894999980927 -0.243000000715 -0.165000006557 197.0
0.915000021458 -0.254000008106 -0.168999999762 204.0
0.910000026226 -0.259000003338 -0.167999997735 202.0
0.889999985695 -0.25799998641 -0.165000006557 198.0
0.901000022888 -0.266999989748 -0.166999995708 197.0
0.875999987125 -0.266000002623 -0.163000002503 202.0
0.90499997139 -0.280000001192 -0.167999997735 201.0
0.907000005245 -0.287000000477 -0.168999999762 205.0
0.898000001907 -0.289999991655 -0.166999995708 209.0
0.916000008583 -0.301999986172 -0.171000003815 704.0
0.917999982834 -0.308999985456 -0.172000005841 1475.0
0.926999986172 -0.317999988794 -0.173999994993 1543.0
0.917999982834 -0.321000009775 -0.172000005841 1549.0
0.917999982834 -0.326999992132 -0.172999992967 1543.0
0.919000029564 -0.333999991417 -0.172999992967 1551.0
0.911000013351 -0.337000012398 -0.172000005841 1568.0
0.913999974728 -0.344999998808 -0.172999992967 1564.0
0.908999979496 -0.349000006914 -0.172000005841 1569.0
0.907999992371 -0.354999989271 -0.172000005841 1575.0
0.90499997139 -0.360000014305 -0.172000005841 1578.0
