ply
format ascii 1.0
element vertex 953
property float x
property float y
property float z
property float intensity
end_header
1.00800001621 -0.238000005484 0.280999988317 105.0
0.945999979973 -0.229000002146 0.263999998569 108.0
0.973999977112 -0.241999998689 0.272000014782 111.0
0.967000007629 -0.246000006795 0.270999997854 108.0
0.921000003815 -0.239999994636 0.25799998641 109.0
0.994000017643 -0.266000002623 0.279000014067 109.0
0.986999988556 -0.270999997854 0.277999997139 111.0
0.953999996185 -0.268000006676 0.268999993801 105.0
0.959999978542 -0.275999993086 0.270999997854 114.0
0.947000026703 -0.277999997139 0.268000006676 116.0
1.00999999046 -0.303999990225 0.286000013351 110.0
0.953999996185 -0.293000012636 0.270000010729 109.0
0.96899998188 -0.303999990225 0.27500000596 112.0
0.919000029564 -0.293999999762 0.261000007391 115.0
0.916000008583 -0.298999994993 0.261000007391 109.0
0.96899998188 -0.323000013828 0.277000010014 105.0
0.924000024796 -0.31400001049 0.263999998569 109.0
0.971000015736 -0.337000012398 0.277999997139 107.0
0.959999978542 -0.340000003576 0.275999993086 108.0
0.93900001049 -0.338999986649 0.270000010729 106.0
0.934000015259 -0.344000011683 0.268999993801 108.0
0.930999994278 -0.349000006914 0.268999993801 117.0
0.943000018597 -0.360000014305 0.273000001907 116.0
0.964999973774 -0.375999987125 0.280000001192 113.0
0.986999988556 -0.391000002623 0.287000000477 115.0
0.920000016689 -0.370999991894 0.268000006676 107.0
0.908999979496 -0.372999995947 0.266000002623 109.0
0.935000002384 -0.391000002623 0.273999989033 125.0
0.945999979973 -0.402000010014 0.277999997139 161.0
0.931999981403 -0.402999997139 0.273999989033 223.0
0.922999978065 -0.405999988317 0.272000014782 179.0
0.931999981403 -0.416999995708 0.275999993086 152.0
0.941999971867 -0.428000003099 0.279000014067 138.0
0.931999981403 -0.430999994278 0.277000010014 141.0
0.921000003815 -0.432999998331 0.273999989033 142.0
0.936999976635 -0.448000013828 0.280000001192 138.0
0.916999995708 -0.444999992847 0.27500000596 140.0
0.889999985695 -0.43900001049 0.266999989748 132.0
0.912000000477 -0.456999987364 0.27500000596 137.0
0.936999976635 -0.476999998093 0.282999992371 129.0
0.913999974728 -0.472000002861 0.277000010014 114.0
0.921000003815 -0.483999997377 0.280000001192 111.0
0.926999986172 -0.493999987841 0.282999992371 114.0
0.944999992847 -0.512000024319 0.28900000453 104.0
0.925000011921 -0.508000016212 0.284000009298 94.0
1.0720000267 -0.598999977112 0.331000000238 100.0
1.27600002289 -0.736000001431 0.397000014782 152.0
3.10400009155 1.49699997902 0.898999989033 98.0
3.16599988937 1.50199997425 0.915000021458 94.0
3.26900005341 1.52600002289 0.943000018597 86.0
3.51200008392 1.61300003529 1.00999999046 102.0
3.60899996758 1.62999999523 1.03600001335 118.0
3.57100009918 1.58599996567 1.02300000191 116.0
3.62700009346 1.58399999142 1.03600001335 94.0
3.81299996376 1.60899996758 1.08500003815 79.0
3.83800005913 1.59200000763 1.09000003338 74.0
3.96900010109 1.61800003052 1.125 109.0
3.90000009537 1.56200003624 1.10300004482 118.0
3.88000011444 1.52600002289 1.09500002861 126.0
3.96099996567 1.52999997139 1.11600005627 115.0
3.97300004959 1.50600004196 1.11699998379 118.0
3.96399998665 1.47500002384 1.11199998856 112.0
3.96700000763 1.44799995422 1.11099994183 115.0
3.96799993515 1.42100000381 1.10899996758 111.0
3.96000003815 1.39100003242 1.10500001907 111.0
3.99000000954 1.375 1.11199998856 116.0
3.96399998665 1.33899998665 1.10199999809 112.0
3.96600008011 1.31299996376 1.10099995136 112.0
4.01399993896 1.30099999905 1.11300003529 107.0
3.99000000954 1.26699995995 1.10399997234 117.0
3.96900010109 1.23399996758 1.09700000286 112.0
4.00099992752 1.21700000763 1.10399997234 117.0
3.96300005913 1.17900002003 1.09200000763 118.0
3.98900008202 1.16100001335 1.09800004959 116.0
3.99499988556 1.13600003719 1.09800004959 117.0
3.99099993706 1.10899996758 1.09500002861 119.0
3.9319999218 1.06700003147 1.07700002193 106.0
3.98000001907 1.05499994755 1.08899998665 107.0
3.99099993706 1.03199994564 1.0909999609 107.0
4.03399991989 1.01699995995 1.10099995136 76.0
1.01400005817 -0.101999998093 0.270999997854 88.0
1.00199997425 -0.107000000775 0.266999989748 178.0
1.03699994087 -0.116999998689 0.277000010014 128.0
0.992999970913 -0.118000000715 0.264999985695 179.0
1.00699996948 -0.126000002027 0.268999993801 105.0
0.986999988556 -0.128999993205 0.263999998569 93.0
0.985000014305 -0.135000005364 0.263999998569 94.0
0.990999996662 -0.142000004649 0.266000002623 101.0
1.00800001621 -0.15000000596 0.270000010729 97.0
0.967999994755 -0.15000000596 0.259999990463 97.0
0.96899998188 -0.156000003219 0.259999990463 99.0
0.986000001431 -0.165000006557 0.264999985695 106.0
0.967000007629 -0.167999997735 0.259999990463 104.0
0.962999999523 -0.172999992967 0.259000003338 105.0
0.98400002718 -0.182999998331 0.266000002623 104.0
0.964999973774 -0.185000002384 0.261000007391 104.0
0.944000005722 -0.187000006437 0.254999995232 109.0
0.948000013828 -0.193000003695 0.256000012159 109.0
0.996999979019 -0.209999993443 0.270000010729 104.0
0.967000007629 -0.209000006318 0.261999994516 102.0
0.941999971867 -0.209999993443 0.256000012159 102.0
0.962999999523 -0.221000000834 0.261999994516 107.0
0.948000013828 -0.223000004888 0.25799998641 111.0
0.981999993324 -0.237000003457 0.268000006676 108.0
0.967999994755 -0.239999994636 0.263999998569 114.0
0.967000007629 -0.246000006795 0.263999998569 115.0
0.964999973774 -0.252000004053 0.263999998569 111.0
0.954999983311 -0.254999995232 0.261999994516 113.0
0.962000012398 -0.263000011444 0.263999998569 111.0
0.990999996662 -0.277999997139 0.273000001907 115.0
0.944000005722 -0.270999997854 0.259999990463 111.0
0.971000015736 -0.284999996424 0.268000006676 117.0
0.958999991417 -0.287000000477 0.264999985695 110.0
0.959999978542 -0.293999999762 0.266000002623 105.0
0.958999991417 -0.300000011921 0.266000002623 111.0
0.916000008583 -0.293000012636 0.254000008106 106.0
0.927999973297 -0.303000003099 0.25799998641 107.0
0.927999973297 -0.308999985456 0.259000003338 103.0
0.975000023842 -0.331999987364 0.273000001907 111.0
0.938000023365 -0.324999988079 0.263000011444 108.0
0.908999979496 -0.321000009775 0.254999995232 112.0
0.929000020027 -0.335000008345 0.261000007391 110.0
0.908999979496 -0.333999991417 0.256000012159 111.0
0.940999984741 -0.351999998093 0.266000002623 104.0
0.944000005722 -0.360000014305 0.266999989748 106.0
0.947000026703 -0.368000000715 0.268999993801 109.0
0.907999992371 -0.358999997377 0.25799998641 102.0
0.907000005245 -0.365000009537 0.25799998641 103.0
0.910000026226 -0.372999995947 0.259999990463 98.0
0.89200001955 -0.372000008821 0.254999995232 103.0
0.92199999094 -0.391000002623 0.263999998569 104.0
0.944000005722 -0.407000005245 0.270999997854 113.0
0.985000014305 -0.432999998331 0.284000009298 101.0
0.972000002861 -0.433999985456 0.280999988317 101.0
0.893000006676 -0.405000001192 0.259000003338 100.0
0.925000011921 -0.426999986172 0.268999993801 109.0
0.958999991417 -0.449999988079 0.280000001192 106.0
0.912000000477 -0.435000002384 0.266000002623 106.0
0.903999984264 -0.437999993563 0.264999985695 92.0
0.954999983311 -0.469999998808 0.280999988317 98.0
0.929000020027 -0.465000003576 0.273999989033 103.0
0.870000004768 -0.442000001669 0.256999999285 107.0
0.896000027657 -0.462000012398 0.264999985695 95.0
0.89200001955 -0.467999994755 0.264999985695 102.0
0.952000021935 -0.507000029087 0.284000009298 98.0
0.885999977589 -0.479000002146 0.264999985695 102.0
0.941999971867 -0.51700001955 0.282999992371 90.0
0.972999989986 -0.542999982834 0.293000012636 87.0
1.02199995518 -0.57800000906 0.308999985456 84.0
1.19400000572 -0.686999976635 0.361999988556 135.0
3.04800009727 1.46700000763 0.861999988556 101.0
3.17300009727 1.50300002098 0.894999980927 94.0
3.24900007248 1.51400005817 0.915000021458 80.0
3.57399988174 1.63900005817 1.0039999485 93.0
3.59800004959 1.62199997902 1.00800001621 120.0
3.58200001717 1.58800005913 1.00100004673 117.0
3.68799996376 1.60800004005 1.02900004387 96.0
3.81100010872 1.63399994373 1.06099998951 70.0
3.83999991417 1.61800003052 1.06700003147 73.0
3.92199993134 1.62399995327 1.0870000124 89.0
3.93899989128 1.60300004482 1.08899998665 123.0
3.95700001717 1.58200001717 1.09200000763 126.0
3.93400001526 1.54499995708 1.08399999142 110.0
3.9509999752 1.52300000191 1.08599996567 122.0
3.93700003624 1.49000000954 1.08000004292 120.0
3.94099998474 1.46399998665 1.07899999619 122.0
3.92300009727 1.42999994755 1.0720000267 106.0
3.88499999046 1.38900005817 1.05999994278 106.0
3.96499991417 1.39100003242 1.08000004292 109.0
3.96399998665 1.36300003529 1.07799994946 112.0
3.95199990273 1.33200001717 1.07299995422 123.0
4.00600004196 1.32400000095 1.08599996567 113.0
3.96700000763 1.2840000391 1.07299995422 111.0
3.96799993515 1.25800001621 1.0720000267 120.0
3.9509999752 1.22599995136 1.06599998474 110.0
3.94199991226 1.1970000267 1.06200003624 116.0
3.95399999619 1.17499995232 1.06400001049 113.0
4.00199985504 1.1629999876 1.07500004768 112.0
4.02099990845 1.14199995995 1.07799994946 108.0
4.00400018692 1.11099994183 1.07299995422 115.0
3.97000002861 1.0759999752 1.06200003624 110.0
3.96099996567 1.04799997807 1.05799996853 107.0
3.96600008011 1.02400004864 1.05799996853 108.0
4.01300001144 1.00999999046 1.07000005245 83.0
0.972000002861 -0.097999997437 0.252999991179 84.0
0.962999999523 -0.103000000119 0.250999987125 197.0
0.992999970913 -0.112000003457 0.259000003338 626.0
1.00999999046 -0.119999997318 0.263999998569 290.0
1.01600003242 -0.127000004053 0.264999985695 103.0
0.992999970913 -0.129999995232 0.259000003338 103.0
1.02400004864 -0.140000000596 0.268000006676 102.0
0.957000017166 -0.136000007391 0.25 106.0
0.986000001431 -0.146999999881 0.25799998641 104.0
0.957000017166 -0.148000001907 0.250999987125 97.0
1.01699995995 -0.16400000453 0.266999989748 101.0
0.975000023842 -0.163000002503 0.256000012159 100.0
0.986000001431 -0.171000003815 0.259000003338 100.0
0.972999989986 -0.173999994993 0.256000012159 107.0
0.973999977112 -0.180999994278 0.256999999285 106.0
0.995000004768 -0.190999999642 0.261999994516 105.0
0.995000004768 -0.196999996901 0.263000011444 108.0
0.964999973774 -0.196999996901 0.254999995232 100.0
0.972999989986 -0.203999996185 0.25799998641 107.0
0.994000017643 -0.215000003576 0.263000011444 107.0
0.972000002861 -0.216000005603 0.25799998641 109.0
0.973999977112 -0.223000004888 0.259000003338 114.0
0.962000012398 -0.225999996066 0.256000012159 112.0
0.941999971867 -0.226999998093 0.250999987125 100.0
0.978999972343 -0.243000000715 0.261000007391 111.0
0.98400002718 -0.25 0.263000011444 110.0
0.944000005722 -0.246000006795 0.252000004053 107.0
0.973999977112 -0.259999990463 0.261000007391 114.0
0.980000019073 -0.268000006676 0.263000011444 112.0
0.958999991417 -0.268000006676 0.256999999285 110.0
0.947000026703 -0.270999997854 0.254999995232 112.0
0.96899998188 -0.284000009298 0.261000007391 115.0
0.949000000954 -0.284000009298 0.256000012159 113.0
0.963999986649 -0.294999986887 0.261000007391 115.0
0.958000004292 -0.298999994993 0.259000003338 108.0
0.978999972343 -0.312999993563 0.266000002623 108.0
0.919000029564 -0.300000011921 0.25 113.0
0.955999970436 -0.317999988794 0.259999990463 109.0
0.930000007153 -0.316000014544 0.254000008106 110.0
0.96899998188 -0.33599999547 0.264999985695 111.0
0.930000007153 -0.32800000906 0.254999995232 111.0
0.973999977112 -0.351000010967 0.268000006676 110.0
0.945999979973 -0.347000002861 0.259999990463 102.0
0.931999981403 -0.349000006914 0.256999999285 109.0
0.916000008583 -0.349000006914 0.252999991179 108.0
0.930000007153 -0.361000001431 0.256999999285 111.0
0.934000015259 -0.368999987841 0.259000003338 103.0
0.939999997616 -0.377999991179 0.261000007391 109.0
0.90600001812 -0.370999991894 0.252999991179 107.0
0.920000016689 -0.38299998641 0.256999999285 110.0
0.922999978065 -0.391000002623 0.259000003338 108.0
0.940999984741 -0.405999988317 0.263999998569 104.0
0.889999985695 -0.389999985695 0.25 102.0
0.922999978065 -0.412000000477 0.259999990463 103.0
0.962000012398 -0.437000006437 0.272000014782 99.0
0.938000023365 -0.432999998331 0.266000002623 96.0
0.976000010967 -0.456999987364 0.277999997139 98.0
0.93900001049 -0.446999996901 0.268000006676 101.0
0.874000012875 -0.423000007868 0.25 103.0
0.901000022888 -0.442999988794 0.25799998641 101.0
0.925000011921 -0.462000012398 0.266000002623 98.0
0.894999980927 -0.453999996185 0.25799998641 95.0
0.887000024319 -0.456999987364 0.256000012159 91.0
0.910000026226 -0.476000010967 0.263999998569 87.0
0.882000029087 -0.476000010967 0.256999999285 89.0
0.910000026226 -0.499000012875 0.266999989748 88.0
0.889999985695 -0.495000004768 0.261000007391 93.0
0.944999992847 -0.533999979496 0.279000014067 92.0
0.952000021935 -0.546000003815 0.282000005245 87.0
3.13100004196 1.50499999523 0.864000022411 106.0
3.19199991226 1.50999999046 0.879000008106 88.0
3.24900007248 1.51199996471 0.89200001955 75.0
3.57999992371 1.63900005817 0.981000006199 107.0
3.59999990463 1.6210000515 0.98400002718 132.0
3.63000011444 1.60699999332 0.990000009537 113.0
3.64499998093 1.5870000124 0.991999983788 100.0
3.87299990654 1.65799999237 1.05200004578 76.0
3.84899997711 1.61899995804 1.04299998283 72.0
3.9470000267 1.63199996948 1.06700003147 92.0
3.9240000248 1.59399998188 1.05900001526 122.0
3.90400004387 1.55799996853 1.05099999905 117.0
3.9319999218 1.54100000858 1.05700004101 124.0
3.97799992561 1.53100001812 1.06700003147 115.0
3.90599989891 1.47599995136 1.04600000381 116.0
3.99000000954 1.48000001907 1.06599998474 121.0
3.95199990273 1.43900001049 1.05400002003 114.0
3.94000005722 1.40699994564 1.0490000248 114.0
3.98399996758 1.39499998093 1.05900001526 118.0
3.96600008011 1.36199998856 1.05200004578 113.0
3.97799992561 1.33899998665 1.05400002003 115.0
3.97000002861 1.30999994278 1.04999995232 113.0
3.98099994659 1.28600001335 1.05099999905 114.0
3.98200011253 1.25999999046 1.04999995232 122.0
3.96399998665 1.22800004482 1.04299998283 114.0
4.00099992752 1.21300005913 1.05200004578 119.0
4.03299999237 1.19599997997 1.05900001526 108.0
3.99399995804 1.1590000391 1.04700005054 116.0
4.03200006485 1.14300000668 1.05499994755 116.0
3.97300004959 1.10099995136 1.0379999876 121.0
3.94499993324 1.06799995899 1.02999997139 108.0
3.98699998856 1.0529999733 1.03900003433 109.0
4.03499984741 1.03999996185 1.05099999905 103.0
1.01800000668 -0.103000000119 0.259000003338 88.0
0.998000025749 -0.105999998748 0.254000008106 103.0
1.0039999485 -0.112999998033 0.254999995232 108.0
1.0 -0.119000002742 0.254999995232 100.0
0.98400002718 -0.123000003397 0.250999987125 97.0
0.986999988556 -0.128999993205 0.252000004053 98.0
0.996999979019 -0.136000007391 0.254000008106 102.0
1.00499999523 -0.143000006676 0.256999999285 100.0
1.00699996948 -0.15000000596 0.256999999285 100.0
0.972999989986 -0.15000000596 0.248999997973 103.0
0.973999977112 -0.157000005245 0.248999997973 101.0
0.98400002718 -0.16400000453 0.252000004053 104.0
0.990999996662 -0.171000003815 0.254000008106 108.0
0.97000002861 -0.173999994993 0.248999997973 104.0
0.953999996185 -0.175999999046 0.245000004768 109.0
0.964999973774 -0.185000002384 0.247999995947 107.0
0.986999988556 -0.194999992847 0.254000008106 108.0
0.980000019073 -0.20000000298 0.252999991179 109.0
0.981999993324 -0.206000000238 0.252999991179 110.0
0.972000002861 -0.209999993443 0.250999987125 113.0
0.976000010967 -0.216999992728 0.252999991179 116.0
0.990999996662 -0.226999998093 0.256999999285 107.0
0.95300000906 -0.224000006914 0.24699999392 109.0
0.971000015736 -0.233999997377 0.252000004053 109.0
0.938000023365 -0.231999993324 0.244000002742 112.0
0.941999971867 -0.238999992609 0.245000004768 112.0
0.985000014305 -0.256000012159 0.256999999285 112.0
0.955999970436 -0.254999995232 0.25 112.0
0.978999972343 -0.266999989748 0.256000012159 116.0
0.950999975204 -0.266000002623 0.248999997973 116.0
0.949999988079 -0.272000014782 0.248999997973 113.0
0.922999978065 -0.270000010729 0.243000000715 117.0
0.930000007153 -0.277999997139 0.245000004768 104.0
0.930000007153 -0.284000009298 0.245000004768 108.0
0.952000021935 -0.29699999094 0.252000004053 110.0
0.930000007153 -0.29699999094 0.246000006795 114.0
0.941999971867 -0.307000011206 0.25 118.0
0.962999999523 -0.319999992847 0.256000012159 118.0
0.952000021935 -0.323000013828 0.252999991179 116.0
0.950999975204 -0.328999996185 0.254000008106 115.0
0.934000015259 -0.328999996185 0.25 106.0
0.976999998093 -0.351000010967 0.261999994516 114.0
0.925000011921 -0.338999986649 0.247999995947 109.0
0.93900001049 -0.34999999404 0.252000004053 112.0
0.929000020027 -0.352999985218 0.25 102.0
0.948000013828 -0.36700001359 0.256000012159 108.0
0.947000026703 -0.374000012875 0.256999999285 111.0
0.963999986649 -0.386999994516 0.261999994516 107.0
0.941999971867 -0.384999990463 0.256000012159 104.0
0.911000013351 -0.379000008106 0.247999995947 109.0
0.941999971867 -0.398999989033 0.25799998641 107.0
0.920000016689 -0.395999997854 0.252000004053 104.0
0.940999984741 -0.412000000477 0.259000003338 99.0
0.944000005722 -0.421000003815 0.259999990463 103.0
0.912000000477 -0.412999987602 0.252000004053 101.0
0.911000013351 -0.418999999762 0.252000004053 98.0
0.949999988079 -0.444000005722 0.263999998569 104.0
0.921000003815 -0.437999993563 0.256000012159 102.0
0.910000026226 -0.439999997616 0.254000008106 101.0
0.947000026703 -0.465000003576 0.264999985695 100.0
0.922999978065 -0.460000008345 0.259000003338 95.0
0.931999981403 -0.472000002861 0.261999994516 95.0
0.893999993801 -0.460000008345 0.252000004053 96.0
0.884999990463 -0.462000012398 0.25 95.0
0.919000029564 -0.488000005484 0.261000007391 85.0
0.958999991417 -0.51700001955 0.273000001907 88.0
0.902000010014 -0.493000000715 0.25799998641 90.0
0.902000010014 -0.500999987125 0.259000003338 88.0
0.882000029087 -0.497000008821 0.254000008106 92.0
0.910000026226 -0.521000027657 0.263000011444 96.0
2.44499993324 1.40999996662 0.680000007153 83.0
3.117000103 1.4960000515 0.838999986649 99.0
3.16499996185 1.49500000477 0.850000023842 94.0
3.51900005341 1.60800004005 0.939999997616 109.0
3.57800006866 1.60800004005 0.953999996185 118.0
3.5569999218 1.5720000267 0.945999979973 112.0
3.68300008774 1.60099995136 0.976999998093 82.0
3.93099999428 1.65199995041 1.03900003433 75.0
3.88700008392 1.60500001907 1.02499997616 97.0
3.89100003242 1.57899999619 1.02400004864 118.0
3.90499997139 1.55599999428 1.02499997616 119.0
3.90700006485 1.52900004387 1.02400004864 112.0
3.95000004768 1.51800000668 1.03299999237 114.0
3.89599990845 1.47000002861 1.01699995995 116.0
3.99499988556 1.48000001907 1.04100000858 106.0
3.95199990273 1.43700003624 1.02799999714 110.0
3.9319999218 1.40199995041 1.02100002766 114.0
3.96900010109 1.38800001144 1.02900004387 107.0
3.95499992371 1.35599994659 1.02300000191 116.0
3.91300010681 1.31500005722 1.01100003719 113.0
3.97799992561 1.30999994278 1.02600002289 106.0
3.97600007057 1.28299999237 1.02400004864 116.0
3.96499991417 1.25300002098 1.01900005341 110.0
3.9470000267 1.22099995613 1.01300001144 113.0
4.03700017929 1.22200000286 1.03499996662 115.0
3.96199989319 1.1740000248 1.01400005817 119.0
3.96300005913 1.14800000191 1.01300001144 114.0
3.98900008202 1.12999999523 1.01800000668 113.0
3.98799991608 1.10300004482 1.01699995995 113.0
3.97099995613 1.07299995422 1.01100003719 106.0
3.98099994659 1.04999995232 1.01199996471 115.0
3.96700000763 1.02100002766 1.00800001621 106.0
3.95000004768 0.990999996662 1.00199997425 75.0
1.01100003719 -0.101999998093 0.250999987125 86.0
1.00100004673 -0.107000000775 0.247999995947 98.0
0.966000020504 -0.108999997377 0.239999994636 102.0
1.01800000668 -0.120999999344 0.252999991179 104.0
0.990999996662 -0.123000003397 0.246000006795 103.0
0.954999983311 -0.123999997973 0.237000003457 102.0
0.975000023842 -0.133000001311 0.243000000715 107.0
0.976999998093 -0.138999998569 0.243000000715 102.0
0.978999972343 -0.144999995828 0.244000002742 105.0
0.98299998045 -0.151999995112 0.245000004768 99.0
0.959999978542 -0.153999999166 0.239999994636 109.0
0.962999999523 -0.159999996424 0.240999996662 107.0
0.961000025272 -0.165999993682 0.240999996662 107.0
0.986999988556 -0.177000001073 0.24699999392 112.0
0.975000023842 -0.180000007153 0.245000004768 111.0
0.981000006199 -0.187000006437 0.246000006795 110.0
0.989000022411 -0.194999992847 0.248999997973 112.0
0.967000007629 -0.196999996901 0.243000000715 110.0
0.987999975681 -0.207000002265 0.248999997973 105.0
0.989000022411 -0.21400000155 0.248999997973 103.0
0.96899998188 -0.215000003576 0.245000004768 114.0
0.98400002718 -0.22499999404 0.248999997973 117.0
0.95300000906 -0.223000004888 0.240999996662 110.0
0.977999985218 -0.236000001431 0.247999995947 115.0
0.944999992847 -0.232999995351 0.239999994636 113.0
0.962000012398 -0.244000002742 0.245000004768 113.0
0.97000002861 -0.252000004053 0.24699999392 122.0
0.966000020504 -0.256999999285 0.246000006795 114.0
0.961000025272 -0.261999994516 0.245000004768 112.0
0.958999991417 -0.268000006676 0.245000004768 111.0
0.963999986649 -0.27500000596 0.24699999392 112.0
0.958000004292 -0.280000001192 0.246000006795 116.0
0.953999996185 -0.284999996424 0.245000004768 109.0
0.916999995708 -0.280000001192 0.236000001431 116.0
0.944999992847 -0.294999986887 0.244000002742 115.0
0.941999971867 -0.300000011921 0.243000000715 116.0
0.953999996185 -0.310000002384 0.24699999392 115.0
0.95300000906 -0.316000014544 0.24699999392 114.0
0.95300000906 -0.323000013828 0.247999995947 114.0
0.990000009537 -0.342000007629 0.25799998641 111.0
0.931999981403 -0.32800000906 0.243000000715 109.0
0.961000025272 -0.344999998808 0.250999987125 109.0
0.929000020027 -0.340000003576 0.243000000715 114.0
0.953999996185 -0.356000006199 0.25 115.0
0.941999971867 -0.358000010252 0.247999995947 109.0
0.943000018597 -0.365000009537 0.247999995947 116.0
0.89200001955 -0.351000010967 0.234999999404 107.0
0.939999997616 -0.377000004053 0.248999997973 109.0
0.935000002384 -0.381999999285 0.247999995947 109.0
0.921000003815 -0.38299998641 0.245000004768 103.0
0.916999995708 -0.388000011444 0.244000002742 105.0
0.926999986172 -0.398000001907 0.247999995947 111.0
0.911000013351 -0.398000001907 0.244000002742 99.0
0.908999979496 -0.404000014067 0.244000002742 104.0
0.943000018597 -0.425999999046 0.254000008106 104.0
0.950999975204 -0.437000006437 0.256999999285 99.0
0.926999986172 -0.432999998331 0.250999987125 103.0
0.943000018597 -0.448000013828 0.256000012159 107.0
0.915000021458 -0.441000014544 0.248999997973 90.0
0.926999986172 -0.455000013113 0.252999991179 94.0
0.916000008583 -0.456000000238 0.250999987125 101.0
0.893000006676 -0.451999992132 0.245000004768 98.0
0.90600001812 -0.465000003576 0.248999997973 97.0
0.897000014782 -0.467999994755 0.247999995947 96.0
0.92199999094 -0.488999992609 0.254999995232 89.0
0.936999976635 -0.504000008106 0.259999990463 99.0
0.902000010014 -0.493000000715 0.250999987125 92.0
0.948000013828 -0.526000022888 0.264999985695 96.0
0.924000024796 -0.519999980927 0.259000003338 90.0
0.913999974728 -0.522000014782 0.256999999285 93.0
3.14800000191 1.50800001621 0.824999988079 106.0
3.24900007248 1.53100001812 0.850000023842 91.0
3.49300003052 1.62000000477 0.912000000477 87.0
3.54399991035 1.61699998379 0.922999978065 103.0
3.56900000572 1.60199999809 0.926999986172 118.0
3.58500003815 1.58200001717 0.929000020027 116.0
3.66899991035 1.59300005436 0.949000000954 78.0
3.95399999619 1.68700003624 1.02100002766 71.0
3.78399991989 1.5870000124 0.973999977112 73.0
3.91700005531 1.61500000954 1.00699996948 100.0
3.91300010681 1.58500003815 1.0039999485 120.0
3.92899990082 1.56299996376 1.00600004196 121.0
3.94799995422 1.54299998283 1.00899994373 120.0
3.97399997711 1.52499997616 1.01300001144 114.0
3.94199991226 1.48500001431 1.00300002098 108.0
3.94799995422 1.46000003815 1.00300002098 114.0
3.92899990082 1.42599999905 0.995999991894 114.0
3.98399996758 1.41900002956 1.00800001621 111.0
3.98300004005 1.39100003242 1.00699996948 121.0
3.97300004959 1.36000001431 1.00199997425 118.0
3.93000006676 1.31900000572 0.990000009537 109.0
3.93700003624 1.29499995708 0.990000009537 118.0
3.94499993324 1.27100002766 0.990000009537 117.0
3.95799994469 1.24899995327 0.991999983788 123.0
3.99799990654 1.23500001431 1.0 110.0
3.98900008202 1.20599997044 0.996999979019 109.0
3.992000103 1.18099999428 0.995999991894 113.0
4.01700019836 1.16199994087 1.00100004673 116.0
4.0 1.13100004196 0.995000004768 119.0
3.99000000954 1.10199999809 0.991999983788 119.0
3.94899988174 1.06599998474 0.980000019073 106.0
3.96300005913 1.04400002956 0.981999993324 111.0
4.02500009537 1.03499996662 0.996999979019 104.0
0.995000004768 -0.10000000149 0.239999994636 83.0
0.996999979019 -0.105999998748 0.240999996662 101.0
0.977999985218 -0.109999999404 0.237000003457 97.0
0.996999979019 -0.118000000715 0.240999996662 101.0
0.98299998045 -0.122000001371 0.238000005484 103.0
0.972000002861 -0.127000004053 0.236000001431 99.0
0.936999976635 -0.127000004053 0.226999998093 103.0
0.967000007629 -0.137999996543 0.234999999404 100.0
0.981999993324 -0.145999997854 0.238999992609 104.0
0.998000025749 -0.153999999166 0.243000000715 104.0
0.992999970913 -0.158999994397 0.241999998689 107.0
0.989000022411 -0.165000006557 0.240999996662 114.0
0.990000009537 -0.171000003815 0.241999998689 113.0
0.986000001431 -0.175999999046 0.240999996662 110.0
0.966000020504 -0.178000003099 0.236000001431 110.0
0.96899998188 -0.185000002384 0.237000003457 111.0
0.948000013828 -0.187000006437 0.231999993324 110.0
0.996999979019 -0.202999994159 0.245000004768 109.0
0.953999996185 -0.20000000298 0.233999997377 116.0
0.967999994755 -0.209000006318 0.238000005484 116.0
0.986000001431 -0.218999996781 0.243000000715 121.0
0.959999978542 -0.218999996781 0.237000003457 115.0
0.967000007629 -0.226999998093 0.238999992609 117.0
0.930000007153 -0.223000004888 0.230000004172 114.0
0.980000019073 -0.241999998689 0.243000000715 117.0
0.972000002861 -0.246000006795 0.240999996662 113.0
0.98299998045 -0.254999995232 0.244000002742 111.0
0.958999991417 -0.254999995232 0.238000005484 115.0
0.935000002384 -0.254999995232 0.232999995351 114.0
0.972000002861 -0.270999997854 0.241999998689 114.0
0.980000019073 -0.280000001192 0.245000004768 113.0
0.947000026703 -0.275999993086 0.237000003457 117.0
0.992999970913 -0.296000003815 0.248999997973 119.0
0.949000000954 -0.28900000453 0.238000005484 118.0
0.962999999523 -0.300000011921 0.241999998689 119.0
0.973999977112 -0.310000002384 0.245000004768 122.0
0.931999981403 -0.303000003099 0.234999999404 110.0
0.943000018597 -0.312000006437 0.238000005484 111.0
0.948000013828 -0.321000009775 0.239999994636 112.0
0.902000010014 -0.31099998951 0.229000002146 117.0
0.934000015259 -0.32800000906 0.237000003457 113.0
0.958999991417 -0.344000011683 0.244000002742 117.0
0.952000021935 -0.347999989986 0.243000000715 110.0
0.944999992847 -0.351999998093 0.241999998689 113.0
0.916000008583 -0.347000002861 0.234999999404 110.0
0.913999974728 -0.352999985218 0.234999999404 103.0
0.930999994278 -0.365999996662 0.239999994636 103.0
0.920000016689 -0.368000000715 0.237000003457 112.0
0.920000016689 -0.375 0.238000005484 114.0
0.899999976158 -0.372999995947 0.232999995351 105.0
0.944000005722 -0.398000001907 0.245000004768 107.0
0.916000008583 -0.393000006676 0.238999992609 103.0
0.93900001049 -0.409999996424 0.245000004768 98.0
0.934000015259 -0.414999991655 0.244000002742 101.0
0.940999984741 -0.425000011921 0.24699999392 99.0
0.917999982834 -0.421000003815 0.241999998689 102.0
0.924000024796 -0.430999994278 0.244000002742 104.0
0.893999993801 -0.423999994993 0.237000003457 94.0
0.919000029564 -0.442999988794 0.244000002742 101.0
0.893999993801 -0.437999993563 0.238000005484 94.0
0.884999990463 -0.439999997616 0.236000001431 100.0
0.916000008583 -0.462999999523 0.245000004768 96.0
0.899999976158 -0.462000012398 0.241999998689 93.0
0.935000002384 -0.488000005484 0.252000004053 101.0
0.939999997616 -0.497000008821 0.254000008106 100.0
0.901000022888 -0.483999997377 0.244000002742 97.0
0.938000023365 -0.512000024319 0.254999995232 95.0
0.861000001431 -0.476000010967 0.233999997377 100.0
0.934000015259 -0.524999976158 0.254999995232 89.0
0.875999987125 -0.499000012875 0.239999994636 92.0
3.11800003052 1.49100005627 0.796000003815 101.0
3.24699997902 1.52799999714 0.827000021935 81.0
3.51900005341 1.60300004482 0.893000006676 105.0
3.59899997711 1.61300003529 0.911000013351 126.0
3.61199998856 1.59200000763 0.912000000477 110.0
3.67499995232 1.59300005436 0.925999999046 72.0
3.84999990463 1.63999998569 0.967999994755 78.0
3.85899996758 1.58800005913 0.966000020504 97.0
3.93499994278 1.59200000763 0.98299998045 120.0
3.88899993896 1.54499995708 0.97000002861 113.0
3.9319999218 1.53499996662 0.978999972343 119.0
3.98300004005 1.52699995041 0.989000022411 118.0
3.9319999218 1.48000001907 0.975000023842 112.0
3.94000005722 1.45500004292 0.975000023842 113.0
3.9470000267 1.43099999428 0.975000023842 112.0
3.97099995613 1.41199994087 0.978999972343 122.0
3.93700003624 1.37300002575 0.96899998188 109.0
3.91799998283 1.34000003338 0.962999999523 115.0
3.96399998665 1.32899999619 0.972000002861 111.0
3.94799995422 1.29700005054 0.967000007629 116.0
4.01300001144 1.29100000858 0.981000006199 115.0
3.99699997902 1.25999999046 0.976000010967 114.0
3.99799990654 1.23300004005 0.975000023842 114.0
3.96399998665 1.1970000267 0.964999973774 111.0
3.97399997711 1.1740000248 0.966000020504 119.0
3.99799990654 1.15499997139 0.971000015736 115.0
3.97199988365 1.1210000515 0.962999999523 113.0
3.98000001907 1.09800004959 0.963999986649 119.0
3.92600011826 1.05799996853 0.949000000954 108.0
4.00099992752 1.0529999733 0.966000020504 107.0
3.90799999237 1.00300002098 0.943000018597 103.0
0.981000006199 -0.097999997437 0.231000006199 91.0
0.996999979019 -0.105999998748 0.234999999404 101.0
1.0039999485 -0.112999998033 0.237000003457 103.0
0.977999985218 -0.115999996662 0.231000006199 104.0
0.989000022411 -0.123000003397 0.233999997377 102.0
1.00600004196 -0.130999997258 0.238000005484 104.0
0.972999989986 -0.133000001311 0.230000004172 103.0
0.973999977112 -0.137999996543 0.230000004172 101.0
0.996999979019 -0.148000001907 0.236000001431 108.0
0.97000002861 -0.149000003934 0.230000004172 110.0
0.977999985218 -0.157000005245 0.231999993324 110.0
0.981000006199 -0.163000002503 0.232999995351 110.0
0.987999975681 -0.170000001788 0.234999999404 114.0
0.958000004292 -0.171000003815 0.228000000119 111.0
0.98299998045 -0.180999994278 0.233999997377 110.0
0.948000013828 -0.180999994278 0.225999996066 118.0
0.967000007629 -0.189999997616 0.231000006199 113.0
0.967999994755 -0.195999994874 0.231000006199 112.0
0.961000025272 -0.201000005007 0.230000004172 110.0
0.987999975681 -0.212999999523 0.237000003457 113.0
0.981000006199 -0.216999992728 0.234999999404 114.0
0.973999977112 -0.222000002861 0.233999997377 111.0
0.987999975681 -0.231000006199 0.238000005484 117.0
0.938000023365 -0.22499999404 0.225999996066 117.0
0.955999970436 -0.236000001431 0.231000006199 113.0
0.907000005245 -0.229000002146 0.218999996781 107.0
0.934000015259 -0.241999998689 0.225999996066 118.0
0.950999975204 -0.252999991179 0.230000004172 114.0
0.959999978542 -0.261000007391 0.232999995351 115.0
1.00499999523 -0.280000001192 0.244000002742 119.0
0.953999996185 -0.272000014782 0.231999993324 109.0
0.981999993324 -0.286000013351 0.238999992609 118.0
0.986000001431 -0.293999999762 0.240999996662 119.0
0.975000023842 -0.29699999094 0.238000005484 120.0
0.959999978542 -0.298999994993 0.234999999404 118.0
0.949999988079 -0.301999986172 0.232999995351 120.0
0.967000007629 -0.31400001049 0.238000005484 121.0
0.940999984741 -0.312000006437 0.231999993324 114.0
0.948000013828 -0.319999992847 0.233999997377 111.0
0.947000026703 -0.326000005007 0.233999997377 114.0
0.899999976158 -0.316000014544 0.223000004888 119.0
0.931999981403 -0.333999991417 0.231000006199 117.0
0.908999979496 -0.331999987364 0.225999996066 116.0
0.992999970913 -0.370000004768 0.247999995947 115.0
0.931999981403 -0.352999985218 0.232999995351 114.0
0.930999994278 -0.358999997377 0.232999995351 109.0
0.944999992847 -0.370999991894 0.237000003457 105.0
0.876999974251 -0.351000010967 0.219999998808 108.0
0.902000010014 -0.36700001359 0.226999998093 111.0
0.897000014782 -0.370999991894 0.225999996066 111.0
0.93900001049 -0.395999997854 0.238000005484 104.0
0.935000002384 -0.400999993086 0.237000003457 104.0
0.949000000954 -0.41400000453 0.241999998689 102.0
0.944999992847 -0.418999999762 0.240999996662 102.0
0.948000013828 -0.428000003099 0.243000000715 101.0
0.899999976158 -0.412999987602 0.231000006199 106.0
0.911000013351 -0.423999994993 0.233999997377 106.0
0.931999981403 -0.441000014544 0.239999994636 108.0
0.93599998951 -0.449999988079 0.241999998689 100.0
0.910000026226 -0.444999992847 0.236000001431 102.0
0.894999980927 -0.444000005722 0.232999995351 100.0
0.885999977589 -0.446999996901 0.231000006199 99.0
0.926999986172 -0.47499999404 0.241999998689 105.0
0.92199999094 -0.479999989271 0.241999998689 103.0
0.896000027657 -0.472999989986 0.236000001431 101.0
0.963999986649 -0.51700001955 0.254000008106 97.0
0.875999987125 -0.476999998093 0.231999993324 97.0
0.930999994278 -0.514999985695 0.24699999392 94.0
0.911000013351 -0.510999977589 0.243000000715 101.0
0.808000028133 -0.460000008345 0.216000005603 99.0
3.15400004387 1.50699996948 0.783999979496 94.0
3.21399998665 1.50999999046 0.79699999094 88.0
3.36599993706 1.55700004101 0.833000004292 77.0
3.59299993515 1.63499999046 0.887000024319 121.0
3.60100007057 1.61099994183 0.887000024319 120.0
3.61400008202 1.5909999609 0.888000011444 100.0
3.73699998856 1.61699998379 0.916999995708 78.0
3.9430000782 1.64900004864 0.962999999523 73.0
3.87299990654 1.59200000763 0.944000005722 110.0
3.90499997139 1.57700002193 0.949999988079 127.0
3.89199995995 1.54400002956 0.944999992847 121.0
3.88800001144 1.51499998569 0.941999971867 118.0
3.91799998283 1.5 0.948000013828 120.0
3.96099996567 1.48800003529 0.955999970436 118.0
3.98399996758 1.46899998188 0.959999978542 116.0
3.93400001526 1.4240000248 0.945999979973 117.0
3.93499994278 1.39699995518 0.944999992847 112.0
3.89299988747 1.35599994659 0.933000028133 116.0
3.9319999218 1.34300005436 0.940999984741 114.0
3.96499991417 1.32700002193 0.947000026703 109.0
3.92000007629 1.28600001335 0.935000002384 109.0
3.96399998665 1.27400004864 0.944000005722 111.0
3.98000001907 1.25300002098 0.945999979973 111.0
3.97300004959 1.22399997711 0.943000018597 117.0
3.96700000763 1.19599997997 0.939999997616 116.0
4.05499982834 1.19599997997 0.959999978542 115.0
4.01000022888 1.15699994564 0.948000013828 119.0
4.01200008392 1.13100004196 0.947000026703 108.0
4.01700019836 1.10699999332 0.947000026703 115.0
3.99799990654 1.0759999752 0.940999984741 110.0
3.97699999809 1.04499995708 0.935000002384 112.0
3.93899989128 1.00999999046 0.925000011921 97.0
3.91199994087 0.977999985218 0.917999982834 64.0
1.0 -0.10000000149 0.229000002146 86.0
0.991999983788 -0.104999996722 0.228000000119 96.0
1.01300001144 -0.11400000006 0.232999995351 102.0
1.01100003719 -0.119999997318 0.231999993324 100.0
1.00300002098 -0.123999997973 0.231000006199 104.0
1.01600003242 -0.131999999285 0.233999997377 106.0
0.936999976635 -0.127000004053 0.216000005603 105.0
0.991999983788 -0.141000002623 0.229000002146 105.0
0.994000017643 -0.146999999881 0.229000002146 108.0
0.975000023842 -0.15000000596 0.22499999404 108.0
0.990000009537 -0.158999994397 0.229000002146 111.0
0.991999983788 -0.165000006557 0.229000002146 111.0
0.941999971867 -0.162000000477 0.217999994755 108.0
0.990000009537 -0.177000001073 0.230000004172 106.0
0.98299998045 -0.180999994278 0.228000000119 109.0
0.98400002718 -0.187000006437 0.228000000119 109.0
0.985000014305 -0.194000005722 0.229000002146 111.0
0.967000007629 -0.195999994874 0.22499999404 112.0
0.962000012398 -0.201000005007 0.224000006914 113.0
0.952000021935 -0.204999998212 0.222000002861 117.0
0.973999977112 -0.216000005603 0.226999998093 122.0
0.948000013828 -0.216000005603 0.222000002861 116.0
0.962999999523 -0.22499999404 0.225999996066 112.0
0.955999970436 -0.229000002146 0.224000006914 113.0
0.953999996185 -0.234999999404 0.224000006914 116.0
0.977999985218 -0.24699999392 0.230000004172 114.0
0.954999983311 -0.24699999392 0.22499999404 122.0
0.961000025272 -0.254999995232 0.226999998093 120.0
0.947000026703 -0.256999999285 0.224000006914 116.0
0.966000020504 -0.268999993801 0.228000000119 114.0
0.980000019073 -0.279000014067 0.231999993324 115.0
1.00699996948 -0.293000012636 0.238999992609 117.0
0.981000006199 -0.291999995708 0.232999995351 115.0
0.963999986649 -0.293000012636 0.229000002146 119.0
0.944999992847 -0.293999999762 0.22499999404 124.0
0.931999981403 -0.296000003815 0.223000004888 121.0
0.963999986649 -0.312000006437 0.231000006199 116.0
0.967000007629 -0.319999992847 0.231999993324 117.0
0.93599998951 -0.316000014544 0.22499999404 115.0
0.927999973297 -0.319000005722 0.223000004888 123.0
0.96899998188 -0.340000003576 0.233999997377 114.0
0.938000023365 -0.33599999547 0.226999998093 113.0
0.948000013828 -0.344999998808 0.229000002146 110.0
0.976000010967 -0.363000005484 0.237000003457 118.0
0.944999992847 -0.358000010252 0.230000004172 110.0
0.933000028133 -0.360000014305 0.226999998093 116.0
0.939999997616 -0.368999987841 0.230000004172 117.0
0.971000015736 -0.388000011444 0.238000005484 116.0
0.933000028133 -0.379000008106 0.229000002146 113.0
0.911000013351 -0.377000004053 0.224000006914 112.0
0.896000027657 -0.377000004053 0.221000000834 112.0
0.927999973297 -0.397000014782 0.229000002146 102.0
0.938000023365 -0.407999992371 0.231999993324 114.0
0.893000006676 -0.395000010729 0.222000002861 107.0
0.912999987602 -0.411000013351 0.226999998093 108.0
0.950999975204 -0.43599998951 0.238000005484 106.0
0.917999982834 -0.426999986172 0.230000004172 105.0
0.922999978065 -0.437000006437 0.231999993324 99.0
0.908999979496 -0.437000006437 0.229000002146 104.0
0.902000010014 -0.439999997616 0.228000000119 107.0
0.938000023365 -0.465000003576 0.237000003457 105.0
0.916000008583 -0.46099999547 0.232999995351 103.0
0.925999999046 -0.474000006914 0.236000001431 95.0
0.910000026226 -0.472999989986 0.231999993324 101.0
0.901000022888 -0.47499999404 0.231000006199 89.0
0.931999981403 -0.5 0.239999994636 94.0
0.882000029087 -0.479999989271 0.226999998093 99.0
0.902999997139 -0.497999995947 0.232999995351 99.0
0.899999976158 -0.504000008106 0.232999995351 92.0
0.893999993801 -0.509000003338 0.232999995351 94.0
2.45700001717 1.42900002003 0.615000009537 90.0
3.14199995995 1.52300000191 0.762000024319 84.0
3.11400008202 1.48500001431 0.753000020981 94.0
3.13700008392 1.47200000286 0.757000029087 84.0
3.55200004578 1.63999998569 0.855000019073 80.0
3.67000007629 1.66700005531 0.882000029087 122.0
3.5529999733 1.58800005913 0.851999998093 123.0
3.5720000267 1.57000005245 0.853999972343 98.0
3.9509999752 1.67900002003 0.940999984741 71.0
3.81900000572 1.59500002861 0.907999992371 81.0
3.96399998665 1.62699997425 0.939999997616 115.0
3.90300011635 1.57400000095 0.924000024796 125.0
3.91700005531 1.55200004578 0.925000011921 118.0
3.94899988174 1.53699994087 0.930999994278 121.0
3.9240000248 1.5 0.922999978065 116.0
3.90300011635 1.46500003338 0.916999995708 120.0
3.97199988365 1.46300005913 0.930999994278 113.0
3.90700006485 1.41199994087 0.913999974728 104.0
3.9849998951 1.4129999876 0.930999994278 92.0
3.98799991608 1.38699996471 0.930000007153 86.0
3.91499996185 1.33500003815 0.911000013351 82.0
3.97399997711 1.32799994946 0.924000024796 87.0
4.01300001144 1.31500005722 0.930999994278 98.0
4.03299999237 1.29400002956 0.934000015259 103.0
3.92600011826 1.23399996758 0.907999992371 115.0
3.9849998951 1.22599995136 0.920000016689 113.0
4.00099992752 1.20500004292 0.922999978065 112.0
3.98300004005 1.17299997807 0.916999995708 116.0
4.0 1.15199995041 0.920000016689 114.0
4.00199985504 1.12699997425 0.919000029564 110.0
3.97300004959 1.09300005436 0.911000013351 113.0
3.9849998951 1.07099997997 0.912999987602 107.0
4.02099990845 1.05499994755 0.920000016689 110.0
3.992000103 1.02199995518 0.912999987602 100.0
0.990999996662 -0.0989999994636 0.221000000834 90.0
1.01999998093 -0.108000002801 0.228000000119 100.0
0.999000012875 -0.112000003457 0.223000004888 97.0
0.996999979019 -0.118000000715 0.223000004888 101.0
0.973999977112 -0.120999999344 0.217999994755 99.0
0.973999977112 -0.127000004053 0.217999994755 104.0
0.972999989986 -0.131999999285 0.217999994755 104.0
0.976999998093 -0.138999998569 0.218999996781 104.0
0.981999993324 -0.144999995828 0.219999998808 112.0
0.989000022411 -0.151999995112 0.222000002861 109.0
0.977999985218 -0.156000003219 0.219999998808 104.0
0.977999985218 -0.162000000477 0.219999998808 109.0
0.987999975681 -0.170000001788 0.222000002861 103.0
0.973999977112 -0.172999992967 0.219999998808 114.0
0.940999984741 -0.172999992967 0.211999997497 112.0
0.97000002861 -0.185000002384 0.218999996781 114.0
0.975000023842 -0.190999999642 0.221000000834 118.0
0.95300000906 -0.193000003695 0.216000005603 112.0
0.995000004768 -0.208000004292 0.225999996066 117.0
0.952000021935 -0.203999996185 0.216000005603 114.0
0.950999975204 -0.209999993443 0.216000005603 113.0
0.953999996185 -0.216999992728 0.216999992728 117.0
0.944000005722 -0.219999998808 0.215000003576 120.0
0.981999993324 -0.234999999404 0.224000006914 116.0
0.981000006199 -0.240999996662 0.224000006914 118.0
0.964999973774 -0.243000000715 0.221000000834 116.0
0.972000002861 -0.250999987125 0.223000004888 119.0
0.958999991417 -0.254000008106 0.219999998808 122.0
0.98299998045 -0.266999989748 0.225999996066 115.0
0.953999996185 -0.264999985695 0.219999998808 118.0
0.947000026703 -0.268999993801 0.217999994755 123.0
0.958999991417 -0.279000014067 0.221000000834 119.0
0.972000002861 -0.28900000453 0.22499999404 116.0
0.963999986649 -0.293000012636 0.223000004888 119.0
0.967000007629 -0.300000011921 0.22499999404 121.0
0.957000017166 -0.303999990225 0.223000004888 118.0
0.967000007629 -0.312999993563 0.22499999404 114.0
0.952000021935 -0.314999997616 0.222000002861 119.0
0.941999971867 -0.317000001669 0.219999998808 119.0
0.921000003815 -0.317000001669 0.216000005603 115.0
0.949000000954 -0.331999987364 0.223000004888 115.0
0.957000017166 -0.342000007629 0.22499999404 114.0
0.962999999523 -0.351000010967 0.226999998093 114.0
0.961000025272 -0.356999993324 0.226999998093 119.0
0.939999997616 -0.354999989271 0.223000004888 112.0
0.919000029564 -0.354000002146 0.217999994755 105.0
0.957000017166 -0.375 0.228000000119 115.0
0.940999984741 -0.375 0.224000006914 114.0
0.944999992847 -0.384000003338 0.225999996066 105.0
0.925000011921 -0.381999999285 0.221000000834 102.0
0.893000006676 -0.375 0.21400000155 107.0
0.944000005722 -0.404000014067 0.226999998093 107.0
0.908999979496 -0.395000010729 0.218999996781 106.0
0.922999978065 -0.407999992371 0.223000004888 109.0
0.925000011921 -0.416000008583 0.224000006914 106.0
0.920000016689 -0.421000003815 0.224000006914 104.0
0.893999993801 -0.414999991655 0.217999994755 106.0
0.92199999094 -0.435000002384 0.22499999404 102.0
0.933000028133 -0.448000013828 0.229000002146 107.0
0.917999982834 -0.448000013828 0.225999996066 102.0
0.930000007153 -0.460000008345 0.229000002146 103.0
0.92199999094 -0.463999986649 0.228000000119 100.0
0.888000011444 -0.453999996185 0.219999998808 104.0
0.962999999523 -0.5 0.238999992609 103.0
0.907000005245 -0.477999985218 0.225999996066 106.0
0.915000021458 -0.490000009537 0.229000002146 98.0
0.90600001812 -0.49200001359 0.226999998093 102.0
0.856000006199 -0.470999985933 0.215000003576 97.0
0.889999985695 -0.497999995947 0.22499999404 87.0
0.894999980927 -0.508000016212 0.226999998093 97.0
2.3900001049 1.38800001144 0.582000017166 87.0
3.15499997139 1.52699995041 0.744000017643 80.0
3.16799998283 1.50899994373 0.745000004768 97.0
3.2650001049 1.52999997139 0.76599997282 82.0
3.48300004005 1.60599994659 0.814999997616 94.0
3.54399991035 1.60800004005 0.82800000906 119.0
3.58999991417 1.60199999809 0.836000025272 118.0
3.60400009155 1.58200001717 0.837999999523 96.0
3.73900008202 1.61399996281 0.866999983788 69.0
3.88100004196 1.61899995804 0.897000014782 78.0
3.87199997902 1.5870000124 0.893000006676 117.0
3.90899991989 1.57400000095 0.898999989033 124.0
3.90300011635 1.54400002956 0.896000027657 122.0
3.93300008774 1.52900004387 0.901000022888 114.0
3.9430000782 1.50499999523 0.902000010014 120.0
3.94199991226 1.47699999809 0.899999976158 117.0
3.90300011635 1.43599998951 0.889999985695 91.0
3.95700001717 1.4279999733 0.899999976158 79.0
3.96799993515 1.40499997139 0.901000022888 72.0
4.02199983597 1.37000000477 0.911000013351 64.0
3.91700005531 1.23000001907 0.880999982357 100.0
3.93899989128 1.21000003815 0.884999990463 111.0
3.9470000267 1.18700003624 0.884999990463 112.0
3.99000000954 1.1740000248 0.893999993801 114.0
3.99699997902 1.14999997616 0.893999993801 116.0
4.01300001144 1.1289999485 0.896000027657 111.0
3.96700000763 1.09000003338 0.884999990463 113.0
4.00600004196 1.07500004768 0.893000006676 113.0
3.9849998951 1.04400002956 0.887000024319 112.0
3.9960000515 1.02199995518 0.888000011444 92.0
0.966000020504 -0.097000002861 0.209999993443 94.0
0.986999988556 -0.104999996722 0.21400000155 104.0
1.03699994087 -0.115999996662 0.22499999404 105.0
0.964999973774 -0.11400000006 0.209999993443 104.0
0.986999988556 -0.122000001371 0.215000003576 105.0
0.987999975681 -0.12800000608 0.215000003576 109.0
1.00999999046 -0.136999994516 0.219999998808 106.0
0.990999996662 -0.141000002623 0.216000005603 104.0
0.938000023365 -0.137999996543 0.204999998212 113.0
0.962000012398 -0.148000001907 0.209999993443 110.0
0.947000026703 -0.150999993086 0.207000002265 111.0
0.961000025272 -0.158999994397 0.209999993443 110.0
0.978999972343 -0.167999997735 0.215000003576 112.0
0.964999973774 -0.172000005841 0.211999997497 113.0
0.995999991894 -0.182999998331 0.218999996781 114.0
0.976999998093 -0.186000004411 0.215000003576 121.0
0.949000000954 -0.186000004411 0.209000006318 118.0
0.992999970913 -0.201000005007 0.218999996781 116.0
0.949999988079 -0.197999998927 0.209999993443 117.0
0.981000006199 -0.21099999547 0.216999992728 119.0
0.967000007629 -0.21400000155 0.21400000155 121.0
0.980000019073 -0.223000004888 0.216999992728 116.0
0.966000020504 -0.22499999404 0.21400000155 119.0
0.915000021458 -0.218999996781 0.202999994159 125.0
1.00300002098 -0.24699999392 0.223000004888 119.0
0.952000021935 -0.239999994636 0.211999997497 122.0
0.96899998188 -0.25 0.216000005603 124.0
1.00100004673 -0.264999985695 0.223000004888 122.0
0.98400002718 -0.266999989748 0.219999998808 120.0
0.954999983311 -0.264999985695 0.21400000155 119.0
0.97000002861 -0.275999993086 0.217999994755 118.0
0.938000023365 -0.272000014782 0.21099999547 117.0
0.940999984741 -0.279000014067 0.211999997497 120.0
0.96899998188 -0.293999999762 0.217999994755 121.0
0.949999988079 -0.293999999762 0.21400000155 123.0
0.949000000954 -0.300999999046 0.215000003576 117.0
0.917999982834 -0.29699999094 0.208000004292 115.0
0.953999996185 -0.314999997616 0.216999992728 120.0
0.947000026703 -0.319000005722 0.215000003576 119.0
0.972999989986 -0.333999991417 0.222000002861 124.0
0.930000007153 -0.326000005007 0.211999997497 111.0
0.916000008583 -0.326999992132 0.209000006318 115.0
0.936999976635 -0.340999990702 0.215000003576 114.0
0.941999971867 -0.349000006914 0.216000005603 115.0
0.953999996185 -0.360000014305 0.219999998808 114.0
0.938000023365 -0.361000001431 0.216000005603 113.0
0.938000023365 -0.36700001359 0.216999992728 114.0
0.910000026226 -0.361999988556 0.21099999547 107.0
0.922999978065 -0.374000012875 0.21400000155 110.0
0.934000015259 -0.384999990463 0.216999992728 107.0
0.949999988079 -0.398999989033 0.222000002861 107.0
0.930999994278 -0.398000001907 0.217999994755 111.0
0.945999979973 -0.411000013351 0.222000002861 107.0
