ply
format ascii 1.0
element vertex 945
property float x
property float y
property float z
property float intensity
end_header
4.03800010681 0.472999989986 1.18599998951 93.0
4.08699989319 0.453999996185 1.20000004768 105.0
4.05000019073 0.425000011921 1.18799996376 80.0
0.912999987602 -0.119999997318 0.266999989748 740.0
0.902999997139 -0.123999997973 0.263999998569 1251.0
0.908999979496 -0.129999995232 0.266000002623 1312.0
0.90499997139 -0.135000005364 0.266000002623 1303.0
0.902000010014 -0.140000000596 0.264999985695 1292.0
0.898000001907 -0.144999995828 0.263999998569 1356.0
0.902000010014 -0.150999993086 0.264999985695 1347.0
0.898999989033 -0.156000003219 0.264999985695 1317.0
0.903999984264 -0.163000002503 0.266000002623 1335.0
0.896000027657 -0.166999995708 0.263999998569 1311.0
0.893999993801 -0.172000005841 0.263999998569 1313.0
0.89099997282 -0.177000001073 0.263999998569 1314.0
0.897000014782 -0.184000000358 0.266000002623 1322.0
0.894999980927 -0.188999995589 0.264999985695 1325.0
0.894999980927 -0.194999992847 0.266000002623 1307.0
0.894999980927 -0.20000000298 0.266000002623 1347.0
0.898000001907 -0.206000000238 0.266999989748 1345.0
0.897000014782 -0.211999997497 0.266999989748 1362.0
0.893999993801 -0.216999992728 0.266999989748 1384.0
0.89099997282 -0.222000002861 0.266000002623 1347.0
0.894999980927 -0.229000002146 0.268000006676 1349.0
0.883000016212 -0.231000006199 0.264999985695 1332.0
0.884000003338 -0.237000003457 0.264999985695 1334.0
0.89099997282 -0.245000004768 0.268000006676 1322.0
0.887000024319 -0.25 0.266999989748 1314.0
0.885999977589 -0.254999995232 0.266999989748 1320.0
0.885999977589 -0.261000007391 0.268000006676 1341.0
0.879999995232 -0.264999985695 0.266000002623 1388.0
0.880999982357 -0.270999997854 0.266999989748 1366.0
0.882000029087 -0.277999997139 0.268000006676 1369.0
0.875999987125 -0.280999988317 0.266000002623 1378.0
0.876999974251 -0.287999987602 0.266999989748 1373.0
0.878000020981 -0.293999999762 0.268000006676 1350.0
0.874000012875 -0.298000007868 0.266999989748 1387.0
0.879000008106 -0.305999994278 0.268999993801 1364.0
0.875999987125 -0.31099998951 0.268999993801 1382.0
0.874000012875 -0.317000001669 0.268999993801 1383.0
0.869000017643 -0.321000009775 0.268000006676 1387.0
0.862999975681 -0.324999988079 0.266999989748 1396.0
0.865000009537 -0.331999987364 0.268000006676 1408.0
0.869000017643 -0.338999986649 0.270000010729 1392.0
0.865000009537 -0.344000011683 0.268999993801 1391.0
0.870000004768 -0.351999998093 0.270999997854 1412.0
0.862999975681 -0.356000006199 0.270000010729 1396.0
0.870999991894 -0.365000009537 0.273000001907 1359.0
0.861000001431 -0.368000000715 0.270000010729 1342.0
0.862999975681 -0.375 0.272000014782 1365.0
0.866999983788 -0.38299998641 0.273999989033 1376.0
0.85799998045 -0.384999990463 0.272000014782 1400.0
0.861000001431 -0.393000006676 0.273000001907 1372.0
0.85799998045 -0.398000001907 0.273000001907 1374.0
0.85799998045 -0.405000001192 0.273999989033 1342.0
0.855000019073 -0.409999996424 0.273000001907 1356.0
0.856000006199 -0.416999995708 0.273999989033 1364.0
0.847999989986 -0.419999986887 0.273000001907 1365.0
0.853999972343 -0.430000007153 0.27500000596 1372.0
0.847999989986 -0.433999985456 0.273999989033 1354.0
0.847000002861 -0.439999997616 0.27500000596 1353.0
0.852999985218 -0.449999988079 0.277999997139 1337.0
0.850000023842 -0.455000013113 0.277000010014 1319.0
0.846000015736 -0.460000008345 0.277000010014 1319.0
0.850000023842 -0.469000011683 0.279000014067 1341.0
0.847000002861 -0.474000006914 0.279000014067 1356.0
0.842999994755 -0.479000002146 0.279000014067 1336.0
0.842999994755 -0.486999988556 0.280000001192 1317.0
1.07500004768 0.643999993801 0.345999985933 483.0
1.10099995136 0.649999976158 0.352999985218 473.0
1.15100002289 0.670000016689 0.368000000715 400.0
1.58500003815 0.908999979496 0.505999982357 228.0
1.73099994659 0.978999972343 0.551999986172 224.0
1.71300005913 0.953999996185 0.544000029564 220.0
1.74399995804 0.957000017166 0.552999973297 212.0
1.8029999733 0.973999977112 0.569999992847 201.0
1.84399998188 0.981000006199 0.580999970436 133.0
2.03399991989 1.04999995232 0.638000011444 130.0
2.07800006866 1.05599999428 0.649999976158 236.0
2.07699990273 1.03900003433 0.648000001907 291.0
2.08200001717 1.02499997616 0.648000001907 299.0
2.08599996567 1.00999999046 0.647000014782 293.0
2.10700011253 1.00499999523 0.652000010014 275.0
2.07399988174 0.972999989986 0.639999985695 204.0
2.10800004005 0.972999989986 0.648999989033 114.0
2.16400003433 0.981999993324 0.665000021458 153.0
2.18300008774 0.973999977112 0.669000029564 264.0
2.19899988174 0.964999973774 0.67199999094 184.0
2.26399993896 0.976999998093 0.690999984741 104.0
3.27800011635 1.02400004864 0.97000002861 88.0
3.39700007439 1.0379999876 1.0039999485 68.0
3.72199988365 1.11300003529 1.09899997711 83.0
3.74499988556 1.09500002861 1.10399997234 95.0
3.7009999752 1.05799996853 1.08899998665 100.0
3.79200005531 1.05900001526 1.11500000954 89.0
3.97699999809 1.08500003815 1.16799998283 71.0
4.06300020218 1.02900004387 1.18900001049 90.0
4.11299991608 1.01600003242 1.20200002193 108.0
4.0529999733 0.975000023842 1.18299996853 105.0
4.07600021362 0.953999996185 1.18799996376 112.0
4.13899993896 0.943000018597 1.20500004292 103.0
4.04600000381 0.896000027657 1.17700004578 104.0
4.09899997711 0.882000029087 1.19099998474 103.0
4.07399988174 0.851000010967 1.18299996853 102.0
4.0609998703 0.823000013828 1.1779999733 108.0
4.10500001907 0.805999994278 1.19000005722 103.0
4.08500003815 0.777000010014 1.18299996853 104.0
4.10099983215 0.754999995232 1.18700003624 110.0
4.11100006104 0.731000006199 1.18799996376 107.0
4.10599994659 0.704999983311 1.18599998951 102.0
4.10900020599 0.680000007153 1.18599998951 107.0
4.12099981308 0.657000005245 1.18799996376 110.0
4.11999988556 0.630999982357 1.18799996376 106.0
4.08500003815 0.601000010967 1.17599999905 104.0
4.10900020599 0.579999983311 1.18299996853 108.0
4.03100013733 0.544000029564 1.1590000391 108.0
4.10400009155 0.528999984264 1.17999994755 111.0
4.06199979782 0.499000012875 1.16700005531 107.0
4.03299999237 0.470999985933 1.15799999237 103.0
4.07299995422 0.451000005007 1.16900002956 108.0
4.0609998703 0.425000011921 1.16499996185 78.0
1.05900001526 -0.133000001311 0.303000003099 57.0
0.911000013351 -0.119000002742 0.261000007391 710.0
0.90600001812 -0.123999997973 0.259999990463 1258.0
0.903999984264 -0.128999993205 0.259000003338 1316.0
0.90499997139 -0.135000005364 0.259999990463 1318.0
0.898000001907 -0.138999998569 0.25799998641 1279.0
0.907000005245 -0.145999997854 0.261000007391 1348.0
0.898999989033 -0.150999993086 0.259000003338 1353.0
0.901000022888 -0.156000003219 0.259000003338 1334.0
0.902999997139 -0.162000000477 0.259999990463 1357.0
0.90600001812 -0.167999997735 0.261999994516 1332.0
0.898000001907 -0.172999992967 0.259000003338 1334.0
0.899999976158 -0.179000005126 0.259999990463 1319.0
0.899999976158 -0.184000000358 0.261000007391 1337.0
0.89200001955 -0.187999993563 0.259000003338 1349.0
0.89200001955 -0.194000005722 0.259000003338 1325.0
0.893000006676 -0.20000000298 0.259999990463 1354.0
0.896000027657 -0.206000000238 0.261000007391 1348.0
0.89099997282 -0.209999993443 0.259999990463 1355.0
0.893000006676 -0.216000005603 0.261000007391 1397.0
0.884000003338 -0.219999998808 0.25799998641 1356.0
0.888000011444 -0.226999998093 0.259999990463 1336.0
0.887000024319 -0.231999993324 0.259999990463 1337.0
0.887000024319 -0.238000005484 0.259999990463 1364.0
0.885999977589 -0.243000000715 0.259999990463 1332.0
0.888000011444 -0.25 0.261999994516 1330.0
0.880999982357 -0.252999991179 0.259999990463 1335.0
0.885999977589 -0.261000007391 0.261999994516 1349.0
0.880999982357 -0.264999985695 0.261000007391 1373.0
0.879999995232 -0.270999997854 0.261000007391 1356.0
0.884000003338 -0.277999997139 0.263000011444 1355.0
0.879000008106 -0.282000005245 0.261000007391 1384.0
0.879999995232 -0.287999987602 0.261999994516 1382.0
0.880999982357 -0.294999986887 0.263000011444 1352.0
0.867999970913 -0.296000003815 0.259999990463 1383.0
0.875 -0.303999990225 0.261999994516 1400.0
0.871999979019 -0.308999985456 0.261999994516 1382.0
0.875999987125 -0.317000001669 0.263999998569 1367.0
0.876999974251 -0.323000013828 0.264999985695 1390.0
0.866999983788 -0.326000005007 0.261999994516 1416.0
0.873000025749 -0.333999991417 0.263999998569 1433.0
0.870000004768 -0.338999986649 0.263999998569 1410.0
0.867999970913 -0.344999998808 0.263999998569 1394.0
0.865999996662 -0.34999999404 0.263999998569 1397.0
0.867999970913 -0.356999993324 0.264999985695 1423.0
0.861000001431 -0.361000001431 0.263999998569 1372.0
0.866999983788 -0.368999987841 0.266000002623 1347.0
0.864000022411 -0.374000012875 0.266000002623 1354.0
0.865000009537 -0.381000012159 0.266999989748 1354.0
0.865999996662 -0.388000011444 0.268000006676 1413.0
0.85900002718 -0.391999989748 0.266999989748 1415.0
0.861000001431 -0.398999989033 0.268000006676 1402.0
0.861999988556 -0.405999988317 0.268999993801 1404.0
0.856000006199 -0.409999996424 0.268000006676 1365.0
0.855000019073 -0.416000008583 0.268000006676 1354.0
0.860000014305 -0.425000011921 0.270000010729 1375.0
0.856000006199 -0.430000007153 0.270000010729 1359.0
0.852999985218 -0.435000002384 0.270000010729 1374.0
0.852999985218 -0.442000001669 0.270999997854 1332.0
0.848999977112 -0.446999996901 0.270000010729 1342.0
0.846000015736 -0.451999992132 0.270000010729 1309.0
0.850000023842 -0.46099999547 0.272000014782 1326.0
0.842999994755 -0.463999986649 0.270999997854 1341.0
0.84500002861 -0.472999989986 0.272000014782 1352.0
0.848999977112 -0.481999993324 0.27500000596 1345.0
0.838999986649 -0.483999997377 0.272000014782 1316.0
1.09500002861 0.65499997139 0.344000011683 483.0
1.10699999332 0.652000010014 0.347000002861 475.0
1.14800000191 0.666999995708 0.358999997377 369.0
1.68599998951 0.966000020504 0.527000010014 220.0
1.69599997997 0.957000017166 0.527999997139 227.0
1.75 0.972999989986 0.542999982834 224.0
1.7539999485 0.961000025272 0.542999982834 212.0
1.80900001526 0.976000010967 0.559000015259 202.0
1.84899997711 0.981999993324 0.569000005722 105.0
1.99800002575 1.02900004387 0.611999988556 113.0
2.06599998474 1.04799997807 0.630999982357 157.0
2.09599995613 1.04700005054 0.638999998569 280.0
2.09899997711 1.03199994564 0.638000011444 301.0
2.09400010109 1.01300001144 0.634999990463 287.0
2.08299994469 0.990999996662 0.629999995232 281.0
2.11400008202 0.990000009537 0.638000011444 181.0
2.13499999046 0.98400002718 0.643000006676 118.0
2.18000006676 0.987999975681 0.65499997139 168.0
2.20399999619 0.981999993324 0.660000026226 264.0
2.21199989319 0.96899998188 0.661000013351 163.0
3.27699995041 1.04400002956 0.949999988079 67.0
3.27300000191 1.02100002766 0.947000026703 91.0
3.3710000515 1.02900004387 0.973999977112 75.0
3.69799995422 1.10399997234 1.06700003147 76.0
3.76099991798 1.09800004959 1.08399999142 104.0
3.77399992943 1.07700002193 1.08599996567 106.0
3.77999997139 1.05400002003 1.08599996567 88.0
4.04400014877 1.0490000248 1.15799999237 69.0
4.0720000267 1.02999997139 1.16499996185 101.0
4.08699989319 1.00800001621 1.16799998283 114.0
4.12200021744 0.990000009537 1.17599999905 114.0
4.03999996185 0.944999992847 1.15100002289 107.0
4.06199979782 0.924000024796 1.15600001812 108.0
4.06300020218 0.898000001907 1.15600001812 105.0
4.10400009155 0.882000029087 1.16600000858 104.0
4.12200021744 0.860000014305 1.16999995708 104.0
4.10099983215 0.829999983311 1.1629999876 110.0
4.07299995422 0.799000024796 1.15400004387 110.0
4.12599992752 0.783999979496 1.16799998283 108.0
4.12400007248 0.758000016212 1.16600000858 110.0
4.12099981308 0.731999993324 1.16499996185 114.0
4.09999990463 0.70300000906 1.15799999237 115.0
4.10300016403 0.677999973297 1.15799999237 105.0
4.06799983978 0.647000014782 1.14699995518 101.0
4.13100004196 0.632000029087 1.16400003433 110.0
4.07899999619 0.598999977112 1.14900004864 106.0
4.11499977112 0.578999996185 1.15799999237 105.0
4.132999897 0.556999981403 1.16199994087 107.0
4.07999992371 0.524999976158 1.14699995518 109.0
4.12799978256 0.505999982357 1.15999996662 104.0
4.10400009155 0.479000002146 1.15299999714 103.0
4.06300020218 0.449000000954 1.14100003242 106.0
4.09899997711 0.428999990225 1.14999997616 70.0
0.910000026226 -0.119000002742 0.254999995232 693.0
0.899999976158 -0.123000003397 0.252000004053 1265.0
0.910000026226 -0.129999995232 0.254999995232 1329.0
0.903999984264 -0.135000005364 0.254000008106 1345.0
0.90600001812 -0.141000002623 0.254999995232 1282.0
0.898999989033 -0.144999995828 0.252999991179 1323.0
0.902000010014 -0.150999993086 0.254000008106 1338.0
0.903999984264 -0.157000005245 0.254999995232 1338.0
0.902999997139 -0.162000000477 0.254999995232 1353.0
0.894999980927 -0.165999993682 0.252999991179 1317.0
0.901000022888 -0.172999992967 0.254999995232 1329.0
0.901000022888 -0.178000003099 0.254999995232 1329.0
0.894999980927 -0.182999998331 0.252999991179 1332.0
0.898000001907 -0.188999995589 0.254999995232 1337.0
0.898999989033 -0.194999992847 0.254999995232 1319.0
0.888999998569 -0.197999998927 0.252999991179 1337.0
0.89200001955 -0.204999998212 0.254000008106 1359.0
0.887000024319 -0.209000006318 0.252999991179 1358.0
0.887000024319 -0.215000003576 0.252999991179 1374.0
0.888000011444 -0.221000000834 0.254000008106 1371.0
0.889999985695 -0.226999998093 0.254999995232 1339.0
0.884999990463 -0.231000006199 0.254000008106 1371.0
0.880999982357 -0.236000001431 0.252999991179 1377.0
0.884000003338 -0.241999998689 0.254000008106 1354.0
0.883000016212 -0.247999995947 0.254000008106 1345.0
0.884000003338 -0.254000008106 0.254999995232 1354.0
0.880999982357 -0.259000003338 0.254000008106 1367.0
0.879999995232 -0.263999998569 0.254999995232 1370.0
0.884999990463 -0.272000014782 0.256000012159 1374.0
0.882000029087 -0.275999993086 0.256000012159 1371.0
0.876999974251 -0.280999988317 0.254999995232 1372.0
0.875 -0.286000013351 0.254999995232 1388.0
0.876999974251 -0.293000012636 0.256000012159 1384.0
0.879999995232 -0.300000011921 0.256999999285 1353.0
0.875 -0.303999990225 0.256000012159 1411.0
0.870000004768 -0.307999998331 0.254999995232 1425.0
0.874000012875 -0.316000014544 0.256999999285 1396.0
0.871999979019 -0.321000009775 0.256999999285 1390.0
0.875 -0.32800000906 0.259000003338 1414.0
0.870000004768 -0.331999987364 0.25799998641 1435.0
0.867999970913 -0.337999999523 0.25799998641 1422.0
0.870000004768 -0.344999998808 0.259000003338 1409.0
0.869000017643 -0.351000010967 0.259000003338 1402.0
0.870000004768 -0.356999993324 0.259999990463 1440.0
0.866999983788 -0.361999988556 0.259999990463 1396.0
0.865000009537 -0.368000000715 0.259999990463 1359.0
0.864000022411 -0.374000012875 0.259999990463 1344.0
0.855000019073 -0.375999987125 0.25799998641 1388.0
0.865999996662 -0.388000011444 0.261999994516 1396.0
0.855000019073 -0.388999998569 0.259000003338 1420.0
0.861000001431 -0.398000001907 0.261999994516 1414.0
0.848999977112 -0.398999989033 0.259000003338 1427.0
0.864000022411 -0.412999987602 0.263999998569 1405.0
0.856000006199 -0.416000008583 0.261999994516 1371.0
0.855000019073 -0.42199999094 0.263000011444 1365.0
0.856000006199 -0.428999990225 0.263999998569 1351.0
0.850000023842 -0.432999998331 0.263000011444 1362.0
0.851000010967 -0.441000014544 0.263999998569 1359.0
0.851999998093 -0.448000013828 0.264999985695 1362.0
0.850000023842 -0.453999996185 0.264999985695 1310.0
0.847999989986 -0.460000008345 0.264999985695 1341.0
0.847999989986 -0.465999990702 0.266000002623 1334.0
0.85799998045 -0.479000002146 0.270000010729 1339.0
0.847000002861 -0.479999989271 0.268000006676 1312.0
0.842000007629 -0.485000014305 0.266999989748 1334.0
1.08200001717 0.646000027657 0.331999987364 479.0
1.10800004005 0.652000010014 0.338999986649 471.0
1.18400001526 0.68599998951 0.361000001431 349.0
1.65999996662 0.949000000954 0.507000029087 228.0
1.73899996281 0.980000019073 0.528999984264 224.0
1.74199998379 0.967000007629 0.527999997139 219.0
1.79600000381 0.981999993324 0.542999982834 219.0
1.82400000095 0.981999993324 0.550000011921 182.0
1.85800004005 0.985000014305 0.559000015259 93.0
2.01699995995 1.03699994087 0.603999972343 109.0
2.06599998474 1.04600000381 0.616999983788 218.0
2.125 1.05900001526 0.633000016212 295.0
2.09100008011 1.02600002289 0.620999991894 289.0
2.09400010109 1.01100003719 0.620000004768 285.0
2.08400011063 0.990000009537 0.615999996662 270.0
2.08100008965 0.972999989986 0.612999975681 162.0
2.12299990654 0.976000010967 0.624000012875 110.0
2.1970000267 0.994000017643 0.644999980927 181.0
2.20499992371 0.981000006199 0.644999980927 281.0
2.19899988174 0.962000012398 0.64200001955 156.0
2.26399993896 0.972999989986 0.660000026226 92.0
3.27999997139 1.02100002766 0.927999973297 84.0
3.47000002861 1.05700004101 0.980000019073 72.0
3.6819999218 1.09700000286 1.0379999876 84.0
3.70300006866 1.07899999619 1.04299998283 109.0
3.77800011635 1.0759999752 1.06299996376 109.0
3.79500007629 1.05700004101 1.06599998474 90.0
3.90899991989 1.06299996376 1.09599995613 64.0
4.01800012589 1.06599998474 1.12600004673 64.0
4.15999984741 1.07700002193 1.16400003433 65.0
4.01599979401 1.01400005817 1.12199997902 106.0
4.09299993515 1.00800001621 1.14300000668 111.0
4.10500001907 0.98400002718 1.14499998093 114.0
4.06599998474 0.949000000954 1.13300001621 107.0
4.1139998436 0.934000015259 1.14499998093 109.0
4.12400007248 0.911000013351 1.14600002766 103.0
4.14499998093 0.888999998569 1.15100002289 109.0
4.10500001907 0.855000019073 1.13900005817 104.0
4.09700012207 0.82800000906 1.13499999046 102.0
4.0609998703 0.795000016689 1.12399995327 106.0
4.13100004196 0.782999992371 1.14300000668 104.0
4.13399982452 0.758000016212 1.14300000668 103.0
4.10500001907 0.727999985218 1.13399994373 107.0
4.09299993515 0.699999988079 1.12999999523 106.0
4.08300018311 0.674000024796 1.12600004673 111.0
4.0689997673 0.646000027657 1.1210000515 108.0
4.04600000381 0.617999970913 1.11399996281 111.0
4.117000103 0.603999972343 1.13300001621 105.0
4.14599990845 0.583000004292 1.13999998569 108.0
4.14699983597 0.558000028133 1.13999998569 104.0
4.12799978256 0.52999997139 1.13399994373 112.0
4.03900003433 0.495000004768 1.10899996758 105.0
4.07100009918 0.474000006914 1.11699998379 99.0
4.0609998703 0.448000013828 1.11399996281 108.0
4.04899978638 0.423000007868 1.11000001431 74.0
0.919000029564 -0.119999997318 0.252000004053 680.0
0.907000005245 -0.123999997973 0.247999995947 1266.0
0.899999976158 -0.128999993205 0.24699999392 1321.0
0.903999984264 -0.135000005364 0.247999995947 1358.0
0.902999997139 -0.140000000596 0.247999995947 1282.0
0.90499997139 -0.145999997854 0.248999997973 1308.0
0.907000005245 -0.151999995112 0.248999997973 1352.0
0.898999989033 -0.156000003219 0.24699999392 1331.0
0.899999976158 -0.16099999845 0.247999995947 1364.0
0.901000022888 -0.166999995708 0.248999997973 1336.0
0.896000027657 -0.172000005841 0.247999995947 1329.0
0.901000022888 -0.178000003099 0.248999997973 1336.0
0.898000001907 -0.182999998331 0.247999995947 1341.0
0.896000027657 -0.187999993563 0.247999995947 1347.0
0.896000027657 -0.194000005722 0.247999995947 1329.0
0.89200001955 -0.199000000954 0.247999995947 1344.0
0.884999990463 -0.202999994159 0.246000006795 1367.0
0.889999985695 -0.209000006318 0.247999995947 1352.0
0.884999990463 -0.21400000155 0.24699999392 1374.0
0.889999985695 -0.221000000834 0.247999995947 1407.0
0.888000011444 -0.225999996066 0.247999995947 1359.0
0.889999985695 -0.231999993324 0.248999997973 1361.0
0.887000024319 -0.237000003457 0.248999997973 1378.0
0.882000029087 -0.241999998689 0.247999995947 1370.0
0.889999985695 -0.248999997973 0.25 1384.0
0.883000016212 -0.252999991179 0.248999997973 1393.0
0.883000016212 -0.259000003338 0.248999997973 1394.0
0.883000016212 -0.264999985695 0.25 1388.0
0.878000020981 -0.268999993801 0.248999997973 1375.0
0.883000016212 -0.277000010014 0.250999987125 1419.0
0.876999974251 -0.280000001192 0.248999997973 1406.0
0.879999995232 -0.287000000477 0.250999987125 1386.0
0.879999995232 -0.293000012636 0.250999987125 1404.0
0.875 -0.29699999094 0.25 1360.0
0.871999979019 -0.303000003099 0.25 1404.0
0.874000012875 -0.308999985456 0.250999987125 1443.0
0.873000025749 -0.314999997616 0.250999987125 1423.0
0.875999987125 -0.321999996901 0.252000004053 1386.0
0.870999991894 -0.326000005007 0.252000004053 1409.0
0.874000012875 -0.333000004292 0.252999991179 1414.0
0.873000025749 -0.338999986649 0.252999991179 1394.0
0.871999979019 -0.344999998808 0.252999991179 1414.0
0.865999996662 -0.349000006914 0.252000004053 1390.0
0.866999983788 -0.356000006199 0.252999991179 1404.0
0.865000009537 -0.361000001431 0.252999991179 1419.0
0.866999983788 -0.368000000715 0.254000008106 1386.0
0.865000009537 -0.374000012875 0.254000008106 1375.0
0.869000017643 -0.381999999285 0.256000012159 1393.0
0.864000022411 -0.386000007391 0.254999995232 1381.0
0.851999998093 -0.386999994516 0.252999991179 1364.0
0.856000006199 -0.395000010729 0.254000008106 1402.0
0.85900002718 -0.402999997139 0.256000012159 1395.0
0.860000014305 -0.409999996424 0.256999999285 1408.0
0.848999977112 -0.412000000477 0.254000008106 1396.0
0.85799998045 -0.423000007868 0.25799998641 1366.0
0.85799998045 -0.428999990225 0.25799998641 1363.0
0.851000010967 -0.432999998331 0.256999999285 1348.0
0.851999998093 -0.439999997616 0.25799998641 1333.0
0.856999993324 -0.449000000954 0.259999990463 1378.0
0.851999998093 -0.453999996185 0.259999990463 1325.0
0.84500002861 -0.456999987364 0.25799998641 1333.0
0.848999977112 -0.465999990702 0.261000007391 1339.0
0.850000023842 -0.474000006914 0.261999994516 1343.0
0.84399998188 -0.477999985218 0.261000007391 1327.0
0.846000015736 -0.486000001431 0.261999994516 1367.0
1.0909999609 0.651000022888 0.326999992132 493.0
1.10599994659 0.649999976158 0.330000013113 467.0
1.25 0.723999977112 0.372999995947 301.0
1.68900001049 0.963999986649 0.503000020981 229.0
1.73599994183 0.976000010967 0.51599997282 224.0
1.77300000191 0.981999993324 0.524999976158 223.0
1.79499995708 0.980000019073 0.52999997139 212.0
1.7840000391 0.958999991417 0.524999976158 176.0
1.86199998856 0.986000001431 0.54699999094 98.0
1.84500002861 0.962000012398 0.540000021458 82.0
2.06399989128 1.05999994278 0.602999985218 177.0
2.06599998474 1.04400002956 0.601999998093 279.0
2.08699989319 1.0379999876 0.606999993324 298.0
2.07299995422 1.01499998569 0.601000010967 283.0
2.07999992371 1.00199997425 0.601999998093 286.0
2.09699988365 0.995000004768 0.605000019073 266.0
2.09200000763 0.976000010967 0.601999998093 156.0
2.17300009727 0.996999979019 0.624000012875 122.0
2.17000007629 0.980000019073 0.621999979019 195.0
2.20000004768 0.976999998093 0.629000008106 259.0
2.242000103 0.978999972343 0.638999998569 156.0
3.30500006676 1.0490000248 0.913999974728 73.0
3.242000103 1.00800001621 0.894999980927 90.0
3.41499996185 1.03900003433 0.941999971867 72.0
3.65799999237 1.08800005913 1.00699996948 83.0
3.72699999809 1.08500003815 1.02499997616 100.0
3.73699998856 1.06299996376 1.02699995041 108.0
3.78900003433 1.0529999733 1.03900003433 79.0
4.12699985504 1.06700003147 1.12800002098 68.0
4.10699987411 1.03600001335 1.1210000515 102.0
4.10099983215 1.00800001621 1.11800003052 106.0
4.0689997673 0.973999977112 1.10800004005 108.0
4.0720000267 0.949000000954 1.10800004005 108.0
4.04099988937 0.916000008583 1.09800004959 109.0
4.13700008392 0.912000000477 1.12300002575 104.0
4.14799976349 0.888000011444 1.125 105.0
4.15500020981 0.864000022411 1.12600004673 104.0
4.03700017929 0.81400001049 1.09300005436 103.0
4.13899993896 0.809000015259 1.12000000477 104.0
4.04400014877 0.764999985695 1.09300005436 105.0
4.10699987411 0.751999974251 1.10899996758 110.0
4.13100004196 0.731000006199 1.11500000954 112.0
4.12200021744 0.703999996185 1.11099994183 108.0
4.09600019455 0.675000011921 1.10399997234 107.0
4.08799982071 0.648000001907 1.10099995136 113.0
4.09299993515 0.624000012875 1.10099995136 109.0
4.11600017548 0.602999985218 1.10699999332 100.0
4.09299993515 0.574999988079 1.10000002384 111.0
4.11800003052 0.552999973297 1.10599994659 103.0
4.09800004959 0.526000022888 1.10000002384 107.0
4.07000017166 0.497999995947 1.09200000763 104.0
4.05900001526 0.472000002861 1.08800005913 103.0
4.09600019455 0.451000005007 1.09800004959 100.0
4.02500009537 0.419999986887 1.07799994946 74.0
0.908999979496 -0.119000002742 0.243000000715 663.0
0.903999984264 -0.123000003397 0.241999998689 1260.0
0.903999984264 -0.128999993205 0.241999998689 1320.0
0.901000022888 -0.134000003338 0.240999996662 1359.0
0.901000022888 -0.138999998569 0.240999996662 1317.0
0.90600001812 -0.145999997854 0.243000000715 1309.0
0.902999997139 -0.150999993086 0.243000000715 1357.0
0.899999976158 -0.156000003219 0.241999998689 1361.0
0.903999984264 -0.162000000477 0.243000000715 1365.0
0.898000001907 -0.165999993682 0.241999998689 1357.0
0.897000014782 -0.172000005841 0.241999998689 1357.0
0.893999993801 -0.177000001073 0.240999996662 1335.0
0.894999980927 -0.181999996305 0.241999998689 1351.0
0.898999989033 -0.188999995589 0.243000000715 1356.0
0.899999976158 -0.194999992847 0.244000002742 1351.0
0.893000006676 -0.199000000954 0.241999998689 1355.0
0.89200001955 -0.203999996185 0.241999998689 1379.0
0.889999985695 -0.209000006318 0.241999998689 1374.0
0.893000006676 -0.216000005603 0.243000000715 1380.0
0.885999977589 -0.218999996781 0.241999998689 1418.0
0.889999985695 -0.225999996066 0.243000000715 1377.0
0.893000006676 -0.232999995351 0.244000002742 1345.0
0.887000024319 -0.237000003457 0.243000000715 1381.0
0.885999977589 -0.241999998689 0.243000000715 1375.0
0.89200001955 -0.25 0.245000004768 1395.0
0.883000016212 -0.252999991179 0.243000000715 1405.0
0.879999995232 -0.25799998641 0.243000000715 1410.0
0.884999990463 -0.264999985695 0.244000002742 1395.0
0.878000020981 -0.268999993801 0.243000000715 1382.0
0.880999982357 -0.27500000596 0.244000002742 1431.0
0.879000008106 -0.280999988317 0.244000002742 1434.0
0.878000020981 -0.286000013351 0.244000002742 1393.0
0.876999974251 -0.291999995708 0.244000002742 1393.0
0.874000012875 -0.29699999094 0.244000002742 1394.0
0.875 -0.303000003099 0.245000004768 1408.0
0.870999991894 -0.307999998331 0.244000002742 1414.0
0.874000012875 -0.314999997616 0.245000004768 1422.0
0.869000017643 -0.319000005722 0.245000004768 1414.0
0.875 -0.326999992132 0.24699999392 1409.0
0.869000017643 -0.331000000238 0.246000006795 1414.0
0.871999979019 -0.337999999523 0.24699999392 1426.0
0.866999983788 -0.342999994755 0.246000006795 1446.0
0.870000004768 -0.34999999404 0.24699999392 1432.0
0.869000017643 -0.356000006199 0.247999995947 1409.0
0.862999975681 -0.358999997377 0.24699999392 1407.0
0.861000001431 -0.365000009537 0.24699999392 1407.0
0.85799998045 -0.370000004768 0.24699999392 1390.0
0.85900002718 -0.377000004053 0.24699999392 1386.0
0.862999975681 -0.384999990463 0.248999997973 1389.0
0.856999993324 -0.388999998569 0.247999995947 1383.0
0.85799998045 -0.395999997854 0.248999997973 1378.0
0.862999975681 -0.405000001192 0.250999987125 1431.0
0.85799998045 -0.409000009298 0.25 1394.0
0.85900002718 -0.416000008583 0.250999987125 1430.0
0.852999985218 -0.419999986887 0.25 1419.0
0.855000019073 -0.426999986172 0.250999987125 1405.0
0.851999998093 -0.432000011206 0.250999987125 1369.0
0.842999994755 -0.435000002384 0.25 1337.0
0.846000015736 -0.442999988794 0.250999987125 1363.0
0.847999989986 -0.451000005007 0.252999991179 1342.0
0.842999994755 -0.455000013113 0.252000004053 1333.0
0.847999989986 -0.465000003576 0.254000008106 1348.0
0.847999989986 -0.472000002861 0.254999995232 1336.0
0.846000015736 -0.477999985218 0.254999995232 1351.0
0.838999986649 -0.481000006199 0.254000008106 1364.0
1.08500003815 0.646000027657 0.317000001669 487.0
1.09800004959 0.643999993801 0.319999992847 466.0
1.31400001049 0.759000003338 0.381999999285 275.0
1.66700005531 0.949999988079 0.485000014305 232.0
1.70299994946 0.955999970436 0.493999987841 222.0
1.75 0.967999994755 0.505999982357 225.0
1.78100001812 0.97000002861 0.513000011444 217.0
1.80099999905 0.966000020504 0.518000006676 163.0
1.7990000248 0.950999975204 0.51599997282 80.0
2.02399992943 1.03699994087 0.577000021935 118.0
2.07500004768 1.04700005054 0.589999973774 206.0
2.08699989319 1.03600001335 0.592000007629 296.0
2.09699988365 1.02600002289 0.59399998188 287.0
2.0759999752 0.999000012875 0.586000025272 289.0
2.0759999752 0.98299998045 0.584999978542 258.0
2.09299993515 0.975000023842 0.587999999523 142.0
2.18099999428 1.0 0.611000001431 125.0
2.20300006866 0.992999970913 0.615999996662 211.0
2.21399998665 0.981999993324 0.617999970913 259.0
2.22199988365 0.96899998188 0.619000017643 129.0
3.2460000515 1.02900004387 0.875999987125 85.0
3.3259999752 1.03199994564 0.897000014782 93.0
3.41100001335 1.03600001335 0.917999982834 72.0
3.6970000267 1.07400000095 0.992999970913 104.0
3.77399992943 1.0720000267 1.01199996471 111.0
3.79500007629 1.0529999733 1.01600003242 85.0
3.98900008202 1.05499994755 1.06599998474 61.0
4.11999988556 1.03699994087 1.09800004959 101.0
4.09700012207 1.00499999523 1.0909999609 110.0
4.10900020599 0.981999993324 1.09300005436 106.0
4.12200021744 0.958999991417 1.09500002861 104.0
4.06699991226 0.921000003815 1.07899999619 114.0
4.06799983978 0.896000027657 1.07799994946 108.0
4.0609998703 0.867999970913 1.07500004768 105.0
4.13100004196 0.85799998045 1.09300005436 101.0
4.09000015259 0.824000000954 1.08099997044 105.0
4.13399982452 0.806999981403 1.09200000763 109.0
4.13399982452 0.78100001812 1.0909999609 105.0
4.16800022125 0.762000024319 1.09899997711 101.0
4.1139998436 0.726999998093 1.08399999142 108.0
4.0689997673 0.694000005722 1.07099997997 102.0
4.13899993896 0.680999994278 1.08899998665 105.0
4.09399986267 0.648000001907 1.0759999752 104.0
4.08699989319 0.621999979019 1.07400000095 107.0
4.0689997673 0.59500002861 1.06799995899 107.0
4.11999988556 0.577000021935 1.08099997044 102.0
4.14400005341 0.555999994278 1.0870000124 102.0
4.06599998474 0.521000027657 1.06500005722 109.0
4.12400007248 0.503000020981 1.08000004292 102.0
4.03999996185 0.469000011683 1.05799996853 105.0
4.132999897 0.455000013113 1.08200001717 95.0
4.11800003052 0.428999990225 1.07700002193 77.0
0.908999979496 -0.119000002742 0.237000003457 643.0
0.902000010014 -0.123000003397 0.236000001431 1280.0
0.903999984264 -0.128999993205 0.236000001431 1313.0
0.90499997139 -0.134000003338 0.237000003457 1359.0
0.899999976158 -0.138999998569 0.236000001431 1315.0
0.898000001907 -0.143999993801 0.234999999404 1316.0
0.899999976158 -0.15000000596 0.236000001431 1379.0
0.902999997139 -0.156000003219 0.237000003457 1399.0
0.899999976158 -0.16099999845 0.237000003457 1392.0
0.894999980927 -0.165999993682 0.236000001431 1359.0
0.893000006676 -0.171000003815 0.234999999404 1356.0
0.902000010014 -0.178000003099 0.238000005484 1364.0
0.897000014782 -0.182999998331 0.237000003457 1370.0
0.896000027657 -0.187999993563 0.237000003457 1362.0
0.899999976158 -0.194000005722 0.238000005484 1388.0
0.893999993801 -0.199000000954 0.237000003457 1388.0
0.893000006676 -0.203999996185 0.237000003457 1398.0
0.885999977589 -0.208000004292 0.234999999404 1392.0
0.89099997282 -0.215000003576 0.237000003457 1377.0
0.888000011444 -0.219999998808 0.236000001431 1393.0
0.89099997282 -0.225999996066 0.238000005484 1393.0
0.885999977589 -0.230000004172 0.237000003457 1362.0
0.884000003338 -0.236000001431 0.236000001431 1403.0
0.89200001955 -0.244000002742 0.238999992609 1392.0
0.879000008106 -0.246000006795 0.236000001431 1407.0
0.880999982357 -0.252000004053 0.237000003457 1400.0
0.876999974251 -0.256000012159 0.236000001431 1397.0
0.878000020981 -0.263000011444 0.237000003457 1381.0
0.882000029087 -0.270000010729 0.238000005484 1395.0
0.879999995232 -0.27500000596 0.238000005484 1418.0
0.883000016212 -0.282000005245 0.238999992609 1410.0
0.879999995232 -0.287000000477 0.238999992609 1415.0
0.878000020981 -0.291999995708 0.238999992609 1388.0
0.871999979019 -0.296000003815 0.238000005484 1428.0
0.879999995232 -0.305000007153 0.239999994636 1419.0
0.875999987125 -0.308999985456 0.239999994636 1428.0
0.870999991894 -0.312999993563 0.238999992609 1412.0
0.875 -0.321000009775 0.239999994636 1422.0
0.871999979019 -0.326000005007 0.239999994636 1414.0
0.865999996662 -0.328999996185 0.238999992609 1433.0
0.866999983788 -0.33599999547 0.239999994636 1448.0
0.869000017643 -0.342999994755 0.240999996662 1418.0
0.867999970913 -0.349000006914 0.240999996662 1453.0
0.865000009537 -0.354000002146 0.240999996662 1452.0
0.866999983788 -0.361000001431 0.241999998689 1436.0
0.861999988556 -0.365000009537 0.240999996662 1444.0
0.864000022411 -0.372000008821 0.241999998689 1446.0
0.866999983788 -0.379999995232 0.244000002742 1410.0
0.861999988556 -0.384000003338 0.243000000715 1432.0
0.85900002718 -0.388999998569 0.243000000715 1400.0
0.861000001431 -0.395999997854 0.244000002742 1417.0
0.860000014305 -0.402999997139 0.244000002742 1435.0
0.856000006199 -0.407000005245 0.244000002742 1458.0
0.856000006199 -0.41400000453 0.245000004768 1442.0
0.855000019073 -0.419999986887 0.245000004768 1473.0
0.852999985218 -0.425999999046 0.245000004768 1460.0
0.852999985218 -0.432000011206 0.246000006795 1411.0
0.855000019073 -0.439999997616 0.24699999392 1382.0
0.853999972343 -0.446000009775 0.24699999392 1355.0
0.850000023842 -0.451999992132 0.24699999392 1349.0
0.847000002861 -0.456999987364 0.24699999392 1346.0
0.848999977112 -0.465000003576 0.247999995947 1368.0
0.84500002861 -0.469999998808 0.247999995947 1368.0
0.84399998188 -0.476000010967 0.248999997973 1392.0
0.84500002861 -0.483999997377 0.25 1379.0
1.09200000763 0.648999989033 0.312000006437 485.0
1.11099994183 0.649999976158 0.316000014544 453.0
1.39400005341 0.805000007153 0.395999997854 248.0
1.67599999905 0.95300000906 0.47499999404 233.0
1.72599995136 0.967000007629 0.488000005484 226.0
1.74300003052 0.962000012398 0.49200001359 213.0
1.77100002766 0.962999999523 0.497999995947 226.0
1.81599998474 0.972999989986 0.509000003338 146.0
2.04299998283 1.04600000381 0.569000005722 143.0
2.0569999218 1.03600001335 0.570999979973 246.0
2.08400011063 1.03299999237 0.577000021935 297.0
2.09299993515 1.02199995518 0.57800000906 291.0
2.07999992371 0.999000012875 0.573000013828 287.0
2.08200001717 0.98400002718 0.572000026703 251.0
2.07800006866 0.967000007629 0.569000005722 130.0
2.12400007248 0.972000002861 0.580999970436 125.0
2.18099999428 0.981999993324 0.59500002861 219.0
2.21399998665 0.980000019073 0.602999985218 247.0
2.26900005341 0.987999975681 0.615999996662 120.0
3.32699990273 1.03100001812 0.875 80.0
3.45000004768 1.04600000381 0.90600001812 71.0
3.76300001144 1.09200000763 0.986000001431 110.0
3.78800010681 1.07400000095 0.990999996662 105.0
3.81100010872 1.05599999428 0.995999991894 85.0
4.1890001297 1.10699999332 1.09200000763 66.0
4.07299995422 1.04999995232 1.06099998951 79.0
4.10900020599 1.03299999237 1.06900000572 109.0
4.07399988174 0.998000025749 1.05799996853 113.0
4.10699987411 0.980000019073 1.06599998474 108.0
4.03700017929 0.938000023365 1.04600000381 105.0
4.07600021362 0.921000003815 1.05599999428 106.0
4.05700016022 0.89200001955 1.0490000248 107.0
4.10400009155 0.875999987125 1.06099998951 110.0
4.08300018311 0.846000015736 1.05400002003 110.0
4.09100008011 0.823000013828 1.05499994755 108.0
4.10300016403 0.800000011921 1.05700004101 104.0
4.09999990463 0.773999989033 1.05599999428 101.0
4.11299991608 0.750999987125 1.05799996853 109.0
4.14400005341 0.731000006199 1.06500005722 103.0
4.07499980927 0.694000005722 1.04700005054 98.0
4.09200000763 0.67199999094 1.04999995232 110.0
4.08500003815 0.646000027657 1.04799997807 112.0
4.13999986649 0.629000008106 1.06099998951 104.0
4.09600019455 0.597999989986 1.0490000248 110.0
4.12599992752 0.577000021935 1.05700004101 102.0
4.09000015259 0.547999978065 1.04700005054 113.0
4.132999897 0.528999984264 1.05700004101 109.0
4.11000013351 0.500999987125 1.05099999905 102.0
4.09499979019 0.474000006914 1.04600000381 109.0
4.05900001526 0.446000009775 1.03699994087 104.0
4.07700014114 0.423999994993 1.04100000858 60.0
0.913999974728 -0.119000002742 0.232999995351 633.0
0.90499997139 -0.123000003397 0.231000006199 1280.0
0.903999984264 -0.128999993205 0.231000006199 1332.0
0.907000005245 -0.135000005364 0.231000006199 1383.0
0.901000022888 -0.138999998569 0.230000004172 1322.0
0.901000022888 -0.144999995828 0.231000006199 1330.0
0.898000001907 -0.149000003934 0.230000004172 1371.0
0.898999989033 -0.155000001192 0.230000004172 1397.0
0.901000022888 -0.16099999845 0.231000006199 1397.0
0.898000001907 -0.165999993682 0.231000006199 1349.0
0.898000001907 -0.171000003815 0.231000006199 1366.0
0.894999980927 -0.175999999046 0.230000004172 1356.0
0.894999980927 -0.181999996305 0.231000006199 1375.0
0.898000001907 -0.187999993563 0.231999993324 1372.0
0.897000014782 -0.193000003695 0.231999993324 1377.0
0.889999985695 -0.197999998927 0.230000004172 1370.0
0.893999993801 -0.203999996185 0.231000006199 1406.0
0.896000027657 -0.209999993443 0.231999993324 1403.0
0.888000011444 -0.21400000155 0.230000004172 1395.0
0.89099997282 -0.219999998808 0.231999993324 1368.0
0.884999990463 -0.224000006914 0.230000004172 1412.0
0.883000016212 -0.229000002146 0.230000004172 1395.0
0.89099997282 -0.237000003457 0.232999995351 1393.0
0.887000024319 -0.241999998689 0.231999993324 1396.0
0.882000029087 -0.246000006795 0.231000006199 1396.0
0.879999995232 -0.250999987125 0.231000006199 1392.0
0.884000003338 -0.25799998641 0.231999993324 1389.0
0.884000003338 -0.263999998569 0.232999995351 1370.0
0.879000008106 -0.268000006676 0.231999993324 1400.0
0.882000029087 -0.27500000596 0.232999995351 1413.0
0.878000020981 -0.280000001192 0.231999993324 1418.0
0.879000008106 -0.286000013351 0.232999995351 1421.0
0.875999987125 -0.291000008583 0.232999995351 1419.0
0.876999974251 -0.29699999094 0.232999995351 1410.0
0.878000020981 -0.303000003099 0.233999997377 1427.0
0.871999979019 -0.307000011206 0.232999995351 1420.0
0.870000004768 -0.312000006437 0.232999995351 1425.0
0.875999987125 -0.321000009775 0.234999999404 1436.0
0.869000017643 -0.324000000954 0.233999997377 1443.0
0.871999979019 -0.331000000238 0.234999999404 1430.0
0.866999983788 -0.33599999547 0.233999997377 1474.0
0.870000004768 -0.342999994755 0.234999999404 1463.0
0.870999991894 -0.349000006914 0.236000001431 1466.0
0.867999970913 -0.354000002146 0.236000001431 1469.0
0.865000009537 -0.360000014305 0.236000001431 1462.0
0.867999970913 -0.36700001359 0.237000003457 1472.0
0.867999970913 -0.374000012875 0.238000005484 1468.0
0.85799998045 -0.375999987125 0.236000001431 1432.0
0.861000001431 -0.38299998641 0.237000003457 1437.0
0.85900002718 -0.388999998569 0.237000003457 1454.0
0.860000014305 -0.395999997854 0.238000005484 1443.0
0.85799998045 -0.400999993086 0.238000005484 1425.0
0.856999993324 -0.407000005245 0.238000005484 1457.0
0.856000006199 -0.412999987602 0.238999992609 1480.0
0.851999998093 -0.418000012636 0.238000005484 1470.0
0.851000010967 -0.423999994993 0.238000005484 1466.0
0.851000010967 -0.430999994278 0.238999992609 1438.0
0.856999993324 -0.441000014544 0.241999998689 1415.0
0.848999977112 -0.444000005722 0.239999994636 1413.0
0.852999985218 -0.451999992132 0.241999998689 1383.0
0.846000015736 -0.456000000238 0.240999996662 1353.0
0.851000010967 -0.465000003576 0.243000000715 1372.0
0.847999989986 -0.470999985933 0.243000000715 1382.0
0.851999998093 -0.479999989271 0.245000004768 1385.0
0.846000015736 -0.483999997377 0.244000002742 1379.0
1.09500002861 0.648999989033 0.305000007153 476.0
1.12399995327 0.657000005245 0.312000006437 448.0
1.48099994659 0.852999985218 0.409999996424 242.0
1.71099996567 0.972000002861 0.472999989986 237.0
1.74199998379 0.975000023842 0.479999989271 224.0
1.76499998569 0.972999989986 0.485000014305 225.0
1.76800000668 0.959999978542 0.485000014305 220.0
1.79299998283 0.958999991417 0.490000009537 126.0
2.00999999046 1.04299998283 0.54699999094 100.0
2.07100009918 1.05799996853 0.561999976635 223.0
2.0720000267 1.04200005531 0.56099998951 280.0
2.08500003815 1.03199994564 0.563000023365 294.0
2.08100008965 1.01400005817 0.560000002384 300.0
2.08899998665 1.00199997425 0.56099998951 282.0
2.10599994659 0.994000017643 0.56400001049 242.0
2.11800003052 0.98400002718 0.565999984741 126.0
2.14299988747 0.978999972343 0.570999979973 137.0
2.18400001526 0.981000006199 0.580999970436 237.0
2.19099998474 0.967999994755 0.582000017166 233.0
2.25699996948 0.981000006199 0.597999989986 114.0
2.45199990273 0.976999998093 0.643000006676 70.0
3.22699999809 1.01999998093 0.828999996185 96.0
3.39400005341 1.02799999714 0.870000004768 67.0
3.73600006104 1.10699999332 0.955999970436 86.0
3.77300000191 1.09300005436 0.963999986649 109.0
3.72799992561 1.05599999428 0.950999975204 104.0
3.86899995804 1.07000005245 0.986000001431 73.0
3.98600006104 1.05099999905 1.01400005817 62.0
4.05100011826 1.04299998283 1.02900004387 81.0
4.03200006485 1.01199996471 1.02300000191 110.0
4.14499998093 1.01400005817 1.05099999905 110.0
4.12099981308 0.981999993324 1.04299998283 113.0
4.17999982834 0.97000002861 1.05700004101 109.0
4.11499977112 0.929000020027 1.03900003433 110.0
4.13199996948 0.907000005245 1.04299998283 108.0
4.10200023651 0.875 1.0340000391 106.0
4.15399980545 0.860000014305 1.04600000381 106.0
4.14900016785 0.833000004292 1.04400002956 103.0
4.15399980545 0.809000015259 1.04400002956 110.0
4.09999990463 0.773000001907 1.02999997139 111.0
4.09299993515 0.745999991894 1.02699995041 102.0
4.07100009918 0.717000007629 1.02100002766 104.0
4.08699989319 0.694999992847 1.02400004864 102.0
4.04199981689 0.662999987602 1.01199996471 107.0
4.07499980927 0.643000006676 1.01999998093 112.0
4.11800003052 0.625 1.02999997139 109.0
4.09399986267 0.597000002861 1.02300000191 110.0
4.11499977112 0.574999988079 1.02799999714 109.0
4.08199977875 0.546000003815 1.01900005341 106.0
4.0720000267 0.519999980927 1.01600003242 108.0
4.10900020599 0.5 1.02499997616 107.0
4.14799976349 0.479999989271 1.0340000391 100.0
4.10799980164 0.451000005007 1.02400004864 98.0
4.07499980927 0.423000007868 1.01499998569 72.0
0.916999995708 -0.119000002742 0.228000000119 638.0
0.907000005245 -0.123000003397 0.22499999404 1277.0
0.903999984264 -0.12800000608 0.22499999404 1322.0
0.90499997139 -0.134000003338 0.22499999404 1366.0
0.898999989033 -0.138999998569 0.224000006914 1352.0
0.901000022888 -0.143999993801 0.22499999404 1343.0
0.901000022888 -0.15000000596 0.22499999404 1380.0
0.901000022888 -0.155000001192 0.22499999404 1389.0
0.898999989033 -0.16099999845 0.22499999404 1406.0
0.902000010014 -0.166999995708 0.225999996066 1370.0
0.902000010014 -0.172000005841 0.225999996066 1380.0
0.897000014782 -0.177000001073 0.22499999404 1364.0
0.897000014782 -0.181999996305 0.22499999404 1374.0
0.89200001955 -0.187000006437 0.22499999404 1369.0
0.894999980927 -0.193000003695 0.22499999404 1360.0
0.893999993801 -0.197999998927 0.22499999404 1374.0
0.893000006676 -0.202999994159 0.22499999404 1442.0
0.887000024319 -0.208000004292 0.224000006914 1430.0
0.89200001955 -0.215000003576 0.225999996066 1381.0
0.889999985695 -0.219999998808 0.225999996066 1365.0
0.89099997282 -0.225999996066 0.225999996066 1412.0
0.888000011444 -0.231000006199 0.225999996066 1437.0
0.884999990463 -0.234999999404 0.22499999404 1395.0
0.880999982357 -0.239999994636 0.22499999404 1396.0
0.882000029087 -0.246000006795 0.22499999404 1394.0
0.887000024319 -0.252999991179 0.226999998093 1428.0
0.888000011444 -0.259000003338 0.228000000119 1411.0
0.879000008106 -0.261999994516 0.225999996066 1410.0
0.879999995232 -0.268000006676 0.225999996066 1406.0
0.879000008106 -0.273999989033 0.225999996066 1403.0
0.876999974251 -0.279000014067 0.225999996066 1427.0
0.878000020981 -0.284999996424 0.226999998093 1422.0
0.875 -0.289999991655 0.226999998093 1441.0
0.875 -0.296000003815 0.226999998093 1424.0
0.875999987125 -0.301999986172 0.228000000119 1430.0
0.874000012875 -0.307999998331 0.228000000119 1427.0
0.874000012875 -0.312999993563 0.228000000119 1430.0
0.873000025749 -0.319000005722 0.228000000119 1456.0
0.879000008106 -0.326999992132 0.230000004172 1459.0
0.870000004768 -0.330000013113 0.228000000119 1446.0
0.870999991894 -0.337000012398 0.229000002146 1468.0
0.870999991894 -0.342999994755 0.230000004172 1482.0
0.867999970913 -0.347999989986 0.229000002146 1469.0
0.862999975681 -0.351999998093 0.229000002146 1480.0
0.865999996662 -0.360000014305 0.230000004172 1449.0
0.865999996662 -0.365000009537 0.231000006199 1466.0
0.864000022411 -0.370999991894 0.231000006199 1449.0
0.85900002718 -0.375 0.230000004172 1452.0
0.861999988556 -0.38299998641 0.231000006199 1455.0
0.860000014305 -0.388000011444 0.231000006199 1442.0
0.85900002718 -0.393999993801 0.231999993324 1450.0
0.856999993324 -0.40000000596 0.231999993324 1418.0
0.864000022411 -0.409999996424 0.233999997377 1453.0
0.853999972343 -0.412000000477 0.231999993324 1464.0
0.855000019073 -0.418999999762 0.232999995351 1452.0
0.856000006199 -0.425999999046 0.233999997377 1429.0
0.852999985218 -0.430999994278 0.233999997377 1464.0
0.853999972343 -0.437999993563 0.234999999404 1435.0
0.856000006199 -0.446000009775 0.236000001431 1446.0
0.848999977112 -0.449000000954 0.234999999404 1411.0
0.842999994755 -0.45300000906 0.233999997377 1376.0
0.84500002861 -0.46099999547 0.234999999404 1410.0
0.848999977112 -0.469999998808 0.237000003457 1412.0
0.846000015736 -0.476000010967 0.237000003457 1396.0
0.851000010967 -0.486000001431 0.238999992609 1362.0
1.10199999809 0.652000010014 0.298000007868 485.0
1.13499999046 0.662000000477 0.307000011206 425.0
1.59000003338 0.915000021458 0.430000007153 237.0
1.69400000572 0.961000025272 0.456000000238 230.0
1.72099995613 0.961000025272 0.462000012398 222.0
1.75600004196 0.966000020504 0.469999998808 223.0
1.80700004101 0.980000019073 0.483000010252 227.0
1.84200000763 0.98400002718 0.490999996662 143.0
1.99899995327 1.03600001335 0.52999997139 113.0
2.07999992371 1.06099998951 0.550000011921 143.0
2.07100009918 1.03999996185 0.546000003815 243.0
2.08999991417 1.03299999237 0.550000011921 296.0
2.10100007057 1.02199995518 0.550999999046 293.0
2.06699991226 0.990000009537 0.541000008583 292.0
2.09100008011 0.985000014305 0.546000003815 227.0
2.11999988556 0.98299998045 0.551999986172 117.0
2.14299988747 0.977999985218 0.556999981403 131.0
2.18400001526 0.980000019073 0.565999984741 253.0
2.20900011063 0.975000023842 0.570999979973 220.0
2.21399998665 0.961000025272 0.570999979973 112.0
2.81399989128 1.00199997425 0.711000025272 68.0
3.22399997711 1.01699995995 0.806999981403 96.0
3.29399991035 1.01800000668 0.824000000954 77.0
3.42000007629 1.0340000391 0.853999972343 68.0
3.83599996567 1.13499999046 0.957000017166 85.0
3.73099994659 1.07899999619 0.930000007153 106.0
3.75099992752 1.06099998951 0.933000028133 101.0
3.85100007057 1.06400001049 0.957000017166 83.0
4.02099990845 1.08500003815 0.998000025749 65.0
4.16900014877 1.09800004959 1.0340000391 68.0
4.09700012207 1.0529999733 1.01400005817 84.0
4.09800004959 1.02699995041 1.01400005817 110.0
4.0689997673 0.994000017643 1.00499999523 111.0
4.10500001907 0.976999998093 1.01300001144 111.0
4.09200000763 0.948000013828 1.00899994373 108.0
4.11899995804 0.927999973297 1.01400005817 101.0
4.11100006104 0.901000022888 1.01100003719 103.0
4.13500022888 0.879999995232 1.01600003242 102.0
4.12099981308 0.851999998093 1.01199996471 103.0
4.05000019073 0.811999976635 0.992999970913 104.0
4.14400005341 0.805000007153 1.01600003242 97.0
4.09700012207 0.771000027657 1.00300002098 98.0
4.11199998856 0.749000012875 1.00600004196 95.0
4.09700012207 0.721000015736 1.00199997425 97.0
4.07000017166 0.690999984741 0.994000017643 107.0
4.15000009537 0.679000020027 1.01300001144 107.0
4.07299995422 0.64200001955 0.994000017643 113.0
4.13100004196 0.625999987125 1.00699996948 106.0
4.12099981308 0.600000023842 1.0039999485 104.0
