ply
format ascii 1.0
element vertex 998
property float x
property float y
property float z
property float intensity
end_header
4.11800003052 0.116999998689 1.64300000668 84.0
4.15299987793 0.0930000022054 1.65699994564 81.0
4.0720000267 0.0659999996424 1.625 87.0
4.10699987411 0.0419999994338 1.63900005817 92.0
4.117000103 0.0170000009239 1.64300000668 81.0
4.02500009537 -0.00700000021607 1.60699999332 86.0
4.13000011444 -0.0329999998212 1.64900004864 91.0
4.12699985504 -0.0579999983311 1.64800000191 86.0
4.12699985504 -0.082999996841 1.64800000191 86.0
4.11999988556 -0.108000002801 1.64499998093 77.0
4.14900016785 -0.135000005364 1.65699994564 88.0
4.12400007248 -0.158999994397 1.64800000191 81.0
4.132999897 -0.185000002384 1.65199995041 77.0
4.18300008774 -0.212999999523 1.67200005054 87.0
4.11000013351 -0.233999997377 1.64400005341 82.0
4.23199987411 -0.266999989748 1.69299995899 81.0
4.11299991608 -0.284999996424 1.64600002766 79.0
4.1810002327 -0.314999997616 1.67499995232 79.0
4.19199991226 -0.342000007629 1.67999994755 86.0
4.1970000267 -0.368000000715 1.68200004101 82.0
4.13800001144 -0.388999998569 1.65999996662 85.0
4.15799999237 -0.416000008583 1.66900002956 80.0
4.19999980927 -0.446999996901 1.68700003624 79.0
4.15500020981 -0.467999994755 1.66900002956 86.0
4.1779999733 -0.495999991894 1.67999994755 75.0
4.17700004578 -0.522000014782 1.68099999428 70.0
4.16900014877 -0.54699999094 1.67900002003 77.0
4.21899986267 -0.579999983311 1.7009999752 85.0
4.23099994659 -0.60799998045 1.70700001717 75.0
4.21500015259 -0.633000016212 1.70200002193 78.0
4.28700017929 -0.671000003815 1.73199999332 74.0
4.29099988937 -0.698000013828 1.73599994183 75.0
4.22900009155 -0.714999973774 1.7120000124 80.0
4.22499990463 -0.740999996662 1.7120000124 71.0
4.1970000267 -0.763000011444 1.70299994946 72.0
4.18699979782 -0.787999987602 1.70000004768 78.0
4.25400018692 -0.82800000906 1.72899997234 83.0
4.23299980164 -0.851000010967 1.72300004959 74.0
4.22300004959 -0.875999987125 1.72099995613 74.0
4.19500017166 -0.897000014782 1.71099996567 76.0
4.28100013733 -0.944000005722 1.74899995327 70.0
4.17100000381 -0.945999979973 1.70599997044 73.0
4.22700023651 -0.986999988556 1.73099994659 74.0
4.09399986267 -0.981999993324 1.67900002003 72.0
4.29899978638 -1.05999994278 1.76499998569 84.0
4.25400018692 -1.07700002193 1.74899995327 70.0
4.3220000267 -1.12300002575 1.77999997139 71.0
4.27899980545 -1.13999998569 1.76499998569 70.0
4.3060002327 -1.17599999905 1.77900004387 73.0
4.25899982452 -1.19200003147 1.76199996471 75.0
4.31799983978 -1.23800003529 1.78900003433 70.0
4.22100019455 -1.23899996281 1.75199997425 74.0
4.25600004196 -1.27799999714 1.76900005341 75.0
4.29699993134 -1.32000005245 1.78999996185 76.0
4.21700000763 -1.35300004482 1.76199996471 73.0
4.25099992752 -1.39400005341 1.77999997139 73.0
4.35300016403 -1.48899996281 1.83000004292 73.0
2.18600010872 1.35899996758 0.976999998093 104.0
3.90700006485 1.65400004387 1.63600003719 94.0
3.83299994469 1.59399998188 1.60099995136 119.0
3.87800002098 1.58399999142 1.61600005627 113.0
3.82699990273 1.53499996662 1.59200000763 106.0
3.8599998951 1.51900005341 1.60199999809 112.0
3.88199996948 1.5 1.60800004005 115.0
3.89299988747 1.47599995136 1.60899996758 112.0
3.89599990845 1.44900000095 1.60800004005 112.0
3.89199995995 1.41900002956 1.60300004482 106.0
3.90499997139 1.39600002766 1.60500001907 95.0
3.95199990273 1.38499999046 1.6210000515 109.0
3.89100003242 1.33599996567 1.59300005436 113.0
3.98099994659 1.33899998665 1.62800002098 109.0
3.90899991989 1.2879999876 1.59500002861 106.0
3.89400005341 1.25600004196 1.5870000124 110.0
3.9240000248 1.23800003529 1.59599995613 113.0
3.9849998951 1.23000001907 1.61800003052 106.0
3.92700004578 1.18499994278 1.59300005436 108.0
3.96000003815 1.16799998283 1.60300004482 116.0
3.98099994659 1.14800000191 1.61000001431 106.0
3.94199991226 1.11000001431 1.5909999609 106.0
3.95900011063 1.08800005913 1.59599995613 122.0
3.92600011826 1.0529999733 1.58099997044 118.0
3.95000004768 1.03299999237 1.58800005913 118.0
3.95900011063 1.00899994373 1.59000003338 112.0
3.95700001717 0.981999993324 1.5870000124 113.0
4.01499986649 0.97000002861 1.60800004005 111.0
3.95799994469 0.930999994278 1.58299994469 115.0
3.97300004959 0.907999992371 1.58800005913 113.0
3.99900007248 0.888000011444 1.59599995613 110.0
3.95799994469 0.852999985218 1.57799994946 114.0
4.00199985504 0.837000012398 1.59399998188 112.0
3.99300003052 0.809000015259 1.58899998665 122.0
3.992000103 0.783999979496 1.5870000124 114.0
4.04600000381 0.768000006676 1.60699999332 122.0
4.02500009537 0.739000022411 1.59700000286 115.0
4.03800010681 0.714999973774 1.60099995136 114.0
4.02899980545 0.688000023365 1.59599995613 113.0
4.03999996185 0.665000021458 1.59899997711 122.0
4.02600002289 0.637000024319 1.59200000763 127.0
3.99900007248 0.60799998045 1.58000004292 113.0
4.02299976349 0.586000025272 1.58899998665 114.0
3.94000005722 0.549000024796 1.55499994755 115.0
4.01300001144 0.533999979496 1.58299994469 110.0
4.08400011063 0.518000006676 1.61000001431 112.0
3.992000103 0.481999993324 1.57299995422 118.0
4.007999897 0.458999991417 1.57799994946 107.0
3.96600008011 0.428999990225 1.56099998951 108.0
4.05499982834 0.41400000453 1.59500002861 107.0
4.04699993134 0.388000011444 1.5909999609 104.0
4.03700017929 0.361999988556 1.58599996567 97.0
4.00500011444 0.335000008345 1.57400000095 101.0
4.05000019073 0.312999993563 1.59000003338 98.0
4.09000015259 0.291000008583 1.60599994659 102.0
4.01999998093 0.261999994516 1.57799994946 94.0
4.12099981308 0.243000000715 1.61699998379 96.0
4.05900001526 0.215000003576 1.59300005436 90.0
4.0529999733 0.188999995589 1.59000003338 88.0
4.13899993896 0.167999997735 1.62300002575 99.0
4.10400009155 0.142000004649 1.61000001431 87.0
4.0720000267 0.115999996662 1.59700000286 91.0
4.15700006485 0.0930000022054 1.62999999523 92.0
4.13199996948 0.0670000016689 1.62000000477 88.0
4.08400011063 0.0410000011325 1.60099995136 91.0
4.07700014114 0.01600000076 1.59899997711 93.0
4.11899995804 -0.00800000037998 1.61500000954 93.0
4.02199983597 -0.0320000015199 1.57700002193 78.0
4.18200016022 -0.0590000003576 1.64100003242 88.0
4.11499977112 -0.082999996841 1.61399996281 83.0
4.0609998703 -0.107000000775 1.59300005436 93.0
4.13999986649 -0.159999996424 1.625 87.0
4.13000011444 -0.184000000358 1.62199997902 79.0
4.20699977875 -0.21400000155 1.65299999714 76.0
4.18699979782 -0.238000005484 1.64600002766 80.0
4.15100002289 -0.261999994516 1.63199996948 78.0
4.14400005341 -0.287000000477 1.62999999523 78.0
4.11800003052 -0.310000002384 1.62000000477 86.0
4.15700006485 -0.338999986649 1.63600003719 75.0
4.19500017166 -0.368000000715 1.65299999714 75.0
4.12599992752 -0.386999994516 1.62600004673 82.0
4.20900011063 -0.421000003815 1.65999996662 82.0
4.16400003433 -0.442000001669 1.64300000668 79.0
4.22100019455 -0.474000006914 1.66700005531 75.0
4.19899988174 -0.497999995947 1.6590000391 78.0
4.22300004959 -0.527000010014 1.66999995708 85.0
4.13500022888 -0.541999995708 1.63600003719 76.0
4.1939997673 -0.575999975204 1.66100001335 79.0
4.1779999733 -0.600000023842 1.65600001812 81.0
4.1810002327 -0.625999987125 1.65799999237 80.0
4.2389998436 -0.662000000477 1.68299996853 73.0
4.24700021744 -0.689999997616 1.68799996376 78.0
4.14200019836 -0.699000000954 1.64800000191 81.0
4.17000007629 -0.730000019073 1.66100001335 70.0
4.18200016022 -0.759000003338 1.66700005531 83.0
4.20900011063 -0.790000021458 1.67900002003 83.0
4.28100013733 -0.830999970436 1.71000003815 73.0
4.24300003052 -0.851000010967 1.6970000267 72.0
4.23000001907 -0.875999987125 1.69400000572 72.0
4.26499986649 -0.911000013351 1.71000003815 76.0
4.25400018692 -0.93599998951 1.70700001717 76.0
4.22499990463 -0.957000017166 1.69799995422 77.0
4.21899986267 -0.98299998045 1.69799995422 72.0
4.30999994278 -1.03299999237 1.73699998856 78.0
4.29099988937 -1.05599999428 1.73099994659 72.0
4.2610001564 -1.10500001907 1.72399997711 74.0
4.20399999619 -1.11800003052 1.70399999619 69.0
4.33599996567 -1.18200004101 1.75999999046 74.0
4.25500011444 -1.18900001049 1.73000001907 73.0
4.29699993134 -1.25800001621 1.75199997425 74.0
4.32899999619 -1.29700005054 1.76800000668 81.0
4.257999897 -1.42299997807 1.75499999523 91.0
4.16800022125 -1.48099994659 1.72800004482 78.0
0.0219999998808 -0.00400000018999 0.00499999988824 80.0
3.74099993706 1.60800004005 1.54100000858 81.0
3.81200003624 1.61000001431 1.56700003147 92.0
3.90000009537 1.61800003052 1.60000002384 108.0
3.91899991035 1.59700000286 1.60399997234 119.0
3.88899993896 1.55599999428 1.58899998665 110.0
3.88599991798 1.52600002289 1.58399999142 102.0
3.89499998093 1.50100004673 1.58500003815 114.0
3.88199996948 1.46800005436 1.5759999752 109.0
3.93600010872 1.46000003815 1.59500002861 108.0
3.88700008392 1.41400003433 1.5720000267 106.0
3.94000005722 1.40600001812 1.5909999609 106.0
3.91400003433 1.36899995804 1.57700002193 112.0
3.88199996948 1.33000004292 1.56200003624 116.0
3.93000006676 1.31900000572 1.57799994946 113.0
3.99000000954 1.31099998951 1.59899997711 112.0
3.99900007248 1.28600001335 1.60000002384 109.0
4.0 1.25899994373 1.59800004959 112.0
3.95700001717 1.21899998188 1.57799994946 108.0
3.92700004578 1.18200004101 1.56400001049 111.0
3.92899990082 1.15600001812 1.56200003624 104.0
3.97000002861 1.14199995995 1.5759999752 104.0
3.9430000782 1.10800004005 1.56400001049 114.0
3.93499994278 1.07899999619 1.55799996853 114.0
4.01399993896 1.07400000095 1.5870000124 111.0
3.98000001907 1.0379999876 1.5720000267 106.0
4.00099992752 1.01699995995 1.57799994946 112.0
3.90300011635 0.967000007629 1.53699994087 109.0
3.96900010109 0.957000017166 1.56200003624 108.0
3.9960000515 0.936999976635 1.57000005245 112.0
3.99000000954 0.910000026226 1.56599998474 103.0
3.95000004768 0.875 1.5490000248 109.0
3.97300004959 0.855000019073 1.55599999428 114.0
4.02600002289 0.839999973774 1.57500004768 106.0
4.00099992752 0.809000015259 1.56400001049 111.0
4.07700014114 0.797999978065 1.59200000763 120.0
3.99900007248 0.758000016212 1.55999994278 114.0
3.97000002861 0.726999998093 1.54700005054 111.0
4.03599977493 0.712999999523 1.5720000267 117.0
4.00099992752 0.681999981403 1.55700004101 123.0
4.03200006485 0.662000000477 1.56799995899 117.0
4.01000022888 0.633000016212 1.55799996853 113.0
4.01900005341 0.60900002718 1.55999994278 125.0
4.00699996948 0.582000017166 1.55499994755 119.0
4.01700019836 0.559000015259 1.55700004101 118.0
4.00899982452 0.532000005245 1.5529999733 127.0
4.0689997673 0.514999985695 1.5759999752 119.0
4.02400016785 0.483999997377 1.55700004101 121.0
4.0560002327 0.462999999523 1.56900000572 124.0
4.05800008774 0.437999993563 1.56900000572 117.0
4.03999996185 0.411000013351 1.56099998951 119.0
4.02099990845 0.384999990463 1.5529999733 117.0
4.05999994278 0.363000005484 1.56799995899 120.0
4.02500009537 0.33599999547 1.5529999733 111.0
4.03599977493 0.312000006437 1.55700004101 113.0
4.00400018692 0.284999996424 1.54400002956 110.0
4.04699993134 0.263000011444 1.56099998951 108.0
4.10799980164 0.241999998689 1.58399999142 106.0
4.0689997673 0.215000003576 1.56799995899 100.0
4.01999998093 0.187000006437 1.5490000248 103.0
4.01000022888 0.162000000477 1.54499995708 100.0
4.07899999619 0.140000000596 1.57099997997 98.0
4.02500009537 0.11400000006 1.55099999905 100.0
4.0529999733 0.0900000035763 1.56099998951 96.0
4.16699981689 0.0670000016689 1.60500001907 94.0
4.07399988174 0.0410000011325 1.56900000572 94.0
4.16400003433 0.01600000076 1.60399997234 89.0
4.117000103 -0.00800000037998 1.58599996567 94.0
4.07100009918 -0.0329999998212 1.56900000572 92.0
4.117000103 -0.0579999983311 1.5870000124 93.0
4.07600021362 -0.082000002265 1.57099997997 89.0
4.12699985504 -0.108000002801 1.5909999609 90.0
4.15899991989 -0.135000005364 1.60399997234 87.0
4.09899997711 -0.158000007272 1.58099997044 83.0
4.19600009918 -0.187000006437 1.61899995804 86.0
4.19299983978 -0.212999999523 1.61800003052 86.0
4.15299987793 -0.236000001431 1.60300004482 85.0
4.14200019836 -0.261000007391 1.60000002384 80.0
4.06599998474 -0.280999988317 1.57099997997 88.0
4.18699979782 -0.314999997616 1.61899995804 86.0
4.14499998093 -0.337000012398 1.60300004482 83.0
4.03100013733 -0.352999985218 1.55999994278 84.0
4.18400001526 -0.391999989748 1.62000000477 80.0
4.17700004578 -0.416999995708 1.61800003052 83.0
4.13800001144 -0.43900001049 1.60399997234 79.0
4.14099979401 -0.463999986649 1.60599994659 84.0
4.13399982452 -0.488999992609 1.60500001907 77.0
4.18699979782 -0.522000014782 1.62699997425 78.0
4.20100021362 -0.549000024796 1.63300001621 78.0
4.25099992752 -0.582000017166 1.65400004387 75.0
4.3060002327 -0.616999983788 1.67700004578 79.0
4.20499992371 -0.629000008106 1.63900005817 78.0
4.1779999733 -0.651000022888 1.62999999523 71.0
4.15799999237 -0.674000024796 1.62300002575 75.0
4.24800014496 -0.741999983788 1.66199994087 76.0
4.23600006104 -0.76700001955 1.6590000391 81.0
4.26300001144 -0.799000024796 1.67100000381 76.0
4.21500015259 -0.816999971867 1.65400004387 73.0
4.25099992752 -0.851000010967 1.66999995708 75.0
4.19000005722 -0.865999996662 1.64800000191 69.0
4.23500013351 -0.902000010014 1.66799998283 78.0
4.26999998093 -0.936999976635 1.68299996853 67.0
4.29600000381 -0.971000015736 1.69599997997 74.0
4.28999996185 -0.998000025749 1.69599997997 76.0
4.26200008392 -1.01900005341 1.68700003624 70.0
4.26700019836 -1.04799997807 1.69099998474 73.0
4.1859998703 -1.05599999428 1.66100001335 71.0
4.27500009537 -1.10599994659 1.69900000095 75.0
4.16400003433 -1.10500001907 1.65699994564 76.0
4.24499988556 -1.15499997139 1.69200003147 79.0
4.20499992371 -1.17200005054 1.67900002003 74.0
4.26499986649 -1.21800005436 1.70599997044 68.0
4.24599981308 -1.2990000248 1.70700001717 75.0
4.33099985123 -1.35399997234 1.74399995804 75.0
4.25 -1.38800001144 1.71700000763 72.0
4.2389998436 -1.47300004959 1.72300004959 77.0
4.35300016403 -1.60599994659 1.77999997139 82.0
3.33699989319 1.61199998856 1.37300002575 90.0
3.8900001049 1.66900002956 1.57400000095 79.0
3.88700008392 1.63800001144 1.56900000572 101.0
3.86400008202 1.60000002384 1.55700004101 115.0
3.88000011444 1.57700002193 1.55999994278 116.0
3.91199994087 1.56099998951 1.56900000572 115.0
3.90300011635 1.52999997139 1.56200003624 121.0
3.92199993134 1.50800001621 1.56700003147 117.0
3.92000007629 1.47899997234 1.56299996376 117.0
3.90300011635 1.44500005245 1.5529999733 109.0
3.93300008774 1.4279999733 1.56200003624 114.0
3.91100001335 1.39199995995 1.54999995232 117.0
3.97000002861 1.38499999046 1.57099997997 117.0
3.9430000782 1.34800004959 1.55700004101 117.0
3.92300009727 1.31400001049 1.54700005054 113.0
3.97300004959 1.3029999733 1.56400001049 120.0
3.96700000763 1.27300000191 1.55900001526 112.0
3.94899988174 1.24100005627 1.5490000248 116.0
3.93000006676 1.20799994469 1.53999996185 116.0
3.89499998093 1.16999995708 1.52300000191 107.0
3.99699997902 1.1740000248 1.56099998951 114.0
3.95199990273 1.13399994373 1.54100000858 113.0
3.89800000191 1.09200000763 1.51800000668 110.0
3.95399999619 1.08200001717 1.53699994087 106.0
3.92199993134 1.04700005054 1.52300000191 106.0
3.97600007057 1.03499996662 1.54200005531 108.0
3.93799996376 0.999000012875 1.52499997616 103.0
3.96600008011 0.980000019073 1.5340000391 102.0
3.9509999752 0.950999975204 1.52600002289 97.0
4.03800010681 0.944999992847 1.55799996853 94.0
4.02099990845 0.915000021458 1.54999995232 107.0
4.02400016785 0.889999985695 1.5490000248 92.0
4.01800012589 0.861999988556 1.54499995708 95.0
4.05100011826 0.842999994755 1.55700004101 100.0
4.04600000381 0.815999984741 1.5529999733 98.0
4.01700019836 0.785000026226 1.54100000858 99.0
4.00500011444 0.757000029087 1.5340000391 96.0
4.02699995041 0.736000001431 1.54200005531 102.0
3.93799996376 0.694999992847 1.50600004196 96.0
4.04899978638 0.68900001049 1.54700005054 107.0
4.00600004196 0.65600001812 1.52999997139 101.0
4.04699993134 0.637000024319 1.54400002956 98.0
4.04600000381 0.611999988556 1.54200005531 102.0
4.03200006485 0.584999978542 1.53600001335 101.0
4.02600002289 0.559000015259 1.53299999237 100.0
4.03700017929 0.535000026226 1.53600001335 94.0
4.01999998093 0.508000016212 1.52900004387 94.0
4.01000022888 0.481999993324 1.52400004864 103.0
4.04699993134 0.46099999547 1.53699994087 99.0
4.07100009918 0.43900001049 1.54600000381 97.0
4.02199983597 0.409000009298 1.52699995041 96.0
4.06699991226 0.388000011444 1.54299998283 100.0
4.00699996948 0.358000010252 1.51900005341 94.0
4.03100013733 0.335000008345 1.52799999714 96.0
4.03900003433 0.31099998951 1.52999997139 98.0
4.09299993515 0.289999991655 1.54999995232 96.0
4.09299993515 0.264999985695 1.54999995232 97.0
4.10300016403 0.240999996662 1.55400002003 95.0
4.10900020599 0.216000005603 1.55499994755 95.0
4.11299991608 0.190999999642 1.55700004101 99.0
4.05900001526 0.16400000453 1.53600001335 90.0
4.07999992371 0.140000000596 1.54400002956 101.0
4.11600017548 0.115999996662 1.55700004101 91.0
4.03599977493 0.0890000015497 1.52699995041 101.0
4.10599994659 0.0659999996424 1.5529999733 103.0
4.09000015259 0.0410000011325 1.54700005054 92.0
4.14499998093 0.01600000076 1.56799995899 90.0
4.09700012207 -0.00800000037998 1.54999995232 101.0
4.117000103 -0.0329999998212 1.55799996853 94.0
4.10599994659 -0.0579999983311 1.55400002003 97.0
4.12300014496 -0.082999996841 1.56099998951 89.0
4.14599990845 -0.108999997377 1.57000005245 97.0
4.11199998856 -0.133000001311 1.55700004101 88.0
4.14900016785 -0.158999994397 1.5720000267 99.0
4.16499996185 -0.186000004411 1.57799994946 93.0
4.11600017548 -0.208000004292 1.55999994278 88.0
4.10500001907 -0.232999995351 1.55700004101 91.0
4.13500022888 -0.259999990463 1.56900000572 103.0
4.20300006866 -0.289999991655 1.59500002861 85.0
4.07999992371 -0.305999994278 1.5490000248 87.0
4.20900011063 -0.342000007629 1.59899997711 84.0
4.17199993134 -0.363999992609 1.58599996567 95.0
4.16800022125 -0.389999985695 1.58500003815 85.0
4.15899991989 -0.41400000453 1.58299994469 85.0
4.1810002327 -0.442000001669 1.59200000763 86.0
4.23500013351 -0.474000006914 1.61399996281 83.0
4.21899986267 -0.499000012875 1.60899996758 84.0
4.25199985504 -0.528999984264 1.62199997902 86.0
4.23299980164 -0.552999973297 1.61600005627 83.0
4.16900014877 -0.569999992847 1.59300005436 82.0
4.1859998703 -0.598999977112 1.60099995136 83.0
4.19500017166 -0.625999987125 1.60599994659 78.0
4.20699977875 -0.653999984264 1.61199998856 73.0
4.21400022507 -0.681999981403 1.61600005627 81.0
4.31500005722 -0.725000023842 1.65600001812 83.0
4.22800016403 -0.736999988556 1.62399995327 82.0
4.22700023651 -0.763999998569 1.625 78.0
4.25199985504 -0.795000016689 1.63699996471 81.0
4.17700004578 -0.808000028133 1.61000001431 83.0
4.20900011063 -0.841000020504 1.62399995327 75.0
4.20599985123 -0.866999983788 1.625 69.0
4.25699996948 -0.90499997139 1.64699995518 72.0
4.1779999733 -0.915000021458 1.61800003052 74.0
4.1939997673 -0.945999979973 1.62600004673 78.0
4.28900003433 -0.995000004768 1.66499996185 76.0
4.30800008774 -1.02799999714 1.67499995232 71.0
4.1890001297 -1.02699995041 1.63100004196 72.0
4.30900001526 -1.08399999142 1.67999994755 70.0
4.30499982834 -1.11199998856 1.68099999428 73.0
4.21700000763 -1.11699998379 1.64800000191 70.0
4.25500011444 -1.15499997139 1.66600000858 88.0
4.25899982452 -1.18499994278 1.66999995708 72.0
4.367000103 -1.24399995804 1.71500003338 77.0
4.257999897 -1.24199998379 1.67499995232 74.0
4.36000013351 -1.30099999905 1.71800005436 77.0
4.32999992371 -1.35099995136 1.7120000124 74.0
4.38399982452 -1.39800000191 1.73699998856 74.0
4.32700014114 -1.44000005722 1.72099995613 80.0
4.42399978638 -1.53499996662 1.76600003242 72.0
4.44500017166 -1.60500001907 1.78100001812 77.0
4.33599996567 -1.59599995613 1.74100005627 77.0
0.0149999996647 -0.00200000009499 0.00200000009499 89.0
3.22699999809 1.60699999332 1.30999994278 87.0
3.22399997711 1.57899999619 1.30499994755 85.0
3.1930000782 1.53900003433 1.28900003433 89.0
3.30900001526 1.56799995899 1.33299994469 81.0
3.73000001907 1.62399995327 1.48500001431 80.0
3.81999993324 1.63499999046 1.51699995995 109.0
3.8710000515 1.62800002098 1.5340000391 112.0
3.82399988174 1.57899999619 1.51199996471 119.0
3.89700007439 1.58099997044 1.5379999876 126.0
3.95000004768 1.57299995422 1.55499994755 115.0
3.86599993706 1.51100003719 1.51900005341 114.0
3.88499999046 1.49100005627 1.52300000191 105.0
3.88700008392 1.46300005913 1.52100002766 119.0
3.90799999237 1.44299995899 1.52699995041 120.0
3.91499996185 1.41799998283 1.52600002289 108.0
3.86599993706 1.37300002575 1.5039999485 125.0
3.95600008965 1.37699997425 1.53699994087 113.0
3.93799996376 1.34300005436 1.52699995041 116.0
3.98699998856 1.33200001717 1.54400002956 122.0
3.96799993515 1.29799997807 1.53299999237 121.0
3.90300011635 1.25 1.50600004196 112.0
3.93000006676 1.23199999332 1.51400005817 122.0
3.96099996567 1.21500003338 1.52300000191 113.0
3.96499991417 1.18900001049 1.52199995518 107.0
3.98099994659 1.16700005531 1.52600002289 124.0
3.99499988556 1.14400005341 1.52900004387 109.0
3.91199994087 1.09399998188 1.49500000477 107.0
4.02500009537 1.09899997711 1.53600001335 105.0
3.99000000954 1.06299996376 1.52100002766 100.0
3.95000004768 1.02600002289 1.5039999485 94.0
4.00299978256 1.01300001144 1.52199995518 81.0
4.05999994278 1.00100004673 1.54200005531 83.0
4.02500009537 0.966000020504 1.52699995041 85.0
3.97399997711 0.927999973297 1.50600004196 80.0
3.96300005913 0.899999976158 1.5 86.0
3.98399996758 0.879000008106 1.50600004196 86.0
4.06300020218 0.870000004768 1.5340000391 87.0
4.05700016022 0.842999994755 1.53100001812 86.0
3.882999897 0.782000005245 1.46300005913 90.0
4.007999897 0.78100001812 1.50899994373 86.0
3.9849998951 0.751999974251 1.49899995327 92.0
3.98200011253 0.726000010967 1.4960000515 90.0
4.0110001564 0.705999970436 1.50600004196 86.0
4.03700017929 0.685000002384 1.51499998569 88.0
4.03700017929 0.660000026226 1.51400005817 82.0
4.05100011826 0.637000024319 1.51800000668 84.0
4.10099983215 0.619000017643 1.53499996662 105.0
3.97699999809 0.574999988079 1.48800003529 89.0
4.117000103 0.569999992847 1.53900003433 89.0
4.03499984741 0.533999979496 1.50800001621 83.0
4.01300001144 0.505999982357 1.49800002575 85.0
4.05100011826 0.485000014305 1.51199996471 84.0
4.13700008392 0.469999998808 1.54299998283 86.0
4.02500009537 0.432999998331 1.50100004673 87.0
4.06699991226 0.412000000477 1.51600003242 89.0
4.09999990463 0.389999985695 1.52699995041 87.0
4.03200006485 0.358999997377 1.50100004673 89.0
4.05800008774 0.337000012398 1.50999999046 85.0
4.01800012589 0.308999985456 1.49500000477 89.0
4.09700012207 0.289999991655 1.52400004864 85.0
4.13000011444 0.266999989748 1.53600001335 91.0
4.06500005722 0.238000005484 1.51100003719 86.0
4.14900016785 0.217999994755 1.54200005531 94.0
4.05800008774 0.187999993563 1.50800001621 95.0
4.04300022125 0.163000002503 1.50199997425 84.0
4.11499977112 0.141000002623 1.52900004387 87.0
4.10699987411 0.115999996662 1.52600002289 88.0
4.15100002289 0.0920000001788 1.54200005531 86.0
4.05800008774 0.0649999976158 1.50800001621 91.0
4.16400003433 0.0410000011325 1.54700005054 92.0
4.10099983215 0.01600000076 1.52400004864 92.0
4.11800003052 -0.00800000037998 1.52999997139 94.0
4.14300012589 -0.0329999998212 1.53999996185 88.0
4.15000009537 -0.0590000003576 1.54200005531 85.0
4.17500019073 -0.0839999988675 1.55200004578 85.0
4.15799999237 -0.108999997377 1.54600000381 96.0
4.19600009918 -0.136000007391 1.56099998951 89.0
4.11999988556 -0.158000007272 1.53299999237 93.0
4.16900014877 -0.185000002384 1.55099999905 88.0
4.14900016785 -0.209999993443 1.54499995708 98.0
4.09899997711 -0.231999993324 1.52600002289 89.0
4.1360001564 -0.259999990463 1.54100000858 93.0
4.15299987793 -0.286000013351 1.54799997807 96.0
4.13999986649 -0.310000002384 1.54299998283 85.0
4.20100021362 -0.340999990702 1.56700003147 91.0
4.16699981689 -0.363000005484 1.55499994755 86.0
4.11600017548 -0.384000003338 1.53699994087 90.0
4.19099998474 -0.416999995708 1.56599998474 92.0
4.21500015259 -0.444999992847 1.5759999752 90.0
4.23999977112 -0.474000006914 1.58599996567 87.0
4.20399999619 -0.495999991894 1.57400000095 85.0
4.16800022125 -0.51700001955 1.56099998951 87.0
4.15500020981 -0.541000008583 1.55799996853 82.0
4.20800018311 -0.574999988079 1.57899999619 84.0
4.13199996948 -0.589999973774 1.55200004578 76.0
4.17100000381 -0.620999991894 1.56799995899 89.0
4.22599983215 -0.65600001812 1.59000003338 79.0
4.16900014877 -0.672999978065 1.57000005245 81.0
4.20699977875 -0.705999970436 1.58599996567 86.0
4.26599979401 -0.742999970913 1.60899996758 77.0
4.21400022507 -0.759999990463 1.5909999609 76.0
4.17299985886 -0.778999984264 1.57700002193 78.0
4.27500009537 -0.824999988079 1.61800003052 76.0
4.21999979019 -0.842000007629 1.59899997711 77.0
4.29199981689 -0.883000016212 1.62800002098 83.0
4.22100019455 -0.896000027657 1.60300004482 76.0
4.27899980545 -0.93599998951 1.62699997425 75.0
4.22700023651 -0.952000021935 1.60899996758 69.0
4.25099992752 -0.985000014305 1.6210000515 72.0
4.25500011444 -1.01300001144 1.62399995327 81.0
4.242000103 -1.0379999876 1.62199997902 75.0
4.30800008774 -1.08200001717 1.64900004864 78.0
4.19999980927 -1.08299994469 1.61000001431 75.0
4.21700000763 -1.11500000954 1.61899995804 77.0
4.27600002289 -1.1590000391 1.64400005341 83.0
4.32999992371 -1.20200002193 1.66700005531 78.0
4.34899997711 -1.23699998856 1.67700004578 78.0
4.31300020218 -1.25600004196 1.66600000858 70.0
4.1890001297 -1.24800002575 1.6210000515 75.0
4.34399986267 -1.32299995422 1.68400001526 73.0
4.45800018311 -1.38900005817 1.73099994659 73.0
4.39200019836 -1.39800000191 1.70899999142 87.0
4.22700023651 -1.375 1.64699995518 70.0
4.45699977875 -1.48099994659 1.74000000954 70.0
4.3639998436 -1.48000001907 1.70700001717 75.0
4.18200016022 -1.50600004196 1.64499998093 72.0
4.31199979782 -1.8370000124 1.73099994659 78.0
2.37199997902 -1.35199999809 1.00100004673 103.0
3.16100001335 1.54499995708 1.25600004196 102.0
3.19099998474 1.5340000391 1.26400005817 83.0
3.382999897 1.57299995422 1.33399999142 83.0
3.65700006485 1.64499998093 1.43499994278 78.0
3.86299991608 1.64900004864 1.50600004196 94.0
3.8900001049 1.63199996948 1.51300001144 115.0
3.89299988747 1.60399997234 1.51100003719 126.0
3.92199993134 1.5870000124 1.51900005341 116.0
3.91499996185 1.55599999428 1.51300001144 113.0
3.88899993896 1.51699995995 1.5 118.0
3.85299992561 1.47500002384 1.48300004005 114.0
3.9509999752 1.48399996758 1.51800000668 114.0
3.9509999752 1.45599997044 1.51499998569 113.0
3.91899991035 1.41600000858 1.5 120.0
3.96499991417 1.40499997139 1.51400005817 111.0
3.96099996567 1.37600004673 1.50999999046 124.0
3.98200011253 1.35500001907 1.51499998569 115.0
3.93700003624 1.31200003624 1.4960000515 118.0
3.94000005722 1.28600001335 1.49399995804 113.0
3.93700003624 1.25800001621 1.49100005627 120.0
3.9849998951 1.2460000515 1.50600004196 113.0
3.96199989319 1.2120000124 1.4960000515 113.0
3.91799998283 1.17200005054 1.47599995136 121.0
3.94600009918 1.15400004387 1.48500001431 110.0
3.89199995995 1.11199998856 1.4620000124 112.0
3.93700003624 1.09800004959 1.47699999809 104.0
3.89899992943 1.06200003624 1.46099996567 111.0
4.00099992752 1.06299996376 1.49699997902 92.0
4.17899990082 0.294999986887 1.52600002289 62.0
4.11899995804 0.189999997616 1.50300002098 75.0
4.06300020218 0.138999998569 1.48199999332 80.0
4.11800003052 0.115000002086 1.50199997425 82.0
4.14900016785 0.0909999981523 1.51300001144 83.0
4.1810002327 0.0670000016689 1.52499997616 81.0
4.14900016785 0.0410000011325 1.51300001144 77.0
4.1360001564 0.01600000076 1.50899994373 74.0
4.10900020599 -0.00800000037998 1.49899995327 81.0
4.11199998856 -0.0329999998212 1.5 83.0
4.05700016022 -0.0570000000298 1.48000001907 78.0
4.12699985504 -0.082999996841 1.50600004196 82.0
4.14699983597 -0.108999997377 1.51400005817 87.0
4.17899990082 -0.135000005364 1.52600002289 81.0
4.12699985504 -0.158000007272 1.50699996948 84.0
4.12599992752 -0.182999998331 1.50699996948 85.0
4.15399980545 -0.209999993443 1.51800000668 88.0
4.11600017548 -0.232999995351 1.50499999523 88.0
4.17399978638 -0.261999994516 1.52699995041 85.0
4.10099983215 -0.282000005245 1.5 85.0
4.10900020599 -0.307999998331 1.5039999485 84.0
4.18300008774 -0.338999986649 1.53199994564 88.0
4.11299991608 -0.358000010252 1.50699996948 85.0
4.22100019455 -0.393000006676 1.54700005054 87.0
4.12400007248 -0.409999996424 1.51300001144 82.0
4.14300012589 -0.437000006437 1.52100002766 87.0
4.17000007629 -0.465000003576 1.53199994564 90.0
4.17700004578 -0.49200001359 1.53499996662 88.0
4.1970000267 -0.519999980927 1.54400002956 88.0
4.23500013351 -0.550999999046 1.55900001526 87.0
4.17600011826 -0.569000005722 1.5379999876 89.0
4.13399982452 -0.588999986649 1.52400004864 77.0
4.18400001526 -0.621999979019 1.54400002956 86.0
4.21700000763 -0.652999997139 1.55700004101 90.0
4.21999979019 -0.680000007153 1.55999994278 79.0
4.30000019073 -0.72000002861 1.5909999609 84.0
4.19799995422 -0.728999972343 1.55499994755 83.0
4.25099992752 -0.76599997282 1.5759999752 76.0
4.24900007248 -0.791999995708 1.57700002193 80.0
4.27400016785 -0.824000000954 1.58800005913 73.0
4.26800012589 -0.850000023842 1.58800005913 85.0
4.24800014496 -0.873000025749 1.58200001717 78.0
4.27299976349 -0.90499997139 1.59300005436 75.0
4.25500011444 -0.929000020027 1.58800005913 85.0
4.28399991989 -0.962999999523 1.60099995136 79.0
4.30399990082 -0.995000004768 1.61099994183 75.0
4.29199981689 -1.01999998093 1.60800004005 73.0
4.27600002289 -1.04400002956 1.60500001907 75.0
4.23999977112 -1.06299996376 1.59300005436 72.0
4.22200012207 -1.08599996567 1.58899998665 76.0
4.29799985886 -1.13399994373 1.62000000477 79.0
4.2610001564 -1.15299999714 1.60800004005 69.0
4.28299999237 -1.18700003624 1.61899995804 79.0
4.33500003815 -1.23000001907 1.64100003242 70.0
4.24900007248 -1.23500001431 1.61099994183 72.0
4.30900001526 -1.28100001812 1.63699996471 73.0
4.21799993515 -1.28199994564 1.60500001907 73.0
4.24900007248 -1.32099997997 1.62000000477 76.0
4.30800008774 -1.36899995804 1.64499998093 73.0
4.39599990845 -1.42700004578 1.68200004101 73.0
4.37799978256 -1.4509999752 1.6779999733 82.0
4.19799995422 -1.42100000381 1.61199998856 75.0
4.23400020599 -1.55200004578 1.63900005817 72.0
4.22499990463 -1.57899999619 1.63900005817 73.0
4.35799980164 -1.72399997711 1.7009999752 74.0
4.40899991989 -1.8409999609 1.73300004005 76.0
2.3900001049 -1.35899996758 0.990000009537 109.0
2.45499992371 -1.41700005531 1.01999998093 121.0
3.14800000191 1.53499996662 1.22699999809 99.0
3.93799996376 1.70700001717 1.50899994373 81.0
3.89700007439 1.65999996662 1.49000000954 92.0
3.89100003242 1.6289999485 1.48500001431 110.0
3.91700005531 1.61000001431 1.49100005627 122.0
3.91599988937 1.58099997044 1.48800003529 116.0
3.875 1.53600001335 1.46899998188 115.0
3.94199991226 1.53499996662 1.49199998379 117.0
3.89800000191 1.48899996281 1.47200000286 114.0
3.92000007629 1.46899998188 1.47699999809 114.0
3.8599998951 1.41900002956 1.45200002193 116.0
3.8900001049 1.40299999714 1.46099996567 117.0
3.93300008774 1.39100003242 1.47399997711 122.0
3.9430000782 1.36600005627 1.47500002384 118.0
3.9509999752 1.34200000763 1.47599995136 115.0
3.93499994278 1.30900001526 1.46700000763 112.0
3.95799994469 1.28900003433 1.47300004959 113.0
3.94199991226 1.25699996948 1.46500003338 111.0
3.93499994278 1.22800004482 1.46000003815 117.0
4.03499984741 1.23199999332 1.49399995804 111.0
3.94400000572 1.17700004578 1.45799994469 114.0
4.00099992752 1.16700005531 1.47800004482 111.0
3.97099995613 1.13199996948 1.46399998665 115.0
3.9430000782 1.09800004959 1.45200002193 113.0
3.98600006104 1.08299994469 1.4659999609 111.0
3.96499991417 1.05200004578 1.45599997044 87.0
4.09800004959 -0.157000005245 1.46899998188 64.0
4.10900020599 -0.256999999285 1.47500002384 80.0
4.1360001564 -0.284000009298 1.48500001431 76.0
4.07399988174 -0.303999990225 1.46399998665 75.0
4.16800022125 -0.337000012398 1.49800002575 78.0
4.15999984741 -0.361999988556 1.4960000515 75.0
4.24800014496 -0.395000010729 1.52900004387 80.0
4.13899993896 -0.409999996424 1.49000000954 84.0
4.17399978638 -0.43900001049 1.5039999485 86.0
4.21099996567 -0.469000011683 1.51800000668 79.0
4.16200017929 -0.488999992609 1.50100004673 79.0
4.17700004578 -0.51700001955 1.50800001621 84.0
4.19299983978 -0.545000016689 1.51499998569 84.0
4.17700004578 -0.568000018597 1.50999999046 87.0
4.24800014496 -0.603999972343 1.53699994087 81.0
4.12599992752 -0.612999975681 1.49399995804 84.0
4.21999979019 -0.652999997139 1.52999997139 81.0
4.17500019073 -0.67199999094 1.51499998569 89.0
4.21799993515 -0.704999983311 1.53199994564 85.0
4.24800014496 -0.736999988556 1.54400002956 86.0
4.1970000267 -0.754000008106 1.52699995041 81.0
4.21099996567 -0.783999979496 1.5340000391 88.0
4.22800016403 -0.813000023365 1.54200005531 86.0
4.19299983978 -0.833000004292 1.53100001812 84.0
4.257999897 -0.873000025749 1.55599999428 83.0
4.20699977875 -0.889999985695 1.53900003433 75.0
4.26000022888 -0.927999973297 1.56099998951 78.0
4.25400018692 -0.953999996185 1.55999994278 82.0
4.26999998093 -0.985000014305 1.56799995899 76.0
4.29500007629 -1.01900005341 1.58000004292 78.0
4.26399993896 -1.03900003433 1.57000005245 77.0
4.27600002289 -1.07000005245 1.57700002193 73.0
4.21500015259 -1.08299994469 1.55700004101 75.0
4.23199987411 -1.11500000954 1.56500005722 70.0
4.3060002327 -1.1629999876 1.59500002861 72.0
4.33900022507 -1.2009999752 1.61000001431 76.0
4.23000001907 -1.19799995422 1.5720000267 77.0
4.25 -1.23199999332 1.58200001717 73.0
4.28499984741 -1.27100002766 1.59700000286 69.0
4.32399988174 -1.34200000763 1.61699998379 73.0
4.24399995804 -1.34599995613 1.59000003338 73.0
4.47300004959 -1.48000001907 1.68299996853 72.0
4.26499986649 -1.47000002861 1.61000001431 72.0
4.40700006485 -1.61300003529 1.6740000248 74.0
4.32899999619 -1.61500000954 1.64800000191 72.0
2.43499994278 -1.38100004196 0.989000022411 145.0
2.5 -1.44000005722 1.01900005341 149.0
3.07699990273 1.52100002766 1.17900002003 99.0
3.16799998283 1.54100000858 1.21099996567 93.0
3.91899991035 1.66600000858 1.47000002861 100.0
3.87299990654 1.61699998379 1.45000004768 122.0
3.89499998093 1.59800004959 1.45500004292 117.0
3.94799995422 1.5909999609 1.47200000286 116.0
3.93700003624 1.55799996853 1.46399998665 107.0
3.90899991989 1.51800000668 1.4509999752 117.0
3.84699988365 1.4659999609 1.42499995232 111.0
3.95000004768 1.47699999809 1.46000003815 116.0
3.93799996376 1.44500005245 1.45299994946 111.0
3.91499996185 1.4090000391 1.44200003147 120.0
3.95300006866 1.39499998093 1.45299994946 116.0
3.96600008011 1.3710000515 1.45500004292 112.0
3.94499993324 1.3370000124 1.44500005245 115.0
3.90700006485 1.29700005054 1.42900002003 114.0
3.93799996376 1.27999997139 1.43799996376 109.0
3.94199991226 1.25499999523 1.43700003624 108.0
3.91499996185 1.21899998188 1.42499995232 111.0
3.98799991608 1.21500003338 1.44900000095 113.0
4.03000020981 1.2009999752 1.4620000124 108.0
3.97499990463 1.15699994564 1.44000005722 117.0
3.93899989128 1.1210000515 1.42499995232 109.0
3.91300010681 1.0870000124 1.41400003433 111.0
3.94499993324 1.07000005245 1.42299997807 109.0
3.96700000763 1.04999995232 1.42900002003 80.0
4.23799991608 -0.419999986887 1.49699997902 65.0
4.1859998703 -0.465999990702 1.48099994659 71.0
4.23600006104 -0.497000008821 1.5 71.0
4.17299985886 -0.541000008583 1.47899997234 74.0
4.17999982834 -0.59399998188 1.48399996758 72.0
4.22499990463 -0.625999987125 1.50100004673 76.0
4.14900016785 -0.64099997282 1.47599995136 76.0
4.26399993896 -0.685000002384 1.51800000668 74.0
4.23000001907 -0.705999970436 1.50699996948 81.0
4.1779999733 -0.723999977112 1.49000000954 81.0
4.27199983597 -0.76700001955 1.52499997616 79.0
4.21600008011 -0.782999992371 1.50699996948 86.0
4.21299982071 -0.809000015259 1.50800001621 76.0
4.2389998436 -0.841000020504 1.51900005341 78.0
4.26999998093 -0.874000012875 1.53100001812 76.0
4.25699996948 -0.898999989033 1.52799999714 80.0
4.25400018692 -0.925000011921 1.52900004387 79.0
4.22900009155 -0.947000026703 1.52199995518 82.0
4.29699993134 -0.990000009537 1.5490000248 79.0
4.26700019836 -1.01100003719 1.53999996185 86.0
4.28000020981 -1.04100000858 1.54600000381 73.0
4.28700017929 -1.07099997997 1.55099999905 82.0
4.24300003052 -1.08800005913 1.5379999876 76.0
4.30800008774 -1.13300001621 1.56400001049 80.0
4.25400018692 -1.14699995518 1.54600000381 82.0
4.29199981689 -1.18499994278 1.56299996376 71.0
4.25299978256 -1.23099994659 1.5529999733 76.0
4.30399990082 -1.27499997616 1.57400000095 74.0
4.27199983597 -1.29400002956 1.56500005722 69.0
4.30499982834 -1.33299994469 1.58000004292 68.0
4.33099985123 -1.3710000515 1.59300005436 74.0
4.26999998093 -1.38100004196 1.57299995422 73.0
4.21500015259 -1.42100000381 1.55799996853 79.0
4.3220000267 -1.48699998856 1.60099995136 80.0
4.28499984741 -1.53499996662 1.59399998188 70.0
4.39900016785 -1.66900002956 1.64699995518 80.0
0.00600000005215 0.0010000000475 0.0 78.0
3.14400005341 1.55099999905 1.18200004101 94.0
3.16899991035 1.53900003433 1.18799996376 91.0
3.85299992561 1.63499999046 1.41799998283 99.0
3.82800006866 1.59500002861 1.40499997139 118.0
3.89599990845 1.59500002861 1.42700004578 118.0
3.87199997902 1.55700004101 1.41499996185 119.0
3.92300009727 1.5490000248 1.43099999428 109.0
3.87400007248 1.50199997425 1.40999996662 110.0
3.93000006676 1.49500000477 1.4279999733 110.0
3.89199995995 1.45299994946 1.41100001335 114.0
3.95300006866 1.4470000267 1.43099999428 121.0
3.89100003242 1.39699995518 1.40600001812 109.0
3.93300008774 1.38499999046 1.41799998283 107.0
3.93600010872 1.35800004005 1.41700005531 114.0
3.96099996567 1.34000003338 1.42299997807 112.0
3.89100003242 1.28900003433 1.39600002766 114.0
3.92899990082 1.27499997616 1.40699994564 113.0
3.9430000782 1.25199997425 1.40999996662 108.0
3.97600007057 1.23599994183 1.41900002956 124.0
3.91899991035 1.19099998474 1.39699995518 115.0
3.90599989891 1.16100001335 1.38999998569 108.0
3.98000001907 1.15699994564 1.41400003433 109.0
3.98000001907 1.12999999523 1.41199994087 106.0
3.98799991608 1.10599994659 1.4129999876 112.0
3.93899989128 1.06599998474 1.39400005341 108.0
4.05499982834 1.07099997997 1.43299996853 79.0
4.21500015259 -0.702000021935 1.47399997711 81.0
4.11299991608 -0.736999988556 1.44099998474 72.0
4.24499988556 -0.787000000477 1.48800003529 71.0
4.23999977112 -0.813000023365 1.48800003529 68.0
4.17399978638 -0.827000021935 1.46700000763 74.0
4.25500011444 -0.870000004768 1.49699997902 72.0
4.25299978256 -0.896000027657 1.49800002575 78.0
4.26999998093 -0.926999986172 1.50600004196 78.0
4.19299983978 -0.936999976635 1.48000001907 78.0
4.22399997711 -0.971000015736 1.49300003052 79.0
4.25400018692 -1.00600004196 1.50600004196 80.0
4.2610001564 -1.03499996662 1.50999999046 79.0
4.25500011444 -1.06099998951 1.50999999046 76.0
4.28499984741 -1.09700000286 1.52300000191 73.0
4.18699979782 -1.09899997711 1.49000000954 77.0
4.25400018692 -1.14400005341 1.51699995995 84.0
4.23699998856 -1.16799998283 1.51300001144 79.0
4.28000020981 -1.20799994469 1.53100001812 75.0
4.30900001526 -1.24500000477 1.54400002956 70.0
4.33699989319 -1.28199994564 1.55599999428 70.0
4.16900014877 -1.25999999046 1.49800002575 68.0
4.38999986649 -1.35699999332 1.58099997044 70.0
4.29799985886 -1.35800004005 1.54999995232 71.0
4.15899991989 -1.34200000763 1.50199997425 76.0
4.36299991608 -1.46800005436 1.58200001717 70.0
4.32999992371 -1.51699995995 1.5759999752 76.0
4.29699993134 -1.59700000286 1.57400000095 75.0
4.41900014877 -1.73699998856 1.6289999485 75.0
4.38800001144 -1.88699996471 1.63699996471 76.0
2.40000009537 -1.27499997616 0.925999999046 122.0
2.47000002861 -1.41700005531 0.967999994755 114.0
3.0759999752 1.51400005817 1.13300001621 101.0
3.18099999428 1.54100000858 1.16900002956 89.0
3.68600010872 1.61500000954 1.33500003815 76.0
3.83800005913 1.625 1.38399994373 106.0
3.86299991608 1.60699999332 1.38999998569 119.0
3.91000008583 1.59700000286 1.40400004387 120.0
3.86400008202 1.54999995232 1.38499999046 114.0
3.91799998283 1.54400002956 1.40100002289 117.0
3.88499999046 1.50300002098 1.38699996471 118.0
3.94899988174 1.49899995327 1.40699994564 108.0
3.90700006485 1.45500004292 1.38900005817 115.0
3.95499992371 1.44500005245 1.40299999714 110.0
3.97000002861 1.42299997807 1.40600001812 109.0
3.95900011063 1.39100003242 1.39999997616 115.0
3.96799993515 1.36699998379 1.39999997616 114.0
3.96000003815 1.33599996567 1.39499998093 112.0
3.91599988937 1.29499995708 1.37699997425 112.0
3.98600006104 1.28999996185 1.39999997616 114.0
3.87800002098 1.22899997234 1.35899996758 109.0
3.992000103 1.23800003529 1.39699995518 110.0
3.90300011635 1.18400001526 1.36399996281 108.0
3.95199990273 1.17200005054 1.3789999485 103.0
3.96499991417 1.14999997616 1.38100004196 115.0
3.92600011826 1.11300003529 1.36600005627 109.0
3.91199994087 1.08299994469 1.35899996758 109.0
3.9319999218 1.06200003624 1.36399996281 104.0
4.01200008392 1.05700004101 1.38999998569 78.0
4.23199987411 -0.972000002861 1.46700000763 70.0
4.22499990463 -0.996999979019 1.46700000763 74.0
4.26800012589 -1.03499996662 1.48399996758 77.0
4.29099988937 -1.06799995899 1.49399995804 72.0
4.28999996185 -1.09599995613 1.4960000515 74.0
4.34499979019 -1.13800001144 1.51699995995 74.0
4.23000001907 -1.13600003719 1.47899997234 75.0
4.30800008774 -1.18499994278 1.50899994373 77.0
4.31599998474 -1.2159999609 1.51400005817 75.0
4.30900001526 -1.24300003052 1.51400005817 68.0
4.3060002327 -1.27100002766 1.51499998569 72.0
4.36600017548 -1.34700000286 1.54200005531 74.0
4.29199981689 -1.35300004482 1.51800000668 71.0
4.24499988556 -1.36800003052 1.5039999485 73.0
4.39599990845 -1.47699999809 1.56400001049 79.0
4.27699995041 -1.4659999609 1.52400004864 73.0
4.33599996567 -1.54700005054 1.55099999905 70.0
4.45100021362 -1.68299996853 1.60199999809 76.0
4.24800014496 -1.63600003719 1.53199994564 74.0
2.43600010872 -1.27100002766 0.919000029564 87.0
2.34599995613 -1.24399995804 0.888000011444 135.0
2.36999988556 -1.27600002289 0.899999976158 153.0
3.14400005341 1.54499995708 1.13499999046 102.0
3.17199993134 1.53299999237 1.14199995995 96.0
3.48300004005 1.60199999809 1.24500000477 81.0
3.75699996948 1.67100000381 1.3370000124 80.0
3.95000004768 1.69799995422 1.39999997616 83.0
3.88000011444 1.61000001431 1.36899995804 118.0
3.87599992752 1.58000004292 1.36399996281 119.0
3.90400004387 1.56299996376 1.3710000515 110.0
3.84299993515 1.51100003719 1.34700000286 111.0
3.92899990082 1.51699995995 1.375 112.0
3.94199991226 1.49300003052 1.37600004673 113.0
3.9279999733 1.46000003815 1.36899995804 117.0
3.91000008583 1.42599999905 1.36000001431 111.0
3.9279999733 1.40499997139 1.36399996281 114.0
3.91400003433 1.37300002575 1.35599994659 118.0
3.96000003815 1.36099994183 1.37000000477 116.0
3.94600009918 1.32899999619 1.36300003529 112.0
3.92100000381 1.29400002956 1.35199999809 112.0
4.00899982452 1.29499995708 1.37999999523 119.0
3.93899989128 1.2460000515 1.35399997234 112.0
3.91899991035 1.21300005913 1.34500002861 112.0
3.9509999752 1.19599997997 1.35300004482 116.0
3.98699998856 1.18099999428 1.36399996281 111.0
4.01700019836 1.1629999876 1.37199997902 113.0
3.93600010872 1.11300003529 1.34200000763 114.0
3.9470000267 1.09000003338 1.34399998188 110.0
3.93799996376 1.06200003624 1.33899998665 101.0
4.21099996567 -1.07400000095 1.43900001049 72.0
4.29400014877 -1.12300002575 1.47000002861 70.0
4.26000022888 -1.14199995995 1.46099996567 74.0
4.24599981308 -1.16600000858 1.45799994469 82.0
4.30100011826 -1.21000003815 1.47899997234 78.0
4.36800003052 -1.25800001621 1.5039999485 77.0
4.13899993896 -1.21899998188 1.4279999733 77.0
4.29899978638 -1.29499995708 1.48599994183 67.0
4.40199995041 -1.35599994659 1.52400004864 67.0
4.30100011826 -1.35399997234 1.49100005627 76.0
4.35400009155 -1.39999997616 1.51300001144 75.0
4.20499992371 -1.40999996662 1.4659999609 81.0
4.14699983597 -1.41900002956 1.44900000095 68.0
4.37799978256 -1.52900004387 1.53199994564 69.0
4.44799995422 -1.58399999142 1.55999994278 72.0
4.42399978638 -1.63800001144 1.55799996853 76.0
2.367000103 -1.25199997425 0.878000020981 141.0
2.46700000763 -1.3259999752 0.917999982834 120.0
3.16300010681 1.5759999752 1.12199997902 85.0
3.12599992752 1.53199994564 1.10599994659 114.0
3.28500008583 1.58500003815 1.1590000391 88.0
3.55800008774 1.63399994373 1.2460000515 109.0
3.61500000954 1.63300001621 1.26400005817 100.0
3.77600002289 1.62000000477 1.31099998951 83.0
3.86800003052 1.63100004196 1.34000003338 108.0
3.89100003242 1.61199998856 1.34500002861 120.0
3.875 1.57700002193 1.3370000124 122.0
3.91599988937 1.56500005722 1.34800004959 124.0
3.9240000248 1.53999996185 1.34800004959 120.0
3.95300006866 1.52300000191 1.35500001907 116.0
3.91799998283 1.48099994659 1.34000003338 117.0
3.99099993706 1.48099994659 1.36300003529 112.0
3.91799998283 1.42599999905 1.33500003815 110.0
3.95300006866 1.41100001335 1.34500002861 108.0
3.9240000248 1.37300002575 1.33299994469 116.0
3.89299988747 1.33500003815 1.32000005245 114.0
3.9279999733 1.32000005245 1.32899999619 116.0
3.92100000381 1.29100000858 1.32500004768 112.0
3.97000002861 1.27999997139 1.33899998665 118.0
4.00699996948 1.26499998569 1.34899997711 111.0
4.03000020981 1.24500000477 1.35500001907 112.0
3.97799992561 1.20200002193 1.33500003815 116.0
4.00299978256 1.18299996853 1.34200000763 116.0
4.03399991989 1.16600000858 1.35000002384 107.0
3.97799992561 1.12300002575 1.33000004292 107.0
3.87800002098 1.06900000572 1.29400002956 119.0
3.9509999752 1.06299996376 1.31700003147 104.0
4.28700017929 -1.14800000191 1.44099998474 73.0
4.23400020599 -1.16100001335 1.42499995232 77.0
4.24900007248 -1.19299995899 1.43200004101 71.0
4.30900001526 -1.23899996281 1.45500004292 78.0
4.24300003052 -1.24800002575 1.43499994278 72.0
4.38800001144 -1.32000005245 1.48599994183 67.0
4.27299976349 -1.31400001049 1.45000004768 71.0
4.35799980164 -1.36899995804 1.48099994659 68.0
4.30900001526 -1.38300001621 1.46700000763 73.0
4.36000013351 -1.45899999142 1.49000000954 74.0
2.41499996185 -1.27499997616 0.878000020981 120.0
2.40899991989 -1.29200005531 0.878000020981 125.0
1.19500005245 -0.68900001049 0.441000014544 90.0
1.17299997807 -0.68599998951 0.433999985456 95.0
3.01900005341 1.50100004673 1.0490000248 104.0
3.14499998093 1.53900003433 1.09000003338 103.0
3.18899989128 1.53499996662 1.10199999809 85.0
3.56399989128 1.63300001621 1.22300004959 120.0
3.55800008774 1.60399997234 1.21800005436 99.0
3.72600007057 1.62300002575 1.26999998093 77.0
3.85500001907 1.64999997616 1.31099998951 91.0
3.86899995804 1.62800002098 1.31299996376 120.0
3.83899998665 1.5870000124 1.29999995232 120.0
3.90700006485 1.5870000124 1.32000005245 117.0
3.91199994087 1.55999994278 1.31900000572 113.0
3.90799999237 1.52999997139 1.31500005722 115.0
3.867000103 1.48699998856 1.29799997807 108.0
3.9279999733 1.48199999332 1.31599998474 120.0
3.93600010872 1.45700001717 1.31700003147 106.0
3.8710000515 1.40600001812 1.29200005531 109.0
3.9240000248 1.39800000191 1.30799996853 115.0
3.97699999809 1.38900005817 1.32299995422 117.0
3.91400003433 1.34000003338 1.29999995232 116.0
3.97399997711 1.33299994469 1.31700003147 118.0
3.98300004005 1.30900001526 1.31799995899 117.0
4.01700019836 1.29299998283 1.32700002193 111.0
3.9849998951 1.25600004196 1.31500005722 111.0
3.98000001907 1.22699999809 1.31099998951 119.0
3.98399996758 1.20200002193 1.30999994278 112.0
3.98300004005 1.17499995232 1.30799996853 116.0
3.99300003052 1.15100002289 1.30900001526 120.0
3.90700006485 1.10099995136 1.27900004387 104.0
3.96700000763 1.09200000763 1.29700005054 111.0
3.95600008965 1.06299996376 1.29200005531 96.0
4.30399990082 -1.12199997902 1.41499996185 68.0
4.37799978256 -1.16999995708 1.44099998474 70.0
4.31599998474 -1.18200004101 1.42299997807 83.0
4.30800008774 -1.20799994469 1.42299997807 76.0
4.31300020218 -1.23800003529 1.42700004578 71.0
