ply
format ascii 1.0
element vertex 938
property float x
property float y
property float z
property float intensity
end_header
0.81400001049 0.116999998689 0.112000003457 265.0
0.856999993324 0.118000000715 0.118000000715 371.0
0.850000023842 0.112000003457 0.116999998689 350.0
0.757000029087 0.0949999988079 0.104000002146 226.0
0.830999970436 0.10000000149 0.11400000006 313.0
0.751999974251 0.082000002265 0.103000000119 201.0
0.735000014305 0.0759999975562 0.101000003517 178.0
0.898999989033 0.082000002265 0.123999997973 243.0
0.916999995708 0.0619999989867 0.126000002027 173.0
0.902999997139 -0.127000004053 0.126000002027 1139.0
0.899999976158 -0.130999997258 0.126000002027 1523.0
0.898999989033 -0.136999994516 0.126000002027 1556.0
0.893999993801 -0.141000002623 0.125 1542.0
0.898000001907 -0.146999999881 0.126000002027 1564.0
0.898000001907 -0.152999997139 0.126000002027 1561.0
0.894999980927 -0.157000005245 0.126000002027 1554.0
0.893999993801 -0.163000002503 0.126000002027 1552.0
0.887000024319 -0.166999995708 0.125 1573.0
0.893999993801 -0.172999992967 0.126000002027 1547.0
0.887000024319 -0.177000001073 0.125 1560.0
0.887000024319 -0.182999998331 0.125 1572.0
0.888999998569 -0.188999995589 0.126000002027 1590.0
0.888999998569 -0.194000005722 0.126000002027 1577.0
0.893999993801 -0.201000005007 0.127000004053 1572.0
0.888000011444 -0.204999998212 0.126000002027 1569.0
0.880999982357 -0.209000006318 0.125 1583.0
0.885999977589 -0.215000003576 0.126000002027 1586.0
0.884000003338 -0.219999998808 0.126000002027 1603.0
0.884000003338 -0.225999996066 0.126000002027 1598.0
0.883000016212 -0.231000006199 0.126000002027 1620.0
0.879000008106 -0.234999999404 0.126000002027 1620.0
0.880999982357 -0.241999998689 0.126000002027 1618.0
0.878000020981 -0.246000006795 0.126000002027 1599.0
0.878000020981 -0.252000004053 0.126000002027 1626.0
0.874000012875 -0.256000012159 0.126000002027 1655.0
0.874000012875 -0.261999994516 0.126000002027 1651.0
0.871999979019 -0.266999989748 0.126000002027 1633.0
0.874000012875 -0.273000001907 0.127000004053 1628.0
0.870000004768 -0.277999997139 0.126000002027 1615.0
0.870999991894 -0.284000009298 0.127000004053 1614.0
0.866999983788 -0.287999987602 0.126000002027 1614.0
0.870999991894 -0.294999986887 0.127000004053 1625.0
0.866999983788 -0.300000011921 0.127000004053 1648.0
0.871999979019 -0.307000011206 0.12800000608 1644.0
0.874000012875 -0.31400001049 0.12800000608 1617.0
0.867999970913 -0.317000001669 0.12800000608 1650.0
0.865999996662 -0.323000013828 0.12800000608 1652.0
0.865000009537 -0.32800000906 0.12800000608 1661.0
0.865999996662 -0.333999991417 0.12800000608 1646.0
0.85900002718 -0.337999999523 0.12800000608 1618.0
0.865000009537 -0.345999985933 0.128999993205 1618.0
0.860000014305 -0.34999999404 0.12800000608 1622.0
0.853999972343 -0.354000002146 0.12800000608 1638.0
0.856999993324 -0.361000001431 0.12800000608 1657.0
0.852999985218 -0.365999996662 0.12800000608 1653.0
0.855000019073 -0.372000008821 0.128999993205 1628.0
0.850000023842 -0.377000004053 0.12800000608 1631.0
0.856000006199 -0.384999990463 0.129999995232 1671.0
0.851000010967 -0.389999985695 0.128999993205 1641.0
0.847999989986 -0.393999993801 0.128999993205 1630.0
0.847000002861 -0.40000000596 0.128999993205 1637.0
0.847000002861 -0.407000005245 0.129999995232 1651.0
0.84500002861 -0.412000000477 0.129999995232 1638.0
0.84399998188 -0.418000012636 0.129999995232 1669.0
0.848999977112 -0.426999986172 0.130999997258 1651.0
0.848999977112 -0.433999985456 0.130999997258 1637.0
0.841000020504 -0.43599998951 0.130999997258 1635.0
0.841000020504 -0.442999988794 0.130999997258 1625.0
0.84500002861 -0.451999992132 0.131999999285 1640.0
0.842999994755 -0.456999987364 0.131999999285 1629.0
0.842000007629 -0.463999986649 0.131999999285 1567.0
0.834999978542 -0.467000007629 0.131999999285 1602.0
0.880999982357 0.509999990463 0.128999993205 896.0
0.882000029087 0.503000020981 0.128999993205 893.0
0.884999990463 0.497000008821 0.128999993205 889.0
0.878000020981 0.486999988556 0.12800000608 874.0
0.875 0.477999985218 0.127000004053 864.0
0.882000029087 0.474000006914 0.12800000608 866.0
0.875 0.463999986649 0.126000002027 865.0
0.887000024319 0.462999999523 0.12800000608 856.0
0.874000012875 0.449000000954 0.125 837.0
0.878000020981 0.444000005722 0.126000002027 833.0
0.880999982357 0.43900001049 0.126000002027 821.0
0.885999977589 0.435000002384 0.126000002027 804.0
0.874000012875 0.42199999094 0.123999997973 785.0
0.884000003338 0.421000003815 0.125 755.0
0.89099997282 0.418000012636 0.126000002027 722.0
0.901000022888 0.414999991655 0.127000004053 689.0
0.885999977589 0.402000010014 0.125 654.0
0.898999989033 0.400999993086 0.126000002027 634.0
0.902000010014 0.395999997854 0.126000002027 598.0
0.910000026226 0.393000006676 0.127000004053 559.0
0.902999997139 0.38299998641 0.126000002027 536.0
0.897000014782 0.375 0.125 494.0
0.896000027657 0.368000000715 0.125 457.0
0.899999976158 0.363000005484 0.125 427.0
0.903999984264 0.358000010252 0.125 395.0
0.924000024796 0.360000014305 0.12800000608 368.0
0.907999992371 0.347000002861 0.125 338.0
0.884000003338 0.331999987364 0.122000001371 315.0
0.919000029564 0.338999986649 0.126000002027 276.0
0.90499997139 0.32800000906 0.123999997973 255.0
0.866999983788 0.307999998331 0.119000002742 240.0
0.875999987125 0.300000011921 0.119999997318 348.0
0.893000006676 0.293999999762 0.122000001371 277.0
0.897000014782 0.28900000453 0.122000001371 217.0
0.893000006676 0.264999985695 0.120999999344 120.0
0.204999998212 0.0579999983311 0.0260000005364 33.0
0.462000012398 0.12800000608 0.0610000006855 60.0
4.3109998703 1.05900001526 0.586000025272 57.0
4.28200006485 1.02600002289 0.582000017166 55.0
4.35200023651 0.987999975681 0.589999973774 57.0
4.37200021744 0.93900001049 0.592000007629 58.0
4.33900022507 0.90600001812 0.587000012398 58.0
4.30200004578 0.871999979019 0.580999970436 55.0
4.40299987793 0.865000009537 0.59399998188 61.0
4.30499982834 0.794000029564 0.579999983311 63.0
4.27899980545 0.763999998569 0.577000021935 52.0
4.23400020599 0.730000019073 0.569999992847 58.0
4.3189997673 0.71899998188 0.580999970436 58.0
4.37099981308 0.700999975204 0.587999999523 53.0
4.44899988174 0.661000013351 0.597999989986 58.0
4.32800006866 0.616999983788 0.580999970436 56.0
4.35400009155 0.59500002861 0.583999991417 54.0
4.33900022507 0.566999971867 0.582000017166 56.0
4.26000022888 0.532000005245 0.570999979973 56.0
4.27500009537 0.508000016212 0.573000013828 57.0
4.1859998703 0.472999989986 0.56099998951 51.0
4.13800001144 0.442999988794 0.554000020027 53.0
4.28700017929 0.433999985456 0.574000000954 57.0
0.986999988556 -0.133000001311 0.131999999285 172.0
0.898999989033 -0.126000002027 0.119999997318 1153.0
0.898999989033 -0.130999997258 0.119999997318 1551.0
0.898000001907 -0.136999994516 0.119999997318 1559.0
0.899999976158 -0.142000004649 0.120999999344 1568.0
0.898000001907 -0.146999999881 0.119999997318 1564.0
0.89099997282 -0.150999993086 0.119999997318 1566.0
0.893000006676 -0.157000005245 0.119999997318 1560.0
0.894999980927 -0.163000002503 0.119999997318 1559.0
0.896000027657 -0.167999997735 0.120999999344 1575.0
0.885999977589 -0.172000005841 0.119000002742 1535.0
0.889999985695 -0.178000003099 0.119999997318 1563.0
0.889999985695 -0.182999998331 0.119999997318 1571.0
0.889999985695 -0.188999995589 0.119999997318 1592.0
0.883000016212 -0.192000001669 0.119999997318 1604.0
0.883000016212 -0.197999998927 0.119999997318 1576.0
0.884000003338 -0.203999996185 0.119999997318 1583.0
0.884000003338 -0.209000006318 0.119999997318 1595.0
0.883000016212 -0.21400000155 0.119999997318 1605.0
0.885999977589 -0.219999998808 0.120999999344 1607.0
0.880999982357 -0.22499999404 0.119999997318 1595.0
0.880999982357 -0.230000004172 0.120999999344 1589.0
0.884000003338 -0.237000003457 0.120999999344 1608.0
0.876999974251 -0.239999994636 0.119999997318 1615.0
0.871999979019 -0.244000002742 0.119999997318 1612.0
0.876999974251 -0.250999987125 0.120999999344 1610.0
0.878000020981 -0.256999999285 0.120999999344 1652.0
0.873000025749 -0.261000007391 0.120999999344 1654.0
0.875 -0.268000006676 0.120999999344 1648.0
0.874000012875 -0.273000001907 0.120999999344 1646.0
0.873000025749 -0.277999997139 0.120999999344 1621.0
0.870999991894 -0.284000009298 0.120999999344 1628.0
0.867999970913 -0.287999987602 0.120999999344 1612.0
0.871999979019 -0.294999986887 0.122000001371 1644.0
0.862999975681 -0.298000007868 0.120999999344 1648.0
0.871999979019 -0.307000011206 0.122000001371 1658.0
0.865999996662 -0.31099998951 0.122000001371 1635.0
0.869000017643 -0.317000001669 0.122000001371 1657.0
0.866999983788 -0.323000013828 0.122000001371 1646.0
0.85799998045 -0.324999988079 0.120999999344 1654.0
0.866999983788 -0.335000008345 0.123000003397 1671.0
0.85900002718 -0.337000012398 0.122000001371 1650.0
0.865000009537 -0.345999985933 0.123000003397 1637.0
0.861000001431 -0.34999999404 0.123000003397 1636.0
0.852999985218 -0.352999985218 0.122000001371 1635.0
0.856999993324 -0.361000001431 0.123000003397 1658.0
0.853999972343 -0.365999996662 0.123000003397 1648.0
0.855000019073 -0.372000008821 0.123000003397 1638.0
0.848999977112 -0.375999987125 0.123000003397 1631.0
0.852999985218 -0.384000003338 0.123999997973 1674.0
0.852999985218 -0.389999985695 0.123999997973 1681.0
0.848999977112 -0.395000010729 0.123999997973 1651.0
0.850000023842 -0.400999993086 0.123999997973 1637.0
0.847999989986 -0.407000005245 0.123999997973 1637.0
0.839999973774 -0.409000009298 0.123999997973 1636.0
0.84500002861 -0.418000012636 0.125 1656.0
0.847000002861 -0.425999999046 0.125 1675.0
0.837999999523 -0.428000003099 0.123999997973 1670.0
0.84500002861 -0.437999993563 0.126000002027 1670.0
0.84500002861 -0.444999992847 0.126000002027 1644.0
0.84399998188 -0.451000005007 0.126000002027 1656.0
0.838999986649 -0.455000013113 0.126000002027 1649.0
0.836000025272 -0.460000008345 0.126000002027 1585.0
0.837000012398 -0.467000007629 0.127000004053 1605.0
0.90499997139 0.523000001907 0.127000004053 662.0
0.89200001955 0.508000016212 0.125 644.0
0.907000005245 0.509000003338 0.126000002027 606.0
0.92199999094 0.510999977589 0.12800000608 574.0
0.919000029564 0.500999987125 0.127000004053 546.0
0.926999986172 0.497999995947 0.12800000608 516.0
0.930999994278 0.493000000715 0.12800000608 479.0
0.921000003815 0.479999989271 0.127000004053 423.0
0.922999978065 0.474000006914 0.126000002027 380.0
0.933000028133 0.472000002861 0.12800000608 346.0
0.944000005722 0.469999998808 0.128999993205 304.0
1.03499996662 0.508000016212 0.141000002623 272.0
1.125 0.544000029564 0.152999997139 245.0
1.19799995422 0.569999992847 0.163000002503 226.0
1.26400005817 0.592000007629 0.172000005841 192.0
1.26499998569 0.583000004292 0.171000003815 173.0
1.13100004196 0.513000011444 0.152999997139 144.0
1.35000002384 0.601999998093 0.181999996305 110.0
1.77100002766 0.777999997139 0.238999992609 135.0
1.81099998951 0.782000005245 0.244000002742 114.0
1.32700002193 0.563000023365 0.178000003099 97.0
1.26699995995 0.528999984264 0.168999999762 70.0
4.16400003433 1.02199995518 0.541000008583 59.0
4.23799991608 0.987999975681 0.549000024796 56.0
4.257999897 0.966000020504 0.551999986172 63.0
4.27500009537 0.917999982834 0.552999973297 60.0
4.16099977493 0.867999970913 0.537999987602 53.0
4.13800001144 0.837999999523 0.533999979496 59.0
4.25 0.834999978542 0.547999978065 58.0
4.25199985504 0.809000015259 0.547999978065 55.0
4.30000019073 0.792999982834 0.554000020027 56.0
4.19199991226 0.746999979019 0.540000021458 59.0
4.18300008774 0.721000015736 0.537999987602 54.0
4.34999990463 0.722999989986 0.559000015259 57.0
4.26599979401 0.684000015259 0.547999978065 54.0
4.25099992752 0.65600001812 0.546000003815 56.0
4.242000103 0.629000008106 0.545000016689 58.0
4.25299978256 0.606000006199 0.546000003815 59.0
4.23600006104 0.57800000906 0.542999982834 56.0
4.27099990845 0.558000028133 0.547999978065 53.0
4.19600009918 0.523000001907 0.537999987602 54.0
4.1939997673 0.497999995947 0.537000000477 61.0
4.21700000763 0.476000010967 0.540000021458 57.0
4.242000103 0.453999996185 0.542999982834 55.0
4.16200017929 0.421000003815 0.532999992371 55.0
0.955999970436 -0.128999993205 0.122000001371 170.0
0.899999976158 -0.126000002027 0.115000002086 1172.0
0.899999976158 -0.130999997258 0.115000002086 1553.0
0.897000014782 -0.136000007391 0.115000002086 1573.0
0.898000001907 -0.142000004649 0.115000002086 1577.0
0.897000014782 -0.146999999881 0.115000002086 1597.0
0.89200001955 -0.150999993086 0.11400000006 1579.0
0.898000001907 -0.158000007272 0.115000002086 1586.0
0.893000006676 -0.162000000477 0.115000002086 1582.0
0.89099997282 -0.166999995708 0.115000002086 1606.0
0.89200001955 -0.172999992967 0.115000002086 1561.0
0.89200001955 -0.178000003099 0.115000002086 1549.0
0.89099997282 -0.182999998331 0.115000002086 1583.0
0.887000024319 -0.187999993563 0.115000002086 1603.0
0.887000024319 -0.193000003695 0.115000002086 1599.0
0.885999977589 -0.199000000954 0.115000002086 1605.0
0.884999990463 -0.203999996185 0.115000002086 1596.0
0.887000024319 -0.209999993443 0.115000002086 1603.0
0.878000020981 -0.212999999523 0.11400000006 1611.0
0.884999990463 -0.219999998808 0.115000002086 1609.0
0.879999995232 -0.224000006914 0.115000002086 1605.0
0.880999982357 -0.230000004172 0.115000002086 1621.0
0.879999995232 -0.234999999404 0.115000002086 1625.0
0.879999995232 -0.240999996662 0.115000002086 1637.0
0.879000008106 -0.246000006795 0.115999996662 1616.0
0.879000008106 -0.252000004053 0.115999996662 1619.0
0.876999974251 -0.256999999285 0.115999996662 1646.0
0.875 -0.261999994516 0.115999996662 1642.0
0.875999987125 -0.268000006676 0.115999996662 1659.0
0.875999987125 -0.273999989033 0.115999996662 1667.0
0.869000017643 -0.277000010014 0.115000002086 1606.0
0.870999991894 -0.282999992371 0.115999996662 1620.0
0.869000017643 -0.287999987602 0.115999996662 1621.0
0.871999979019 -0.294999986887 0.115999996662 1638.0
0.870000004768 -0.300000011921 0.115999996662 1661.0
0.866999983788 -0.305000007153 0.115999996662 1642.0
0.860000014305 -0.307999998331 0.115999996662 1652.0
0.865000009537 -0.316000014544 0.115999996662 1666.0
0.861000001431 -0.319999992847 0.115999996662 1667.0
0.869000017643 -0.328999996185 0.118000000715 1646.0
0.861999988556 -0.333000004292 0.116999998689 1665.0
0.862999975681 -0.338999986649 0.116999998689 1675.0
0.856999993324 -0.342999994755 0.116999998689 1650.0
0.860000014305 -0.34999999404 0.116999998689 1633.0
0.851000010967 -0.351999998093 0.115999996662 1634.0
0.85900002718 -0.361000001431 0.118000000715 1637.0
0.852999985218 -0.365000009537 0.116999998689 1640.0
0.853999972343 -0.372000008821 0.118000000715 1652.0
0.856000006199 -0.379000008106 0.118000000715 1644.0
0.850000023842 -0.381999999285 0.118000000715 1674.0
0.848999977112 -0.388000011444 0.118000000715 1676.0
0.847999989986 -0.393999993801 0.118000000715 1680.0
0.855000019073 -0.404000014067 0.119999997318 1655.0
0.848999977112 -0.407000005245 0.119000002742 1656.0
0.848999977112 -0.41400000453 0.119000002742 1646.0
0.841000020504 -0.416000008583 0.119000002742 1661.0
0.84399998188 -0.423999994993 0.119000002742 1669.0
0.841000020504 -0.428999990225 0.119000002742 1680.0
0.837000012398 -0.433999985456 0.119000002742 1660.0
0.842000007629 -0.442999988794 0.119999997318 1651.0
0.838999986649 -0.448000013828 0.119999997318 1666.0
0.842999994755 -0.456999987364 0.120999999344 1663.0
0.836000025272 -0.460000008345 0.119999997318 1600.0
0.837999999523 -0.467999994755 0.120999999344 1638.0
1.02100002766 0.589999973774 0.136999994516 373.0
1.04600000381 0.596000015736 0.140000000596 270.0
1.19400000572 0.671000003815 0.158999994397 189.0
1.28900003433 0.712999999523 0.172000005841 164.0
1.39800000191 0.762000024319 0.186000004411 145.0
1.4279999733 0.76700001955 0.188999995589 140.0
1.51400005817 0.801999986172 0.20000000298 126.0
1.92499995232 0.958999991417 0.252999991179 82.0
2.00099992752 0.981999993324 0.261999994516 121.0
2.00999999046 0.971000015736 0.263000011444 161.0
2.03699994087 0.967999994755 0.264999985695 157.0
2.02099990845 0.945999979973 0.263000011444 154.0
2.02200007439 0.930999994278 0.261999994516 125.0
2.06699991226 0.936999976635 0.268000006676 75.0
2.14299988747 0.955999970436 0.277000010014 90.0
2.13400006294 0.93599998951 0.27500000596 160.0
2.17300009727 0.938000023365 0.280000001192 126.0
2.12400007248 0.901000022888 0.273000001907 74.0
4.17299985886 1.20799994469 0.521000027657 57.0
3.91799998283 1.10899996758 0.488000005484 64.0
3.82699990273 1.05900001526 0.476000010967 64.0
3.8599998951 1.04400002956 0.479999989271 64.0
4.20200014114 1.03100001812 0.521000027657 67.0
4.25299978256 1.01699995995 0.526000022888 71.0
4.2610001564 0.992999970913 0.527000010014 62.0
4.17199993134 0.945999979973 0.514999985695 64.0
4.27799987793 0.944000005722 0.527999997139 66.0
4.28200006485 0.919000029564 0.527999997139 63.0
4.19799995422 0.875 0.51700001955 70.0
4.13899993896 0.837000012398 0.509999990463 65.0
4.24100017548 0.832000017166 0.522000014782 66.0
4.28200006485 0.81400001049 0.527000010014 63.0
4.24399995804 0.78100001812 0.521000027657 66.0
4.22599983215 0.753000020981 0.518999993801 68.0
4.24499988556 0.731000006199 0.521000027657 69.0
4.21199989319 0.699999988079 0.51700001955 66.0
4.18200016022 0.670000016689 0.513000011444 72.0
4.17899990082 0.643999993801 0.512000024319 72.0
4.22200012207 0.625999987125 0.51700001955 72.0
4.25 0.605000019073 0.519999980927 67.0
4.22800016403 0.577000021935 0.51700001955 72.0
4.21799993515 0.550999999046 0.51599997282 69.0
4.13700008392 0.51599997282 0.505999982357 74.0
4.15299987793 0.493000000715 0.507000029087 79.0
4.14699983597 0.467999994755 0.507000029087 69.0
4.17100000381 0.446000009775 0.509000003338 79.0
4.19099998474 0.423999994993 0.512000024319 70.0
4.1890001297 0.398999989033 0.510999977589 50.0
0.898000001907 -0.126000002027 0.108999997377 1179.0
0.898999989033 -0.130999997258 0.109999999404 1559.0
0.898000001907 -0.136000007391 0.109999999404 1601.0
0.897000014782 -0.141000002623 0.109999999404 1577.0
0.893999993801 -0.145999997854 0.108999997377 1600.0
0.89099997282 -0.150999993086 0.108999997377 1591.0
0.893000006676 -0.157000005245 0.108999997377 1582.0
0.897000014782 -0.163000002503 0.109999999404 1592.0
0.896000027657 -0.167999997735 0.109999999404 1611.0
0.89200001955 -0.172999992967 0.109999999404 1591.0
0.89099997282 -0.178000003099 0.109999999404 1583.0
0.885999977589 -0.181999996305 0.108999997377 1608.0
0.888999998569 -0.187999993563 0.109999999404 1615.0
0.883000016212 -0.192000001669 0.108999997377 1612.0
0.883000016212 -0.197999998927 0.108999997377 1619.0
0.884000003338 -0.202999994159 0.109999999404 1614.0
0.883000016212 -0.209000006318 0.109999999404 1635.0
0.883000016212 -0.21400000155 0.109999999404 1640.0
0.884999990463 -0.219999998808 0.109999999404 1626.0
0.876999974251 -0.224000006914 0.108999997377 1614.0
0.880999982357 -0.230000004172 0.109999999404 1624.0
0.884000003338 -0.237000003457 0.111000001431 1639.0
0.880999982357 -0.240999996662 0.109999999404 1644.0
0.878000020981 -0.246000006795 0.109999999404 1627.0
0.879999995232 -0.252000004053 0.109999999404 1625.0
0.875 -0.256000012159 0.109999999404 1641.0
0.870999991894 -0.261000007391 0.109999999404 1646.0
0.871999979019 -0.266000002623 0.109999999404 1663.0
0.867999970913 -0.270999997854 0.109999999404 1669.0
0.870999991894 -0.277000010014 0.109999999404 1639.0
0.875 -0.284999996424 0.111000001431 1612.0
0.867999970913 -0.287999987602 0.109999999404 1650.0
0.870000004768 -0.293999999762 0.111000001431 1669.0
0.867999970913 -0.298999994993 0.111000001431 1674.0
0.866999983788 -0.305000007153 0.111000001431 1668.0
0.862999975681 -0.308999985456 0.111000001431 1675.0
0.861000001431 -0.31400001049 0.111000001431 1670.0
0.861000001431 -0.319999992847 0.111000001431 1671.0
0.861999988556 -0.326000005007 0.111000001431 1656.0
0.860000014305 -0.331999987364 0.111000001431 1663.0
0.861000001431 -0.337999999523 0.112000003457 1697.0
0.85799998045 -0.342999994755 0.112000003457 1673.0
0.856999993324 -0.347999989986 0.112000003457 1654.0
0.85900002718 -0.354999989271 0.112000003457 1643.0
0.856000006199 -0.360000014305 0.112000003457 1647.0
0.85799998045 -0.36700001359 0.112999998033 1647.0
0.855000019073 -0.372000008821 0.112999998033 1660.0
0.853999972343 -0.377000004053 0.112999998033 1659.0
0.851999998093 -0.38299998641 0.112999998033 1673.0
0.851999998093 -0.388999998569 0.112999998033 1652.0
0.851000010967 -0.395000010729 0.112999998033 1662.0
0.850000023842 -0.400999993086 0.112999998033 1658.0
0.848999977112 -0.407000005245 0.11400000006 1657.0
0.842999994755 -0.409999996424 0.112999998033 1665.0
0.847999989986 -0.418999999762 0.11400000006 1679.0
0.841000020504 -0.42199999094 0.112999998033 1668.0
0.847000002861 -0.432000011206 0.115000002086 1683.0
0.846000015736 -0.437999993563 0.115000002086 1664.0
0.834999978542 -0.43900001049 0.11400000006 1654.0
0.836000025272 -0.446000009775 0.11400000006 1651.0
0.836000025272 -0.45300000906 0.115000002086 1658.0
0.837999999523 -0.460000008345 0.115000002086 1576.0
0.838999986649 -0.467999994755 0.115999996662 1626.0
1.09200000763 0.630999982357 0.138999998569 435.0
1.20000004768 0.683000028133 0.152999997139 253.0
1.66799998283 0.936999976635 0.211999997497 152.0
1.7159999609 0.949000000954 0.217999994755 147.0
1.70200002193 0.927999973297 0.215000003576 154.0
1.70899999142 0.917999982834 0.216000005603 157.0
1.74300003052 0.92199999094 0.218999996781 140.0
1.86800003052 0.973999977112 0.234999999404 86.0
1.97800004482 1.01600003242 0.247999995947 80.0
2.00699996948 1.01499998569 0.250999987125 116.0
2.05900001526 1.02600002289 0.256999999285 172.0
2.05500006676 1.00800001621 0.256000012159 203.0
2.06699991226 0.998000025749 0.256999999285 211.0
2.05500006676 0.976999998093 0.254999995232 211.0
2.07100009918 0.96899998188 0.256000012159 217.0
2.06599998474 0.950999975204 0.254999995232 165.0
2.10599994659 0.953999996185 0.259000003338 95.0
2.11500000954 0.941999971867 0.259999990463 110.0
2.18499994278 0.958000004292 0.268000006676 224.0
2.20799994469 0.952000021935 0.270000010729 182.0
2.18899989128 0.927999973297 0.266999989748 98.0
2.24900007248 0.936999976635 0.273999989033 90.0
3.41400003433 1.05400002003 0.407000005245 73.0
3.30599999428 0.999000012875 0.393000006676 81.0
3.38100004196 1.0 0.402000010014 66.0
3.64299988747 1.05400002003 0.432000011206 63.0
3.73200011253 1.05599999428 0.442000001669 85.0
3.77300000191 1.04400002956 0.446999996901 94.0
3.81999993324 1.03199994564 0.451999992132 79.0
4.14499998093 1.04200005531 0.488999992609 58.0
4.09700012207 1.00499999523 0.483000010252 96.0
4.13000011444 0.986999988556 0.486000001431 95.0
4.17899990082 0.972999989986 0.49200001359 96.0
4.17299985886 0.945999979973 0.490999996662 91.0
4.125 0.910000026226 0.483999997377 96.0
4.10500001907 0.879999995232 0.481999993324 93.0
4.20399999619 0.875 0.493000000715 96.0
4.10699987411 0.829999983311 0.481000006199 95.0
4.19099998474 0.822000026703 0.490999996662 98.0
4.16900014877 0.791999995708 0.488000005484 103.0
4.1810002327 0.768999993801 0.488999992609 96.0
4.16499996185 0.740999996662 0.486999988556 94.0
4.15999984741 0.716000020504 0.486000001431 100.0
4.15600013733 0.689999997616 0.485000014305 101.0
4.18400001526 0.670000016689 0.488000005484 99.0
4.13399982452 0.637000024319 0.481999993324 101.0
4.15799999237 0.615999996662 0.485000014305 105.0
4.21000003815 0.598999977112 0.490000009537 97.0
4.15600013733 0.565999984741 0.483999997377 100.0
4.18699979782 0.546000003815 0.486999988556 99.0
4.13399982452 0.514999985695 0.481000006199 98.0
4.11100006104 0.488000005484 0.477999985218 101.0
4.10900020599 0.462999999523 0.477999985218 103.0
4.12099981308 0.441000014544 0.479000002146 104.0
4.15199995041 0.418999999762 0.481999993324 99.0
4.12900018692 0.393000006676 0.479999989271 70.0
0.958999991417 -0.128999993205 0.111000001431 179.0
0.898999989033 -0.126000002027 0.104000002146 1184.0
0.90600001812 -0.131999999285 0.104999996722 1565.0
0.898999989033 -0.136000007391 0.104000002146 1612.0
0.896000027657 -0.141000002623 0.104000002146 1587.0
0.898999989033 -0.146999999881 0.104999996722 1610.0
0.893000006676 -0.150999993086 0.104000002146 1614.0
0.893999993801 -0.157000005245 0.104000002146 1611.0
0.89200001955 -0.162000000477 0.104000002146 1621.0
0.894999980927 -0.167999997735 0.104999996722 1639.0
0.888000011444 -0.172000005841 0.104000002146 1606.0
0.888000011444 -0.177000001073 0.104000002146 1608.0
0.898000001907 -0.185000002384 0.104999996722 1620.0
0.885999977589 -0.187000006437 0.104000002146 1628.0
0.885999977589 -0.193000003695 0.104000002146 1637.0
0.884999990463 -0.197999998927 0.104000002146 1642.0
0.888999998569 -0.203999996185 0.104999996722 1645.0
0.888000011444 -0.209999993443 0.104999996722 1669.0
0.885999977589 -0.215000003576 0.104999996722 1667.0
0.884999990463 -0.219999998808 0.104999996722 1656.0
0.888000011444 -0.225999996066 0.104999996722 1652.0
0.875999987125 -0.229000002146 0.104000002146 1675.0
0.879999995232 -0.234999999404 0.104999996722 1647.0
0.873000025749 -0.238999992609 0.104000002146 1666.0
0.875999987125 -0.245000004768 0.104999996722 1640.0
0.871999979019 -0.25 0.104000002146 1666.0
0.876999974251 -0.256999999285 0.104999996722 1648.0
0.870999991894 -0.259999990463 0.104000002146 1648.0
0.870000004768 -0.266000002623 0.104999996722 1679.0
0.874000012875 -0.272000014782 0.104999996722 1674.0
0.869000017643 -0.277000010014 0.104999996722 1672.0
0.870999991894 -0.282999992371 0.104999996722 1653.0
0.869000017643 -0.287999987602 0.104999996722 1655.0
0.869000017643 -0.293999999762 0.104999996722 1674.0
0.866999983788 -0.298999994993 0.104999996722 1688.0
0.870999991894 -0.305999994278 0.105999998748 1666.0
0.867999970913 -0.31099998951 0.105999998748 1675.0
0.865999996662 -0.316000014544 0.105999998748 1687.0
0.861000001431 -0.319999992847 0.105999998748 1679.0
0.865000009537 -0.326999992132 0.105999998748 1677.0
0.85799998045 -0.330000013113 0.105999998748 1677.0
0.860000014305 -0.337000012398 0.105999998748 1708.0
0.860000014305 -0.342999994755 0.105999998748 1706.0
0.856000006199 -0.347999989986 0.105999998748 1668.0
0.856000006199 -0.354000002146 0.105999998748 1677.0
0.85799998045 -0.361000001431 0.107000000775 1671.0
0.856000006199 -0.365999996662 0.107000000775 1678.0
0.852999985218 -0.370999991894 0.107000000775 1686.0
0.848999977112 -0.375 0.107000000775 1679.0
0.848999977112 -0.381000012159 0.107000000775 1695.0
0.84500002861 -0.386000007391 0.107000000775 1687.0
0.851000010967 -0.395000010729 0.108000002801 1660.0
0.846000015736 -0.398999989033 0.107000000775 1669.0
0.84399998188 -0.404000014067 0.107000000775 1670.0
0.846000015736 -0.411000013351 0.108000002801 1679.0
0.84399998188 -0.416999995708 0.108000002801 1679.0
0.839999973774 -0.421000003815 0.108000002801 1655.0
0.842999994755 -0.428999990225 0.108999997377 1678.0
0.837000012398 -0.432999998331 0.108000002801 1672.0
0.838999986649 -0.441000014544 0.108999997377 1667.0
0.839999973774 -0.448000013828 0.108999997377 1648.0
0.842000007629 -0.456000000238 0.109999999404 1653.0
0.836000025272 -0.458999991417 0.108999997377 1603.0
0.834999978542 -0.465000003576 0.109999999404 1661.0
1.11699998379 0.644999980927 0.135000005364 484.0
1.30200004578 0.740999996662 0.157000005245 277.0
1.66900002956 0.93599998951 0.201000005007 228.0
1.71099996567 0.945999979973 0.206000000238 220.0
1.76100003719 0.958999991417 0.21099999547 219.0
1.7460000515 0.936999976635 0.209000006318 214.0
1.7840000391 0.943000018597 0.212999999523 196.0
1.91799998283 0.999000012875 0.229000002146 108.0
2.04500007629 1.0490000248 0.243000000715 111.0
2.05399990082 1.0379999876 0.244000002742 171.0
2.05800008774 1.02400004864 0.244000002742 233.0
2.08800005913 1.02300000191 0.24699999392 268.0
2.10500001907 1.01499998569 0.247999995947 284.0
2.10400009155 0.999000012875 0.24699999392 291.0
2.09500002861 0.978999972343 0.246000006795 290.0
2.09500002861 0.963999986649 0.245000004768 209.0
2.07100009918 0.936999976635 0.241999998689 118.0
2.132999897 0.949999988079 0.248999997973 152.0
2.21700000763 0.971000015736 0.25799998641 294.0
2.21000003815 0.952000021935 0.256999999285 215.0
2.257999897 0.957000017166 0.261999994516 117.0
2.24699997902 0.93599998951 0.259999990463 95.0
2.39100003242 0.929000020027 0.27500000596 65.0
2.66100001335 0.925000011921 0.303000003099 67.0
3.23399996758 0.996999979019 0.365000009537 68.0
3.32500004768 1.0039999485 0.375 83.0
3.43899989128 1.01600003242 0.388000011444 68.0
3.71300005913 1.07299995422 0.418000012636 65.0
3.757999897 1.06200003624 0.423000007868 94.0
3.89199995995 1.0759999752 0.437999993563 90.0
3.79800009727 1.02600002289 0.425999999046 79.0
4.37900018692 1.10000002384 0.490000009537 58.0
4.15899991989 1.01900005341 0.465000003576 89.0
4.257999897 1.01699995995 0.476000010967 91.0
4.13500022888 0.962000012398 0.462000012398 88.0
4.20599985123 0.952000021935 0.469000011683 89.0
4.12799978256 0.908999979496 0.460000008345 87.0
4.257999897 0.912000000477 0.474000006914 84.0
4.27099990845 0.888999998569 0.47499999404 88.0
4.20900011063 0.850000023842 0.467999994755 85.0
4.17299985886 0.818000018597 0.463999986649 86.0
4.19299983978 0.796000003815 0.465999990702 79.0
4.21099996567 0.773999989033 0.467000007629 85.0
4.23500013351 0.753000020981 0.469999998808 85.0
4.22900009155 0.726999998093 0.469000011683 86.0
4.19999980927 0.697000026703 0.465000003576 84.0
4.20900011063 0.672999978065 0.465999990702 84.0
4.16599988937 0.64099997282 0.46099999547 82.0
4.20399999619 0.621999979019 0.465000003576 88.0
4.19099998474 0.596000015736 0.462999999523 78.0
4.1890001297 0.570999979973 0.462999999523 82.0
4.1859998703 0.545000016689 0.462000012398 84.0
4.23400020599 0.527000010014 0.467999994755 85.0
4.1779999733 0.495000004768 0.46099999547 82.0
4.18300008774 0.470999985933 0.462000012398 83.0
4.15899991989 0.444000005722 0.458999991417 81.0
4.21000003815 0.425000011921 0.463999986649 79.0
4.07000017166 0.386999994516 0.449000000954 65.0
0.958000004292 -0.128999993205 0.104999996722 168.0
0.902000010014 -0.126000002027 0.0989999994636 1184.0
0.898999989033 -0.130999997258 0.0989999994636 1591.0
0.898000001907 -0.136000007391 0.0989999994636 1623.0
0.893999993801 -0.141000002623 0.0989999994636 1620.0
0.897000014782 -0.146999999881 0.0989999994636 1634.0
0.893999993801 -0.151999995112 0.0989999994636 1622.0
0.894999980927 -0.157000005245 0.0989999994636 1621.0
0.893999993801 -0.162000000477 0.0989999994636 1620.0
0.893000006676 -0.166999995708 0.0989999994636 1644.0
0.889999985695 -0.172000005841 0.0989999994636 1632.0
0.888999998569 -0.177000001073 0.0989999994636 1625.0
0.888000011444 -0.181999996305 0.0989999994636 1639.0
0.888000011444 -0.187999993563 0.0989999994636 1656.0
0.884999990463 -0.193000003695 0.0989999994636 1650.0
0.884999990463 -0.197999998927 0.0989999994636 1647.0
0.885999977589 -0.203999996185 0.0989999994636 1650.0
0.880999982357 -0.208000004292 0.0989999994636 1683.0
0.883000016212 -0.21400000155 0.0989999994636 1672.0
0.882000029087 -0.218999996781 0.0989999994636 1666.0
0.882000029087 -0.22499999404 0.0989999994636 1669.0
0.883000016212 -0.230000004172 0.10000000149 1670.0
0.879999995232 -0.234999999404 0.0989999994636 1665.0
0.876999974251 -0.239999994636 0.0989999994636 1660.0
0.882000029087 -0.24699999392 0.10000000149 1655.0
0.879999995232 -0.252000004053 0.10000000149 1692.0
0.874000012875 -0.254999995232 0.0989999994636 1685.0
0.873000025749 -0.261000007391 0.0989999994636 1674.0
0.870999991894 -0.266000002623 0.0989999994636 1682.0
0.871999979019 -0.272000014782 0.10000000149 1683.0
0.867999970913 -0.275999993086 0.0989999994636 1676.0
0.869000017643 -0.282000005245 0.10000000149 1677.0
0.870999991894 -0.28900000453 0.10000000149 1668.0
0.867999970913 -0.293000012636 0.10000000149 1697.0
0.870000004768 -0.300000011921 0.10000000149 1691.0
0.865999996662 -0.303999990225 0.10000000149 1683.0
0.866999983788 -0.310000002384 0.101000003517 1694.0
0.860000014305 -0.31400001049 0.10000000149 1711.0
0.861000001431 -0.319999992847 0.10000000149 1708.0
0.862999975681 -0.326000005007 0.101000003517 1692.0
0.861999988556 -0.331999987364 0.101000003517 1690.0
0.860000014305 -0.337000012398 0.101000003517 1689.0
0.860000014305 -0.342999994755 0.101000003517 1699.0
0.853999972343 -0.347000002861 0.101000003517 1684.0
0.856999993324 -0.354000002146 0.101000003517 1679.0
0.85900002718 -0.361000001431 0.101999998093 1700.0
0.851999998093 -0.363999992609 0.101000003517 1688.0
0.851000010967 -0.370000004768 0.101000003517 1690.0
0.852999985218 -0.377000004053 0.101999998093 1695.0
0.852999985218 -0.38299998641 0.101999998093 1704.0
0.84500002861 -0.384999990463 0.101000003517 1690.0
0.852999985218 -0.395999997854 0.103000000119 1697.0
0.847999989986 -0.398999989033 0.101999998093 1693.0
0.848999977112 -0.405999988317 0.103000000119 1696.0
0.84500002861 -0.411000013351 0.101999998093 1688.0
0.842999994755 -0.416000008583 0.103000000119 1716.0
0.842999994755 -0.423000007868 0.103000000119 1693.0
0.84399998188 -0.430000007153 0.103000000119 1701.0
0.842999994755 -0.43599998951 0.104000002146 1714.0
0.837999999523 -0.439999997616 0.103000000119 1683.0
0.837000012398 -0.446000009775 0.103000000119 1692.0
0.836000025272 -0.451999992132 0.104000002146 1677.0
0.833999991417 -0.458000004292 0.104000002146 1647.0
0.837000012398 -0.465999990702 0.104000002146 1678.0
1.1210000515 0.647000014782 0.12800000608 474.0
1.30999994278 0.745000004768 0.149000003934 276.0
1.69400000572 0.949000000954 0.193000003695 249.0
1.7159999609 0.948000013828 0.194999992847 239.0
1.7460000515 0.949999988079 0.197999998927 241.0
1.76800000668 0.948000013828 0.20000000298 226.0
1.76199996471 0.930999994278 0.199000000954 199.0
1.99399995804 1.00699996948 0.224000006914 88.0
2.0529999733 1.02100002766 0.230000004172 114.0
2.09200000763 1.02400004864 0.233999997377 240.0
2.09500002861 1.00999999046 0.232999995351 297.0
2.08999991417 0.991999983788 0.231999993324 298.0
2.07399988174 0.96899998188 0.230000004172 286.0
2.09100008011 0.961000025272 0.231000006199 198.0
2.10800004005 0.953999996185 0.232999995351 116.0
2.17499995232 0.967999994755 0.239999994636 147.0
2.19899988174 0.962999999523 0.241999998689 287.0
2.18600010872 0.940999984741 0.239999994636 195.0
2.27399992943 0.962999999523 0.248999997973 112.0
2.2009999752 0.916000008583 0.240999996662 84.0
2.32999992371 0.921000003815 0.254000008106 65.0
2.50500011444 0.972999989986 0.272000014782 73.0
3.27500009537 0.987999975681 0.34999999404 68.0
3.83299994469 1.05900001526 0.407999992371 61.0
4.26499986649 1.04400002956 0.451999992132 69.0
4.26000022888 1.01699995995 0.451000005007 65.0
4.32700014114 1.00600004196 0.456999987364 64.0
4.23400020599 0.958000004292 0.446999996901 63.0
4.30700016022 0.948000013828 0.453999996185 57.0
4.29400014877 0.919000029564 0.45300000906 65.0
4.29799985886 0.893999993801 0.45300000906 58.0
4.32700014114 0.873000025749 0.456000000238 60.0
4.23000001907 0.82800000906 0.444999992847 60.0
4.23799991608 0.804000020027 0.446000009775 61.0
4.23999977112 0.778999984264 0.444999992847 58.0
4.29500007629 0.763000011444 0.451000005007 65.0
4.29899978638 0.737999975681 0.451000005007 60.0
4.2610001564 0.705999970436 0.446999996901 61.0
4.23699998856 0.676999986172 0.444000005722 58.0
4.35599994659 0.670000016689 0.456000000238 59.0
4.35699987411 0.644999980927 0.456000000238 59.0
4.34899997711 0.617999970913 0.455000013113 61.0
4.36800003052 0.59500002861 0.456999987364 56.0
4.30999994278 0.56099998951 0.451000005007 58.0
4.33300018311 0.538999974728 0.45300000906 55.0
4.32600021362 0.512000024319 0.451999992132 57.0
4.18699979782 0.470999985933 0.437000006437 58.0
4.28700017929 0.456999987364 0.448000013828 55.0
4.35500001907 0.43900001049 0.455000013113 56.0
0.898000001907 -0.126000002027 0.0939999967813 1202.0
0.899999976158 -0.130999997258 0.0939999967813 1611.0
0.894999980927 -0.136000007391 0.0930000022054 1624.0
0.897000014782 -0.141000002623 0.0939999967813 1612.0
0.893000006676 -0.145999997854 0.0930000022054 1637.0
0.897000014782 -0.151999995112 0.0939999967813 1616.0
0.89099997282 -0.156000003219 0.0930000022054 1632.0
0.89200001955 -0.162000000477 0.0939999967813 1634.0
0.889999985695 -0.166999995708 0.0939999967813 1656.0
0.89099997282 -0.172000005841 0.0939999967813 1654.0
0.893999993801 -0.178000003099 0.0939999967813 1637.0
0.888999998569 -0.182999998331 0.0939999967813 1638.0
0.884999990463 -0.187000006437 0.0930000022054 1645.0
0.89099997282 -0.194000005722 0.0939999967813 1659.0
0.887000024319 -0.197999998927 0.0939999967813 1658.0
0.883000016212 -0.202999994159 0.0939999967813 1693.0
0.884999990463 -0.209000006318 0.0939999967813 1700.0
0.885999977589 -0.215000003576 0.0939999967813 1708.0
0.883000016212 -0.218999996781 0.0939999967813 1694.0
0.880999982357 -0.224000006914 0.0939999967813 1688.0
0.880999982357 -0.230000004172 0.0939999967813 1679.0
0.878000020981 -0.234999999404 0.0939999967813 1691.0
0.878000020981 -0.239999994636 0.0939999967813 1674.0
0.879000008106 -0.246000006795 0.0939999967813 1673.0
0.873000025749 -0.25 0.0939999967813 1692.0
0.870000004768 -0.254000008106 0.0939999967813 1679.0
0.874000012875 -0.261000007391 0.0939999967813 1683.0
0.875 -0.266999989748 0.0949999988079 1688.0
0.870999991894 -0.270999997854 0.0939999967813 1692.0
0.870999991894 -0.277000010014 0.0939999967813 1675.0
0.866999983788 -0.280999988317 0.0939999967813 1689.0
0.870000004768 -0.287999987602 0.0949999988079 1701.0
0.865999996662 -0.293000012636 0.0949999988079 1703.0
0.865999996662 -0.298000007868 0.0949999988079 1697.0
0.865999996662 -0.303999990225 0.0949999988079 1696.0
0.866999983788 -0.310000002384 0.0949999988079 1699.0
0.861999988556 -0.31400001049 0.0949999988079 1721.0
0.861000001431 -0.319999992847 0.0949999988079 1702.0
0.85900002718 -0.324999988079 0.0949999988079 1699.0
0.853999972343 -0.328999996185 0.0949999988079 1684.0
0.855000019073 -0.335000008345 0.0949999988079 1704.0
0.85900002718 -0.342999994755 0.0960000008345 1710.0
0.856000006199 -0.347000002861 0.0949999988079 1693.0
0.861999988556 -0.356000006199 0.0960000008345 1705.0
0.852999985218 -0.358000010252 0.0960000008345 1703.0
0.856999993324 -0.365999996662 0.0960000008345 1696.0
0.853999972343 -0.370999991894 0.0960000008345 1695.0
0.851999998093 -0.375999987125 0.0960000008345 1678.0
0.850000023842 -0.381000012159 0.0960000008345 1703.0
0.846000015736 -0.386000007391 0.0960000008345 1706.0
0.848999977112 -0.393999993801 0.097000002861 1700.0
0.850000023842 -0.40000000596 0.097000002861 1694.0
0.84500002861 -0.404000014067 0.097000002861 1717.0
0.842999994755 -0.409999996424 0.097000002861 1700.0
0.84500002861 -0.416999995708 0.097000002861 1722.0
0.84500002861 -0.423999994993 0.097999997437 1714.0
0.842999994755 -0.428999990225 0.097999997437 1715.0
0.842999994755 -0.43599998951 0.097999997437 1709.0
0.836000025272 -0.43900001049 0.097999997437 1704.0
0.842999994755 -0.449000000954 0.0989999994636 1687.0
0.842000007629 -0.455000013113 0.0989999994636 1705.0
0.841000020504 -0.46099999547 0.0989999994636 1673.0
0.833000004292 -0.463999986649 0.097999997437 1713.0
1.11000001431 0.639999985695 0.119000002742 478.0
1.36099994183 0.773000001907 0.145999997854 269.0
1.68099999428 0.941999971867 0.180999994278 244.0
1.73800003529 0.958999991417 0.186000004411 230.0
1.73899996281 0.945999979973 0.186000004411 219.0
1.78199994564 0.954999983311 0.189999997616 216.0
1.81400001049 0.958000004292 0.193000003695 164.0
1.87800002098 0.962000012398 0.199000000954 75.0
2.05399990082 1.03699994087 0.216999992728 91.0
2.08500003815 1.03600001335 0.219999998808 163.0
2.09999990463 1.02699995041 0.221000000834 252.0
2.1099998951 1.01699995995 0.222000002861 243.0
2.08100008965 0.986999988556 0.217999994755 231.0
2.11100006104 0.985000014305 0.221000000834 222.0
2.0759999752 0.953999996185 0.216999992728 149.0
2.09200000763 0.945999979973 0.217999994755 84.0
2.14700007439 0.954999983311 0.223000004888 117.0
2.19600009918 0.959999978542 0.228000000119 214.0
2.23099994659 0.959999978542 0.231000006199 137.0
2.18499994278 0.924000024796 0.225999996066 83.0
2.18000006676 0.907000005245 0.22499999404 67.0
3.89800000191 1.10000002384 0.391999989748 62.0
4.36899995804 1.04200005531 0.43599998951 57.0
4.36100006104 1.01300001144 0.435000002384 61.0
4.34700012207 0.98299998045 0.432999998331 61.0
4.36100006104 0.958999991417 0.433999985456 57.0
4.34700012207 0.930000007153 0.432999998331 58.0
4.29400014877 0.89200001955 0.426999986172 69.0
4.31599998474 0.870999991894 0.428999990225 58.0
4.36800003052 0.855000019073 0.433999985456 59.0
4.30100011826 0.815999984741 0.426999986172 55.0
4.46600008011 0.819999992847 0.442999988794 63.0
4.39300012589 0.77999997139 0.435000002384 56.0
4.29500007629 0.736999988556 0.425000011921 55.0
4.38700008392 0.726999998093 0.433999985456 57.0
4.40899991989 0.703999996185 0.43599998951 55.0
4.40399980545 0.676999986172 0.43599998951 61.0
4.29400014877 0.634999990463 0.423999994993 58.0
4.38800001144 0.623000025749 0.433999985456 59.0
4.38999986649 0.597000002861 0.433999985456 56.0
4.33900022507 0.564999997616 0.428000003099 58.0
4.37900018692 0.544000029564 0.432000011206 59.0
4.3109998703 0.509999990463 0.425000011921 60.0
4.31300020218 0.485000014305 0.425000011921 58.0
4.25 0.428000003099 0.418999999762 56.0
0.936999976635 -0.126000002027 0.0920000001788 184.0
0.898999989033 -0.126000002027 0.0879999995232 1240.0
0.894999980927 -0.129999995232 0.0879999995232 1592.0
0.898000001907 -0.136000007391 0.0879999995232 1624.0
0.902000010014 -0.142000004649 0.0890000015497 1621.0
0.896000027657 -0.146999999881 0.0879999995232 1657.0
0.899999976158 -0.152999997139 0.0890000015497 1635.0
0.894999980927 -0.157000005245 0.0879999995232 1640.0
0.89099997282 -0.162000000477 0.0879999995232 1634.0
0.89200001955 -0.166999995708 0.0879999995232 1645.0
0.89099997282 -0.172000005841 0.0879999995232 1665.0
0.89200001955 -0.178000003099 0.0890000015497 1663.0
0.889999985695 -0.182999998331 0.0890000015497 1632.0
0.884999990463 -0.187000006437 0.0879999995232 1653.0
0.884999990463 -0.193000003695 0.0879999995232 1662.0
0.888000011444 -0.197999998927 0.0890000015497 1676.0
0.884000003338 -0.202999994159 0.0879999995232 1702.0
0.884999990463 -0.209000006318 0.0890000015497 1732.0
0.883000016212 -0.21400000155 0.0890000015497 1703.0
0.884000003338 -0.218999996781 0.0890000015497 1705.0
0.879999995232 -0.224000006914 0.0890000015497 1703.0
0.880999982357 -0.230000004172 0.0890000015497 1692.0
0.876999974251 -0.233999997377 0.0879999995232 1692.0
0.875999987125 -0.238999992609 0.0890000015497 1708.0
0.873000025749 -0.244000002742 0.0879999995232 1692.0
0.873000025749 -0.25 0.0890000015497 1695.0
0.875999987125 -0.256000012159 0.0890000015497 1681.0
0.876999974251 -0.261999994516 0.0890000015497 1685.0
0.871999979019 -0.266000002623 0.0890000015497 1709.0
0.875 -0.272000014782 0.0890000015497 1704.0
0.867999970913 -0.275999993086 0.0890000015497 1695.0
0.866999983788 -0.280999988317 0.0890000015497 1694.0
0.865999996662 -0.287000000477 0.0890000015497 1698.0
0.867999970913 -0.293000012636 0.0890000015497 1699.0
0.864000022411 -0.29699999094 0.0890000015497 1705.0
0.861999988556 -0.303000003099 0.0890000015497 1709.0
0.867999970913 -0.310000002384 0.0900000035763 1725.0
0.862999975681 -0.31400001049 0.0900000035763 1731.0
0.862999975681 -0.319999992847 0.0900000035763 1708.0
0.861999988556 -0.326000005007 0.0900000035763 1720.0
0.861999988556 -0.331000000238 0.0900000035763 1695.0
0.862999975681 -0.337999999523 0.0909999981523 1705.0
0.860000014305 -0.342999994755 0.0900000035763 1697.0
0.860000014305 -0.349000006914 0.0909999981523 1704.0
0.855000019073 -0.352999985218 0.0900000035763 1720.0
0.856000006199 -0.358999997377 0.0909999981523 1710.0
0.852999985218 -0.363999992609 0.0909999981523 1705.0
0.851999998093 -0.370000004768 0.0909999981523 1705.0
0.851000010967 -0.375 0.0909999981523 1709.0
0.848999977112 -0.381000012159 0.0909999981523 1706.0
0.851000010967 -0.388000011444 0.0909999981523 1706.0
0.847000002861 -0.391999989748 0.0909999981523 1709.0
0.847000002861 -0.398000001907 0.0909999981523 1733.0
0.842999994755 -0.402999997139 0.0909999981523 1721.0
0.846000015736 -0.411000013351 0.0920000001788 1725.0
0.842999994755 -0.416000008583 0.0920000001788 1731.0
0.841000020504 -0.421000003815 0.0920000001788 1716.0
0.837000012398 -0.425000011921 0.0920000001788 1712.0
0.838999986649 -0.432999998331 0.0920000001788 1718.0
0.833999991417 -0.437000006437 0.0920000001788 1707.0
0.841000020504 -0.448000013828 0.0930000022054 1724.0
0.832000017166 -0.449000000954 0.0920000001788 1730.0
0.834999978542 -0.458000004292 0.0930000022054 1683.0
0.838999986649 -0.467000007629 0.0939999967813 1703.0
1.10500001907 0.637000024319 0.111000001431 463.0
1.35000002384 0.76599997282 0.136000007391 223.0
1.66199994087 0.930000007153 0.167999997735 189.0
1.7009999752 0.938000023365 0.171000003815 163.0
1.74199998379 0.947000026703 0.17499999702 167.0
1.78900003433 0.958000004292 0.179000005126 156.0
1.8259999752 0.963999986649 0.182999998331 124.0
2.02399992943 1.05200004578 0.202000007033 77.0
2.02399992943 1.03600001335 0.202000007033 82.0
2.09299993515 1.05499994755 0.208000004292 109.0
2.09699988365 1.04100000858 0.208000004292 165.0
2.10500001907 1.02999997139 0.208000004292 162.0
2.11500000954 1.01800000668 0.209000006318 163.0
2.12400007248 1.00699996948 0.209000006318 147.0
2.13800001144 0.996999979019 0.209999993443 147.0
2.07500004768 0.952000021935 0.202999994159 101.0
2.117000103 0.955999970436 0.207000002265 71.0
2.18400001526 0.97000002861 0.212999999523 85.0
2.23699998856 0.977999985218 0.217999994755 151.0
2.21799993515 0.953999996185 0.216000005603 105.0
0.876999974251 0.270000010729 0.082000002265 60.0
0.504999995232 0.136000007391 0.0460000000894 66.0
0.621999979019 0.16400000453 0.0570000000298 75.0
0.572000026703 0.143999993801 0.0520000010729 83.0
0.0189999993891 0.00499999988824 0.0 56.0
0.142000004649 0.0340000018477 0.0109999999404 64.0
0.354999989271 0.082999996841 0.0309999994934 75.0
0.321999996901 0.0729999989271 0.0280000008643 74.0
0.142000004649 0.0320000015199 0.0109999999404 61.0
0.229000002146 0.0489999987185 0.0189999993891 69.0
0.340999990702 0.0710000023246 0.0299999993294 88.0
0.416999995708 0.0850000008941 0.0370000004768 85.0
0.615000009537 0.120999999344 0.0560000017285 136.0
0.60799998045 0.115999996662 0.054999999702 131.0
0.612999975681 0.112999998033 0.054999999702 124.0
0.233999997377 0.0419999994338 0.019999999553 76.0
0.370000004768 0.0640000030398 0.0329999998212 91.0
0.345999985933 0.0579999983311 0.0299999993294 89.0
0.28900000453 0.0469999983907 0.0250000003725 80.0
0.300999999046 0.0469999983907 0.0260000005364 73.0
0.303000003099 0.0460000000894 0.0260000005364 80.0
0.545000016689 0.0780000016093 0.0489999987185 99.0
0.363999992609 0.0500000007451 0.0320000015199 85.0
0.360000014305 0.0480000004172 0.0309999994934 83.0
0.481000006199 0.0610000006855 0.0430000014603 105.0
0.372000008821 0.0450000017881 0.0329999998212 79.0
0.347000002861 0.0399999991059 0.0299999993294 82.0
0.287000000477 0.0320000015199 0.0250000003725 78.0
0.512000024319 0.0529999993742 0.0460000000894 100.0
0.808000028133 0.0780000016093 0.0729999989271 160.0
0.939999997616 0.0790000036359 0.0860000029206 154.0
0.931999981403 0.0729999989271 0.0850000008941 144.0
0.971000015736 0.0710000023246 0.0879999995232 132.0
0.910000026226 0.0610000006855 0.082999996841 87.0
0.898999989033 -0.126000002027 0.082999996841 1240.0
0.899999976158 -0.130999997258 0.082999996841 1634.0
0.898999989033 -0.136000007391 0.082999996841 1655.0
0.893999993801 -0.141000002623 0.082999996841 1649.0
0.896000027657 -0.145999997854 0.082999996841 1662.0
0.898000001907 -0.151999995112 0.082999996841 1655.0
0.893999993801 -0.157000005245 0.082999996841 1640.0
