ply
format ascii 1.0
element vertex 906
property float x
property float y
property float z
property float intensity
end_header
0.838999986649 0.0659999996424 -0.172000005841 507.0
0.837000012398 0.0610000006855 -0.172000005841 263.0
3.79200005531 0.00300000002608 -0.776000022888 51.0
0.888000011444 -0.111000001431 -0.181999996305 763.0
0.879000008106 -0.115000002086 -0.180000007153 1608.0
0.883000016212 -0.120999999344 -0.180999994278 1604.0
0.884000003338 -0.127000004053 -0.181999996305 1669.0
0.884000003338 -0.131999999285 -0.181999996305 1693.0
0.879000008106 -0.136000007391 -0.180999994278 1674.0
0.879000008106 -0.142000004649 -0.180999994278 1677.0
0.879999995232 -0.146999999881 -0.180999994278 1685.0
0.875 -0.151999995112 -0.180000007153 1690.0
0.875 -0.157000005245 -0.180000007153 1694.0
0.876999974251 -0.162000000477 -0.180999994278 1694.0
0.870000004768 -0.166999995708 -0.180000007153 1713.0
0.873000025749 -0.172000005841 -0.180000007153 1711.0
0.871999979019 -0.177000001073 -0.180000007153 1699.0
0.866999983788 -0.181999996305 -0.179000005126 1730.0
0.866999983788 -0.187000006437 -0.180000007153 1747.0
0.869000017643 -0.193000003695 -0.180000007153 1754.0
0.865000009537 -0.197999998927 -0.180000007153 1759.0
0.864000022411 -0.202000007033 -0.179000005126 1724.0
0.865000009537 -0.208000004292 -0.180000007153 1744.0
0.864000022411 -0.212999999523 -0.180000007153 1733.0
0.861999988556 -0.217999994755 -0.180000007153 1705.0
0.862999975681 -0.224000006914 -0.180000007153 1715.0
0.85799998045 -0.228000000119 -0.179000005126 1728.0
0.856000006199 -0.232999995351 -0.179000005126 1731.0
0.856000006199 -0.238999992609 -0.179000005126 1733.0
0.85799998045 -0.245000004768 -0.180000007153 1748.0
0.855000019073 -0.248999997973 -0.180000007153 1768.0
0.856000006199 -0.254999995232 -0.180000007153 1773.0
0.860000014305 -0.261999994516 -0.180999994278 1794.0
0.855000019073 -0.266000002623 -0.180000007153 1793.0
0.851999998093 -0.270999997854 -0.180000007153 1839.0
0.856000006199 -0.277000010014 -0.180999994278 1824.0
0.852999985218 -0.282000005245 -0.180999994278 1799.0
0.847000002861 -0.286000013351 -0.180000007153 1798.0
0.851000010967 -0.293000012636 -0.180999994278 1815.0
0.847000002861 -0.29699999094 -0.180000007153 1805.0
0.846000015736 -0.303000003099 -0.180999994278 1828.0
0.850000023842 -0.310000002384 -0.181999996305 1844.0
0.847000002861 -0.31400001049 -0.180999994278 1847.0
0.84500002861 -0.319999992847 -0.180999994278 1838.0
0.846000015736 -0.326000005007 -0.181999996305 1841.0
0.842000007629 -0.330000013113 -0.180999994278 1824.0
0.84399998188 -0.337000012398 -0.181999996305 1832.0
0.842999994755 -0.342000007629 -0.181999996305 1833.0
0.836000025272 -0.345999985933 -0.180999994278 1826.0
0.838999986649 -0.352999985218 -0.181999996305 1844.0
0.839999973774 -0.358999997377 -0.182999998331 1874.0
0.833999991417 -0.363000005484 -0.181999996305 1854.0
0.833999991417 -0.368999987841 -0.181999996305 1830.0
0.836000025272 -0.375999987125 -0.182999998331 1812.0
0.830999970436 -0.379999995232 -0.181999996305 1812.0
0.832000017166 -0.386000007391 -0.182999998331 1824.0
0.829999983311 -0.391999989748 -0.182999998331 1805.0
0.827000021935 -0.397000014782 -0.182999998331 1838.0
0.830999970436 -0.405000001192 -0.184000000358 1834.0
0.828999996185 -0.409999996424 -0.184000000358 1846.0
0.823000013828 -0.41400000453 -0.182999998331 1881.0
0.824999988079 -0.421000003815 -0.184000000358 1853.0
0.822000026703 -0.425999999046 -0.184000000358 1852.0
0.820999979973 -0.432000011206 -0.184000000358 1884.0
0.822000026703 -0.43900001049 -0.185000002384 1845.0
0.819000005722 -0.444000005722 -0.185000002384 1821.0
0.816999971867 -0.449999988079 -0.185000002384 1832.0
0.819000005722 -0.458000004292 -0.186000004411 1877.0
0.818000018597 -0.463999986649 -0.186000004411 1849.0
1.30700004101 0.764999985695 -0.316000014544 395.0
1.67299997807 0.964999973774 -0.404000014067 501.0
1.70399999619 0.96899998188 -0.409999996424 467.0
1.75 0.980000019073 -0.418999999762 250.0
1.75499999523 0.96899998188 -0.418999999762 216.0
1.8259999752 0.992999970913 -0.435000002384 215.0
2.03800010681 1.09200000763 -0.483999997377 262.0
2.07699990273 1.09599995613 -0.49200001359 285.0
2.07999992371 1.08099997044 -0.490999996662 245.0
2.07399988174 1.06099998951 -0.488000005484 218.0
2.06999993324 1.04299998283 -0.486000001431 236.0
2.11199998856 1.04799997807 -0.493999987841 283.0
2.08800005913 1.01999998093 -0.486999988556 305.0
2.09500002861 1.00699996948 -0.488000005484 311.0
2.11500000954 1.0 -0.490999996662 182.0
2.14199995995 0.996999979019 -0.495999991894 123.0
2.18499994278 1.0 -0.504000008106 197.0
2.20700001717 0.994000017643 -0.508000016212 341.0
2.22699999809 0.986999988556 -0.510999977589 208.0
2.24799990654 0.980000019073 -0.514999985695 99.0
3.23699998856 1.04999995232 -0.717000007629 71.0
3.24799990654 1.03199994564 -0.717999994755 121.0
3.31500005722 1.03100001812 -0.731999993324 96.0
3.27800011635 0.998000025749 -0.722000002861 87.0
0.885999977589 -0.111000001431 -0.187000006437 795.0
0.883000016212 -0.115999996662 -0.186000004411 1596.0
0.884999990463 -0.122000001371 -0.187000006437 1610.0
0.884000003338 -0.127000004053 -0.187000006437 1668.0
0.880999982357 -0.131999999285 -0.186000004411 1662.0
0.882000029087 -0.136999994516 -0.187000006437 1660.0
0.876999974251 -0.142000004649 -0.186000004411 1674.0
0.880999982357 -0.146999999881 -0.187000006437 1675.0
0.873000025749 -0.150999993086 -0.185000002384 1687.0
0.875 -0.157000005245 -0.186000004411 1666.0
0.867999970913 -0.16099999845 -0.184000000358 1683.0
0.871999979019 -0.166999995708 -0.185000002384 1703.0
0.873000025749 -0.172999992967 -0.186000004411 1695.0
0.873000025749 -0.178000003099 -0.186000004411 1691.0
0.870000004768 -0.182999998331 -0.185000002384 1715.0
0.870000004768 -0.187999993563 -0.186000004411 1728.0
0.870999991894 -0.194000005722 -0.186000004411 1727.0
0.869000017643 -0.199000000954 -0.186000004411 1740.0
0.870000004768 -0.203999996185 -0.186000004411 1721.0
0.874000012875 -0.21099999547 -0.187000006437 1719.0
0.865999996662 -0.21400000155 -0.186000004411 1713.0
0.865999996662 -0.219999998808 -0.186000004411 1693.0
0.862999975681 -0.224000006914 -0.185000002384 1718.0
0.860000014305 -0.229000002146 -0.185000002384 1719.0
0.856999993324 -0.233999997377 -0.185000002384 1717.0
0.856999993324 -0.238999992609 -0.185000002384 1728.0
0.861000001431 -0.246000006795 -0.186000004411 1726.0
0.85900002718 -0.250999987125 -0.186000004411 1737.0
0.861999988556 -0.256999999285 -0.187000006437 1758.0
0.853999972343 -0.259999990463 -0.185000002384 1774.0
0.85900002718 -0.268000006676 -0.187000006437 1792.0
0.851999998093 -0.270999997854 -0.185000002384 1814.0
0.856999993324 -0.277999997139 -0.187000006437 1801.0
0.851000010967 -0.282000005245 -0.186000004411 1785.0
0.847999989986 -0.287000000477 -0.185000002384 1788.0
0.84399998188 -0.291000008583 -0.185000002384 1809.0
0.851999998093 -0.298999994993 -0.187000006437 1810.0
0.851999998093 -0.305000007153 -0.187000006437 1786.0
0.842000007629 -0.307000011206 -0.185000002384 1811.0
0.846000015736 -0.314999997616 -0.187000006437 1824.0
0.84399998188 -0.319999992847 -0.186000004411 1804.0
0.842000007629 -0.324999988079 -0.186000004411 1801.0
0.837999999523 -0.328999996185 -0.186000004411 1797.0
0.842999994755 -0.337000012398 -0.187000006437 1794.0
0.842000007629 -0.342000007629 -0.187000006437 1802.0
0.836000025272 -0.345999985933 -0.186000004411 1808.0
0.837999999523 -0.352999985218 -0.187000006437 1799.0
0.837999999523 -0.358999997377 -0.187999993563 1818.0
0.834999978542 -0.363999992609 -0.187000006437 1842.0
0.834999978542 -0.370000004768 -0.187999993563 1802.0
0.833999991417 -0.375 -0.187999993563 1766.0
0.829999983311 -0.379999995232 -0.187999993563 1806.0
0.827000021935 -0.384999990463 -0.187000006437 1808.0
0.832000017166 -0.393000006676 -0.188999995589 1792.0
0.82800000906 -0.398000001907 -0.187999993563 1793.0
0.825999975204 -0.402999997139 -0.188999995589 1817.0
0.822000026703 -0.407999992371 -0.187999993563 1823.0
0.825999975204 -0.416000008583 -0.188999995589 1825.0
0.825999975204 -0.423000007868 -0.189999997616 1802.0
0.820999979973 -0.425999999046 -0.188999995589 1815.0
0.819000005722 -0.432000011206 -0.188999995589 1808.0
0.819000005722 -0.437999993563 -0.189999997616 1818.0
0.819999992847 -0.444999992847 -0.190999999642 1797.0
0.819999992847 -0.451999992132 -0.190999999642 1820.0
0.819000005722 -0.458999991417 -0.192000001669 1846.0
0.816999971867 -0.463999986649 -0.192000001669 1826.0
1.24500000477 0.728999972343 -0.310000002384 380.0
1.6970000267 0.980000019073 -0.421000003815 481.0
1.71000003815 0.972999989986 -0.423000007868 475.0
1.73199999332 0.971000015736 -0.426999986172 253.0
1.77300000191 0.980000019073 -0.43599998951 218.0
1.78999996185 0.973999977112 -0.437999993563 211.0
2.02200007439 1.08399999142 -0.493999987841 191.0
2.09999990463 1.10899996758 -0.512000024319 193.0
2.06500005722 1.07400000095 -0.500999987125 222.0
2.0759999752 1.06400001049 -0.503000020981 254.0
2.08200001717 1.04999995232 -0.503000020981 265.0
2.08299994469 1.0340000391 -0.500999987125 220.0
2.08800005913 1.02100002766 -0.500999987125 265.0
2.08500003815 1.00300002098 -0.499000012875 321.0
2.10299992561 0.995999991894 -0.501999974251 190.0
2.13800001144 0.995999991894 -0.509000003338 125.0
2.20000004768 1.00899994373 -0.522000014782 184.0
2.20199990273 0.992999970913 -0.522000014782 340.0
2.23399996758 0.990999996662 -0.527999997139 215.0
2.24300003052 0.977999985218 -0.528999984264 112.0
3.2650001049 1.0379999876 -0.742999970913 127.0
3.27600002289 1.01999998093 -0.744000017643 92.0
0.879999995232 -0.111000001431 -0.190999999642 842.0
0.884000003338 -0.115999996662 -0.192000001669 1577.0
0.879999995232 -0.120999999344 -0.190999999642 1559.0
0.882000029087 -0.127000004053 -0.192000001669 1661.0
0.879000008106 -0.130999997258 -0.190999999642 1648.0
0.878000020981 -0.136999994516 -0.190999999642 1632.0
0.878000020981 -0.142000004649 -0.190999999642 1643.0
0.879000008106 -0.146999999881 -0.192000001669 1643.0
0.873000025749 -0.151999995112 -0.189999997616 1635.0
0.875 -0.157000005245 -0.190999999642 1631.0
0.870999991894 -0.162000000477 -0.189999997616 1674.0
0.874000012875 -0.167999997735 -0.190999999642 1685.0
0.873000025749 -0.172999992967 -0.190999999642 1677.0
0.870000004768 -0.178000003099 -0.190999999642 1662.0
0.867999970913 -0.181999996305 -0.189999997616 1704.0
0.866999983788 -0.187999993563 -0.189999997616 1729.0
0.874000012875 -0.194999992847 -0.192000001669 1715.0
0.865999996662 -0.197999998927 -0.190999999642 1696.0
0.867999970913 -0.203999996185 -0.190999999642 1683.0
0.864000022411 -0.208000004292 -0.189999997616 1696.0
0.865999996662 -0.21400000155 -0.190999999642 1698.0
0.870000004768 -0.221000000834 -0.192000001669 1663.0
0.869000017643 -0.225999996066 -0.192000001669 1684.0
0.861999988556 -0.230000004172 -0.190999999642 1695.0
0.860000014305 -0.234999999404 -0.190999999642 1695.0
0.85900002718 -0.239999994636 -0.190999999642 1709.0
0.856000006199 -0.244000002742 -0.189999997616 1706.0
0.85799998045 -0.250999987125 -0.190999999642 1708.0
0.856000006199 -0.256000012159 -0.190999999642 1721.0
0.852999985218 -0.259999990463 -0.189999997616 1735.0
0.852999985218 -0.266000002623 -0.190999999642 1768.0
0.847999989986 -0.270000010729 -0.189999997616 1779.0
0.851000010967 -0.277000010014 -0.190999999642 1780.0
0.856000006199 -0.284000009298 -0.192000001669 1783.0
0.846000015736 -0.286000013351 -0.189999997616 1775.0
0.847999989986 -0.293000012636 -0.190999999642 1799.0
0.848999977112 -0.298999994993 -0.192000001669 1792.0
0.846000015736 -0.303000003099 -0.190999999642 1785.0
0.848999977112 -0.310000002384 -0.192000001669 1786.0
0.841000020504 -0.312999993563 -0.190999999642 1790.0
0.84399998188 -0.319999992847 -0.192000001669 1777.0
0.84500002861 -0.326000005007 -0.192000001669 1770.0
0.841000020504 -0.330000013113 -0.192000001669 1773.0
0.842000007629 -0.337000012398 -0.193000003695 1761.0
0.833000004292 -0.338999986649 -0.190999999642 1766.0
0.841000020504 -0.349000006914 -0.193000003695 1763.0
0.837999999523 -0.352999985218 -0.193000003695 1756.0
0.836000025272 -0.358999997377 -0.193000003695 1772.0
0.833999991417 -0.363999992609 -0.193000003695 1791.0
0.833000004292 -0.370000004768 -0.193000003695 1761.0
0.829999983311 -0.374000012875 -0.193000003695 1754.0
0.832000017166 -0.381000012159 -0.194000005722 1777.0
0.827000021935 -0.384999990463 -0.193000003695 1765.0
0.833000004292 -0.393999993801 -0.194999992847 1772.0
0.828999996185 -0.398999989033 -0.194000005722 1782.0
0.824999988079 -0.402999997139 -0.194000005722 1787.0
0.82800000906 -0.411000013351 -0.194999992847 1778.0
0.820999979973 -0.41400000453 -0.194000005722 1771.0
0.822000026703 -0.421000003815 -0.194999992847 1779.0
0.818000018597 -0.425000011921 -0.194000005722 1772.0
0.823000013828 -0.433999985456 -0.195999994874 1768.0
0.822000026703 -0.439999997616 -0.195999994874 1783.0
0.819999992847 -0.446000009775 -0.195999994874 1757.0
0.818000018597 -0.451999992132 -0.196999996901 1787.0
0.816999971867 -0.458000004292 -0.196999996901 1804.0
0.811999976635 -0.462000012398 -0.195999994874 1790.0
1.2159999609 0.712999999523 -0.31099998951 391.0
1.69000005722 0.976999998093 -0.430999994278 474.0
1.73399996758 0.987999975681 -0.441000014544 487.0
1.70500004292 0.958000004292 -0.432000011206 273.0
1.79799997807 0.995000004768 -0.453999996185 215.0
1.79799997807 0.980000019073 -0.45300000906 213.0
1.97699999809 1.06099998951 -0.495999991894 195.0
2.05100011826 1.08500003815 -0.513999998569 235.0
2.0759999752 1.08099997044 -0.518000006676 257.0
2.06299996376 1.05799996853 -0.513999998569 192.0
2.03099989891 1.02600002289 -0.504000008106 138.0
2.06900000572 1.02900004387 -0.512000024319 144.0
2.10199999809 1.02900004387 -0.518999993801 253.0
2.08599996567 1.00499999523 -0.513000011444 321.0
2.10199999809 0.996999979019 -0.51599997282 212.0
2.13100004196 0.994000017643 -0.522000014782 127.0
2.17700004578 0.999000012875 -0.53100001812 182.0
2.21399998665 1.0 -0.538999974728 332.0
2.21300005913 0.98299998045 -0.537000000477 215.0
2.21900010109 0.96899998188 -0.537999987602 114.0
3.22199988365 1.02600002289 -0.753000020981 99.0
3.33999991417 1.04100000858 -0.778999984264 85.0
0.884000003338 -0.111000001431 -0.196999996901 877.0
0.885999977589 -0.116999998689 -0.197999998927 1576.0
0.883000016212 -0.122000001371 -0.196999996901 1569.0
0.883000016212 -0.127000004053 -0.196999996901 1626.0
0.880999982357 -0.131999999285 -0.196999996901 1633.0
0.883000016212 -0.137999996543 -0.197999998927 1644.0
0.878000020981 -0.142000004649 -0.196999996901 1650.0
0.875 -0.146999999881 -0.195999994874 1634.0
0.879000008106 -0.152999997139 -0.196999996901 1640.0
0.874000012875 -0.157000005245 -0.195999994874 1644.0
0.870999991894 -0.162000000477 -0.195999994874 1661.0
0.871999979019 -0.166999995708 -0.195999994874 1683.0
0.870000004768 -0.172000005841 -0.195999994874 1671.0
0.870999991894 -0.178000003099 -0.195999994874 1673.0
0.870000004768 -0.182999998331 -0.195999994874 1711.0
0.869000017643 -0.187999993563 -0.195999994874 1712.0
0.867999970913 -0.193000003695 -0.195999994874 1692.0
0.866999983788 -0.199000000954 -0.195999994874 1653.0
0.861999988556 -0.202999994159 -0.194999992847 1684.0
0.866999983788 -0.209000006318 -0.195999994874 1716.0
0.862999975681 -0.21400000155 -0.195999994874 1711.0
0.85900002718 -0.217999994755 -0.194999992847 1685.0
0.860000014305 -0.224000006914 -0.195999994874 1701.0
0.861000001431 -0.230000004172 -0.195999994874 1712.0
0.865999996662 -0.237000003457 -0.197999998927 1704.0
0.856999993324 -0.239999994636 -0.195999994874 1720.0
0.860000014305 -0.246000006795 -0.196999996901 1713.0
0.856000006199 -0.25 -0.195999994874 1702.0
0.855000019073 -0.256000012159 -0.195999994874 1708.0
0.850000023842 -0.259999990463 -0.194999992847 1733.0
0.851000010967 -0.266000002623 -0.195999994874 1736.0
0.851000010967 -0.270999997854 -0.195999994874 1756.0
0.852999985218 -0.277000010014 -0.196999996901 1737.0
0.851000010967 -0.282999992371 -0.196999996901 1746.0
0.855000019073 -0.289999991655 -0.197999998927 1768.0
0.846000015736 -0.291999995708 -0.195999994874 1804.0
0.851000010967 -0.300000011921 -0.197999998927 1784.0
0.846000015736 -0.303999990225 -0.196999996901 1754.0
0.84399998188 -0.308999985456 -0.196999996901 1776.0
0.846000015736 -0.314999997616 -0.196999996901 1791.0
0.84500002861 -0.321000009775 -0.197999998927 1754.0
0.841000020504 -0.324999988079 -0.196999996901 1762.0
0.841000020504 -0.331000000238 -0.196999996901 1763.0
0.842000007629 -0.337999999523 -0.197999998927 1772.0
0.834999978542 -0.340999990702 -0.196999996901 1766.0
0.838999986649 -0.347999989986 -0.197999998927 1761.0
0.832000017166 -0.351000010967 -0.196999996901 1769.0
0.836000025272 -0.358999997377 -0.197999998927 1773.0
0.832000017166 -0.363000005484 -0.197999998927 1772.0
0.836000025272 -0.370999991894 -0.199000000954 1779.0
0.836000025272 -0.377000004053 -0.20000000298 1770.0
0.830999970436 -0.381000012159 -0.199000000954 1779.0
0.833999991417 -0.388999998569 -0.20000000298 1768.0
0.827000021935 -0.391999989748 -0.199000000954 1773.0
0.827000021935 -0.398000001907 -0.199000000954 1766.0
0.830999970436 -0.407000005245 -0.201000005007 1783.0
0.829999983311 -0.412999987602 -0.201000005007 1789.0
0.823000013828 -0.414999991655 -0.20000000298 1769.0
0.816999971867 -0.418999999762 -0.199000000954 1765.0
0.819999992847 -0.426999986172 -0.20000000298 1778.0
0.822000026703 -0.435000002384 -0.201000005007 1774.0
0.820999979973 -0.441000014544 -0.202000007033 1776.0
0.816999971867 -0.444999992847 -0.201000005007 1748.0
0.819000005722 -0.45300000906 -0.202000007033 1793.0
0.818000018597 -0.458999991417 -0.202999994159 1779.0
0.816999971867 -0.465000003576 -0.202999994159 1803.0
1.17999994755 0.693000018597 -0.310000002384 409.0
1.66499996185 0.963999986649 -0.43599998951 453.0
1.72300004959 0.98299998045 -0.449999988079 493.0
1.73899996281 0.977999985218 -0.45300000906 288.0
1.77100002766 0.981000006199 -0.460000008345 220.0
1.81700003147 0.991999983788 -0.469999998808 216.0
1.90699994564 1.02499997616 -0.49200001359 177.0
2.02399992943 1.0720000267 -0.521000027657 141.0
2.06399989128 1.07700002193 -0.52999997139 149.0
1.92200005054 0.986999988556 -0.490999996662 77.0
2.04099988937 1.03199994564 -0.521000027657 88.0
2.05900001526 1.02499997616 -0.523999989033 158.0
2.10100007057 1.02999997139 -0.532999992371 231.0
2.08400011063 1.00499999523 -0.527000010014 264.0
2.09200000763 0.992999970913 -0.527999997139 193.0
2.11199998856 0.986999988556 -0.53100001812 120.0
2.19600009918 1.00899994373 -0.550999999046 130.0
2.18799996376 0.989000022411 -0.54699999094 301.0
2.21900010109 0.986999988556 -0.554000020027 228.0
2.25 0.98400002718 -0.560000002384 107.0
0.882000029087 -0.111000001431 -0.202000007033 931.0
0.884000003338 -0.116999998689 -0.202999994159 1575.0
0.883000016212 -0.122000001371 -0.202999994159 1551.0
0.879000008106 -0.127000004053 -0.202000007033 1609.0
0.879999995232 -0.131999999285 -0.202000007033 1627.0
0.878000020981 -0.136999994516 -0.202000007033 1612.0
0.879000008106 -0.142000004649 -0.202000007033 1630.0
0.875999987125 -0.146999999881 -0.202000007033 1668.0
0.875999987125 -0.151999995112 -0.202000007033 1656.0
0.871999979019 -0.157000005245 -0.201000005007 1638.0
0.871999979019 -0.162000000477 -0.201000005007 1668.0
0.870999991894 -0.167999997735 -0.201000005007 1699.0
0.870000004768 -0.172999992967 -0.201000005007 1688.0
0.870000004768 -0.178000003099 -0.201000005007 1690.0
0.867999970913 -0.182999998331 -0.201000005007 1709.0
0.870000004768 -0.188999995589 -0.202000007033 1715.0
0.865000009537 -0.193000003695 -0.201000005007 1705.0
0.864000022411 -0.197999998927 -0.201000005007 1698.0
0.862999975681 -0.202999994159 -0.201000005007 1703.0
0.866999983788 -0.209999993443 -0.202000007033 1702.0
0.864000022411 -0.21400000155 -0.201000005007 1703.0
0.861000001431 -0.218999996781 -0.201000005007 1691.0
0.867999970913 -0.225999996066 -0.202999994159 1706.0
0.861000001431 -0.230000004172 -0.202000007033 1719.0
0.860000014305 -0.234999999404 -0.202000007033 1727.0
0.860000014305 -0.240999996662 -0.202000007033 1726.0
0.856000006199 -0.245000004768 -0.201000005007 1703.0
0.853999972343 -0.25 -0.201000005007 1717.0
0.853999972343 -0.256000012159 -0.201000005007 1710.0
0.851000010967 -0.259999990463 -0.201000005007 1724.0
0.852999985218 -0.266999989748 -0.202000007033 1735.0
0.855000019073 -0.273000001907 -0.202000007033 1735.0
0.850000023842 -0.277000010014 -0.202000007033 1706.0
0.847999989986 -0.282000005245 -0.201000005007 1729.0
0.847000002861 -0.287000000477 -0.201000005007 1762.0
0.848999977112 -0.293999999762 -0.202000007033 1781.0
0.852999985218 -0.300999999046 -0.203999996185 1767.0
0.850000023842 -0.305999994278 -0.202999994159 1773.0
0.84399998188 -0.308999985456 -0.202000007033 1792.0
0.847999989986 -0.316000014544 -0.202999994159 1773.0
0.841000020504 -0.319999992847 -0.202000007033 1786.0
0.842999994755 -0.326000005007 -0.202999994159 1750.0
0.837999999523 -0.331000000238 -0.202000007033 1774.0
0.839999973774 -0.337000012398 -0.202999994159 1774.0
0.842000007629 -0.344000011683 -0.203999996185 1771.0
0.837000012398 -0.347999989986 -0.202999994159 1776.0
0.836000025272 -0.354000002146 -0.202999994159 1781.0
0.833000004292 -0.358000010252 -0.202999994159 1785.0
0.832000017166 -0.363999992609 -0.202999994159 1773.0
0.834999978542 -0.370999991894 -0.204999998212 1775.0
0.829999983311 -0.375 -0.203999996185 1764.0
0.833000004292 -0.38299998641 -0.204999998212 1772.0
0.832000017166 -0.388999998569 -0.204999998212 1775.0
0.82800000906 -0.393000006676 -0.204999998212 1756.0
0.829999983311 -0.400999993086 -0.206000000238 1778.0
0.828999996185 -0.405999988317 -0.206000000238 1767.0
0.82800000906 -0.412000000477 -0.206000000238 1768.0
0.827000021935 -0.418000012636 -0.207000002265 1763.0
0.819999992847 -0.421000003815 -0.204999998212 1744.0
0.819000005722 -0.426999986172 -0.206000000238 1774.0
0.824000000954 -0.43599998951 -0.207000002265 1773.0
0.813000023365 -0.437000006437 -0.204999998212 1765.0
0.814999997616 -0.444999992847 -0.206000000238 1737.0
0.820999979973 -0.455000013113 -0.208000004292 1789.0
0.813000023365 -0.456999987364 -0.207000002265 1760.0
0.816999971867 -0.465999990702 -0.209000006318 1777.0
1.15199995041 0.676999986172 -0.31099998951 417.0
1.64800000191 0.955999970436 -0.444000005722 449.0
1.71399998665 0.978999972343 -0.460000008345 506.0
1.74899995327 0.985000014305 -0.467999994755 305.0
1.78100001812 0.987999975681 -0.47499999404 214.0
1.8029999733 0.985000014305 -0.479000002146 213.0
1.85399997234 0.998000025749 -0.490999996662 140.0
1.82500004768 0.967999994755 -0.481999993324 77.0
1.89100003242 0.972999989986 -0.497000008821 83.0
1.98000001907 0.986999988556 -0.51700001955 87.0
2.09999990463 1.02999997139 -0.54699999094 122.0
2.05100011826 0.990999996662 -0.532999992371 147.0
2.08999991417 0.992999970913 -0.541000008583 141.0
2.06299996376 0.964999973774 -0.532999992371 122.0
2.09599995613 0.964999973774 -0.540000021458 117.0
2.1970000267 0.995000004768 -0.564999997616 232.0
2.23399996758 0.995000004768 -0.573000013828 229.0
2.23200011253 0.976999998093 -0.570999979973 122.0
0.880999982357 -0.111000001431 -0.208000004292 990.0
0.882000029087 -0.116999998689 -0.208000004292 1588.0
0.878000020981 -0.120999999344 -0.207000002265 1589.0
0.879000008106 -0.127000004053 -0.207000002265 1614.0
0.878000020981 -0.131999999285 -0.207000002265 1612.0
0.880999982357 -0.137999996543 -0.208000004292 1621.0
0.875999987125 -0.142000004649 -0.207000002265 1640.0
0.879000008106 -0.148000001907 -0.208000004292 1647.0
0.878000020981 -0.152999997139 -0.208000004292 1638.0
0.871999979019 -0.157000005245 -0.207000002265 1645.0
0.871999979019 -0.163000002503 -0.207000002265 1643.0
0.869000017643 -0.166999995708 -0.206000000238 1681.0
0.870999991894 -0.172999992967 -0.207000002265 1687.0
0.871999979019 -0.179000005126 -0.207000002265 1689.0
0.870999991894 -0.184000000358 -0.207000002265 1695.0
0.873000025749 -0.189999997616 -0.208000004292 1711.0
0.870000004768 -0.194000005722 -0.208000004292 1706.0
0.867999970913 -0.199000000954 -0.207000002265 1704.0
0.864000022411 -0.203999996185 -0.207000002265 1684.0
0.869000017643 -0.209999993443 -0.208000004292 1703.0
0.864000022411 -0.215000003576 -0.207000002265 1707.0
0.865000009537 -0.219999998808 -0.207000002265 1689.0
0.856999993324 -0.224000006914 -0.206000000238 1705.0
0.856999993324 -0.229000002146 -0.206000000238 1723.0
0.85900002718 -0.234999999404 -0.207000002265 1714.0
0.85799998045 -0.240999996662 -0.207000002265 1722.0
0.855000019073 -0.245000004768 -0.206000000238 1711.0
0.85799998045 -0.252000004053 -0.207000002265 1735.0
0.851000010967 -0.254999995232 -0.206000000238 1725.0
0.851000010967 -0.261000007391 -0.206000000238 1714.0
0.851999998093 -0.266999989748 -0.207000002265 1744.0
0.851999998093 -0.272000014782 -0.207000002265 1744.0
0.852999985218 -0.277999997139 -0.208000004292 1732.0
0.850000023842 -0.282999992371 -0.207000002265 1743.0
0.851000010967 -0.28900000453 -0.208000004292 1740.0
0.847000002861 -0.293000012636 -0.207000002265 1761.0
0.847000002861 -0.298999994993 -0.207000002265 1751.0
0.850000023842 -0.305999994278 -0.209000006318 1741.0
0.847000002861 -0.31099998951 -0.208000004292 1748.0
0.842999994755 -0.314999997616 -0.208000004292 1776.0
0.84500002861 -0.321999996901 -0.209000006318 1760.0
0.842000007629 -0.326999992132 -0.208000004292 1764.0
0.842999994755 -0.333000004292 -0.209000006318 1765.0
0.837000012398 -0.33599999547 -0.208000004292 1771.0
0.838999986649 -0.342999994755 -0.209000006318 1775.0
0.837000012398 -0.347999989986 -0.209000006318 1772.0
0.837999999523 -0.354999989271 -0.209000006318 1778.0
0.837000012398 -0.361000001431 -0.209999993443 1780.0
0.837999999523 -0.36700001359 -0.209999993443 1771.0
0.830999970436 -0.370000004768 -0.209000006318 1754.0
0.833999991417 -0.377999991179 -0.209999993443 1754.0
0.828999996185 -0.381000012159 -0.209999993443 1757.0
0.82800000906 -0.386999994516 -0.209999993443 1762.0
0.82800000906 -0.393000006676 -0.209999993443 1755.0
0.825999975204 -0.398999989033 -0.209999993443 1755.0
0.829999983311 -0.407000005245 -0.211999997497 1765.0
0.825999975204 -0.412000000477 -0.21099999547 1740.0
0.824999988079 -0.418000012636 -0.211999997497 1753.0
0.825999975204 -0.425000011921 -0.212999999523 1743.0
0.822000026703 -0.428999990225 -0.211999997497 1756.0
0.823000013828 -0.43599998951 -0.212999999523 1774.0
0.819000005722 -0.441000014544 -0.211999997497 1741.0
0.819000005722 -0.448000013828 -0.212999999523 1738.0
0.815999984741 -0.45300000906 -0.212999999523 1770.0
0.81400001049 -0.458000004292 -0.212999999523 1761.0
0.813000023365 -0.463999986649 -0.212999999523 1744.0
1.14400005341 0.674000024796 -0.317000001669 427.0
1.60599994659 0.933000028133 -0.444000005722 436.0
1.70000004768 0.972999989986 -0.467999994755 516.0
1.71000003815 0.963999986649 -0.469999998808 327.0
1.78600001335 0.991999983788 -0.488999992609 229.0
1.79100000858 0.980000019073 -0.488999992609 213.0
1.80499994755 0.972999989986 -0.490999996662 147.0
1.93400001526 0.964999973774 -0.518000006676 89.0
1.97699999809 0.971000015736 -0.527999997139 110.0
1.97800004482 0.957000017166 -0.527000010014 137.0
1.99300003052 0.949000000954 -0.52999997139 131.0
2.06200003624 0.966000020504 -0.54699999094 123.0
2.13499999046 0.98400002718 -0.56400001049 150.0
2.20199990273 0.998000025749 -0.580999970436 293.0
2.21399998665 0.986999988556 -0.582000017166 250.0
2.24799990654 0.986000001431 -0.589999973774 122.0
0.880999982357 -0.111000001431 -0.212999999523 1013.0
0.884999990463 -0.116999998689 -0.21400000155 1532.0
0.879999995232 -0.122000001371 -0.212999999523 1550.0
0.879000008106 -0.127000004053 -0.212999999523 1602.0
0.882000029087 -0.133000001311 -0.21400000155 1605.0
0.875999987125 -0.136999994516 -0.211999997497 1611.0
0.876999974251 -0.142000004649 -0.212999999523 1631.0
0.875999987125 -0.148000001907 -0.212999999523 1639.0
0.870000004768 -0.151999995112 -0.21099999547 1625.0
0.875 -0.158000007272 -0.212999999523 1643.0
0.873000025749 -0.163000002503 -0.212999999523 1653.0
0.871999979019 -0.167999997735 -0.211999997497 1668.0
0.874000012875 -0.173999994993 -0.212999999523 1682.0
0.866999983788 -0.178000003099 -0.211999997497 1694.0
0.865999996662 -0.182999998331 -0.211999997497 1695.0
0.870999991894 -0.188999995589 -0.212999999523 1692.0
0.865999996662 -0.194000005722 -0.211999997497 1679.0
0.870999991894 -0.20000000298 -0.212999999523 1678.0
0.862999975681 -0.203999996185 -0.211999997497 1693.0
0.864000022411 -0.209999993443 -0.211999997497 1704.0
0.864000022411 -0.215000003576 -0.211999997497 1693.0
0.85900002718 -0.218999996781 -0.21099999547 1670.0
0.860000014305 -0.22499999404 -0.211999997497 1707.0
0.85900002718 -0.230000004172 -0.211999997497 1707.0
0.860000014305 -0.236000001431 -0.212999999523 1708.0
0.856999993324 -0.239999994636 -0.211999997497 1714.0
0.856999993324 -0.246000006795 -0.211999997497 1709.0
0.855000019073 -0.250999987125 -0.211999997497 1714.0
0.856999993324 -0.256999999285 -0.212999999523 1723.0
0.853999972343 -0.261999994516 -0.211999997497 1705.0
0.853999972343 -0.268000006676 -0.212999999523 1726.0
0.851000010967 -0.272000014782 -0.211999997497 1746.0
0.848999977112 -0.277000010014 -0.211999997497 1731.0
0.847999989986 -0.282999992371 -0.211999997497 1754.0
0.851000010967 -0.28900000453 -0.212999999523 1738.0
0.847000002861 -0.293999999762 -0.212999999523 1756.0
0.846000015736 -0.298999994993 -0.212999999523 1746.0
0.850000023842 -0.307000011206 -0.21400000155 1736.0
0.842999994755 -0.310000002384 -0.212999999523 1742.0
0.846000015736 -0.317000001669 -0.21400000155 1769.0
0.838999986649 -0.319999992847 -0.212999999523 1748.0
0.842000007629 -0.326999992132 -0.21400000155 1772.0
0.84399998188 -0.333999991417 -0.215000003576 1773.0
0.842000007629 -0.338999986649 -0.215000003576 1784.0
0.836000025272 -0.342000007629 -0.21400000155 1775.0
0.836000025272 -0.347999989986 -0.21400000155 1761.0
0.836000025272 -0.354000002146 -0.21400000155 1759.0
0.833000004292 -0.358999997377 -0.21400000155 1785.0
0.837000012398 -0.36700001359 -0.216000005603 1770.0
0.834999978542 -0.372000008821 -0.216000005603 1760.0
0.832000017166 -0.377000004053 -0.216000005603 1756.0
0.833999991417 -0.384000003338 -0.216000005603 1763.0
0.828999996185 -0.388000011444 -0.216000005603 1771.0
0.828999996185 -0.395000010729 -0.216000005603 1767.0
0.82800000906 -0.40000000596 -0.216000005603 1764.0
0.824000000954 -0.405000001192 -0.216000005603 1772.0
0.819999992847 -0.409000009298 -0.215000003576 1752.0
0.823000013828 -0.416999995708 -0.216999992728 1774.0
0.819000005722 -0.42199999094 -0.216000005603 1757.0
0.815999984741 -0.426999986172 -0.216000005603 1757.0
0.818000018597 -0.435000002384 -0.216999992728 1760.0
0.818000018597 -0.441000014544 -0.217999994755 1734.0
0.822000026703 -0.449999988079 -0.219999998808 1726.0
0.814999997616 -0.45300000906 -0.217999994755 1761.0
0.819000005722 -0.462000012398 -0.219999998808 1767.0
0.811999976635 -0.465000003576 -0.218999996781 1746.0
1.12399995327 0.662999987602 -0.319000005722 438.0
1.56900000572 0.912000000477 -0.444999992847 420.0
1.7009999752 0.975000023842 -0.481000006199 513.0
1.71500003338 0.96899998188 -0.483000010252 343.0
1.75999999046 0.978999972343 -0.493999987841 222.0
1.79700005054 0.985000014305 -0.503000020981 236.0
1.83200001717 0.989000022411 -0.510999977589 159.0
1.79499995708 0.954999983311 -0.499000012875 80.0
1.87399995327 0.981000006199 -0.518999993801 78.0
1.82500004768 0.940999984741 -0.504999995232 102.0
1.86600005627 0.947000026703 -0.513999998569 91.0
1.91700005531 0.958000004292 -0.527000010014 119.0
1.96899998188 0.96899998188 -0.540000021458 137.0
1.98199999332 0.959999978542 -0.541999995708 149.0
2.02399992943 0.964999973774 -0.551999986172 125.0
2.10700011253 0.987999975681 -0.573000013828 134.0
2.19400000572 1.01199996471 -0.59500002861 163.0
2.19499993324 0.995999991894 -0.59399998188 304.0
2.23200011253 0.995999991894 -0.601999998093 283.0
2.25200009346 0.989000022411 -0.606000006199 126.0
0.879000008106 -0.111000001431 -0.217999994755 1070.0
0.878000020981 -0.115999996662 -0.217999994755 1492.0
0.884000003338 -0.123000003397 -0.219999998808 1502.0
0.883000016212 -0.12800000608 -0.218999996781 1587.0
0.875999987125 -0.131999999285 -0.217999994755 1584.0
0.878000020981 -0.136999994516 -0.217999994755 1598.0
0.879999995232 -0.143000006676 -0.218999996781 1612.0
0.878000020981 -0.148000001907 -0.218999996781 1628.0
0.875999987125 -0.152999997139 -0.217999994755 1633.0
0.871999979019 -0.158000007272 -0.216999992728 1634.0
0.874000012875 -0.163000002503 -0.217999994755 1645.0
0.870999991894 -0.167999997735 -0.217999994755 1673.0
0.874000012875 -0.173999994993 -0.218999996781 1681.0
0.865999996662 -0.178000003099 -0.216999992728 1662.0
0.871999979019 -0.184000000358 -0.217999994755 1670.0
0.864000022411 -0.187999993563 -0.216999992728 1697.0
0.865000009537 -0.194000005722 -0.216999992728 1696.0
0.865000009537 -0.199000000954 -0.217999994755 1687.0
0.860000014305 -0.202999994159 -0.216000005603 1692.0
0.861999988556 -0.209000006318 -0.216999992728 1671.0
0.861000001431 -0.215000003576 -0.216999992728 1682.0
0.861000001431 -0.219999998808 -0.216999992728 1689.0
0.862999975681 -0.225999996066 -0.217999994755 1689.0
0.861999988556 -0.231000006199 -0.217999994755 1704.0
0.856999993324 -0.234999999404 -0.216999992728 1704.0
0.860000014305 -0.241999998689 -0.217999994755 1708.0
0.860000014305 -0.24699999392 -0.217999994755 1715.0
0.856000006199 -0.252000004053 -0.217999994755 1720.0
0.856000006199 -0.256999999285 -0.217999994755 1719.0
0.855000019073 -0.263000011444 -0.217999994755 1711.0
0.856999993324 -0.268999993801 -0.218999996781 1724.0
0.851000010967 -0.273000001907 -0.217999994755 1741.0
0.84399998188 -0.275999993086 -0.216000005603 1740.0
0.856000006199 -0.286000013351 -0.219999998808 1755.0
0.851000010967 -0.289999991655 -0.218999996781 1739.0
0.846000015736 -0.293999999762 -0.217999994755 1755.0
0.848999977112 -0.300999999046 -0.218999996781 1733.0
0.84399998188 -0.305000007153 -0.217999994755 1734.0
0.847000002861 -0.312000006437 -0.218999996781 1743.0
0.841000020504 -0.314999997616 -0.217999994755 1761.0
0.84500002861 -0.321999996901 -0.219999998808 1761.0
0.837000012398 -0.324999988079 -0.217999994755 1767.0
0.839999973774 -0.331999987364 -0.218999996781 1775.0
0.842000007629 -0.338999986649 -0.219999998808 1789.0
0.836000025272 -0.342999994755 -0.218999996781 1797.0
0.836000025272 -0.349000006914 -0.219999998808 1768.0
0.839999973774 -0.356999993324 -0.221000000834 1757.0
0.834999978542 -0.361000001431 -0.219999998808 1770.0
0.830999970436 -0.365000009537 -0.219999998808 1760.0
0.837999999523 -0.374000012875 -0.222000002861 1758.0
0.830999970436 -0.377999991179 -0.221000000834 1735.0
0.829999983311 -0.38299998641 -0.221000000834 1751.0
0.82800000906 -0.388999998569 -0.221000000834 1759.0
0.834999978542 -0.398000001907 -0.224000006914 1767.0
0.82800000906 -0.400999993086 -0.222000002861 1757.0
0.824000000954 -0.405000001192 -0.222000002861 1769.0
0.82800000906 -0.41400000453 -0.223000004888 1791.0
0.830999970436 -0.42199999094 -0.22499999404 1766.0
0.823000013828 -0.423999994993 -0.223000004888 1759.0
0.820999979973 -0.430000007153 -0.223000004888 1780.0
0.815999984741 -0.433999985456 -0.222000002861 1752.0
0.81400001049 -0.439999997616 -0.223000004888 1763.0
0.814999997616 -0.446999996901 -0.223000004888 1731.0
0.819999992847 -0.456000000238 -0.22499999404 1756.0
0.813000023365 -0.458999991417 -0.224000006914 1773.0
0.810000002384 -0.463999986649 -0.224000006914 1771.0
1.11899995804 0.661000013351 -0.326000005007 458.0
1.50999999046 0.879999995232 -0.43900001049 388.0
1.7159999609 0.985000014305 -0.497000008821 508.0
1.7120000124 0.967999994755 -0.493999987841 371.0
1.77499997616 0.989000022411 -0.510999977589 237.0
1.8029999733 0.990000009537 -0.51700001955 241.0
1.80900001526 0.977999985218 -0.51700001955 196.0
1.77999997139 0.948000013828 -0.508000016212 84.0
1.84700000286 0.96899998188 -0.524999976158 94.0
1.87699997425 0.96899998188 -0.532000005245 114.0
1.89900004864 0.966000020504 -0.537000000477 140.0
1.9090000391 0.955999970436 -0.537999987602 152.0
1.94000005722 0.955999970436 -0.545000016689 144.0
2.02300000191 0.981000006199 -0.566999971867 133.0
2.0720000267 0.989000022411 -0.578999996185 120.0
2.10599994659 0.989000022411 -0.587000012398 127.0
2.16700005531 1.00100004673 -0.601999998093 153.0
2.21799993515 1.00800001621 -0.615000009537 295.0
2.22600007057 0.995000004768 -0.615999996662 297.0
2.25900006294 0.992999970913 -0.623000025749 141.0
0.938000023365 -0.112999998033 -0.238000005484 87.0
0.875999987125 -0.111000001431 -0.223000004888 1121.0
0.884000003338 -0.116999998689 -0.22499999404 1507.0
0.882000029087 -0.122000001371 -0.22499999404 1538.0
0.878000020981 -0.127000004053 -0.224000006914 1592.0
0.879999995232 -0.133000001311 -0.224000006914 1613.0
0.885999977589 -0.138999998569 -0.225999996066 1604.0
0.875 -0.143000006676 -0.223000004888 1634.0
0.870999991894 -0.146999999881 -0.223000004888 1626.0
0.874000012875 -0.152999997139 -0.223000004888 1629.0
0.874000012875 -0.158000007272 -0.224000006914 1622.0
0.873000025749 -0.16400000453 -0.223000004888 1624.0
0.870000004768 -0.167999997735 -0.223000004888 1674.0
0.870999991894 -0.173999994993 -0.223000004888 1672.0
0.869000017643 -0.179000005126 -0.223000004888 1667.0
0.865000009537 -0.182999998331 -0.222000002861 1699.0
0.871999979019 -0.189999997616 -0.224000006914 1692.0
0.869000017643 -0.194999992847 -0.224000006914 1672.0
0.865999996662 -0.20000000298 -0.223000004888 1681.0
0.865999996662 -0.204999998212 -0.223000004888 1679.0
0.85799998045 -0.209000006318 -0.222000002861 1696.0
0.861000001431 -0.215000003576 -0.223000004888 1690.0
0.856000006199 -0.218999996781 -0.222000002861 1692.0
0.856999993324 -0.22499999404 -0.222000002861 1688.0
0.861999988556 -0.231999993324 -0.224000006914 1694.0
0.860000014305 -0.237000003457 -0.223000004888 1680.0
0.85900002718 -0.241999998689 -0.223000004888 1695.0
0.853999972343 -0.246000006795 -0.222000002861 1698.0
0.855000019073 -0.252000004053 -0.223000004888 1716.0
0.85799998045 -0.259000003338 -0.224000006914 1726.0
0.851000010967 -0.261999994516 -0.223000004888 1710.0
0.851000010967 -0.268000006676 -0.223000004888 1733.0
0.856000006199 -0.27500000596 -0.22499999404 1716.0
0.850000023842 -0.279000014067 -0.224000006914 1701.0
0.847999989986 -0.284000009298 -0.223000004888 1716.0
0.842999994755 -0.287999987602 -0.222000002861 1724.0
0.848999977112 -0.294999986887 -0.224000006914 1745.0
0.846000015736 -0.300000011921 -0.224000006914 1738.0
0.847000002861 -0.305999994278 -0.22499999404 1720.0
0.848999977112 -0.312999993563 -0.225999996066 1743.0
0.846000015736 -0.317999988794 -0.22499999404 1761.0
0.847000002861 -0.324000000954 -0.225999996066 1761.0
0.837999999523 -0.326000005007 -0.224000006914 1768.0
0.834999978542 -0.331000000238 -0.223000004888 1751.0
0.839999973774 -0.338999986649 -0.22499999404 1757.0
0.842000007629 -0.345999985933 -0.225999996066 1782.0
0.834999978542 -0.349000006914 -0.22499999404 1743.0
0.837000012398 -0.356000006199 -0.225999996066 1759.0
0.834999978542 -0.361000001431 -0.225999996066 1778.0
0.830999970436 -0.365999996662 -0.22499999404 1760.0
0.830999970436 -0.372000008821 -0.225999996066 1752.0
0.827000021935 -0.375999987125 -0.22499999404 1756.0
0.828999996185 -0.38299998641 -0.225999996066 1753.0
0.828999996185 -0.388999998569 -0.226999998093 1768.0
0.828999996185 -0.395999997854 -0.226999998093 1750.0
0.827000021935 -0.400999993086 -0.226999998093 1752.0
0.823000013828 -0.405999988317 -0.226999998093 1766.0
0.823000013828 -0.412000000477 -0.228000000119 1766.0
0.822000026703 -0.418000012636 -0.228000000119 1780.0
0.822000026703 -0.425000011921 -0.229000002146 1782.0
0.819000005722 -0.430000007153 -0.228000000119 1771.0
0.814999997616 -0.433999985456 -0.228000000119 1761.0
0.814999997616 -0.441000014544 -0.228000000119 1739.0
0.818000018597 -0.449000000954 -0.230000004172 1741.0
0.816999971867 -0.455000013113 -0.230000004172 1755.0
0.814999997616 -0.46099999547 -0.230000004172 1748.0
0.813000023365 -0.467000007629 -0.231000006199 1766.0
1.11300003529 0.657999992371 -0.331999987364 448.0
1.43200004101 0.834999978542 -0.425999999046 395.0
1.72000002861 0.989000022411 -0.510999977589 510.0
1.72399997711 0.976000010967 -0.509999990463 412.0
1.7539999485 0.978999972343 -0.51700001955 250.0
1.79299998283 0.986000001431 -0.527000010014 297.0
1.80900001526 0.980000019073 -0.52999997139 288.0
1.80499994755 0.962999999523 -0.527000010014 178.0
1.83800005913 0.964999973774 -0.535000026226 144.0
1.83000004292 0.945999979973 -0.53100001812 164.0
1.85800004005 0.945999979973 -0.537999987602 170.0
1.90799999237 0.955999970436 -0.550999999046 153.0
1.97099995613 0.972999989986 -0.568000018597 133.0
2.01099991798 0.976999998093 -0.577000021935 129.0
2.08100008965 0.995000004768 -0.596000015736 114.0
2.0720000267 0.975000023842 -0.592000007629 132.0
2.19600009918 1.01600003242 -0.625999987125 146.0
2.20000004768 1.00100004673 -0.625 289.0
2.21799993515 0.992999970913 -0.629000008106 312.0
2.24000000954 0.986000001431 -0.633000016212 142.0
0.907000005245 -0.109999999404 -0.236000001431 115.0
0.884000003338 -0.112000003457 -0.230000004172 1170.0
0.880999982357 -0.116999998689 -0.230000004172 1528.0
0.875999987125 -0.122000001371 -0.229000002146 1557.0
0.880999982357 -0.12800000608 -0.230000004172 1601.0
0.876999974251 -0.133000001311 -0.229000002146 1605.0
0.875999987125 -0.137999996543 -0.229000002146 1609.0
0.879999995232 -0.143999993801 -0.230000004172 1646.0
0.875 -0.148000001907 -0.229000002146 1641.0
0.873000025749 -0.152999997139 -0.229000002146 1650.0
0.870999991894 -0.158000007272 -0.228000000119 1639.0
0.869000017643 -0.163000002503 -0.228000000119 1636.0
0.870000004768 -0.167999997735 -0.228000000119 1667.0
0.867999970913 -0.173999994993 -0.228000000119 1680.0
0.869000017643 -0.179000005126 -0.228000000119 1673.0
0.874000012875 -0.185000002384 -0.230000004172 1688.0
0.865000009537 -0.188999995589 -0.228000000119 1703.0
0.865000009537 -0.194000005722 -0.228000000119 1680.0
0.862999975681 -0.199000000954 -0.228000000119 1673.0
0.861000001431 -0.203999996185 -0.228000000119 1686.0
0.860000014305 -0.209000006318 -0.228000000119 1691.0
0.861999988556 -0.215000003576 -0.228000000119 1688.0
0.864000022411 -0.222000002861 -0.229000002146 1672.0
0.855000019073 -0.22499999404 -0.226999998093 1697.0
0.860000014305 -0.231000006199 -0.229000002146 1689.0
0.85799998045 -0.236000001431 -0.228000000119 1689.0
0.85799998045 -0.241999998689 -0.229000002146 1676.0
0.851999998093 -0.246000006795 -0.228000000119 1685.0
0.855000019073 -0.252000004053 -0.229000002146 1695.0
0.850000023842 -0.256000012159 -0.228000000119 1704.0
0.856999993324 -0.263999998569 -0.230000004172 1705.0
0.850000023842 -0.268000006676 -0.228000000119 1732.0
0.852999985218 -0.273999989033 -0.230000004172 1725.0
0.852999985218 -0.280000001192 -0.230000004172 1691.0
0.848999977112 -0.284000009298 -0.229000002146 1705.0
0.847999989986 -0.289999991655 -0.229000002146 1704.0
0.851000010967 -0.296000003815 -0.230000004172 1742.0
0.842000007629 -0.298999994993 -0.228000000119 1741.0
0.846000015736 -0.305999994278 -0.230000004172 1717.0
0.847999989986 -0.312999993563 -0.231000006199 1719.0
0.84399998188 -0.317999988794 -0.230000004172 1755.0
0.836000025272 -0.319999992847 -0.228000000119 1757.0
0.841000020504 -0.32800000906 -0.230000004172 1753.0
0.841000020504 -0.333999991417 -0.231000006199 1757.0
0.836000025272 -0.337999999523 -0.230000004172 1756.0
0.837000012398 -0.344000011683 -0.231000006199 1745.0
0.837000012398 -0.34999999404 -0.231000006199 1732.0
0.836000025272 -0.356000006199 -0.231000006199 1728.0
0.833000004292 -0.361000001431 -0.231000006199 1749.0
0.832000017166 -0.36700001359 -0.231000006199 1745.0
0.830999970436 -0.372000008821 -0.231999993324 1763.0
0.829999983311 -0.377999991179 -0.231999993324 1751.0
0.824999988079 -0.381999999285 -0.231000006199 1760.0
0.824999988079 -0.388000011444 -0.231000006199 1773.0
0.825999975204 -0.395000010729 -0.231999993324 1747.0
0.823000013828 -0.40000000596 -0.231999993324 1745.0
0.820999979973 -0.405999988317 -0.231999993324 1762.0
0.820999979973 -0.412000000477 -0.232999995351 1764.0
0.827000021935 -0.421000003815 -0.234999999404 1761.0
0.820999979973 -0.425000011921 -0.233999997377 1750.0
0.814999997616 -0.428000003099 -0.232999995351 1744.0
0.819999992847 -0.437999993563 -0.234999999404 1743.0
0.816999971867 -0.442999988794 -0.234999999404 1714.0
0.819000005722 -0.451000005007 -0.236000001431 1693.0
0.813000023365 -0.453999996185 -0.234999999404 1737.0
0.813000023365 -0.46099999547 -0.236000001431 1742.0
0.814999997616 -0.469000011683 -0.237000003457 1758.0
1.11600005627 0.661000013351 -0.340999990702 466.0
1.3710000515 0.800999999046 -0.418000012636 377.0
1.70500004292 0.981999993324 -0.518000006676 509.0
1.7159999609 0.973999977112 -0.519999980927 452.0
1.77799999714 0.994000017643 -0.537000000477 275.0
1.79499995708 0.987999975681 -0.540000021458 370.0
1.81099998951 0.981999993324 -0.544000029564 442.0
1.8029999733 0.962999999523 -0.538999974728 340.0
1.82799994946 0.961000025272 -0.545000016689 186.0
1.8710000515 0.96899998188 -0.555999994278 164.0
1.93200004101 0.985000014305 -0.573000013828 165.0
1.99699997902 1.00300002098 -0.591000020504 145.0
1.97300004959 0.975000023842 -0.582000017166 128.0
2.03500008583 0.990000009537 -0.597999989986 140.0
2.0490000248 0.981000006199 -0.601000010967 141.0
2.12299990654 1.0 -0.620999991894 121.0
2.18000006676 1.00999999046 -0.635999977589 133.0
2.20499992371 1.00499999523 -0.64200001955 270.0
2.23300004005 1.00100004673 -0.648000001907 317.0
2.24699997902 0.990999996662 -0.651000022888 159.0
0.880999982357 -0.112000003457 -0.234999999404 1206.0
0.888000011444 -0.118000000715 -0.237000003457 1524.0
0.879999995232 -0.122000001371 -0.234999999404 1563.0
0.883000016212 -0.12800000608 -0.236000001431 1616.0
0.875999987125 -0.133000001311 -0.233999997377 1621.0
0.875 -0.137999996543 -0.233999997377 1615.0
0.870999991894 -0.142000004649 -0.232999995351 1635.0
0.875999987125 -0.149000003934 -0.234999999404 1654.0
0.874000012875 -0.153999999166 -0.234999999404 1648.0
0.874000012875 -0.158999994397 -0.234999999404 1635.0
0.874000012875 -0.16400000453 -0.234999999404 1635.0
0.867999970913 -0.167999997735 -0.232999995351 1667.0
0.871999979019 -0.17499999702 -0.234999999404 1677.0
0.869000017643 -0.179000005126 -0.233999997377 1663.0
0.869000017643 -0.185000002384 -0.233999997377 1680.0
0.866999983788 -0.189999997616 -0.233999997377 1690.0
0.865999996662 -0.194999992847 -0.233999997377 1667.0
0.864000022411 -0.20000000298 -0.233999997377 1674.0
0.865000009537 -0.206000000238 -0.233999997377 1689.0
0.865999996662 -0.21099999547 -0.234999999404 1708.0
0.862999975681 -0.216000005603 -0.233999997377 1677.0
0.860000014305 -0.221000000834 -0.233999997377 1675.0
0.861999988556 -0.226999998093 -0.234999999404 1700.0
0.85799998045 -0.231000006199 -0.233999997377 1689.0
0.85799998045 -0.237000003457 -0.233999997377 1692.0
0.85900002718 -0.243000000715 -0.234999999404 1686.0
0.851000010967 -0.246000006795 -0.232999995351 1680.0
0.855000019073 -0.252000004053 -0.233999997377 1698.0
0.851000010967 -0.256999999285 -0.232999995351 1700.0
0.855000019073 -0.263999998569 -0.234999999404 1698.0
0.851999998093 -0.268999993801 -0.233999997377 1719.0
0.846000015736 -0.273000001907 -0.232999995351 1737.0
0.848999977112 -0.279000014067 -0.233999997377 1704.0
0.851000010967 -0.284999996424 -0.234999999404 1707.0
0.84500002861 -0.28900000453 -0.233999997377 1701.0
0.847000002861 -0.296000003815 -0.234999999404 1733.0
0.842000007629 -0.300000011921 -0.233999997377 1735.0
0.846000015736 -0.307000011206 -0.234999999404 1724.0
0.84399998188 -0.312000006437 -0.234999999404 1715.0
